# .PCD v0.7 - Point Cloud Data file format
VERSION 0.7
FIELDS x y z intensity normal_x normal_y normal_z curvature
SIZE 4 4 4 4 4 4 4 4
TYPE F F F F F F F F
COUNT 1 1 1 1 1 1 1 1
WIDTH 1049
HEIGHT 1
VIEWPOINT 0 0 0 1 0 0 0
POINTS 1049
DATA ascii
3.3729999 0.21699999 0.068000004 156 0 0 0 0.030200001
3.3770001 0.228 0.071999997 156 0 0 0 0.03021
3.3759999 0.23800001 0.075999998 156 0 0 0 0.03022
3.3740001 0.249 0.079000004 155 0 0 0 0.030230001
3.375 0.259 0.082999997 155 0 0 0 0.030239999
3.3759999 0.26899999 0.086000003 155 0 0 0 0.03025
3.3740001 0.28 0.090000004 155 0 0 0 0.03026
3.3759999 0.28999999 0.093999997 154 0 0 0 0.030270001
3.375 0.30000001 0.097000003 154 0 0 0 0.03028
3.385 0.31200001 0.101 154 0 0 0 0.03029
3.3829999 0.322 0.105 154 0 0 0 0.030300001
3.3859999 0.333 0.109 154 0 0 0 0.030309999
3.388 0.34299999 0.113 153 0 0 0 0.03032
3.392 0.354 0.116 153 0 0 0 0.03033
3.3970001 0.36500001 0.12 153 0 0 0 0.030339999
3.4030001 0.37599999 0.124 152 0 0 0 0.03035
3.3970001 0.38600001 0.12800001 152 0 0 0 0.03036
3.395 0.396 0.132 152 0 0 0 0.030370001
3.3940001 0.40599999 0.13600001 152 0 0 0 0.030379999
3.3900001 0.41600001 0.14 152 0 0 0 0.03039
3.3900001 0.42699999 0.14300001 151 0 0 0 0.030400001
3.388 0.43700001 0.147 151 0 0 0 0.030409999
3.392 0.44800001 0.15099999 150 0 0 0 0.03042
3.385 0.45699999 0.155 151 0 0 0 0.03043
3.3859999 0.46700001 0.15899999 150 0 0 0 0.030440001
3.378 0.477 0.163 46 0 0 0 0.030449999
3.369 0.486 0.16599999 22 0 0 0 0.03046
3.368 0.49599999 0.17 9 0 0 0 0.030470001
3.3889999 0.509 0.176 151 0 0 0 0.030479999
3.3670001 0.51599997 0.17900001 150 0 0 0 0.03049
3.323 0.51999998 0.18000001 151 0 0 0 0.0305
3.3180001 0.52899998 0.184 151 0 0 0 0.030510001
3.312 0.53799999 0.18799999 150 0 0 0 0.03052
3.29 0.54500002 0.191 151 0 0 0 0.03053
3.2850001 0.55400002 0.19499999 151 0 0 0 0.030540001
3.2869999 0.56400001 0.199 151 0 0 0 0.030549999
3.2869999 0.574 0.20299999 151 0 0 0 0.03056
3.2839999 0.58399999 0.207 150 0 0 0 0.03057
3.2609999 0.58999997 0.20999999 28 0 0 0 0.030579999
3.221 0.59200001 0.211 28 0 0 0 0.03059
3.1700001 0.59200001 0.212 29 0 0 0 0.0306
3.1070001 0.58999997 0.212 29 0 0 0 0.030610001
3.023 0.583 0.20999999 28 0 0 0 0.030619999
2.9059999 0.56999999 0.206 26 0 0 0 0.03063
2.8299999 0.56300002 0.204 25 0 0 0 0.03064
2.7579999 0.55800003 0.20299999 24 0 0 0 0.030649999
2.701 0.55400002 0.20200001 25 0 0 0 0.03066
2.6329999 0.54799998 0.2 24 0 0 0 0.03067
2.5699999 0.54299998 0.199 25 0 0 0 0.030680001
2.517 0.53899997 0.198 24 0 0 0 0.030689999
2.454 0.53299999 0.197 22 0 0 0 0.0307
2.4030001 0.52899998 0.19599999 22 0 0 0 0.030710001
2.3570001 0.52600002 0.19599999 23 0 0 0 0.030719999
2.27 0.514 0.191 150 0 0 0 0.03073
2.2620001 0.51899999 0.19400001 151 0 0 0 0.03074
2.2579999 0.52499998 0.197 151 0 0 0 0.030750001
2.256 0.53100002 0.2 151 0 0 0 0.03076
2.243 0.53500003 0.20200001 150 0 0 0 0.03077
2.2290001 0.53799999 0.204 150 0 0 0 0.030780001
2.2279999 0.54500002 0.207 151 0 0 0 0.030789999
2.2290001 0.55199999 0.20999999 151 0 0 0 0.0308
2.2260001 0.55800003 0.213 151 0 0 0 0.03081
2.2309999 0.56599998 0.21699999 151 0 0 0 0.030820001
2.2290001 0.57200003 0.22 151 0 0 0 0.03083
2.2279999 0.57800001 0.223 151 0 0 0 0.03084
2.2279999 0.58499998 0.227 151 0 0 0 0.030850001
2.2279999 0.59200001 0.23 151 0 0 0 0.030859999
2.2360001 0.60100001 0.234 150 0 0 0 0.03087
2.2509999 0.611 0.23899999 133 0 0 0 0.03088
2.2509999 0.61799997 0.243 147 0 0 0 0.030889999
2.2479999 0.62400001 0.24600001 150 0 0 0 0.0309
2.247 0.63099998 0.249 103 0 0 0 0.03091
2.2490001 0.63800001 0.25299999 150 0 0 0 0.030920001
2.244 0.64300001 0.25600001 150 0 0 0 0.030929999
2.326 0.67400002 0.26899999 150 0 0 0 0.03094
2.494 0.73000002 0.292 150 0 0 0 0.030950001
2.4860001 0.73500001 0.29499999 150 0 0 0 0.030959999
2.487 0.74299997 0.29899999 150 0 0 0 0.03097
2.484 0.75 0.303 150 0 0 0 0.03098
2.483 0.75599998 0.30700001 150 0 0 0 0.030990001
2.358 0.72500002 0.29499999 150 0 0 0 0.030999999
2.5139999 0.78100002 0.31900001 150 0 0 0 0.03101
1.49 0.46700001 0.191 1 0 0 0 0.031020001
1.473 0.46599999 0.192 7 0 0 0 0.031029999
1.461 0.46700001 0.192 7 0 0 0 0.03104
1.442 0.465 0.192 7 0 0 0 0.03105
1.428 0.465 0.193 7 0 0 0 0.031060001
1.415 0.465 0.19400001 7 0 0 0 0.03107
1.398 0.463 0.19400001 6 0 0 0 0.03108
1.3789999 0.461 0.193 5 0 0 0 0.031090001
1.365 0.46000001 0.19400001 5 0 0 0 0.031099999
1.352 0.46000001 0.19400001 5 0 0 0 0.03111
1.326 0.45500001 0.193 8 0 0 0 0.03112
1.314 0.45500001 0.193 45 0 0 0 0.031129999
1.299 0.45300001 0.193 100 0 0 0 0.03114
1.2970001 0.456 0.19499999 150 0 0 0 0.03115
1.296 0.46000001 0.198 150 0 0 0 0.031160001
1.295 0.463 0.2 150 0 0 0 0.031169999
1.294 0.46700001 0.20200001 146 0 0 0 0.03118
1.293 0.47 0.204 147 0 0 0 0.03119
1.295 0.47400001 0.207 150 0 0 0 0.031199999
1.295 0.47799999 0.20900001 150 0 0 0 0.03121
1.295 0.48199999 0.212 150 0 0 0 0.03122
1.291 0.484 0.213 140 0 0 0 0.031230001
1.2920001 0.48800001 0.21600001 150 0 0 0 0.031239999
1.289 0.491 0.21799999 150 0 0 0 0.03125
1.294 0.49599999 0.221 81 0 0 0 0.031259999
1.301 0.50300002 0.22499999 26 0 0 0 0.031270001
1.294 0.50300002 0.226 8 0 0 0 0.03128
1.261 0.49399999 0.222 5 0 0 0 0.031289998
1.251 0.49399999 0.223 0 0 0 0 0.031300001
3.325 1.323 0.60000002 2 0 0 0 0.03131
3.335 1.336 0.60799998 3 0 0 0 0.031319998
3.329 1.3430001 0.61400002 5 0 0 0 0.031330001
3.3199999 1.349 0.61799997 5 0 0 0 0.031339999
3.3310001 1.362 0.62699997 3 0 0 0 0.031350002
3.3169999 1.3660001 0.63099998 2 0 0 0 0.03136
3.2850001 1.362 0.63099998 2 0 0 0 0.031369999
3.2690001 1.364 0.63499999 3 0 0 0 0.031380001
3.277 1.376 0.64300001 3 0 0 0 0.03139
3.2820001 1.387 0.65100002 3 0 0 0 0.031399999
3.2539999 1.3839999 0.65100002 3 0 0 0 0.031410001
3.2520001 1.392 0.65799999 3 0 0 0 0.03142
3.24 1.396 0.662 3 0 0 0 0.031429999
3.2409999 1.405 0.66900003 3 0 0 0 0.031440001
3.2390001 1.413 0.67500001 3 0 0 0 0.03145
3.233 1.419 0.68099999 3 0 0 0 0.031459998
3.2260001 1.424 0.68599999 3 0 0 0 0.031470001
3.224 1.432 0.69199997 3 0 0 0 0.031479999
3.2060001 1.432 0.69499999 1 0 0 0 0.031490002
3.181 1.429 0.69599998 0 0 0 0 0.031500001
3.145 1.421 0.69499999 0 0 0 0 0.031509999
3.1240001 1.42 0.69700003 1 0 0 0 0.031520002
3.1129999 1.423 0.70099998 2 0 0 0 0.03153
3.1400001 1.443 0.71399999 2 0 0 0 0.031539999
3.125 1.444 0.71700001 3 0 0 0 0.031550001
3.1199999 1.45 0.722 3 0 0 0 0.03156
3.1240001 1.459 0.73000002 2 0 0 0 0.031569999
3.1340001 1.472 0.73900002 2 0 0 0 0.031580001
3.1199999 1.473 0.74299997 2 0 0 0 0.03159
3.0869999 1.465 0.741 2 0 0 0 0.031599998
3.0910001 1.474 0.74900001 1 0 0 0 0.031610001
3.096 1.484 0.75700003 2 0 0 0 0.03162
3.082 1.485 0.76099998 2 0 0 0 0.031629998
3.0780001 1.49 0.76599997 2 0 0 0 0.031640001
3.0599999 1.488 0.76800001 2 0 0 0 0.031649999
3.063 1.497 0.77600002 2 0 0 0 0.031660002
3.0940001 1.5190001 0.79100001 2 0 0 0 0.03167
3.0899999 1.524 0.796 1 0 0 0 0.031679999
3.0699999 1.521 0.79799998 1 0 0 0 0.031690001
3.0910001 1.539 0.81099999 1 0 0 0 0.0317
3.0810001 1.54 0.815 0 0 0 0 0.031709999
3.194 1.604 0.852 0 0 0 0 0.031720001
0 0 0 0 0 0 0 0.03173
0.912 0.46200001 0.24699999 0 0 0 0 0.031739999
0.90700001 0.461 0.248 4 0 0 0 0.031750001
0.91799998 0.46900001 0.25299999 5 0 0 0 0.03176
0.912 0.46799999 0.25299999 5 0 0 0 0.031769998
0.90799999 0.46700001 0.25400001 6 0 0 0 0.031780001
0.90899998 0.47 0.257 7 0 0 0 0.031789999
0.90799999 0.47099999 0.25799999 7 0 0 0 0.031800002
0.90399998 0.47099999 0.259 6 0 0 0 0.031810001
0.91100001 0.47600001 0.26300001 6 0 0 0 0.031819999
0.91299999 0.479 0.266 5 0 0 0 0.031830002
0.90200001 0.47499999 0.26499999 3 0 0 0 0.03184
0.90200001 0.47600001 0.26699999 2 0 0 0 0.031849999
0 0 0 0 0 0 0 0.031860001
0 0 0 0 0 0 0 0.03187
0 0 0 0 0 0 0 0.031879999
0 0 0 0 0 0 0 0.031890001
0 0 0 0 0 0 0 0.0319
0 0 0 0 0 0 0 0.031909999
0 0 0 0 0 0 0 0.031920001
0 0 0 0 0 0 0 0.03193
0 0 0 0 0 0 0 0.031939998
0 0 0 0 0 0 0 0.031950001
0 0 0 0 0 0 0 0.031959999
0 0 0 0 0 0 0 0.031970002
0 0 0 0 0 0 0 0.03198
1.293 0.71200001 0.42300001 0 0 0 0 0.031989999
0 0 0 0 0 0 0 0.032000002
0 0 0 0 0 0 0 0.03201
0 0 0 0 0 0 0 0.032019999
0 0 0 0 0 0 0 0.032030001
0 0 0 0 0 0 0 0.03204
0 0 0 0 0 0 0 0.032049999
0 0 0 0 0 0 0 0.032060001
0 0 0 0 0 0 0 0.03207
1.321 0.74299997 0.458 0 0 0 0 0.032079998
1.332 0.75 0.46399999 0 0 0 0 0.032090001
1.276 0.72000003 0.44800001 0 0 0 0 0.032099999
1.245 0.704 0.43900001 1 0 0 0 0.032109998
1.216 0.68800002 0.43200001 1 0 0 0 0.032120001
1.211 0.68599999 0.43200001 8 0 0 0 0.032129999
0 0 0 0 0 0 0 0.032140002
0 0 0 0 0 0 0 0.03215
0 0 0 0 0 0 0 0.032159999
0 0 0 0 0 0 0 0.032170001
0 0 0 0 0 0 0 0.03218
0 0 0 0 0 0 0 0.032189999
0 0 0 0 0 0 0 0.032200001
0 0 0 0 0 0 0 0.03221
0 0 0 0 0 0 0 0.032219999
0 0 0 0 0 0 0 0.032230001
0 0 0 0 0 0 0 0.03224
0 0 0 0 0 0 0 0.032249998
0 0 0 0 0 0 0 0.032260001
1.183 0.67900002 0.45500001 8 0 0 0 0.032269999
0 0 0 0 0 0 0 0.032280002
1.169 0.67199999 0.45300001 7 0 0 0 0.03229
1.158 0.66500002 0.45100001 7 0 0 0 0.032299999
0 0 0 0 0 0 0 0.032310002
0 0 0 0 0 0 0 0.03232
0 0 0 0 0 0 0 0.032329999
0 0 0 0 0 0 0 0.032340001
0 0 0 0 0 0 0 0.03235
0 0 0 0 0 0 0 0.032359999
0 0 0 0 0 0 0 0.032370001
0 0 0 0 0 0 0 0.03238
0 0 0 0 0 0 0 0.032389998
0 0 0 0 0 0 0 0.032400001
0 0 0 0 0 0 0 0.03241
1.122 0.64200002 0.458 0 0 0 0 0.032419998
1.117 0.639 0.458 7 0 0 0 0.032430001
1.114 0.63599998 0.458 0 0 0 0 0.032439999
1.1109999 0.634 0.458 0 0 0 0 0.032450002
1.107 0.63099998 0.458 0 0 0 0 0.03246
1.104 0.62800002 0.458 0 0 0 0 0.032469999
0 0 0 0 0 0 0 0.032480001
0 0 0 0 0 0 0 0.03249
0 0 0 0 0 0 0 0.032499999
0 0 0 0 0 0 0 0.032510001
0 0 0 0 0 0 0 0.03252
0 0 0 0 0 0 0 0.032529999
0 0 0 0 0 0 0 0.032540001
0 0 0 0 0 0 0 0.03255
0 0 0 0 0 0 0 0.032559998
0 0 0 0 0 0 0 0.032570001
0 0 0 0 0 0 0 0.032579999
0 0 0 0 0 0 0 0.032590002
0 0 0 0 0 0 0 0.032600001
0 0 0 0 0 0 0 0.032609999
0 0 0 0 0 0 0 0.032620002
0 0 0 0 0 0 0 0.03263
0 0 0 0 0 0 0 0.032639999
0 0 0 0 0 0 0 0.032650001
0 0 0 0 0 0 0 0.03266
0 0 0 0 0 0 0 0.032669999
0 0 0 0 0 0 0 0.032680001
0 0 0 0 0 0 0 0.03269
0 0 0 0 0 0 0 0.032699998
0 0 0 0 0 0 0 0.032710001
0 0 0 0 0 0 0 0.03272
0 0 0 0 0 0 0 0.032729998
0 0 0 0 0 0 0 0.032740001
0.98199999 0.523 0.428 6 0 0 0 0.032749999
0.94599998 0.50199997 0.412 8 0 0 0 0.032760002
0.91900003 0.486 0.40099999 12 0 0 0 0.03277
0.90799999 0.47799999 0.396 20 0 0 0 0.032779999
0.89899999 0.472 0.39199999 26 0 0 0 0.032790001
0.89200002 0.46599999 0.38999999 29 0 0 0 0.0328
0.89600003 0.46700001 0.391 36 0 0 0 0.032809999
0.89600003 0.465 0.391 35 0 0 0 0.032820001
0.89600003 0.463 0.391 32 0 0 0 0.03283
0.898 0.46200001 0.39199999 24 0 0 0 0.032839999
0.90399998 0.463 0.39500001 14 0 0 0 0.032850001
0.91000003 0.46399999 0.39700001 7 0 0 0 0.03286
0.917 0.46599999 0.40000001 1 0 0 0 0.032869998
0.92699999 0.46900001 0.40400001 0 0 0 0 0.032880001
0.92699999 0.46700001 0.40400001 0 0 0 0 0.032889999
0.93599999 0.46900001 0.40799999 0 0 0 0 0.032900002
0.935 0.46599999 0.40700001 0 0 0 0 0.032910001
0.94999999 0.472 0.41299999 0 0 0 0 0.032919999
0.95200002 0.47 0.41299999 0 0 0 0 0.032930002
0.954 0.46900001 0.414 0 0 0 0 0.03294
0.958 0.46900001 0.41600001 0 0 0 0 0.032949999
0.96799999 0.47099999 0.419 0 0 0 0 0.032960001
0.97100002 0.47099999 0.41999999 0 0 0 0 0.03297
0.97799999 0.472 0.42300001 0 0 0 0 0.032979999
0.98400003 0.472 0.42500001 0 0 0 0 0.032990001
0.98699999 0.47099999 0.42500001 0 0 0 0 0.033
0.99199998 0.47099999 0.42699999 0 0 0 0 0.033009999
1.001 0.47299999 0.43000001 0 0 0 0 0.033020001
1.0089999 0.47400001 0.43200001 0 0 0 0 0.03303
1.0140001 0.47400001 0.43399999 0 0 0 0 0.033039998
1.023 0.47499999 0.43700001 0 0 0 0 0.033050001
1.025 0.47400001 0.43700001 0 0 0 0 0.033059999
1.0319999 0.47400001 0.43900001 0 0 0 0 0.033070002
1.0369999 0.47400001 0.44 0 0 0 0 0.03308
1.0470001 0.47499999 0.44400001 0 0 0 0 0.033089999
1.056 0.477 0.447 0 0 0 0 0.033100002
1.061 0.47600001 0.44800001 0 0 0 0 0.03311
1.0650001 0.47499999 0.44800001 0 0 0 0 0.033119999
1.073 0.47600001 0.44999999 0 0 0 0 0.033130001
1.086 0.479 0.45500001 0 0 0 0 0.03314
1.0880001 0.477 0.45500001 0 0 0 0 0.033149999
1.097 0.47799999 0.45699999 13 0 0 0 0.033160001
1.1 0.47600001 0.45699999 16 0 0 0 0.03317
1.1059999 0.47600001 0.458 21 0 0 0 0.033179998
1.112 0.47499999 0.45899999 18 0 0 0 0.033190001
1.1210001 0.47600001 0.46200001 1 0 0 0 0.033199999
1.128 0.47600001 0.463 5 0 0 0 0.033209998
1.137 0.477 0.46599999 0 0 0 0 0.033220001
1.148 0.47799999 0.46799999 0 0 0 0 0.033229999
1.1569999 0.47799999 0.47 0 0 0 0 0.033240002
1.16 0.477 0.47 0 0 0 0 0.03325
1.174 0.479 0.47400001 0 0 0 0 0.033259999
1.1849999 0.47999999 0.477 0 0 0 0 0.033270001
1.212 0.48800001 0.486 0 0 0 0 0.03328
1.243 0.49700001 0.49700001 13 0 0 0 0.033289999
1.2690001 0.50400001 0.505 36 0 0 0 0.033300001
0 0 0 0 0 0 0 0.03331
1.262 0.49399999 0.49900001 142 0 0 0 0.033319999
1.262 0.49000001 0.49700001 150 0 0 0 0.033330001
1.265 0.48800001 0.49599999 150 0 0 0 0.03334
1.251 0.479 0.48899999 150 0 0 0 0.033349998
1.253 0.47600001 0.48699999 150 0 0 0 0.033360001
1.255 0.47299999 0.486 150 0 0 0 0.033369999
1.2539999 0.47 0.484 150 0 0 0 0.033380002
1.258 0.46799999 0.48300001 150 0 0 0 0.03339
1.257 0.46399999 0.48100001 150 0 0 0 0.033399999
1.249 0.45699999 0.47499999 150 0 0 0 0.033410002
1.25 0.454 0.47400001 150 0 0 0 0.03342
1.252 0.45100001 0.472 150 0 0 0 0.033429999
1.274 0.456 0.47799999 150 0 0 0 0.033440001
1.25 0.44400001 0.46700001 150 0 0 0 0.03345
1.277 0.44999999 0.47499999 150 0 0 0 0.033459999
1.289 0.44999999 0.477 150 0 0 0 0.033470001
1.3 0.45100001 0.479 63 0 0 0 0.03348
1.298 0.447 0.47600001 27 0 0 0 0.033489998
1.3430001 0.458 0.49000001 8 0 0 0 0.033500001
1.339 0.45300001 0.486 11 0 0 0 0.03351
1.353 0.454 0.48800001 11 0 0 0 0.033519998
1.385 0.461 0.49700001 8 0 0 0 0.033530001
1.398 0.461 0.49900001 9 0 0 0 0.033539999
1.418 0.46399999 0.50300002 9 0 0 0 0.033550002
1.4170001 0.46000001 0.5 14 0 0 0 0.03356
1.452 0.46700001 0.50999999 10 0 0 0 0.033569999
1.4630001 0.46700001 0.51099998 11 0 0 0 0.033580001
1.478 0.46799999 0.51300001 11 0 0 0 0.03359
1.488 0.46700001 0.514 0 0 0 0 0.033599999
4.0050001 1.2460001 1.376 12 0 0 0 0.033610001
1.502 0.463 0.51300001 1 0 0 0 0.03362
4.0149999 1.227 1.363 54 0 0 0 0.033629999
4.0190001 1.2180001 1.3559999 62 0 0 0 0.033640001
4.013 1.205 1.346 63 0 0 0 0.03365
4.0170002 1.1950001 1.3380001 63 0 0 0 0.033659998
0 0 0 0 0 0 0 0.033670001
0 0 0 0 0 0 0 0.033679999
0 0 0 0 0 0 0 0.033690002
2.2360001 0.64099997 0.72600001 151 0 0 0 0.0337
2.234 0.63499999 0.72100002 150 0 0 0 0.033709999
2.2349999 0.62900001 0.71600002 151 0 0 0 0.033720002
2.233 0.62300003 0.71100003 151 0 0 0 0.03373
2.23 0.616 0.70499998 150 0 0 0 0.033739999
2.2320001 0.611 0.70099998 151 0 0 0 0.033750001
2.23 0.60399997 0.69499999 150 0 0 0 0.03376
2.2219999 0.59600002 0.68800002 150 0 0 0 0.033769999
2.224 0.59100002 0.68400002 150 0 0 0 0.033780001
2.2249999 0.58499998 0.67900002 150 0 0 0 0.03379
2.2279999 0.57999998 0.67500001 150 0 0 0 0.033799998
2.2190001 0.57200003 0.667 150 0 0 0 0.033810001
2.224 0.56800002 0.66399997 151 0 0 0 0.03382
2.2249999 0.56199998 0.65899998 150 0 0 0 0.033829998
2.2290001 0.55800003 0.65499997 151 0 0 0 0.033840001
2.2279999 0.55199999 0.64999998 151 0 0 0 0.033849999
2.227 0.546 0.64499998 151 0 0 0 0.033860002
2.2320001 0.54100001 0.64099997 150 0 0 0 0.03387
2.2550001 0.54100001 0.64200002 150 0 0 0 0.033879999
2.2639999 0.53799999 0.63999999 151 0 0 0 0.033890001
2.26 0.53100002 0.63300002 151 0 0 0 0.0339
2.2609999 0.52600002 0.62900001 151 0 0 0 0.033909999
2.2650001 0.52100003 0.62400001 150 0 0 0 0.033920001
2.279 0.51800001 0.62300003 48 0 0 0 0.03393
2.3499999 0.52899998 0.63700002 18 0 0 0 0.033939999
2.391 0.53200001 0.64200002 17 0 0 0 0.033950001
2.428 0.53399998 0.64700001 17 0 0 0 0.03396
2.477 0.53899997 0.65399998 19 0 0 0 0.033969998
2.5179999 0.54100001 0.65899998 20 0 0 0 0.033980001
2.5650001 0.54500002 0.66500002 21 0 0 0 0.033989999
2.6159999 0.55000001 0.67199999 22 0 0 0 0.034000002
2.668 0.55400002 0.67900002 23 0 0 0 0.034010001
2.7279999 0.56 0.68800002 24 0 0 0 0.034019999
2.7780001 0.56400001 0.69400001 24 0 0 0 0.034030002
2.8310001 0.56800002 0.70099998 24 0 0 0 0.03404
2.8940001 0.57300001 0.70899999 25 0 0 0 0.034049999
2.9460001 0.57700002 0.71499997 26 0 0 0 0.034060001
3.0090001 0.58200002 0.72299999 26 0 0 0 0.03407
3.0739999 0.58700001 0.73100001 26 0 0 0 0.034079999
3.1489999 0.59399998 0.74199998 27 0 0 0 0.034090001
3.201 0.59600002 0.74599999 24 0 0 0 0.0341
3.2479999 0.597 0.74900001 28 0 0 0 0.034109998
3.28 0.59500003 0.74900001 44 0 0 0 0.034120001
3.286 0.58899999 0.74199998 150 0 0 0 0.03413
3.2880001 0.58200002 0.73500001 150 0 0 0 0.034139998
3.2880001 0.574 0.72600001 150 0 0 0 0.034150001
3.289 0.56599998 0.71899998 150 0 0 0 0.034159999
3.2920001 0.55900002 0.71100003 150 0 0 0 0.034170002
3.2950001 0.55199999 0.704 150 0 0 0 0.03418
3.309 0.54699999 0.699 150 0 0 0 0.034189999
3.322 0.542 0.69300002 150 0 0 0 0.034200002
3.3280001 0.53500003 0.68599999 150 0 0 0 0.03421
3.322 0.52600002 0.67699999 150 0 0 0 0.034219999
3.3559999 0.52399999 0.67500001 150 0 0 0 0.034230001
3.3940001 0.523 0.67500001 150 0 0 0 0.03424
3.388 0.514 0.66500002 150 0 0 0 0.034249999
3.3900001 0.50700003 0.65700001 150 0 0 0 0.034260001
3.3929999 0.5 0.64899999 150 0 0 0 0.03427
3.392 0.49200001 0.63999999 150 0 0 0 0.034279998
3.3929999 0.484 0.63200003 150 0 0 0 0.034290001
3.3959999 0.477 0.62400001 150 0 0 0 0.034299999
3.3940001 0.47 0.616 150 0 0 0 0.034309998
3.3929999 0.46200001 0.60699999 150 0 0 0 0.034320001
3.398 0.45500001 0.59899998 150 0 0 0 0.034329999
3.3970001 0.44800001 0.59100002 150 0 0 0 0.034340002
3.398 0.44100001 0.58200002 150 0 0 0 0.03435
3.3959999 0.433 0.57300001 150 0 0 0 0.034359999
3.3970001 0.426 0.565 150 0 0 0 0.034370001
3.3970001 0.41800001 0.55599999 150 0 0 0 0.03438
3.4000001 0.41100001 0.54799998 150 0 0 0 0.034389999
3.3929999 0.403 0.53899997 150 0 0 0 0.034400001
3.398 0.39700001 0.53100002 150 0 0 0 0.03441
3.398 0.389 0.52200001 150 0 0 0 0.034419999
3.3989999 0.382 0.51300001 150 0 0 0 0.034430001
3.401 0.375 0.505 150 0 0 0 0.03444
3.4030001 0.368 0.49700001 150 0 0 0 0.034449998
3.405 0.361 0.48800001 150 0 0 0 0.034460001
3.402 0.354 0.479 150 0 0 0 0.034469999
3.4030001 0.347 0.47099999 150 0 0 0 0.034480002
3.4030001 0.34 0.46200001 150 0 0 0 0.03449
3.404 0.333 0.454 150 0 0 0 0.034499999
3.401 0.32600001 0.44400001 150 0 0 0 0.034510002
3.398 0.31799999 0.435 150 0 0 0 0.03452
3.404 0.31200001 0.42699999 150 0 0 0 0.034529999
3.3989999 0.30399999 0.41800001 150 0 0 0 0.034540001
3.4030001 0.29800001 0.41 150 0 0 0 0.03455
3.4030001 0.29100001 0.40099999 150 0 0 0 0.034559999
3.4030001 0.28400001 0.39199999 150 0 0 0 0.034570001
3.4059999 0.27700001 0.384 150 0 0 0 0.03458
3.404 0.27000001 0.375 150 0 0 0 0.034589998
3.4070001 0.264 0.366 150 0 0 0 0.034600001
3.4070001 0.257 0.35800001 150 0 0 0 0.03461
3.405 0.25 0.34900001 150 0 0 0 0.034619998
3.4070001 0.243 0.34 150 0 0 0 0.034630001
3.408 0.236 0.331 150 0 0 0 0.034639999
3.4089999 0.23 0.32300001 150 0 0 0 0.034650002
3.4059999 0.223 0.31400001 151 0 0 0 0.03466
3.4089999 0.21600001 0.30500001 150 0 0 0 0.034669999
3.405 0.20900001 0.296 150 0 0 0 0.034680001
3.4089999 0.20299999 0.287 151 0 0 0 0.03469
3.4070001 0.19599999 0.278 150 0 0 0 0.034699999
3.4089999 0.19 0.26899999 151 0 0 0 0.034710001
3.4100001 0.183 0.26100001 151 0 0 0 0.03472
3.4100001 0.176 0.252 151 0 0 0 0.034729999
3.4070001 0.17 0.243 151 0 0 0 0.034740001
3.4070001 0.163 0.234 151 0 0 0 0.03475
3.4070001 0.15700001 0.22499999 151 0 0 0 0.034759998
3.408 0.15000001 0.21600001 151 0 0 0 0.034770001
3.4070001 0.14399999 0.207 151 0 0 0 0.034779999
3.4119999 0.13699999 0.198 151 0 0 0 0.034790002
3.4089999 0.131 0.189 151 0 0 0 0.0348
3.4130001 0.124 0.18000001 151 0 0 0 0.034809999
3.408 0.118 0.171 151 0 0 0 0.034820002
3.411 0.111 0.162 151 0 0 0 0.03483
3.408 0.105 0.153 151 0 0 0 0.034839999
3.4159999 0.098999999 0.14399999 152 0 0 0 0.034850001
3.4189999 0.092 0.13500001 151 0 0 0 0.03486
3.414 0.086000003 0.126 152 0 0 0 0.034869999
3.415 0.079000004 0.117 152 0 0 0 0.034880001
3.415 0.072999999 0.108 152 0 0 0 0.03489
3.415 0.067000002 0.098999999 152 0 0 0 0.034899998
3.4159999 0.059999999 0.090000004 151 0 0 0 0.034910001
3.4170001 0.054000001 0.081 152 0 0 0 0.03492
3.4219999 0.048 0.071999997 152 0 0 0 0.034929998
3.4170001 0.041999999 0.061999999 152 0 0 0 0.034940001
3.4170001 0.035 0.052999999 152 0 0 0 0.034949999
3.4170001 0.028999999 0.044 151 0 0 0 0.034960002
3.4159999 0.023 0.035 151 0 0 0 0.03497
3.4159999 0.017000001 0.026000001 151 0 0 0 0.034979999
3.421 0.011 0.017000001 151 0 0 0 0.034990001
3.4170001 0.0040000002 0.0080000004 151 0 0 0 0.035
3.414 -0.001 -0.001 151 0 0 0 0.035009999
3.418 -0.0070000002 -0.0099999998 151 0 0 0 0.035020001
3.414 -0.013 -0.018999999 151 0 0 0 0.03503
3.4200001 -0.018999999 -0.028000001 151 0 0 0 0.035039999
3.4200001 -0.025 -0.037999999 151 0 0 0 0.035050001
3.418 -0.030999999 -0.046999998 151 0 0 0 0.03506
3.4200001 -0.037 -0.056000002 151 0 0 0 0.035069998
3.418 -0.043000001 -0.064999998 151 0 0 0 0.035080001
3.421 -0.050000001 -0.075000003 151 0 0 0 0.035089999
3.418 -0.056000002 -0.083999999 151 0 0 0 0.035100002
3.424 -0.061999999 -0.093000002 151 0 0 0 0.035110001
3.421 -0.068000004 -0.103 151 0 0 0 0.035119999
3.4219999 -0.072999999 -0.112 151 0 0 0 0.035130002
3.425 -0.079999998 -0.121 151 0 0 0 0.03514
3.424 -0.085000001 -0.131 150 0 0 0 0.035149999
3.4230001 -0.090999998 -0.14 150 0 0 0 0.035160001
3.4200001 -0.097000003 -0.149 150 0 0 0 0.03517
3.428 -0.103 -0.15899999 150 0 0 0 0.035179999
3.428 -0.109 -0.168 150 0 0 0 0.035190001
3.4300001 -0.115 -0.178 150 0 0 0 0.0352
3.425 -0.121 -0.18700001 150 0 0 0 0.035209998
3.427 -0.127 -0.197 150 0 0 0 0.035220001
3.428 -0.133 -0.206 150 0 0 0 0.03523
3.4289999 -0.139 -0.21600001 150 0 0 0 0.035239998
3.4300001 -0.14399999 -0.22499999 150 0 0 0 0.035250001
3.434 -0.15000001 -0.235 150 0 0 0 0.035259999
3.4330001 -0.156 -0.245 150 0 0 0 0.035270002
3.4319999 -0.162 -0.25400001 150 0 0 0 0.03528
3.431 -0.168 -0.264 150 0 0 0 0.035289999
3.4330001 -0.17299999 -0.27399999 151 0 0 0 0.035300002
3.4330001 -0.17900001 -0.28299999 151 0 0 0 0.03531
3.405 -0.183 -0.28999999 150 0 0 0 0.035319999
3.3670001 -0.18700001 -0.29699999 150 0 0 0 0.035330001
3.3659999 -0.192 -0.30599999 151 0 0 0 0.03534
3.368 -0.198 -0.31600001 151 0 0 0 0.035349999
3.3670001 -0.204 -0.32499999 151 0 0 0 0.035360001
3.3659999 -0.20900001 -0.33399999 151 0 0 0 0.03537
3.369 -0.215 -0.34400001 151 0 0 0 0.035379998
3.3529999 -0.219 -0.352 150 0 0 0 0.035390001
3.335 -0.223 -0.36000001 150 0 0 0 0.035399999
3.332 -0.229 -0.36899999 151 0 0 0 0.035409998
3.3369999 -0.234 -0.37900001 151 0 0 0 0.035420001
3.3299999 -0.23899999 -0.38800001 151 0 0 0 0.035429999
3.3329999 -0.245 -0.39700001 151 0 0 0 0.035440002
3.332 -0.25 -0.40700001 151 0 0 0 0.03545
3.335 -0.25600001 -0.417 151 0 0 0 0.035459999
3.336 -0.26100001 -0.426 151 0 0 0 0.035470001
3.329 -0.266 -0.435 150 0 0 0 0.03548
3.2950001 -0.26800001 -0.44 33 0 0 0 0.035489999
3.2379999 -0.26899999 -0.442 129 0 0 0 0.035500001
3.23 -0.273 -0.44999999 150 0 0 0 0.03551
3.2360001 -0.27900001 -0.46000001 150 0 0 0 0.035519999
3.2360001 -0.28400001 -0.47 150 0 0 0 0.035530001
3.2320001 -0.289 -0.47799999 150 0 0 0 0.03554
3.2360001 -0.294 -0.48800001 150 0 0 0 0.035549998
3.2379999 -0.29899999 -0.498 150 0 0 0 0.035560001
3.2390001 -0.30399999 -0.50800002 150 0 0 0 0.035569999
3.2390001 -0.30899999 -0.51700002 150 0 0 0 0.035580002
3.2390001 -0.31400001 -0.52600002 150 0 0 0 0.03559
3.24 -0.31900001 -0.53600001 151 0 0 0 0.035599999
3.24 -0.324 -0.546 151 0 0 0 0.035610002
3.2309999 -0.32800001 -0.55400002 150 0 0 0 0.03562
3.2149999 -0.331 -0.56 150 0 0 0 0.035629999
3.2090001 -0.336 -0.56900001 150 0 0 0 0.035640001
3.2090001 -0.34099999 -0.57800001 150 0 0 0 0.03565
3.207 -0.345 -0.58700001 150 0 0 0 0.035659999
3.2049999 -0.34999999 -0.597 150 0 0 0 0.035670001
3.2090001 -0.35499999 -0.60699999 150 0 0 0 0.03568
3.2119999 -0.36000001 -0.61699998 150 0 0 0 0.035689998
3.2079999 -0.36399999 -0.62599999 150 0 0 0 0.035700001
3.2090001 -0.36899999 -0.63599998 150 0 0 0 0.03571
3.2119999 -0.37400001 -0.64600003 150 0 0 0 0.035719998
3.2060001 -0.37799999 -0.65499997 150 0 0 0 0.035730001
3.2019999 -0.382 -0.66299999 150 0 0 0 0.035739999
3.0150001 -0.36399999 -0.63300002 150 0 0 0 0.035750002
2.8789999 -0.352 -0.61400002 150 0 0 0 0.03576
2.8080001 -0.347 -0.60699999 123 0 0 0 0.035769999
2.562 -0.32100001 -0.56099999 20 0 0 0 0.035780001
2.5339999 -0.32100001 -0.56300002 18 0 0 0 0.03579
2.52 -0.32300001 -0.56800002 18 0 0 0 0.035799999
2.5 -0.32300001 -0.57099998 17 0 0 0 0.035810001
2.4809999 -0.32499999 -0.574 17 0 0 0 0.03582
2.4649999 -0.32600001 -0.57800001 17 0 0 0 0.035829999
2.448 -0.32699999 -0.58099997 16 0 0 0 0.035840001
2.425 -0.32699999 -0.583 15 0 0 0 0.03585
2.4059999 -0.32800001 -0.58600003 14 0 0 0 0.035859998
2.391 -0.329 -0.58999997 12 0 0 0 0.035870001
2.3670001 -0.329 -0.59100002 13 0 0 0 0.035879999
2.3610001 -0.33199999 -0.597 14 0 0 0 0.035890002
2.3529999 -0.33399999 -0.602 16 0 0 0 0.0359
2.3559999 -0.33700001 -0.61000001 17 0 0 0 0.035909999
2.3599999 -0.34099999 -0.61799997 17 0 0 0 0.035920002
2.3610001 -0.34400001 -0.62599999 16 0 0 0 0.03593
2.3559999 -0.347 -0.63200003 16 0 0 0 0.035939999
2.3510001 -0.34900001 -0.63800001 15 0 0 0 0.035950001
2.3610001 -0.35299999 -0.648 15 0 0 0 0.03596
2.358 -0.35600001 -0.65499997 15 0 0 0 0.035969999
2.3559999 -0.359 -0.662 15 0 0 0 0.035980001
2.358 -0.36199999 -0.66900003 15 0 0 0 0.03599
2.355 -0.36500001 -0.676 15 0 0 0 0.035999998
2.3570001 -0.368 -0.68400002 18 0 0 0 0.036010001
2.355 -0.37099999 -0.69099998 20 0 0 0 0.03602
2.358 -0.37400001 -0.699 19 0 0 0 0.036029998
2.3599999 -0.377 -0.70700002 19 0 0 0 0.036040001
2.359 -0.38 -0.71499997 19 0 0 0 0.036049999
2.3529999 -0.382 -0.72000003 19 0 0 0 0.036060002
2.359 -0.38600001 -0.73000002 19 0 0 0 0.03607
2.3570001 -0.38800001 -0.736 19 0 0 0 0.036079999
2.3570001 -0.391 -0.74400002 19 0 0 0 0.036090001
2.3529999 -0.39300001 -0.75 20 0 0 0 0.0361
2.3599999 -0.39700001 -0.75999999 20 0 0 0 0.036109999
2.3559999 -0.39899999 -0.76599997 21 0 0 0 0.036120001
2.3570001 -0.40200001 -0.77399999 22 0 0 0 0.03613
2.3570001 -0.405 -0.78200001 22 0 0 0 0.036139999
2.359 -0.40799999 -0.79000002 23 0 0 0 0.036150001
2.358 -0.41 -0.79699999 24 0 0 0 0.03616
2.3570001 -0.41299999 -0.80400002 24 0 0 0 0.036169998
2.3529999 -0.41499999 -0.81099999 23 0 0 0 0.036180001
2.359 -0.41800001 -0.81999999 26 0 0 0 0.036189999
2.358 -0.421 -0.82800001 27 0 0 0 0.036200002
2.3340001 -0.419 -0.82700002 24 0 0 0 0.036210001
2.3150001 -0.41800001 -0.82800001 24 0 0 0 0.036219999
2.296 -0.417 -0.82800001 24 0 0 0 0.036230002
2.2720001 -0.41499999 -0.82700002 24 0 0 0 0.03624
2.25 -0.41299999 -0.82599998 24 0 0 0 0.036249999
2.2290001 -0.412 -0.82599998 24 0 0 0 0.036260001
2.2119999 -0.41100001 -0.82700002 24 0 0 0 0.03627
2.1919999 -0.40900001 -0.82700002 25 0 0 0 0.036279999
2.1760001 -0.40799999 -0.82700002 28 0 0 0 0.036290001
2.152 -0.40599999 -0.82499999 25 0 0 0 0.0363
2.135 -0.405 -0.82599998 27 0 0 0 0.036309998
2.115 -0.403 -0.82499999 27 0 0 0 0.036320001
2.0969999 -0.40200001 -0.82499999 28 0 0 0 0.03633
2.082 -0.40099999 -0.82599998 29 0 0 0 0.036339998
2.062 -0.39899999 -0.82499999 28 0 0 0 0.036350001
2.0420001 -0.39700001 -0.824 28 0 0 0 0.036359999
2.029 -0.396 -0.82499999 29 0 0 0 0.036370002
2.0150001 -0.39500001 -0.82599998 29 0 0 0 0.03638
1.993 -0.39199999 -0.824 28 0 0 0 0.036389999
1.9809999 -0.39199999 -0.82499999 28 0 0 0 0.036400001
1.965 -0.38999999 -0.82499999 29 0 0 0 0.03641
1.9450001 -0.38800001 -0.82300001 29 0 0 0 0.036419999
1.928 -0.38600001 -0.82200003 28 0 0 0 0.036430001
1.9170001 -0.38499999 -0.82300001 30 0 0 0 0.03644
1.903 -0.384 -0.824 29 0 0 0 0.036449999
1.887 -0.382 -0.82300001 29 0 0 0 0.036460001
1.876 -0.38100001 -0.824 32 0 0 0 0.03647
1.865 -0.38 -0.82599998 33 0 0 0 0.036479998
1.846 -0.37799999 -0.82300001 33 0 0 0 0.036490001
1.83 -0.37599999 -0.82200003 32 0 0 0 0.036499999
1.821 -0.375 -0.824 31 0 0 0 0.036509998
1.803 -0.373 -0.82200003 31 0 0 0 0.036520001
1.794 -0.37200001 -0.82300001 33 0 0 0 0.036529999
1.779 -0.37 -0.82200003 33 0 0 0 0.036540002
1.767 -0.368 -0.82300001 36 0 0 0 0.03655
1.755 -0.36700001 -0.82300001 34 0 0 0 0.036559999
1.74 -0.36500001 -0.82099998 33 0 0 0 0.036570001
1.729 -0.36399999 -0.82200003 34 0 0 0 0.03658
1.7180001 -0.36199999 -0.82200003 33 0 0 0 0.036589999
1.705 -0.36000001 -0.82099998 35 0 0 0 0.036600001
1.6950001 -0.359 -0.82200003 37 0 0 0 0.03661
1.681 -0.35699999 -0.82099998 39 0 0 0 0.036619999
1.678 -0.35699999 -0.82499999 13 0 0 0 0.036630001
1.668 -0.35600001 -0.82499999 13 0 0 0 0.03664
1.6569999 -0.354 -0.82499999 13 0 0 0 0.036649998
1.648 -0.35299999 -0.82599998 13 0 0 0 0.036660001
1.632 -0.34999999 -0.82300001 13 0 0 0 0.036669999
1.6289999 -0.34999999 -0.82700002 13 0 0 0 0.036680002
1.612 -0.347 -0.82300001 13 0 0 0 0.03669
1.605 -0.34599999 -0.82499999 13 0 0 0 0.036699999
1.597 -0.345 -0.82499999 13 0 0 0 0.036710002
1.5880001 -0.34299999 -0.82599998 13 0 0 0 0.03672
1.574 -0.34099999 -0.824 13 0 0 0 0.036729999
1.568 -0.34 -0.82499999 13 0 0 0 0.036740001
1.5549999 -0.33700001 -0.82300001 13 0 0 0 0.03675
1.543 -0.33500001 -0.82200003 13 0 0 0 0.036759999
1.539 -0.33500001 -0.824 13 0 0 0 0.036770001
1.527 -0.33199999 -0.82300001 13 0 0 0 0.03678
1.513 -0.329 -0.81999999 12 0 0 0 0.036789998
1.503 -0.32699999 -0.81900001 13 0 0 0 0.036800001
1.498 -0.32699999 -0.82099998 13 0 0 0 0.036809999
1.4910001 -0.32499999 -0.82099998 12 0 0 0 0.036819998
1.489 -0.32499999 -0.82499999 11 0 0 0 0.036830001
1.472 -0.32100001 -0.81999999 11 0 0 0 0.036839999
1.466 -0.31999999 -0.82099998 12 0 0 0 0.036850002
1.46 -0.31900001 -0.82200003 13 0 0 0 0.03686
1.456 -0.31799999 -0.824 13 0 0 0 0.036869999
1.446 -0.31600001 -0.82200003 13 0 0 0 0.036880001
1.437 -0.31400001 -0.82099998 13 0 0 0 0.03689
1.4299999 -0.31200001 -0.82099998 12 0 0 0 0.036899999
1.424 -0.31099999 -0.82200003 13 0 0 0 0.036910001
1.419 -0.30899999 -0.82300001 13 0 0 0 0.03692
1.408 -0.30700001 -0.81999999 13 0 0 0 0.036929999
1.404 -0.30500001 -0.82200003 13 0 0 0 0.036940001
1.397 -0.30399999 -0.82200003 14 0 0 0 0.03695
1.391 -0.30199999 -0.82200003 13 0 0 0 0.036959998
1.382 -0.30000001 -0.82099998 13 0 0 0 0.036970001
1.377 -0.29800001 -0.82099998 13 0 0 0 0.036979999
1.3710001 -0.29699999 -0.82099998 13 0 0 0 0.036990002
1.364 -0.29499999 -0.82099998 13 0 0 0 0.037
1.359 -0.29300001 -0.82099998 13 0 0 0 0.037009999
1.35 -0.29100001 -0.81900001 14 0 0 0 0.037020002
1.347 -0.28999999 -0.82099998 14 0 0 0 0.03703
1.3430001 -0.28799999 -0.82099998 14 0 0 0 0.037039999
1.332 -0.285 -0.81800002 14 0 0 0 0.037050001
1.3329999 -0.285 -0.82200003 14 0 0 0 0.03706
1.327 -0.28299999 -0.82200003 14 0 0 0 0.037069999
1.3200001 -0.28099999 -0.81999999 14 0 0 0 0.037080001
1.3150001 -0.27900001 -0.81999999 14 0 0 0 0.03709
1.312 -0.278 -0.82099998 14 0 0 0 0.037099998
1.303 -0.27500001 -0.81900001 14 0 0 0 0.037110001
1.301 -0.27399999 -0.81999999 14 0 0 0 0.03712
1.2970001 -0.27200001 -0.82099998 14 0 0 0 0.037129998
1.294 -0.271 -0.82099998 15 0 0 0 0.037140001
1.286 -0.26800001 -0.81900001 15 0 0 0 0.037149999
1.2819999 -0.26699999 -0.81900001 15 0 0 0 0.037160002
1.279 -0.26499999 -0.81999999 15 0 0 0 0.03717
1.275 -0.26300001 -0.81999999 15 0 0 0 0.037179999
1.271 -0.26199999 -0.81999999 15 0 0 0 0.037190001
1.268 -0.25999999 -0.81999999 14 0 0 0 0.0372
1.265 -0.25799999 -0.82099998 15 0 0 0 0.037209999
1.261 -0.25600001 -0.82099998 15 0 0 0 0.037220001
1.258 -0.255 -0.82099998 15 0 0 0 0.03723
1.256 -0.25299999 -0.82200003 14 0 0 0 0.037239999
1.253 -0.25099999 -0.82200003 13 0 0 0 0.037250001
1.249 -0.249 -0.82099998 12 0 0 0 0.03726
1.251 -0.249 -0.82499999 10 0 0 0 0.037269998
1.25 -0.24699999 -0.82700002 9 0 0 0 0.037280001
1.2460001 -0.245 -0.82599998 9 0 0 0 0.037289999
1.243 -0.244 -0.82599998 9 0 0 0 0.037300002
1.2410001 -0.242 -0.82599998 10 0 0 0 0.037310001
1.235 -0.23899999 -0.82300001 11 0 0 0 0.037319999
1.23 -0.237 -0.82200003 13 0 0 0 0.037330002
1.228 -0.236 -0.82200003 14 0 0 0 0.03734
1.223 -0.233 -0.81999999 15 0 0 0 0.037349999
1.22 -0.23100001 -0.81999999 15 0 0 0 0.037360001
1.221 -0.23 -0.82200003 15 0 0 0 0.03737
1.219 -0.228 -0.82099998 14 0 0 0 0.037379999
1.22 -0.227 -0.824 15 0 0 0 0.037390001
1.219 -0.22499999 -0.824 14 0 0 0 0.0374
1.215 -0.223 -0.82300001 14 0 0 0 0.037409998
1.214 -0.222 -0.82300001 14 0 0 0 0.037420001
1.212 -0.22 -0.82300001 15 0 0 0 0.03743
1.211 -0.21799999 -0.82300001 15 0 0 0 0.037439998
1.209 -0.21600001 -0.82300001 15 0 0 0 0.037450001
1.209 -0.215 -0.82300001 15 0 0 0 0.037459999
1.209 -0.213 -0.824 15 0 0 0 0.037470002
1.206 -0.211 -0.82300001 15 0 0 0 0.03748
1.202 -0.20900001 -0.82099998 15 0 0 0 0.037489999
1.202 -0.207 -0.82099998 15 0 0 0 0.037500001
1.202 -0.205 -0.82200003 15 0 0 0 0.03751
1.202 -0.204 -0.82200003 15 0 0 0 0.037519999
1.199 -0.20100001 -0.82099998 15 0 0 0 0.037530001
1.198 -0.2 -0.81999999 15 0 0 0 0.03754
1.198 -0.198 -0.81999999 15 0 0 0 0.037549999
1.202 -0.197 -0.82300001 15 0 0 0 0.037560001
1.2 -0.19499999 -0.82200003 15 0 0 0 0.03757
1.202 -0.193 -0.824 16 0 0 0 0.037579998
1.2 -0.191 -0.82200003 15 0 0 0 0.037590001
1.2 -0.189 -0.82200003 15 0 0 0 0.037599999
1.2029999 -0.18799999 -0.824 15 0 0 0 0.037610002
1.199 -0.186 -0.82099998 15 0 0 0 0.037620001
1.202 -0.184 -0.82300001 15 0 0 0 0.037629999
1.205 -0.183 -0.824 15 0 0 0 0.037640002
1.2029999 -0.18099999 -0.82200003 16 0 0 0 0.03765
1.205 -0.17900001 -0.82300001 16 0 0 0 0.037659999
1.201 -0.177 -0.81999999 15 0 0 0 0.037670001
1.206 -0.176 -0.82300001 15 0 0 0 0.03768
1.206 -0.17399999 -0.82200003 15 0 0 0 0.037689999
1.207 -0.17200001 -0.82200003 16 0 0 0 0.037700001
1.2079999 -0.171 -0.82200003 15 0 0 0 0.03771
1.21 -0.169 -0.82300001 16 0 0 0 0.037719999
1.211 -0.167 -0.82200003 16 0 0 0 0.037730001
1.212 -0.16500001 -0.82200003 17 0 0 0 0.03774
1.212 -0.164 -0.82099998 17 0 0 0 0.037749998
1.22 -0.163 -0.82499999 16 0 0 0 0.037760001
1.219 -0.161 -0.824 17 0 0 0 0.037769999
1.223 -0.15899999 -0.824 17 0 0 0 0.037780002
1.223 -0.15700001 -0.82300001 16 0 0 0 0.03779
1.227 -0.156 -0.82499999 16 0 0 0 0.037799999
1.23 -0.154 -0.82499999 16 0 0 0 0.037810002
1.228 -0.152 -0.82300001 15 0 0 0 0.03782
1.232 -0.15099999 -0.82300001 16 0 0 0 0.037829999
1.233 -0.149 -0.82300001 15 0 0 0 0.037840001
1.239 -0.148 -0.82499999 16 0 0 0 0.03785
1.24 -0.146 -0.824 16 0 0 0 0.037859999
1.244 -0.14399999 -0.82499999 16 0 0 0 0.037870001
1.248 -0.14300001 -0.82599998 16 0 0 0 0.03788
1.252 -0.141 -0.82599998 16 0 0 0 0.037889998
1.2539999 -0.139 -0.82599998 16 0 0 0 0.037900001
1.257 -0.138 -0.82599998 16 0 0 0 0.037909999
1.257 -0.13600001 -0.824 16 0 0 0 0.037919998
1.263 -0.134 -0.82499999 16 0 0 0 0.037930001
1.266 -0.133 -0.82499999 16 0 0 0 0.037939999
1.268 -0.131 -0.824 16 0 0 0 0.037950002
1.272 -0.12899999 -0.824 16 0 0 0 0.03796
1.279 -0.12800001 -0.82599998 16 0 0 0 0.037969999
1.28 -0.126 -0.82499999 16 0 0 0 0.037980001
1.283 -0.125 -0.824 16 0 0 0 0.03799
1.291 -0.123 -0.82599998 17 0 0 0 0.037999999
1.294 -0.122 -0.82599998 16 0 0 0 0.038010001
1.296 -0.12 -0.824 16 0 0 0 0.03802
1.302 -0.119 -0.82499999 16 0 0 0 0.038029999
1.304 -0.117 -0.82300001 16 0 0 0 0.038040001
1.307 -0.115 -0.82300001 16 0 0 0 0.03805
1.3150001 -0.114 -0.82499999 16 0 0 0 0.038059998
1.317 -0.112 -0.82300001 16 0 0 0 0.038070001
1.325 -0.111 -0.82499999 16 0 0 0 0.038079999
1.3279999 -0.109 -0.824 16 0 0 0 0.038090002
1.3329999 -0.108 -0.824 16 0 0 0 0.0381
1.34 -0.106 -0.82499999 15 0 0 0 0.038109999
1.349 -0.105 -0.82700002 16 0 0 0 0.038120002
1.353 -0.103 -0.82700002 17 0 0 0 0.03813
1.358 -0.102 -0.82599998 16 0 0 0 0.038139999
1.362 -0.1 -0.82499999 16 0 0 0 0.038150001
1.3660001 -0.098999999 -0.824 16 0 0 0 0.03816
1.374 -0.097000003 -0.82499999 16 0 0 0 0.038169999
1.381 -0.096000001 -0.82599998 17 0 0 0 0.038180001
1.385 -0.093999997 -0.82499999 17 0 0 0 0.03819
1.3940001 -0.093000002 -0.82599998 17 0 0 0 0.038199998
1.401 -0.092 -0.82700002 17 0 0 0 0.038210001
1.4069999 -0.090000004 -0.82700002 16 0 0 0 0.03822
1.411 -0.089000002 -0.82499999 16 0 0 0 0.038229998
1.4220001 -0.086999997 -0.82800001 17 0 0 0 0.038240001
1.427 -0.086000003 -0.82700002 16 0 0 0 0.038249999
1.434 -0.085000001 -0.82700002 17 0 0 0 0.038260002
1.444 -0.082999997 -0.82800001 16 0 0 0 0.03827
1.45 -0.082000002 -0.82800001 15 0 0 0 0.038279999
1.4579999 -0.079999998 -0.82800001 14 0 0 0 0.038290001
1.464 -0.079000004 -0.82700002 13 0 0 0 0.0383
1.474 -0.078000002 -0.829 16 0 0 0 0.038309999
1.477 -0.075999998 -0.82599998 16 0 0 0 0.038320001
1.488 -0.075000003 -0.82800001 16 0 0 0 0.03833
1.498 -0.074000001 -0.829 15 0 0 0 0.038339999
1.506 -0.071999997 -0.829 16 0 0 0 0.038350001
1.516 -0.071000002 -0.82999998 16 0 0 0 0.03836
1.518 -0.068999998 -0.82700002 16 0 0 0 0.038369998
1.525 -0.068000004 -0.82599998 16 0 0 0 0.038380001
1.541 -0.067000002 -0.82999998 16 0 0 0 0.038389999
3.431 -0.041000001 0.324 151 0 0 0 0.040320002
3.4330001 -0.041999999 0.33500001 151 0 0 0 0.04033
3.4319999 -0.044 0.34599999 151 0 0 0 0.040339999
3.431 -0.046 0.35699999 151 0 0 0 0.040350001
3.4289999 -0.046999998 0.368 151 0 0 0 0.04036
3.4300001 -0.048999999 0.37900001 151 0 0 0 0.040369999
3.4289999 -0.050999999 0.38999999 151 0 0 0 0.040380001
3.431 -0.052999999 0.40099999 151 0 0 0 0.04039
3.4330001 -0.055 0.41299999 151 0 0 0 0.040399998
3.4330001 -0.057 0.42399999 151 0 0 0 0.040410001
3.4319999 -0.059 0.435 151 0 0 0 0.04042
3.4330001 -0.061000001 0.44600001 151 0 0 0 0.040429998
3.4349999 -0.061999999 0.45699999 151 0 0 0 0.040440001
3.434 -0.064000003 0.46799999 151 0 0 0 0.040449999
3.4360001 -0.066 0.479 151 0 0 0 0.040460002
3.4330001 -0.068000004 0.49000001 151 0 0 0 0.04047
3.437 -0.071000002 0.50199997 151 0 0 0 0.040479999
3.4330001 -0.072999999 0.51200002 151 0 0 0 0.040490001
3.4360001 -0.075000003 0.52399999 151 0 0 0 0.0405
3.434 -0.077 0.53500003 151 0 0 0 0.040509999
3.438 -0.079000004 0.546 151 0 0 0 0.040520001
3.438 -0.081 0.55699998 151 0 0 0 0.04053
3.4389999 -0.082999997 0.56900001 151 0 0 0 0.040539999
3.4419999 -0.086000003 0.57999998 151 0 0 0 0.040550001
3.437 -0.088 0.59100002 151 0 0 0 0.04056
3.4419999 -0.090000004 0.602 150 0 0 0 0.040569998
3.441 -0.092 0.61299998 151 0 0 0 0.040580001
3.4389999 -0.094999999 0.62400001 151 0 0 0 0.040589999
3.4419999 -0.097000003 0.63599998 151 0 0 0 0.040600002
3.4400001 -0.098999999 0.64700001 151 0 0 0 0.04061
3.438 -0.102 0.65700001 151 0 0 0 0.040619999
3.438 -0.104 0.66900003 150 0 0 0 0.040630002
3.438 -0.106 0.68000001 150 0 0 0 0.04064
3.4400001 -0.109 0.69099998 151 0 0 0 0.040649999
3.437 -0.111 0.70200002 151 0 0 0 0.040660001
3.437 -0.114 0.713 151 0 0 0 0.04067
3.438 -0.116 0.72399998 151 0 0 0 0.040679999
3.437 -0.119 0.73500001 150 0 0 0 0.040690001
3.4389999 -0.122 0.74699998 150 0 0 0 0.0407
3.437 -0.124 0.75700003 150 0 0 0 0.040709998
3.441 -0.127 0.76899999 150 0 0 0 0.040720001
3.4400001 -0.13 0.77999997 151 0 0 0 0.04073
3.4389999 -0.132 0.79100001 150 0 0 0 0.040739998
3.4389999 -0.13500001 0.80199999 150 0 0 0 0.040750001
3.4400001 -0.138 0.81400001 150 0 0 0 0.040759999
3.444 -0.14 0.82599998 150 0 0 0 0.040770002
3.444 -0.14300001 0.83700001 150 0 0 0 0.04078
3.441 -0.146 0.847 150 0 0 0 0.040789999
3.4430001 -0.149 0.85900003 151 0 0 0 0.040800001
3.4400001 -0.152 0.86900002 151 0 0 0 0.04081
3.4389999 -0.155 0.88 151 0 0 0 0.040819999
3.4419999 -0.15800001 0.89200002 150 0 0 0 0.040830001
3.424 -0.16 0.89899999 150 0 0 0 0.04084
3.4089999 -0.162 0.90600002 150 0 0 0 0.040849999
3.3889999 -0.164 0.91100001 150 0 0 0 0.040860001
3.381 -0.167 0.92000002 150 0 0 0 0.04087
3.3800001 -0.17 0.93099999 150 0 0 0 0.040879998
3.382 -0.17299999 0.94300002 150 0 0 0 0.040890001
3.3789999 -0.176 0.95300001 150 0 0 0 0.040899999
3.382 -0.17900001 0.96499997 150 0 0 0 0.040910002
3.382 -0.182 0.97500002 150 0 0 0 0.040920001
3.3789999 -0.185 0.986 150 0 0 0 0.040929999
3.3729999 -0.18799999 0.995 150 0 0 0 0.040940002
3.368 -0.191 1.0039999 150 0 0 0 0.04095
3.359 -0.19400001 1.012 150 0 0 0 0.040959999
3.3570001 -0.197 1.023 150 0 0 0 0.040970001
3.3529999 -0.2 1.0319999 150 0 0 0 0.04098
3.3529999 -0.20299999 1.043 150 0 0 0 0.040989999
3.3559999 -0.207 1.0549999 150 0 0 0 0.041000001
3.352 -0.20999999 1.0650001 150 0 0 0 0.04101
3.3540001 -0.214 1.076 150 0 0 0 0.041019998
3.355 -0.21699999 1.087 150 0 0 0 0.041030001
3.3559999 -0.221 1.099 150 0 0 0 0.04104
3.3570001 -0.22400001 1.11 151 0 0 0 0.041049998
3.3599999 -0.228 1.1210001 150 0 0 0 0.041060001
3.355 -0.23199999 1.131 150 0 0 0 0.041069999
3.3570001 -0.235 1.142 75 0 0 0 0.041080002
3.3499999 -0.23899999 1.151 38 0 0 0 0.04109
3.296 -0.23800001 1.143 41 0 0 0 0.041099999
3.256 -0.23899999 1.1390001 76 0 0 0 0.041110002
3.243 -0.242 1.145 150 0 0 0 0.04112
3.2449999 -0.24600001 1.156 150 0 0 0 0.041129999
3.2449999 -0.249 1.1670001 150 0 0 0 0.041140001
3.2449999 -0.25299999 1.177 150 0 0 0 0.04115
3.244 -0.257 1.187 150 0 0 0 0.041159999
3.2479999 -0.26100001 1.199 150 0 0 0 0.041170001
3.2460001 -0.264 1.209 150 0 0 0 0.04118
3.247 -0.26800001 1.22 150 0 0 0 0.041189998
3.2449999 -0.27200001 1.229 150 0 0 0 0.041200001
3.247 -0.27599999 1.24 150 0 0 0 0.041209999
3.243 -0.28 1.249 150 0 0 0 0.041219998
3.2390001 -0.28400001 1.258 150 0 0 0 0.041230001
3.2279999 -0.287 1.2640001 150 0 0 0 0.041239999
3.2190001 -0.28999999 1.27 150 0 0 0 0.041250002
3.2090001 -0.29300001 1.277 150 0 0 0 0.04126
3.1830001 -0.29499999 1.277 55 0 0 0 0.041269999
3.1559999 -0.296 1.276 53 0 0 0 0.041280001
3.1359999 -0.29899999 1.278 54 0 0 0 0.04129
3.1129999 -0.301 1.278 55 0 0 0 0.041299999
3.086 -0.30199999 1.277 68 0 0 0 0.041310001
3.0680001 -0.30399999 1.279 69 0 0 0 0.04132
3.0369999 -0.30500001 1.275 69 0 0 0 0.041329999
3.0179999 -0.308 1.277 72 0 0 0 0.041340001
2.9960001 -0.30899999 1.277 72 0 0 0 0.04135
2.9679999 -0.31099999 1.274 74 0 0 0 0.041359998
2.9030001 -0.308 1.255 87 0 0 0 0.041370001
2.836 -0.30500001 1.235 66 0 0 0 0.041379999
2.76 -0.30000001 1.21 55 0 0 0 0.041390002
2.6029999 -0.287 1.15 44 0 0 0 0.0414
2.582 -0.28799999 1.148 45 0 0 0 0.041409999
2.556 -0.289 1.145 45 0 0 0 0.041420002
2.5350001 -0.28999999 1.143 44 0 0 0 0.04143
2.5039999 -0.29100001 1.137 44 0 0 0 0.041439999
2.4679999 -0.28999999 1.128 39 0 0 0 0.041450001
2.444 -0.29100001 1.124 34 0 0 0 0.04146
2.4059999 -0.28999999 1.114 54 0 0 0 0.041469999
2.404 -0.29300001 1.12 150 0 0 0 0.041480001
2.448 -0.303 1.148 150 0 0 0 0.04149
2.5480001 -0.31900001 1.202 150 0 0 0 0.041499998
3.3559999 -0.42500001 1.594 8 0 0 0 0.041510001
3.3529999 -0.43000001 1.603 11 0 0 0 0.04152
3.335 -0.433 1.604 26 0 0 0 0.041529998
3.3080001 -0.435 1.6 46 0 0 0 0.041540001
3.2880001 -0.43700001 1.601 48 0 0 0 0.041549999
3.2750001 -0.44100001 1.604 48 0 0 0 0.041560002
3.257 -0.44400001 1.604 47 0 0 0 0.04157
3.2360001 -0.44600001 1.603 47 0 0 0 0.041579999
3.2249999 -0.44999999 1.607 47 0 0 0 0.041590001
3.2160001 -0.454 1.612 46 0 0 0 0.0416
2.77 -0.39500001 1.396 150 0 0 0 0.041609999
2.497 -0.36000001 1.265 150 0 0 0 0.041620001
2.385 -0.34799999 1.215 27 0 0 0 0.04163
2.382 -0.352 1.221 25 0 0 0 0.041639999
2.385 -0.35600001 1.229 30 0 0 0 0.041650001
2.3829999 -0.36000001 1.234 32 0 0 0 0.04166
2.381 -0.36399999 1.24 31 0 0 0 0.041669998
2.382 -0.368 1.247 29 0 0 0 0.041680001
2.3800001 -0.37200001 1.252 26 0 0 0 0.041689999
2.3829999 -0.377 1.261 28 0 0 0 0.041700002
2.381 -0.38 1.266 29 0 0 0 0.04171
2.3789999 -0.384 1.271 27 0 0 0 0.041719999
2.381 -0.389 1.278 26 0 0 0 0.041730002
2.3789999 -0.39300001 1.283 25 0 0 0 0.04174
2.3840001 -0.398 1.2920001 25 0 0 0 0.041749999
2.3840001 -0.40200001 1.298 25 0 0 0 0.041760001
2.385 -0.40700001 1.3049999 26 0 0 0 0.04177
2.382 -0.41 1.3099999 26 0 0 0 0.041779999
2.3840001 -0.41499999 1.316 26 0 0 0 0.041790001
2.3859999 -0.419 1.323 26 0 0 0 0.0418
2.382 -0.42300001 1.327 25 0 0 0 0.041809998
2.3859999 -0.428 1.335 23 0 0 0 0.041820001
2.385 -0.43200001 1.34 19 0 0 0 0.04183
2.3900001 -0.43799999 1.349 19 0 0 0 0.041839998
2.3900001 -0.442 1.354 20 0 0 0 0.041850001
2.3900001 -0.447 1.36 25 0 0 0 0.041859999
2.3859999 -0.44999999 1.363 24 0 0 0 0.041870002
2.3889999 -0.45500001 1.37 26 0 0 0 0.04188
2.3900001 -0.46000001 1.376 25 0 0 0 0.041889999
2.3870001 -0.46399999 1.38 20 0 0 0 0.041900001
2.3900001 -0.46900001 1.386 20 0 0 0 0.04191
2.3889999 -0.47299999 1.391 25 0 0 0 0.041919999
2.3889999 -0.47799999 1.396 26 0 0 0 0.041930001
2.392 -0.48300001 1.403 24 0 0 0 0.04194
2.3889999 -0.48699999 1.406 22 0 0 0 0.041949999
2.3929999 -0.49200001 1.413 18 0 0 0 0.041960001
2.395 -0.49700001 1.419 14 0 0 0 0.04197
2.3929999 -0.50099999 1.423 19 0 0 0 0.041979998
2.3940001 -0.50599998 1.428 22 0 0 0 0.041990001
2.3929999 -0.50999999 1.432 24 0 0 0 0.041999999
2.3959999 -0.51499999 1.438 28 0 0 0 0.042010002
2.395 -0.51999998 1.442 28 0 0 0 0.042020001
2.395 -0.52399999 1.446 33 0 0 0 0.042029999
2.395 -0.52899998 1.45 33 0 0 0 0.042040002
2.3929999 -0.53299999 1.4529999 29 0 0 0 0.04205
2.398 -0.53899997 1.46 24 0 0 0 0.042059999
2.398 -0.54299998 1.464 22 0 0 0 0.042070001
2.398 -0.54799998 1.4680001 21 0 0 0 0.04208
2.398 -0.55199999 1.471 23 0 0 0 0.042089999
2.3970001 -0.55699998 1.475 25 0 0 0 0.042100001
2.3970001 -0.56099999 1.478 29 0 0 0 0.04211
2.3989999 -0.56599998 1.482 23 0 0 0 0.042119998
2.3989999 -0.57099998 1.4859999 18 0 0 0 0.042130001
2.3989999 -0.57499999 1.489 17 0 0 0 0.04214
2.3970001 -0.579 1.4910001 19 0 0 0 0.042149998
2.3959999 -0.58399999 1.493 21 0 0 0 0.042160001
2.4000001 -0.58899999 1.499 21 0 0 0 0.042169999
2.398 -0.59299999 1.5 23 0 0 0 0.042180002
2.4000001 -0.59799999 1.5039999 21 0 0 0 0.04219
2.402 -0.60299999 1.508 22 0 0 0 0.042199999
2.404 -0.60799998 1.512 26 0 0 0 0.042210001
2.4059999 -0.61299998 1.515 25 0 0 0 0.04222
2.404 -0.61699998 1.516 19 0 0 0 0.042229999
2.4059999 -0.62099999 1.5190001 17 0 0 0 0.042240001
2.4070001 -0.62599999 1.522 20 0 0 0 0.04225
2.4059999 -0.63 1.523 22 0 0 0 0.042259999
2.4059999 -0.634 1.525 21 0 0 0 0.042270001
2.408 -0.639 1.528 19 0 0 0 0.04228
2.4070001 -0.64300001 1.529 19 0 0 0 0.042289998
2.4030001 -0.64600003 1.528 22 0 0 0 0.042300001
2.405 -0.65100002 1.531 24 0 0 0 0.042309999
2.4059999 -0.65499997 1.533 22 0 0 0 0.042319998
2.4030001 -0.65799999 1.531 21 0 0 0 0.042330001
2.4070001 -0.66399997 1.535 22 0 0 0 0.042339999
2.408 -0.66799998 1.536 22 0 0 0 0.042350002
2.4070001 -0.671 1.5369999 23 0 0 0 0.04236
2.408 -0.676 1.538 23 0 0 0 0.042369999
2.405 -0.67900002 1.536 23 0 0 0 0.042380001
2.405 -0.68199998 1.5369999 22 0 0 0 0.04239
2.4070001 -0.68699998 1.538 24 0 0 0 0.042399999
2.4070001 -0.69099998 1.539 25 0 0 0 0.042410001
2.4100001 -0.69499999 1.54 26 0 0 0 0.04242
2.4119999 -0.699 1.541 25 0 0 0 0.042429999
2.4130001 -0.70300001 1.5420001 24 0 0 0 0.042440001
2.4100001 -0.70599997 1.54 23 0 0 0 0.04245
2.4119999 -0.70999998 1.54 24 0 0 0 0.042459998
2.4089999 -0.713 1.538 21 0 0 0 0.042470001
2.414 -0.71799999 1.54 19 0 0 0 0.042479999
2.4100001 -0.72000003 1.5369999 16 0 0 0 0.042490002
2.411 -0.72399998 1.5369999 17 0 0 0 0.0425
2.4119999 -0.727 1.536 16 0 0 0 0.042509999
2.4119999 -0.73000002 1.535 16 0 0 0 0.042520002
2.414 -0.73400003 1.535 17 0 0 0 0.04253
2.411 -0.736 1.531 17 0 0 0 0.042539999
2.411 -0.73900002 1.53 20 0 0 0 0.042550001
2.411 -0.74199998 1.528 20 0 0 0 0.04256
2.4089999 -0.745 1.525 21 0 0 0 0.042569999
2.4100001 -0.74800003 1.524 21 0 0 0 0.042580001
2.4119999 -0.75099999 1.522 19 0 0 0 0.04259
2.414 -0.75400001 1.522 20 0 0 0 0.042599998
