# .PCD v0.7 - Point Cloud Data file format
VERSION 0.7
FIELDS x y z intensity normal_x normal_y normal_z curvature
SIZE 4 4 4 4 4 4 4 4
TYPE F F F F F F F F
COUNT 1 1 1 1 1 1 1 1
WIDTH 1003
HEIGHT 1
VIEWPOINT 0 0 0 1 0 0 0
POINTS 1003
DATA ascii
3.3889999 0.45699999 0.292 150 0 0 0 0.043699998
3.3940001 0.44800001 0.287 150 0 0 0 0.043710001
3.3900001 0.43799999 0.28099999 151 0 0 0 0.043719999
3.3940001 0.428 0.27599999 150 0 0 0 0.043729998
3.388 0.41800001 0.27000001 151 0 0 0 0.043740001
3.3900001 0.40900001 0.264 151 0 0 0 0.043749999
3.395 0.40000001 0.259 151 0 0 0 0.043760002
3.3929999 0.38999999 0.25299999 151 0 0 0 0.04377
3.3929999 0.38100001 0.24699999 150 0 0 0 0.043779999
3.395 0.37099999 0.242 151 0 0 0 0.043790001
3.3959999 0.36199999 0.236 151 0 0 0 0.0438
3.4000001 0.35299999 0.23100001 151 0 0 0 0.043809999
3.3940001 0.34299999 0.22400001 151 0 0 0 0.043820001
3.395 0.333 0.219 151 0 0 0 0.04383
3.401 0.324 0.213 151 0 0 0 0.043839999
3.398 0.315 0.207 151 0 0 0 0.043850001
3.402 0.30599999 0.20200001 151 0 0 0 0.04386
3.402 0.296 0.19599999 152 0 0 0 0.043869998
3.404 0.287 0.19 152 0 0 0 0.043880001
3.4059999 0.278 0.184 152 0 0 0 0.043889999
3.4030001 0.26800001 0.178 152 0 0 0 0.043900002
3.4030001 0.259 0.17299999 152 0 0 0 0.04391
3.405 0.249 0.167 152 0 0 0 0.043919999
3.4059999 0.23999999 0.161 152 0 0 0 0.043930002
3.4059999 0.23100001 0.155 152 0 0 0 0.04394
3.405 0.221 0.149 152 0 0 0 0.043949999
3.395 0.212 0.14300001 153 0 0 0 0.043960001
3.3989999 0.20299999 0.13699999 153 0 0 0 0.04397
3.404 0.19400001 0.131 152 0 0 0 0.043979999
3.4000001 0.184 0.125 153 0 0 0 0.043990001
3.401 0.175 0.119 153 0 0 0 0.044
3.3989999 0.16599999 0.113 153 0 0 0 0.044009998
3.3940001 0.156 0.106 153 0 0 0 0.044020001
3.4000001 0.147 0.101 153 0 0 0 0.04403
3.3970001 0.138 0.093999997 153 0 0 0 0.044039998
3.401 0.12899999 0.088 153 0 0 0 0.044050001
3.398 0.12 0.082000002 153 0 0 0 0.044059999
3.402 0.111 0.075999998 153 0 0 0 0.044070002
3.404 0.101 0.07 153 0 0 0 0.04408
3.4059999 0.092 0.064000003 153 0 0 0 0.044089999
3.414 0.082999997 0.057999998 153 0 0 0 0.044100001
3.4170001 0.074000001 0.052000001 153 0 0 0 0.04411
3.4170001 0.064999998 0.045000002 152 0 0 0 0.044119999
3.4170001 0.056000002 0.039000001 152 0 0 0 0.044130001
3.4170001 0.046999998 0.033 152 0 0 0 0.04414
3.4230001 0.037999999 0.027000001 152 0 0 0 0.044149999
3.421 0.028999999 0.02 152 0 0 0 0.044160001
3.418 0.018999999 0.014 151 0 0 0 0.04417
3.4200001 0.0099999998 0.0080000004 151 0 0 0 0.044179998
3.4200001 0.001 0.001 151 0 0 0 0.044190001
3.418 -0.0070000002 -0.0040000002 151 0 0 0 0.044199999
3.418 -0.016000001 -0.0099999998 151 0 0 0 0.044210002
3.4219999 -0.025 -0.017000001 151 0 0 0 0.044220001
3.418 -0.034000002 -0.023 151 0 0 0 0.044229999
3.4230001 -0.043000001 -0.029999999 151 0 0 0 0.044240002
3.427 -0.052000001 -0.035999998 151 0 0 0 0.04425
3.427 -0.061000001 -0.043000001 151 0 0 0 0.044259999
3.4230001 -0.07 -0.048999999 151 0 0 0 0.044270001
3.4230001 -0.079000004 -0.055 151 0 0 0 0.04428
3.4230001 -0.088 -0.061999999 151 0 0 0 0.044289999
3.427 -0.097000003 -0.068999998 151 0 0 0 0.044300001
3.4300001 -0.106 -0.075000003 151 0 0 0 0.04431
3.4300001 -0.115 -0.082000002 151 0 0 0 0.044319998
3.4300001 -0.124 -0.088 150 0 0 0 0.044330001
3.4319999 -0.133 -0.094999999 150 0 0 0 0.04434
3.4319999 -0.142 -0.102 150 0 0 0 0.044349998
3.4300001 -0.15099999 -0.108 150 0 0 0 0.044360001
3.4300001 -0.16 -0.115 151 0 0 0 0.044369999
3.4289999 -0.168 -0.122 152 0 0 0 0.044380002
3.414 -0.177 -0.12800001 153 0 0 0 0.04439
3.375 -0.183 -0.133 150 0 0 0 0.044399999
3.368 -0.192 -0.139 151 0 0 0 0.044410001
3.3659999 -0.2 -0.146 151 0 0 0 0.04442
3.3740001 -0.20900001 -0.153 151 0 0 0 0.044429999
3.3469999 -0.21600001 -0.15800001 150 0 0 0 0.044440001
3.342 -0.22499999 -0.164 152 0 0 0 0.04445
3.3429999 -0.233 -0.171 152 0 0 0 0.044459999
3.342 -0.242 -0.178 152 0 0 0 0.044470001
3.342 -0.25 -0.184 152 0 0 0 0.04448
3.339 -0.259 -0.191 151 0 0 0 0.044489998
3.2820001 -0.26300001 -0.19400001 59 0 0 0 0.044500001
3.2279999 -0.26699999 -0.198 150 0 0 0 0.044509999
3.2360001 -0.27599999 -0.205 151 0 0 0 0.044520002
3.234 -0.28400001 -0.211 151 0 0 0 0.044530001
3.233 -0.292 -0.21699999 151 0 0 0 0.044539999
3.2320001 -0.30000001 -0.22400001 151 0 0 0 0.044550002
3.2360001 -0.30899999 -0.23100001 151 0 0 0 0.04456
3.2349999 -0.317 -0.23800001 151 0 0 0 0.044569999
3.2179999 -0.32300001 -0.243 150 0 0 0 0.044580001
3.204 -0.33000001 -0.248 150 0 0 0 0.04459
3.204 -0.338 -0.255 150 0 0 0 0.044599999
3.21 -0.347 -0.26199999 150 0 0 0 0.044610001
3.2090001 -0.35499999 -0.26899999 150 0 0 0 0.04462
3.207 -0.36300001 -0.27500001 150 0 0 0 0.044629999
3.2090001 -0.37099999 -0.28200001 150 0 0 0 0.044640001
3.085 -0.36500001 -0.27700001 150 0 0 0 0.04465
2.8440001 -0.34299999 -0.26199999 150 0 0 0 0.044659998
2.5610001 -0.315 -0.241 20 0 0 0 0.044670001
2.5320001 -0.31799999 -0.244 20 0 0 0 0.044679999
2.4960001 -0.31999999 -0.245 20 0 0 0 0.044690002
2.46 -0.322 -0.24699999 19 0 0 0 0.0447
2.4130001 -0.32100001 -0.24699999 16 0 0 0 0.044709999
2.375 -0.322 -0.249 15 0 0 0 0.044720002
2.362 -0.32600001 -0.252 18 0 0 0 0.04473
2.3529999 -0.331 -0.257 21 0 0 0 0.044739999
2.3610001 -0.338 -0.26199999 19 0 0 0 0.044750001
2.358 -0.34400001 -0.26699999 19 0 0 0 0.04476
2.359 -0.34999999 -0.27200001 21 0 0 0 0.044769999
2.362 -0.35600001 -0.278 20 0 0 0 0.044780001
2.3629999 -0.36199999 -0.28299999 18 0 0 0 0.04479
2.3640001 -0.368 -0.289 19 0 0 0 0.044799998
2.3599999 -0.373 -0.29300001 19 0 0 0 0.044810001
2.358 -0.37900001 -0.29800001 21 0 0 0 0.044819999
2.3670001 -0.38600001 -0.30500001 23 0 0 0 0.044829998
2.3599999 -0.391 -0.30899999 22 0 0 0 0.044840001
2.3640001 -0.39700001 -0.315 20 0 0 0 0.044849999
2.3670001 -0.40400001 -0.31999999 18 0 0 0 0.044860002
2.3640001 -0.40900001 -0.32499999 17 0 0 0 0.04487
2.3659999 -0.41499999 -0.331 17 0 0 0 0.044879999
2.365 -0.421 -0.336 21 0 0 0 0.044890001
2.362 -0.426 -0.34099999 23 0 0 0 0.0449
2.3599999 -0.43200001 -0.34599999 23 0 0 0 0.044909999
2.3670001 -0.43900001 -0.35299999 20 0 0 0 0.044920001
2.365 -0.44400001 -0.35699999 17 0 0 0 0.04493
2.3670001 -0.44999999 -0.36300001 16 0 0 0 0.044939999
2.3699999 -0.456 -0.36899999 18 0 0 0 0.044950001
2.369 -0.46200001 -0.37400001 18 0 0 0 0.04496
2.368 -0.46700001 -0.38 18 0 0 0 0.044969998
2.369 -0.47299999 -0.38499999 17 0 0 0 0.044980001
2.368 -0.479 -0.391 18 0 0 0 0.044989999
2.3670001 -0.48500001 -0.396 18 0 0 0 0.045000002
2.365 -0.49000001 -0.40099999 18 0 0 0 0.04501
2.368 -0.49599999 -0.40700001 17 0 0 0 0.045019999
2.3659999 -0.50099999 -0.41299999 17 0 0 0 0.045030002
2.3699999 -0.50800002 -0.419 16 0 0 0 0.04504
2.3670001 -0.51300001 -0.42399999 15 0 0 0 0.045049999
2.3670001 -0.51899999 -0.42899999 14 0 0 0 0.045060001
2.369 -0.52499998 -0.435 14 0 0 0 0.04507
2.3699999 -0.52999997 -0.44100001 14 0 0 0 0.045079999
2.3729999 -0.537 -0.44800001 15 0 0 0 0.045090001
2.3670001 -0.54100001 -0.45199999 16 0 0 0 0.0451
2.3740001 -0.54799998 -0.45899999 19 0 0 0 0.045109998
2.3740001 -0.55400002 -0.465 20 0 0 0 0.045120001
2.3729999 -0.55900002 -0.47099999 20 0 0 0 0.04513
2.3740001 -0.565 -0.477 22 0 0 0 0.045139998
2.375 -0.57099998 -0.48300001 23 0 0 0 0.045150001
2.3740001 -0.57599998 -0.48800001 22 0 0 0 0.045159999
2.375 -0.58200002 -0.49399999 17 0 0 0 0.045170002
2.3759999 -0.588 -0.5 14 0 0 0 0.04518
2.3900001 -0.597 -0.509 13 0 0 0 0.045189999
2.3859999 -0.60100001 -0.514 14 0 0 0 0.045200001
2.3740001 -0.60399997 -0.51800001 15 0 0 0 0.04521
2.378 -0.61000001 -0.52399999 18 0 0 0 0.045219999
2.3740001 -0.61500001 -0.52999997 19 0 0 0 0.045230001
2.3770001 -0.62099999 -0.53600001 21 0 0 0 0.04524
2.3759999 -0.62599999 -0.542 23 0 0 0 0.045249999
2.3759999 -0.63099998 -0.54799998 23 0 0 0 0.045260001
2.378 -0.63700002 -0.55400002 21 0 0 0 0.04527
2.3759999 -0.64200002 -0.56 20 0 0 0 0.045279998
2.3770001 -0.648 -0.56599998 20 0 0 0 0.045290001
2.378 -0.653 -0.57300001 19 0 0 0 0.045299999
2.3729999 -0.65700001 -0.57800001 20 0 0 0 0.045310002
2.375 -0.66299999 -0.58399999 21 0 0 0 0.04532
2.3759999 -0.66900003 -0.59100002 18 0 0 0 0.045329999
2.381 -0.676 -0.59799999 21 0 0 0 0.045340002
2.375 -0.67900002 -0.60299999 25 0 0 0 0.04535
2.375 -0.68400002 -0.60900003 24 0 0 0 0.045359999
2.381 -0.69099998 -0.61699998 22 0 0 0 0.045370001
2.382 -0.69700003 -0.62300003 21 0 0 0 0.04538
2.378 -0.70099998 -0.62800002 21 0 0 0 0.045389999
2.382 -0.70700002 -0.63499999 21 0 0 0 0.045400001
2.3800001 -0.71200001 -0.64099997 21 0 0 0 0.04541
2.3789999 -0.71600002 -0.64700001 21 0 0 0 0.045419998
2.381 -0.722 -0.65399998 19 0 0 0 0.045430001
2.3829999 -0.72799999 -0.66100001 17 0 0 0 0.04544
2.382 -0.73299998 -0.667 19 0 0 0 0.045449998
2.3789999 -0.73699999 -0.67299998 20 0 0 0 0.045460001
2.3829999 -0.74299997 -0.68000001 20 0 0 0 0.045469999
2.3829999 -0.74800003 -0.68699998 21 0 0 0 0.045480002
2.385 -0.75400001 -0.69400001 22 0 0 0 0.04549
2.381 -0.75700003 -0.699 21 0 0 0 0.045499999
2.381 -0.76200002 -0.70499998 20 0 0 0 0.045510001
2.3870001 -0.76899999 -0.71399999 20 0 0 0 0.04552
2.3829999 -0.773 -0.71899998 19 0 0 0 0.045529999
2.385 -0.778 -0.72600001 20 0 0 0 0.045540001
2.3870001 -0.78399998 -0.73299998 20 0 0 0 0.04555
2.3859999 -0.78799999 -0.74000001 21 0 0 0 0.045559999
2.385 -0.792 -0.74599999 21 0 0 0 0.045570001
2.3840001 -0.79699999 -0.75199997 20 0 0 0 0.04558
2.3829999 -0.801 -0.75800002 22 0 0 0 0.045589998
2.385 -0.80599999 -0.76499999 21 0 0 0 0.045600001
2.3840001 -0.81099999 -0.77200001 23 0 0 0 0.045609999
2.3829999 -0.815 -0.778 24 0 0 0 0.045620002
2.385 -0.81999999 -0.78500003 22 0 0 0 0.045630001
2.3840001 -0.82499999 -0.792 20 0 0 0 0.045639999
2.3859999 -0.82999998 -0.79900002 18 0 0 0 0.045650002
2.391 -0.83600003 -0.80699998 21 0 0 0 0.04566
2.385 -0.838 -0.81199998 26 0 0 0 0.045669999
2.3759999 -0.83999997 -0.81599998 32 0 0 0 0.045680001
2.3570001 -0.83700001 -0.81599998 29 0 0 0 0.04569
2.3410001 -0.83600003 -0.81699997 29 0 0 0 0.045699999
2.326 -0.83399999 -0.81800002 29 0 0 0 0.045710001
2.3039999 -0.83099997 -0.81699997 29 0 0 0 0.04572
2.2850001 -0.82800001 -0.81699997 29 0 0 0 0.045729998
2.27 -0.82599998 -0.81800002 29 0 0 0 0.045740001
2.2479999 -0.82200003 -0.81599998 29 0 0 0 0.04575
2.234 -0.82099998 -0.81699997 29 0 0 0 0.045759998
2.217 -0.81800002 -0.81699997 29 0 0 0 0.045770001
2.201 -0.81599998 -0.81699997 27 0 0 0 0.045779999
2.1830001 -0.81300002 -0.81699997 27 0 0 0 0.045790002
2.1670001 -0.81 -0.81699997 28 0 0 0 0.0458
2.1500001 -0.80800003 -0.81699997 28 0 0 0 0.045809999
2.131 -0.80400002 -0.81599998 28 0 0 0 0.045820002
2.122 -0.80400002 -0.81800002 28 0 0 0 0.04583
2.1029999 -0.80000001 -0.81699997 28 0 0 0 0.045839999
2.0869999 -0.79699999 -0.81599998 28 0 0 0 0.045850001
2.073 -0.79500002 -0.81699997 27 0 0 0 0.04586
2.0550001 -0.79100001 -0.81599998 27 0 0 0 0.045869999
2.043 -0.78899997 -0.81699997 28 0 0 0 0.045880001
2.0239999 -0.78500003 -0.815 27 0 0 0 0.04589
2.0120001 -0.78299999 -0.81599998 28 0 0 0 0.045899998
1.995 -0.77899998 -0.81400001 28 0 0 0 0.045910001
1.984 -0.778 -0.815 28 0 0 0 0.045919999
1.967 -0.77399999 -0.81400001 28 0 0 0 0.045929998
1.955 -0.77200001 -0.815 28 0 0 0 0.045940001
1.942 -0.76899999 -0.815 28 0 0 0 0.045949999
1.929 -0.76700002 -0.815 28 0 0 0 0.045960002
1.9170001 -0.764 -0.815 29 0 0 0 0.04597
1.9069999 -0.76300001 -0.81599998 28 0 0 0 0.045979999
1.893 -0.759 -0.815 28 0 0 0 0.045990001
1.882 -0.75700003 -0.815 28 0 0 0 0.046
1.867 -0.75300002 -0.81400001 29 0 0 0 0.046009999
1.854 -0.75 -0.81400001 27 0 0 0 0.046020001
1.844 -0.74800003 -0.81400001 26 0 0 0 0.04603
1.8329999 -0.74599999 -0.815 27 0 0 0 0.046039999
1.822 -0.74299997 -0.815 28 0 0 0 0.046050001
1.808 -0.73900002 -0.81300002 28 0 0 0 0.04606
1.799 -0.73699999 -0.81400001 29 0 0 0 0.046069998
1.786 -0.73400003 -0.81300002 29 0 0 0 0.046080001
1.777 -0.73199999 -0.81400001 29 0 0 0 0.046089999
1.773 -0.73199999 -0.81699997 29 0 0 0 0.046100002
1.7589999 -0.727 -0.815 29 0 0 0 0.04611
1.75 -0.72500002 -0.815 28 0 0 0 0.046119999
1.737 -0.72100002 -0.81400001 29 0 0 0 0.046130002
1.724 -0.71700001 -0.81199998 33 0 0 0 0.04614
1.719 -0.71600002 -0.81400001 34 0 0 0 0.046149999
1.707 -0.713 -0.81300002 32 0 0 0 0.046160001
1.7 -0.71100003 -0.81400001 33 0 0 0 0.04617
1.6849999 -0.70599997 -0.81099999 33 0 0 0 0.046179999
1.683 -0.70599997 -0.81400001 33 0 0 0 0.046190001
1.6720001 -0.70300001 -0.81400001 34 0 0 0 0.0462
1.665 -0.70099998 -0.81400001 34 0 0 0 0.046209998
1.656 -0.69800001 -0.81400001 34 0 0 0 0.046220001
1.648 -0.69499999 -0.81400001 34 0 0 0 0.04623
1.641 -0.69300002 -0.81400001 14 0 0 0 0.046239998
1.6339999 -0.69099998 -0.815 14 0 0 0 0.046250001
1.626 -0.68800002 -0.815 14 0 0 0 0.046259999
1.622 -0.68699998 -0.81699997 14 0 0 0 0.046270002
1.612 -0.68300003 -0.815 14 0 0 0 0.04628
1.599 -0.67799997 -0.81300002 35 0 0 0 0.046289999
1.592 -0.676 -0.81300002 34 0 0 0 0.046300001
1.587 -0.67400002 -0.81400001 35 0 0 0 0.04631
1.581 -0.67199999 -0.815 36 0 0 0 0.046319999
1.572 -0.66799998 -0.81300002 34 0 0 0 0.046330001
1.566 -0.66600001 -0.81400001 36 0 0 0 0.04634
1.556 -0.662 -0.81199998 35 0 0 0 0.046349999
1.559 -0.66299999 -0.81699997 1 0 0 0 0.046360001
1.546 -0.65700001 -0.81300002 37 0 0 0 0.04637
1.5369999 -0.65399998 -0.81199998 38 0 0 0 0.046379998
1.543 -0.65600002 -0.81800002 14 0 0 0 0.046390001
1.536 -0.653 -0.81699997 14 0 0 0 0.046399999
1.518 -0.64499998 -0.81099999 38 0 0 0 0.046410002
1.521 -0.64700001 -0.81599998 14 0 0 0 0.04642
1.513 -0.64300001 -0.81400001 14 0 0 0 0.046429999
1.518 -0.64399999 -0.81999999 14 0 0 0 0.046440002
1.5039999 -0.63800001 -0.815 13 0 0 0 0.04645
1.502 -0.63700002 -0.81599998 13 0 0 0 0.046459999
1.495 -0.63300002 -0.81599998 13 0 0 0 0.046470001
1.489 -0.63 -0.815 14 0 0 0 0.04648
1.4859999 -0.62800002 -0.81599998 14 0 0 0 0.046489999
1.484 -0.62699997 -0.81699997 14 0 0 0 0.046500001
1.48 -0.62400001 -0.81699997 14 0 0 0 0.04651
1.475 -0.62199998 -0.81699997 14 0 0 0 0.046519998
1.471 -0.61900002 -0.81699997 14 0 0 0 0.046530001
1.462 -0.61400002 -0.81400001 14 0 0 0 0.04654
1.461 -0.61299998 -0.81599998 14 0 0 0 0.046549998
1.459 -0.611 -0.81699997 14 0 0 0 0.046560001
1.452 -0.60699999 -0.815 14 0 0 0 0.046569999
1.454 -0.60699999 -0.81800002 14 0 0 0 0.046580002
1.448 -0.60399997 -0.81699997 14 0 0 0 0.04659
1.438 -0.59799999 -0.81300002 14 0 0 0 0.046599999
1.434 -0.59500003 -0.81199998 14 0 0 0 0.046610001
1.434 -0.59399998 -0.81400001 14 0 0 0 0.04662
1.431 -0.59100002 -0.81400001 15 0 0 0 0.046629999
1.4299999 -0.58999997 -0.815 14 0 0 0 0.046640001
1.423 -0.58499998 -0.81300002 15 0 0 0 0.04665
1.426 -0.58499998 -0.81599998 14 0 0 0 0.046659999
1.427 -0.58399999 -0.81800002 13 0 0 0 0.046670001
1.423 -0.58099997 -0.81699997 12 0 0 0 0.04668
1.423 -0.57999998 -0.81800002 10 0 0 0 0.046689998
1.4220001 -0.57700002 -0.81900001 9 0 0 0 0.046700001
1.418 -0.574 -0.81800002 11 0 0 0 0.046709999
1.419 -0.57300001 -0.81999999 12 0 0 0 0.046720002
1.408 -0.56699997 -0.81400001 14 0 0 0 0.046730001
1.411 -0.56599998 -0.81599998 15 0 0 0 0.046739999
1.411 -0.56400001 -0.81699997 15 0 0 0 0.046750002
1.409 -0.56199998 -0.81699997 15 0 0 0 0.04676
1.4069999 -0.55900002 -0.81699997 15 0 0 0 0.046769999
1.406 -0.55599999 -0.81699997 15 0 0 0 0.046780001
1.399 -0.55199999 -0.81400001 15 0 0 0 0.04679
1.402 -0.551 -0.81599998 15 0 0 0 0.046799999
1.404 -0.55000001 -0.81699997 16 0 0 0 0.046810001
1.403 -0.54699999 -0.81699997 16 0 0 0 0.04682
1.4 -0.54400003 -0.81599998 15 0 0 0 0.046829998
1.404 -0.54299998 -0.81800002 15 0 0 0 0.046840001
1.399 -0.53899997 -0.81599998 15 0 0 0 0.04685
1.399 -0.537 -0.81599998 15 0 0 0 0.046859998
1.399 -0.53399998 -0.81599998 15 0 0 0 0.046870001
1.401 -0.53299999 -0.81699997 14 0 0 0 0.046879999
1.4 -0.52999997 -0.81599998 14 0 0 0 0.046890002
1.401 -0.528 -0.81699997 14 0 0 0 0.0469
1.402 -0.52600002 -0.81699997 14 0 0 0 0.046909999
1.402 -0.52399999 -0.81699997 14 0 0 0 0.046920002
1.401 -0.52100003 -0.81599998 14 0 0 0 0.04693
1.404 -0.51999998 -0.81800002 14 0 0 0 0.046939999
1.405 -0.51700002 -0.81800002 14 0 0 0 0.046950001
1.406 -0.51499999 -0.81800002 14 0 0 0 0.04696
1.406 -0.51200002 -0.81699997 14 0 0 0 0.046969999
1.408 -0.50999999 -0.81800002 14 0 0 0 0.046980001
1.41 -0.50800002 -0.81800002 14 0 0 0 0.04699
1.41 -0.50599998 -0.81699997 14 0 0 0 0.046999998
1.411 -0.50300002 -0.81699997 14 0 0 0 0.047010001
1.4119999 -0.50099999 -0.81699997 14 0 0 0 0.047019999
1.415 -0.49900001 -0.81800002 14 0 0 0 0.047029998
1.421 -0.498 -0.81999999 15 0 0 0 0.047040001
1.423 -0.49599999 -0.81999999 14 0 0 0 0.047049999
1.423 -0.49399999 -0.81900001 15 0 0 0 0.047060002
1.425 -0.491 -0.81900001 14 0 0 0 0.04707
1.426 -0.48899999 -0.81800002 14 0 0 0 0.047079999
1.429 -0.48699999 -0.81800002 14 0 0 0 0.047090001
1.4299999 -0.484 -0.81800002 14 0 0 0 0.0471
1.436 -0.48300001 -0.81900001 14 0 0 0 0.047109999
1.439 -0.48199999 -0.81999999 14 0 0 0 0.047120001
1.4400001 -0.479 -0.81900001 14 0 0 0 0.04713
1.444 -0.477 -0.81900001 14 0 0 0 0.047139999
1.4450001 -0.47400001 -0.81800002 14 0 0 0 0.047150001
1.452 -0.47299999 -0.81999999 14 0 0 0 0.04716
1.454 -0.47099999 -0.81999999 14 0 0 0 0.047169998
1.455 -0.46799999 -0.81900001 14 0 0 0 0.047180001
1.459 -0.46599999 -0.81900001 14 0 0 0 0.047189999
1.461 -0.46399999 -0.81800002 14 0 0 0 0.047200002
1.464 -0.46200001 -0.81699997 14 0 0 0 0.04721
1.467 -0.45899999 -0.81699997 14 0 0 0 0.047219999
1.476 -0.45899999 -0.81999999 13 0 0 0 0.047230002
1.4809999 -0.45699999 -0.82099998 13 0 0 0 0.04724
1.484 -0.45500001 -0.81999999 12 0 0 0 0.047249999
1.4910001 -0.454 -0.82200003 12 0 0 0 0.047260001
1.499 -0.45300001 -0.82300001 13 0 0 0 0.04727
1.501 -0.44999999 -0.82200003 14 0 0 0 0.047279999
1.5089999 -0.449 -0.824 15 0 0 0 0.047290001
1.515 -0.44800001 -0.82499999 14 0 0 0 0.0473
1.517 -0.44499999 -0.82300001 14 0 0 0 0.047309998
1.52 -0.44299999 -0.82200003 15 0 0 0 0.047320001
1.529 -0.442 -0.824 15 0 0 0 0.04733
1.533 -0.44 -0.82300001 15 0 0 0 0.047339998
1.54 -0.43799999 -0.824 15 0 0 0 0.047350001
1.5470001 -0.43700001 -0.82499999 15 0 0 0 0.047359999
1.553 -0.435 -0.82499999 15 0 0 0 0.047370002
1.561 -0.43399999 -0.82599998 15 0 0 0 0.04738
1.564 -0.43099999 -0.82499999 15 0 0 0 0.047389999
1.568 -0.42899999 -0.824 14 0 0 0 0.047400001
1.577 -0.428 -0.82499999 15 0 0 0 0.04741
1.5880001 -0.42699999 -0.82800001 15 0 0 0 0.047419999
1.592 -0.42500001 -0.82599998 16 0 0 0 0.047430001
1.597 -0.42300001 -0.82599998 15 0 0 0 0.04744
1.603 -0.421 -0.82499999 15 0 0 0 0.047449999
1.607 -0.41800001 -0.824 15 0 0 0 0.047460001
1.608 -0.41499999 -0.82099998 53 0 0 0 0.04747
1.618 -0.414 -0.82200003 60 0 0 0 0.047479998
1.617 -0.41 -0.81800002 55 0 0 0 0.047490001
1.631 -0.41 -0.82099998 58 0 0 0 0.047499999
1.641 -0.40900001 -0.82300001 51 0 0 0 0.047510002
1.645 -0.40700001 -0.82099998 50 0 0 0 0.04752
1.655 -0.405 -0.82200003 52 0 0 0 0.047529999
1.665 -0.40400001 -0.82300001 49 0 0 0 0.047540002
1.673 -0.40200001 -0.82300001 52 0 0 0 0.04755
1.682 -0.40099999 -0.824 49 0 0 0 0.047559999
1.693 -0.40000001 -0.82499999 47 0 0 0 0.047570001
1.7 -0.398 -0.824 51 0 0 0 0.04758
1.7079999 -0.396 -0.824 44 0 0 0 0.047589999
1.716 -0.39500001 -0.824 45 0 0 0 0.047600001
1.724 -0.39300001 -0.82300001 42 0 0 0 0.04761
1.737 -0.39199999 -0.82499999 42 0 0 0 0.047619998
1.7460001 -0.38999999 -0.82499999 46 0 0 0 0.047630001
1.756 -0.389 -0.82499999 42 0 0 0 0.04764
1.761 -0.38699999 -0.82300001 42 0 0 0 0.047649998
1.772 -0.38499999 -0.82300001 41 0 0 0 0.047660001
1.786 -0.38499999 -0.82599998 37 0 0 0 0.047669999
1.798 -0.38299999 -0.82599998 36 0 0 0 0.047680002
1.808 -0.382 -0.82599998 31 0 0 0 0.04769
1.821 -0.38100001 -0.82700002 32 0 0 0 0.047699999
1.83 -0.37900001 -0.82599998 37 0 0 0 0.047710001
1.8380001 -0.377 -0.82499999 39 0 0 0 0.04772
1.85 -0.37599999 -0.82599998 34 0 0 0 0.047729999
1.8660001 -0.375 -0.82800001 36 0 0 0 0.047740001
1.872 -0.373 -0.82499999 34 0 0 0 0.04775
1.881 -0.37099999 -0.824 34 0 0 0 0.047759999
1.896 -0.37 -0.82599998 34 0 0 0 0.047770001
1.908 -0.368 -0.82599998 34 0 0 0 0.04778
1.918 -0.36700001 -0.82499999 34 0 0 0 0.047789998
1.934 -0.366 -0.82700002 33 0 0 0 0.047800001
1.951 -0.36500001 -0.82800001 33 0 0 0 0.047809999
1.9630001 -0.36399999 -0.82800001 34 0 0 0 0.047820002
1.979 -0.36300001 -0.829 35 0 0 0 0.047830001
1.993 -0.36199999 -0.82999998 34 0 0 0 0.047839999
2.0020001 -0.359 -0.82800001 33 0 0 0 0.047850002
2.0179999 -0.35800001 -0.82800001 33 0 0 0 0.04786
2.033 -0.35699999 -0.829 32 0 0 0 0.047869999
2.0450001 -0.35499999 -0.82800001 31 0 0 0 0.047880001
2.062 -0.354 -0.829 32 0 0 0 0.04789
2.0799999 -0.354 -0.82999998 32 0 0 0 0.047899999
2.0940001 -0.352 -0.82999998 33 0 0 0 0.047910001
2.109 -0.35100001 -0.82999998 31 0 0 0 0.04792
2.122 -0.34900001 -0.829 30 0 0 0 0.047929998
2.1440001 -0.34900001 -0.83099997 30 0 0 0 0.047940001
2.154 -0.347 -0.829 33 0 0 0 0.04795
2.175 -0.34599999 -0.83099997 37 0 0 0 0.047959998
2.1919999 -0.345 -0.83099997 29 0 0 0 0.047970001
2.2130001 -0.34400001 -0.83200002 29 0 0 0 0.047979999
2.2279999 -0.34200001 -0.83099997 29 0 0 0 0.047990002
2.2449999 -0.34099999 -0.83099997 29 0 0 0 0.048
2.267 -0.34 -0.833 29 0 0 0 0.048009999
2.2839999 -0.33899999 -0.83200002 30 0 0 0 0.048020002
2.302 -0.338 -0.83200002 29 0 0 0 0.04803
2.319 -0.336 -0.83099997 29 0 0 0 0.048039999
2.339 -0.33500001 -0.83200002 30 0 0 0 0.048050001
2.3559999 -0.333 -0.83099997 29 0 0 0 0.04806
2.372 -0.33199999 -0.829 23 0 0 0 0.048069999
2.401 -0.33199999 -0.83200002 19 0 0 0 0.048080001
2.418 -0.33000001 -0.83099997 18 0 0 0 0.04809
2.4389999 -0.329 -0.83099997 19 0 0 0 0.048099998
2.464 -0.32800001 -0.83200002 20 0 0 0 0.048110001
2.4809999 -0.32600001 -0.83099997 21 0 0 0 0.048119999
2.5079999 -0.32600001 -0.83200002 23 0 0 0 0.048129998
2.5280001 -0.324 -0.83099997 22 0 0 0 0.048140001
2.5580001 -0.324 -0.833 23 0 0 0 0.048149999
2.5899999 -0.324 -0.83600003 29 0 0 0 0.048160002
2.6199999 -0.32300001 -0.838 32 0 0 0 0.04817
2.6429999 -0.322 -0.83700001 32 0 0 0 0.048179999
2.6730001 -0.32100001 -0.83899999 31 0 0 0 0.048190001
2.6949999 -0.31999999 -0.838 30 0 0 0 0.0482
2.724 -0.31900001 -0.83899999 31 0 0 0 0.048209999
2.7590001 -0.31900001 -0.84100002 32 0 0 0 0.048220001
2.7950001 -0.31900001 -0.84299999 32 0 0 0 0.04823
2.8180001 -0.317 -0.84200001 31 0 0 0 0.048239999
2.845 -0.31600001 -0.84100002 30 0 0 0 0.048250001
2.872 -0.31400001 -0.84100002 30 0 0 0 0.04826
2.9159999 -0.315 -0.84500003 29 0 0 0 0.048269998
2.95 -0.31400001 -0.84500003 29 0 0 0 0.048280001
2.9820001 -0.31299999 -0.84600002 29 0 0 0 0.048289999
3.013 -0.31200001 -0.84500003 29 0 0 0 0.048300002
3.0510001 -0.31099999 -0.847 25 0 0 0 0.04831
3.0799999 -0.31 -0.84500003 25 0 0 0 0.048319999
3.108 -0.308 -0.84399998 24 0 0 0 0.048330002
3.1400001 -0.30700001 -0.84299999 24 0 0 0 0.04834
3.1789999 -0.30599999 -0.84299999 25 0 0 0 0.048349999
3.211 -0.30399999 -0.84200001 46 0 0 0 0.048360001
3.224 -0.301 -0.83600003 150 0 0 0 0.04837
3.2279999 -0.29699999 -0.82700002 150 0 0 0 0.048379999
3.2260001 -0.292 -0.81599998 150 0 0 0 0.048390001
3.23 -0.28799999 -0.80699998 150 0 0 0 0.0484
3.2279999 -0.28299999 -0.79699999 150 0 0 0 0.048409998
3.23 -0.27900001 -0.78799999 150 0 0 0 0.048420001
3.2309999 -0.27500001 -0.778 150 0 0 0 0.04843
3.237 -0.271 -0.76999998 150 0 0 0 0.048439998
3.2750001 -0.26899999 -0.76899999 56 0 0 0 0.048450001
3.3299999 -0.27000001 -0.77100003 111 0 0 0 0.048459999
3.3269999 -0.26499999 -0.76099998 150 0 0 0 0.048470002
3.3340001 -0.26100001 -0.75199997 151 0 0 0 0.04848
3.3280001 -0.25600001 -0.741 151 0 0 0 0.048489999
3.3310001 -0.252 -0.73100001 150 0 0 0 0.048500001
3.3269999 -0.24699999 -0.72000003 150 0 0 0 0.04851
3.326 -0.243 -0.70999998 150 0 0 0 0.048519999
3.3280001 -0.23899999 -0.69999999 150 0 0 0 0.048530001
3.3269999 -0.235 -0.68900001 150 0 0 0 0.04854
3.3280001 -0.23 -0.67900002 150 0 0 0 0.048549999
3.3310001 -0.226 -0.67000002 150 0 0 0 0.048560001
3.3340001 -0.222 -0.66000003 150 0 0 0 0.04857
3.3499999 -0.219 -0.653 150 0 0 0 0.048579998
3.3640001 -0.21600001 -0.64499998 150 0 0 0 0.048590001
3.362 -0.212 -0.63499999 151 0 0 0 0.048599999
3.3640001 -0.208 -0.625 151 0 0 0 0.048610002
3.3659999 -0.204 -0.61500001 151 0 0 0 0.04862
3.365 -0.199 -0.60399997 150 0 0 0 0.048629999
3.3659999 -0.19499999 -0.59399998 151 0 0 0 0.048640002
3.368 -0.192 -0.58399999 150 0 0 0 0.04865
3.381 -0.18799999 -0.57599998 150 0 0 0 0.048659999
3.4119999 -0.186 -0.56999999 150 0 0 0 0.048670001
3.4289999 -0.183 -0.56300002 151 0 0 0 0.04868
3.4349999 -0.17900001 -0.55299997 151 0 0 0 0.048689999
3.4289999 -0.175 -0.542 151 0 0 0 0.048700001
3.431 -0.171 -0.53100002 151 0 0 0 0.04871
3.4300001 -0.167 -0.52100003 151 0 0 0 0.048719998
3.4349999 -0.163 -0.51099998 151 0 0 0 0.048730001
3.425 -0.15899999 -0.49900001 151 0 0 0 0.04874
3.4260001 -0.155 -0.48800001 151 0 0 0 0.048749998
3.428 -0.15099999 -0.47799999 151 0 0 0 0.048760001
3.4260001 -0.147 -0.46700001 151 0 0 0 0.048769999
3.428 -0.14399999 -0.45699999 151 0 0 0 0.048780002
3.428 -0.14 -0.447 151 0 0 0 0.04879
3.428 -0.13600001 -0.43599999 151 0 0 0 0.048799999
3.4260001 -0.132 -0.42500001 151 0 0 0 0.048810001
3.427 -0.12899999 -0.41499999 151 0 0 0 0.04882
3.4300001 -0.125 -0.405 151 0 0 0 0.048829999
3.428 -0.121 -0.39399999 151 0 0 0 0.048840001
3.424 -0.117 -0.38299999 151 0 0 0 0.04885
3.424 -0.114 -0.37200001 151 0 0 0 0.048859999
3.427 -0.11 -0.36199999 151 0 0 0 0.048870001
3.427 -0.107 -0.35100001 151 0 0 0 0.04888
3.425 -0.103 -0.34 151 0 0 0 0.048889998
3.4260001 -0.1 -0.33000001 151 0 0 0 0.048900001
3.428 -0.096000001 -0.31999999 151 0 0 0 0.048909999
3.424 -0.093000002 -0.30899999 151 0 0 0 0.048920002
3.4300001 -0.089000002 -0.29899999 151 0 0 0 0.048930001
3.4260001 -0.086000003 -0.28799999 151 0 0 0 0.048939999
3.427 -0.082000002 -0.27700001 151 0 0 0 0.048950002
3.428 -0.079000004 -0.26699999 151 0 0 0 0.04896
3.4289999 -0.075000003 -0.25600001 151 0 0 0 0.048969999
3.424 -0.071999997 -0.245 151 0 0 0 0.048980001
3.4260001 -0.068999998 -0.235 151 0 0 0 0.04899
3.427 -0.064999998 -0.22400001 151 0 0 0 0.048999999
3.4189999 -0.061999999 -0.213 151 0 0 0 0.049010001
3.425 -0.059 -0.20299999 151 0 0 0 0.04902
3.4230001 -0.055 -0.192 151 0 0 0 0.049029998
3.4289999 -0.052000001 -0.182 151 0 0 0 0.049040001
3.425 -0.048999999 -0.171 151 0 0 0 0.04905
3.4230001 -0.045000002 -0.16 151 0 0 0 0.049059998
3.4230001 -0.041999999 -0.149 151 0 0 0 0.049070001
3.424 -0.039000001 -0.139 151 0 0 0 0.049079999
3.425 -0.035999998 -0.12800001 151 0 0 0 0.049090002
3.425 -0.033 -0.118 151 0 0 0 0.0491
3.4230001 -0.029999999 -0.107 151 0 0 0 0.049109999
3.424 -0.026000001 -0.096000001 151 0 0 0 0.049120001
3.424 -0.023 -0.086000003 151 0 0 0 0.04913
3.4230001 -0.02 -0.075000003 151 0 0 0 0.049139999
3.425 -0.017000001 -0.064000003 151 0 0 0 0.049150001
3.4200001 -0.014 -0.054000001 151 0 0 0 0.04916
3.425 -0.011 -0.043000001 151 0 0 0 0.049169999
3.424 -0.0080000004 -0.032000002 151 0 0 0 0.049180001
3.4219999 -0.0049999999 -0.022 152 0 0 0 0.04919
3.424 -0.0020000001 -0.011 151 0 0 0 0.049199998
3.4219999 0 0 151 0 0 0 0.049210001
3.424 0.003 0.0089999996 152 0 0 0 0.049219999
3.4219999 0.0060000001 0.02 152 0 0 0 0.049229998
3.4260001 0.0080000004 0.030999999 152 0 0 0 0.049240001
3.421 0.011 0.041000001 152 0 0 0 0.049249999
3.424 0.014 0.052000001 152 0 0 0 0.049260002
3.4200001 0.017000001 0.063000001 152 0 0 0 0.04927
3.424 0.02 0.074000001 152 0 0 0 0.049279999
3.425 0.023 0.083999999 152 0 0 0 0.049290001
3.4230001 0.026000001 0.094999999 152 0 0 0 0.0493
3.4219999 0.028000001 0.106 152 0 0 0 0.049309999
3.421 0.030999999 0.117 152 0 0 0 0.049320001
3.4200001 0.034000002 0.127 152 0 0 0 0.04933
3.4200001 0.035999998 0.138 152 0 0 0 0.049339999
3.4189999 0.039000001 0.149 152 0 0 0 0.049350001
3.4200001 0.041999999 0.16 152 0 0 0 0.04936
3.421 0.045000002 0.17 151 0 0 0 0.049369998
3.4200001 0.046999998 0.18099999 151 0 0 0 0.049380001
3.4200001 0.050000001 0.192 152 0 0 0 0.049389999
3.421 0.052000001 0.20299999 151 0 0 0 0.049400002
3.4200001 0.055 0.213 151 0 0 0 0.04941
3.4200001 0.057 0.22400001 151 0 0 0 0.049419999
3.421 0.059999999 0.235 151 0 0 0 0.049430002
3.4200001 0.063000001 0.24600001 151 0 0 0 0.04944
3.4170001 0.064999998 0.25600001 151 0 0 0 0.049449999
3.4230001 0.068000004 0.26800001 151 0 0 0 0.049460001
3.4219999 0.07 0.27900001 151 0 0 0 0.04947
3.421 0.072999999 0.289 151 0 0 0 0.049479999
3.4200001 0.075000003 0.30000001 151 0 0 0 0.049490001
3.424 0.077 0.31099999 151 0 0 0 0.0495
3.425 0.079999998 0.322 151 0 0 0 0.049509998
3.4219999 0.082000002 0.333 151 0 0 0 0.049520001
3.424 0.085000001 0.34400001 151 0 0 0 0.049529999
3.4200001 0.086999997 0.354 151 0 0 0 0.049539998
3.4219999 0.089000002 0.366 151 0 0 0 0.049550001
3.421 0.090999998 0.37599999 151 0 0 0 0.049559999
3.4189999 0.093999997 0.38699999 151 0 0 0 0.049570002
3.4200001 0.096000001 0.398 151 0 0 0 0.04958
3.4219999 0.097999997 0.40900001 151 0 0 0 0.049589999
3.4200001 0.101 0.41999999 151 0 0 0 0.049600001
3.421 0.103 0.43099999 151 0 0 0 0.04961
3.4170001 0.105 0.44100001 151 0 0 0 0.049619999
3.4200001 0.107 0.45300001 151 0 0 0 0.049630001
3.421 0.109 0.46399999 151 0 0 0 0.04964
3.421 0.111 0.47499999 151 0 0 0 0.049649999
3.4219999 0.114 0.486 151 0 0 0 0.049660001
3.4219999 0.116 0.49700001 151 0 0 0 0.04967
3.4219999 0.118 0.50800002 151 0 0 0 0.049679998
3.421 0.12 0.51899999 151 0 0 0 0.049690001
3.421 0.122 0.52999997 151 0 0 0 0.049699999
3.4200001 0.124 0.54100001 151 0 0 0 0.049710002
3.418 0.126 0.55199999 151 0 0 0 0.04972
3.4189999 0.12800001 0.56300002 151 0 0 0 0.049729999
3.4200001 0.13 0.574 151 0 0 0 0.049740002
3.4170001 0.131 0.58499998 151 0 0 0 0.04975
3.4189999 0.133 0.597 151 0 0 0 0.049759999
3.418 0.13500001 0.60699999 151 0 0 0 0.049770001
3.4230001 0.13699999 0.62 151 0 0 0 0.04978
3.424 0.139 0.63099998 151 0 0 0 0.049789999
3.4200001 0.141 0.64099997 151 0 0 0 0.049800001
3.421 0.14300001 0.653 151 0 0 0 0.04981
3.4219999 0.14399999 0.66399997 151 0 0 0 0.049819998
3.4189999 0.146 0.67500001 151 0 0 0 0.049830001
3.4200001 0.148 0.68599999 151 0 0 0 0.04984
3.425 0.15000001 0.69800001 151 0 0 0 0.049849998
3.4189999 0.15099999 0.708 151 0 0 0 0.049860001
3.421 0.153 0.72000003 151 0 0 0 0.049869999
3.421 0.155 0.73100001 151 0 0 0 0.049880002
3.4230001 0.156 0.74299997 150 0 0 0 0.04989
3.4189999 0.15800001 0.75300002 151 0 0 0 0.049899999
3.4189999 0.15899999 0.76499999 150 0 0 0 0.049910001
3.4200001 0.161 0.77600002 151 0 0 0 0.04992
3.4219999 0.162 0.78799999 151 0 0 0 0.049929999
3.418 0.164 0.79799998 151 0 0 0 0.049940001
3.4159999 0.16500001 0.80900002 151 0 0 0 0.04995
3.4159999 0.16599999 0.81999999 151 0 0 0 0.049959999
3.415 0.168 0.83099997 151 0 0 0 0.049970001
3.4170001 0.169 0.84299999 150 0 0 0 0.04998
3.418 0.171 0.85500002 150 0 0 0 0.049989998
3.4159999 0.17200001 0.866 150 0 0 0 0.050000001
3.4200001 0.17299999 0.87800002 150 0 0 0 0.050009999
3.4170001 0.175 0.889 150 0 0 0 0.050020002
3.4189999 0.176 0.90100002 150 0 0 0 0.050030001
3.418 0.177 0.912 150 0 0 0 0.050039999
3.4189999 0.178 0.92400002 150 0 0 0 0.050050002
3.4159999 0.17900001 0.93400002 150 0 0 0 0.05006
3.4189999 0.18099999 0.94599998 150 0 0 0 0.050069999
3.4189999 0.182 0.958 150 0 0 0 0.050080001
3.4189999 0.183 0.96899998 150 0 0 0 0.05009
3.4200001 0.184 0.98100001 150 0 0 0 0.050099999
3.421 0.185 0.99299997 150 0 0 0 0.050110001
3.415 0.186 1.003 150 0 0 0 0.05012
3.4159999 0.18700001 1.015 150 0 0 0 0.050129998
3.4200001 0.18799999 1.027 150 0 0 0 0.050140001
3.4230001 0.189 1.04 150 0 0 0 0.05015
3.418 0.19 1.05 150 0 0 0 0.050159998
3.421 0.191 1.062 150 0 0 0 0.050170001
3.4200001 0.191 1.073 150 0 0 0 0.050179999
3.421 0.192 1.086 150 0 0 0 0.050190002
3.4200001 0.193 1.097 150 0 0 0 0.0502
3.4189999 0.19400001 1.108 150 0 0 0 0.050209999
3.415 0.19400001 1.118 150 0 0 0 0.050220001
3.418 0.19499999 1.131 150 0 0 0 0.05023
3.4170001 0.19499999 1.142 150 0 0 0 0.050239999
3.415 0.19599999 1.153 150 0 0 0 0.050250001
3.4200001 0.197 1.166 150 0 0 0 0.05026
3.4219999 0.197 1.178 150 0 0 0 0.050269999
3.4219999 0.198 1.1900001 150 0 0 0 0.050280001
3.4200001 0.198 1.201 150 0 0 0 0.05029
3.4159999 0.198 1.212 150 0 0 0 0.050299998
3.421 0.199 1.225 150 0 0 0 0.050310001
3.4230001 0.2 1.237 150 0 0 0 0.050319999
3.421 0.2 1.248 150 0 0 0 0.050330002
3.418 0.2 1.2589999 150 0 0 0 0.050340001
3.3970001 0.199 1.263 83 0 0 0 0.050349999
3.3659999 0.197 1.263 132 0 0 0 0.050360002
3.3570001 0.197 1.271 150 0 0 0 0.05037
3.358 0.197 1.283 150 0 0 0 0.050379999
3.3499999 0.197 1.291 150 0 0 0 0.050390001
3.3340001 0.19599999 1.296 150 0 0 0 0.0504
3.3269999 0.19499999 1.3049999 150 0 0 0 0.050409999
3.323 0.19499999 1.3150001 150 0 0 0 0.050420001
3.325 0.19499999 1.327 150 0 0 0 0.05043
3.3280001 0.19499999 1.339 150 0 0 0 0.050439999
3.3280001 0.19499999 1.351 150 0 0 0 0.050450001
3.3310001 0.19499999 1.363 150 0 0 0 0.05046
3.3299999 0.19499999 1.374 150 0 0 0 0.050469998
3.3340001 0.19499999 1.387 150 0 0 0 0.050480001
3.3310001 0.19400001 1.397 150 0 0 0 0.050489999
3.3329999 0.19400001 1.41 150 0 0 0 0.050500002
3.329 0.193 1.419 150 0 0 0 0.05051
3.3329999 0.193 1.432 150 0 0 0 0.050519999
3.3340001 0.193 1.444 150 0 0 0 0.050530002
3.332 0.192 1.454 150 0 0 0 0.05054
3.332 0.191 1.466 150 0 0 0 0.050549999
3.3340001 0.191 1.478 150 0 0 0 0.050560001
3.335 0.19 1.49 150 0 0 0 0.05057
3.3329999 0.19 1.5 150 0 0 0 0.050579999
3.3310001 0.189 1.511 150 0 0 0 0.050590001
3.332 0.18799999 1.522 150 0 0 0 0.0506
3.3329999 0.18700001 1.534 150 0 0 0 0.050609998
3.336 0.186 1.5470001 150 0 0 0 0.050620001
3.332 0.185 1.556 150 0 0 0 0.050629999
3.3310001 0.184 1.567 150 0 0 0 0.050639998
3.3310001 0.183 1.5779999 150 0 0 0 0.050650001
3.3280001 0.182 1.5880001 150 0 0 0 0.050659999
3.3239999 0.18099999 1.597 150 0 0 0 0.050670002
3.306 0.17900001 1.6 109 0 0 0 0.05068
3.273 0.176 1.594 99 0 0 0 0.050689999
3.257 0.17399999 1.597 99 0 0 0 0.050700001
3.237 0.171 1.598 100 0 0 0 0.05071
3.2119999 0.169 1.597 101 0 0 0 0.050719999
3.1949999 0.167 1.599 100 0 0 0 0.050730001
3.174 0.164 1.599 102 0 0 0 0.05074
3.154 0.162 1.599 105 0 0 0 0.050749999
3.131 0.15899999 1.598 100 0 0 0 0.050760001
3.1140001 0.15700001 1.599 104 0 0 0 0.05077
3.0910001 0.154 1.598 103 0 0 0 0.050779998
3.076 0.152 1.6 105 0 0 0 0.050790001
3.053 0.149 1.598 109 0 0 0 0.050799999
3.0369999 0.147 1.599 108 0 0 0 0.050810002
3.02 0.14399999 1.6 109 0 0 0 0.05082
3.003 0.142 1.6 108 0 0 0 0.050829999
2.984 0.139 1.6 108 0 0 0 0.050840002
2.9660001 0.13699999 1.6 106 0 0 0 0.05085
2.948 0.134 1.599 116 0 0 0 0.050859999
2.9330001 0.131 1.601 112 0 0 0 0.050870001
2.9159999 0.12899999 1.6 117 0 0 0 0.05088
2.898 0.126 1.599 122 0 0 0 0.050889999
2.8859999 0.124 1.602 123 0 0 0 0.050900001
2.8659999 0.121 1.6 112 0 0 0 0.05091
2.852 0.118 1.6 130 0 0 0 0.050919998
2.8340001 0.115 1.599 133 0 0 0 0.050930001
2.822 0.113 1.601 116 0 0 0 0.05094
2.8099999 0.11 1.602 123 0 0 0 0.050949998
2.79 0.107 1.599 115 0 0 0 0.050960001
2.776 0.105 1.6 125 0 0 0 0.050969999
2.7609999 0.102 1.6 123 0 0 0 0.050980002
2.7460001 0.098999999 1.599 123 0 0 0 0.05099
2.7349999 0.096000001 1.601 132 0 0 0 0.050999999
2.7190001 0.093999997 1.599 140 0 0 0 0.051010001
2.7019999 0.090999998 1.597 130 0 0 0 0.05102
2.6960001 0.088 1.601 123 0 0 0 0.051029999
2.6849999 0.085000001 1.603 140 0 0 0 0.051040001
2.6689999 0.082000002 1.6 135 0 0 0 0.05105
2.6589999 0.079999998 1.602 137 0 0 0 0.051059999
2.642 0.077 1.599 136 0 0 0 0.051070001
2.631 0.074000001 1.6 139 0 0 0 0.05108
2.622 0.071000002 1.601 139 0 0 0 0.051089998
2.6099999 0.068000004 1.601 145 0 0 0 0.051100001
2.596 0.064999998 1.599 139 0 0 0 0.051109999
2.5880001 0.063000001 1.601 150 0 0 0 0.051120002
2.5780001 0.059999999 1.601 150 0 0 0 0.051130001
2.5680001 0.057 1.602 144 0 0 0 0.051139999
2.5569999 0.054000001 1.601 146 0 0 0 0.051150002
2.5439999 0.050999999 1.6 150 0 0 0 0.05116
2.5350001 0.048 1.6 149 0 0 0 0.051169999
2.5250001 0.045000002 1.6 150 0 0 0 0.051180001
2.516 0.041999999 1.601 150 0 0 0 0.05119
2.507 0.039000001 1.601 150 0 0 0 0.051199999
2.4949999 0.035999998 1.599 150 0 0 0 0.051210001
2.4890001 0.033 1.601 150 0 0 0 0.05122
2.4790001 0.029999999 1.601 150 0 0 0 0.051229998
2.47 0.027000001 1.6 150 0 0 0 0.051240001
2.4649999 0.024 1.603 150 0 0 0 0.05125
2.4530001 0.021 1.6 150 0 0 0 0.051259998
2.4489999 0.017999999 1.602 150 0 0 0 0.051270001
2.4449999 0.015 1.605 150 0 0 0 0.051279999
2.4349999 0.012 1.603 150 0 0 0 0.051290002
2.4260001 0.0089999996 1.602 150 0 0 0 0.0513
2.4189999 0.0060000001 1.603 150 0 0 0 0.051309999
2.411 0.003 1.602 150 0 0 0 0.051320001
2.4059999 0 1.603 150 0 0 0 0.05133
2.3989999 -0.0020000001 1.603 150 0 0 0 0.051339999
2.3929999 -0.0049999999 1.603 150 0 0 0 0.051350001
2.3859999 -0.0080000004 1.603 150 0 0 0 0.05136
2.3840001 -0.011 1.6059999 150 0 0 0 0.051369999
2.372 -0.014 1.602 150 0 0 0 0.051380001
2.3699999 -0.017999999 1.605 150 0 0 0 0.05139
2.3629999 -0.021 1.604 150 0 0 0 0.051399998
2.3570001 -0.024 1.603 150 0 0 0 0.051410001
2.355 -0.027000001 1.605 150 0 0 0 0.051419999
2.345 -0.029999999 1.602 150 0 0 0 0.051430002
2.3429999 -0.033 1.604 150 0 0 0 0.051440001
2.339 -0.035999998 1.604 150 0 0 0 0.051449999
2.336 -0.039999999 1.605 150 0 0 0 0.051460002
2.329 -0.043000001 1.604 150 0 0 0 0.05147
2.3239999 -0.046 1.603 150 0 0 0 0.051479999
2.3199999 -0.048999999 1.603 150 0 0 0 0.051490001
2.3199999 -0.052000001 1.605 150 0 0 0 0.0515
2.316 -0.056000002 1.605 150 0 0 0 0.051509999
2.3150001 -0.059 1.6059999 150 0 0 0 0.051520001
2.3110001 -0.061999999 1.6059999 150 0 0 0 0.05153
2.3069999 -0.064999998 1.605 150 0 0 0 0.051539999
2.306 -0.068000004 1.6059999 150 0 0 0 0.051550001
2.303 -0.071999997 1.607 150 0 0 0 0.05156
2.302 -0.075000003 1.607 150 0 0 0 0.051569998
2.299 -0.078000002 1.607 150 0 0 0 0.051580001
2.2980001 -0.081 1.607 150 0 0 0 0.051589999
2.2969999 -0.085000001 1.608 150 0 0 0 0.051600002
2.296 -0.088 1.609 150 0 0 0 0.05161
2.296 -0.090999998 1.61 150 0 0 0 0.051619999
2.2939999 -0.093999997 1.609 150 0 0 0 0.051630002
2.293 -0.097999997 1.609 150 0 0 0 0.05164
2.2939999 -0.101 1.6109999 150 0 0 0 0.051649999
2.2920001 -0.104 1.61 150 0 0 0 0.051660001
2.289 -0.108 1.608 150 0 0 0 0.05167
2.2909999 -0.111 1.61 150 0 0 0 0.051679999
2.2880001 -0.114 1.608 150 0 0 0 0.051690001
2.2880001 -0.117 1.608 150 0 0 0 0.0517
2.2909999 -0.121 1.61 150 0 0 0 0.051709998
2.2880001 -0.124 1.608 150 0 0 0 0.051720001
2.2880001 -0.127 1.608 150 0 0 0 0.051729999
2.293 -0.131 1.6109999 150 0 0 0 0.051739998
2.293 -0.134 1.61 150 0 0 0 0.051750001
2.293 -0.13699999 1.61 150 0 0 0 0.051759999
2.2939999 -0.14 1.609 150 0 0 0 0.051770002
2.2939999 -0.14300001 1.608 150 0 0 0 0.05178
2.2950001 -0.147 1.608 150 0 0 0 0.051789999
2.2980001 -0.15000001 1.609 150 0 0 0 0.051800001
2.299 -0.153 1.608 150 0 0 0 0.05181
2.3010001 -0.156 1.608 150 0 0 0 0.051819999
2.3 -0.16 1.6059999 150 0 0 0 0.051830001
2.302 -0.163 1.605 150 0 0 0 0.05184
2.306 -0.16599999 1.6059999 150 0 0 0 0.051849999
2.309 -0.169 1.607 150 0 0 0 0.051860001
2.3099999 -0.17299999 1.605 150 0 0 0 0.05187
2.3150001 -0.176 1.6059999 150 0 0 0 0.051879998
2.319 -0.17900001 1.607 148 0 0 0 0.051890001
2.323 -0.182 1.607 146 0 0 0 0.051899999
2.326 -0.186 1.607 149 0 0 0 0.051910002
2.3299999 -0.189 1.6059999 149 0 0 0 0.05192
2.3340001 -0.192 1.607 143 0 0 0 0.051929999
2.3399999 -0.19599999 1.608 144 0 0 0 0.051940002
2.3440001 -0.199 1.607 142 0 0 0 0.05195
2.349 -0.20200001 1.607 138 0 0 0 0.051959999
2.358 -0.205 1.61 142 0 0 0 0.051970001
2.3570001 -0.208 1.6059999 123 0 0 0 0.05198
2.3610001 -0.211 1.6059999 142 0 0 0 0.051989999
2.3670001 -0.215 1.6059999 142 0 0 0 0.052000001
2.3710001 -0.21799999 1.605 128 0 0 0 0.05201
2.378 -0.221 1.605 129 0 0 0 0.052019998
2.388 -0.22499999 1.608 135 0 0 0 0.052030001
2.3900001 -0.227 1.6059999 136 0 0 0 0.05204
2.3989999 -0.23100001 1.607 132 0 0 0 0.052049998
2.4100001 -0.235 1.61 133 0 0 0 0.052060001
2.414 -0.23800001 1.608 128 0 0 0 0.052069999
2.4219999 -0.241 1.609 127 0 0 0 0.052080002
2.427 -0.244 1.608 135 0 0 0 0.05209
2.437 -0.24699999 1.609 118 0 0 0 0.052099999
2.4419999 -0.25 1.608 123 0 0 0 0.052110001
2.447 -0.25299999 1.6059999 129 0 0 0 0.05212
2.4579999 -0.25600001 1.608 137 0 0 0 0.052129999
2.467 -0.25999999 1.608 143 0 0 0 0.052140001
2.474 -0.26300001 1.608 150 0 0 0 0.05215
2.4820001 -0.266 1.607 150 0 0 0 0.052159999
2.4860001 -0.26800001 1.604 102 0 0 0 0.052170001
2.5009999 -0.27200001 1.608 48 0 0 0 0.05218
2.506 -0.27500001 1.605 30 0 0 0 0.052189998
2.5009999 -0.27599999 1.596 19 0 0 0 0.052200001
2.4979999 -0.278 1.5880001 17 0 0 0 0.052209999
2.494 -0.28 1.58 16 0 0 0 0.052220002
2.487 -0.28099999 1.569 16 0 0 0 0.05223
2.484 -0.28200001 1.561 15 0 0 0 0.052239999
2.483 -0.28400001 1.554 14 0 0 0 0.052250002
2.471 -0.28400001 1.54 15 0 0 0 0.05226
2.4549999 -0.28400001 1.524 18 0 0 0 0.052269999
2.4430001 -0.28400001 1.51 18 0 0 0 0.052280001
2.4219999 -0.28400001 1.4910001 18 0 0 0 0.05229
2.411 -0.28400001 1.478 19 0 0 0 0.052299999
2.4000001 -0.28400001 1.464 17 0 0 0 0.052310001
2.3959999 -0.285 1.455 19 0 0 0 0.05232
2.3840001 -0.285 1.441 18 0 0 0 0.052329998
2.3840001 -0.28600001 1.4349999 19 0 0 0 0.052340001
2.378 -0.287 1.424 17 0 0 0 0.05235
2.375 -0.28799999 1.416 17 0 0 0 0.052359998
2.3770001 -0.289 1.41 18 0 0 0 0.052370001
2.3770001 -0.28999999 1.403 18 0 0 0 0.052379999
2.3789999 -0.292 1.397 20 0 0 0 0.052390002
2.3770001 -0.292 1.39 19 0 0 0 0.0524
2.378 -0.294 1.383 20 0 0 0 0.052409999
2.3770001 -0.294 1.376 21 0 0 0 0.052420001
2.378 -0.29499999 1.369 21 0 0 0 0.05243
2.3770001 -0.296 1.3609999 22 0 0 0 0.052439999
2.3740001 -0.29699999 1.352 22 0 0 0 0.052450001
2.3770001 -0.29800001 1.347 23 0 0 0 0.05246
2.378 -0.29899999 1.34 24 0 0 0 0.052469999
2.381 -0.30000001 1.334 24 0 0 0 0.052480001
2.3729999 -0.30000001 1.322 22 0 0 0 0.05249
2.3740001 -0.30000001 1.316 24 0 0 0 0.052499998
2.378 -0.301 1.3099999 24 0 0 0 0.052510001
2.381 -0.30199999 1.304 24 0 0 0 0.052519999
2.3789999 -0.303 1.296 24 0 0 0 0.052530002
2.3770001 -0.303 1.2869999 24 0 0 0 0.052540001
2.375 -0.303 1.279 24 0 0 0 0.052549999
2.3770001 -0.30399999 1.272 24 0 0 0 0.052560002
2.378 -0.30399999 1.265 24 0 0 0 0.05257
2.3800001 -0.30500001 1.258 24 0 0 0 0.052579999
2.375 -0.30500001 1.248 24 0 0 0 0.052590001
2.3770001 -0.30500001 1.242 22 0 0 0 0.0526
2.3759999 -0.30500001 1.233 21 0 0 0 0.052609999
2.3789999 -0.30599999 1.227 21 0 0 0 0.052620001
2.381 -0.30599999 1.221 17 0 0 0 0.05263
2.3900001 -0.30700001 1.217 20 0 0 0 0.052639998
2.4949999 -0.32100001 1.262 65 0 0 0 0.052650001
3.1819999 -0.40900001 1.6 63 0 0 0 0.05266
3.2149999 -0.41299999 1.6059999 20 0 0 0 0.052669998
3.23 -0.41499999 1.602 21 0 0 0 0.052680001
3.2550001 -0.41800001 1.604 20 0 0 0 0.052689999
3.2780001 -0.421 1.605 18 0 0 0 0.052700002
3.296 -0.42300001 1.602 16 0 0 0 0.05271
3.322 -0.426 1.604 15 0 0 0 0.052719999
3.3380001 -0.42699999 1.601 13 0 0 0 0.052730002
3.359 -0.43000001 1.599 12 0 0 0 0.05274
3.3900001 -0.433 1.603 12 0 0 0 0.052749999
3.4070001 -0.435 1.6 11 0 0 0 0.052760001
3.4330001 -0.43799999 1.6 10 0 0 0 0.05277
3.4519999 -0.43900001 1.598 8 0 0 0 0.052779999
3.474 -0.44100001 1.596 7 0 0 0 0.052790001
3.4979999 -0.44400001 1.595 4 0 0 0 0.0528
3.5309999 -0.447 1.598 4 0 0 0 0.052809998
3.563 -0.44999999 1.601 4 0 0 0 0.052820001
3.556 -0.44800001 1.586 11 0 0 0 0.052829999
3.585 -0.45100001 1.586 61 0 0 0 0.052839998
2.3870001 -0.30000001 1.048 64 0 0 0 0.052850001
2.3970001 -0.30000001 1.045 137 0 0 0 0.052859999
2.398 -0.29899999 1.0369999 150 0 0 0 0.052870002
2.3889999 -0.29800001 1.025 150 0 0 0 0.05288
2.3929999 -0.29699999 1.018 150 0 0 0 0.052889999
0 0 0 0 0 0 0 0.052900001
2.3889999 -0.29499999 1 150 0 0 0 0.05291
2.391 -0.294 0.99299997 150 0 0 0 0.052919999
2.3929999 -0.294 0.986 62 0 0 0 0.052930001
2.395 -0.29300001 0.97899997 50 0 0 0 0.05294
2.3970001 -0.292 0.97100002 44 0 0 0 0.052949999
2.3970001 -0.29100001 0.963 41 0 0 0 0.052960001
2.4089999 -0.292 0.95999998 28 0 0 0 0.05297
2.418 -0.292 0.95499998 22 0 0 0 0.052979998
2.431 -0.292 0.95200002 18 0 0 0 0.052990001
2.441 -0.292 0.94800001 18 0 0 0 0.052999999
2.447 -0.292 0.94199997 19 0 0 0 0.053010002
2.461 -0.292 0.93900001 20 0 0 0 0.05302
2.47 -0.292 0.93400002 21 0 0 0 0.053029999
2.474 -0.29100001 0.92699999 19 0 0 0 0.053040002
2.48 -0.28999999 0.921 18 0 0 0 0.05305
2.4879999 -0.28999999 0.91600001 19 0 0 0 0.053059999
2.506 -0.29100001 0.91399997 21 0 0 0 0.053070001
2.5120001 -0.28999999 0.90799999 22 0 0 0 0.05308
2.52 -0.289 0.90200001 22 0 0 0 0.053089999
2.5239999 -0.28799999 0.89499998 22 0 0 0 0.053100001
2.5380001 -0.28799999 0.89099997 23 0 0 0 0.05311
2.549 -0.28799999 0.88700002 23 0 0 0 0.053119998
2.5610001 -0.28799999 0.88200003 23 0 0 0 0.053130001
2.575 -0.28799999 0.87900001 24 0 0 0 0.05314
2.7839999 -0.30899999 0.94099998 62 0 0 0 0.053149998
2.8599999 -0.31600001 0.95700002 134 0 0 0 0.053160001
2.9059999 -0.31900001 0.96200001 150 0 0 0 0.053169999
2.9619999 -0.32300001 0.97100002 150 0 0 0 0.053180002
3.0420001 -0.33000001 0.98699999 150 0 0 0 0.05319
3.1459999 -0.33899999 1.01 150 0 0 0 0.053199999
3.207 -0.34299999 1.0190001 150 0 0 0 0.053210001
3.2179999 -0.34200001 1.012 150 0 0 0 0.05322
3.2190001 -0.34 1.002 150 0 0 0 0.053229999
3.217 -0.33700001 0.99000001 150 0 0 0 0.053240001
3.2190001 -0.33500001 0.98000002 150 0 0 0 0.05325
3.221 -0.333 0.97000003 150 0 0 0 0.053259999
3.2219999 -0.331 0.95999998 150 0 0 0 0.053270001
3.217 -0.32800001 0.94800001 150 0 0 0 0.05328
3.2149999 -0.32499999 0.93699998 150 0 0 0 0.053289998
3.2149999 -0.32300001 0.926 150 0 0 0 0.053300001
3.2160001 -0.31999999 0.91600001 150 0 0 0 0.053309999
3.2160001 -0.31799999 0.90499997 150 0 0 0 0.053320002
3.2179999 -0.315 0.89499998 150 0 0 0 0.05333
3.2160001 -0.31200001 0.884 150 0 0 0 0.053339999
3.2149999 -0.31 0.87400001 150 0 0 0 0.053350002
3.2130001 -0.30700001 0.86199999 150 0 0 0 0.05336
3.2119999 -0.30399999 0.852 150 0 0 0 0.053369999
3.217 -0.30199999 0.84299999 150 0 0 0 0.053380001
3.22 -0.29899999 0.833 150 0 0 0 0.05339
3.2249999 -0.29699999 0.82300001 150 0 0 0 0.053399999
3.2409999 -0.296 0.81699997 150 0 0 0 0.053410001
3.243 -0.29300001 0.80699998 150 0 0 0 0.05342
3.24 -0.28999999 0.796 150 0 0 0 0.053429998
3.2379999 -0.287 0.78500003 150 0 0 0 0.053440001
3.2420001 -0.28400001 0.77499998 150 0 0 0 0.05345
3.24 -0.28099999 0.76499999 150 0 0 0 0.053459998
3.2390001 -0.278 0.75400001 150 0 0 0 0.053470001
3.2390001 -0.27500001 0.74400002 150 0 0 0 0.053479999
3.2379999 -0.27200001 0.73299998 150 0 0 0 0.053490002
3.244 -0.27000001 0.72399998 150 0 0 0 0.0535
3.2360001 -0.266 0.71200001 150 0 0 0 0.053509999
3.237 -0.26300001 0.70200002 150 0 0 0 0.053520001
3.2409999 -0.25999999 0.69199997 150 0 0 0 0.05353
3.2379999 -0.257 0.68099999 150 0 0 0 0.053539999
3.2360001 -0.25400001 0.67000002 150 0 0 0 0.053550001
3.234 -0.25 0.66000003 150 0 0 0 0.05356
3.244 -0.248 0.65100002 91 0 0 0 0.053569999
3.2679999 -0.24600001 0.64600003 36 0 0 0 0.053580001
3.3299999 -0.248 0.64700001 24 0 0 0 0.05359
3.342 -0.245 0.639 43 0 0 0 0.053599998
3.3440001 -0.242 0.62900001 150 0 0 0 0.053610001
3.3440001 -0.23899999 0.61799997 150 0 0 0 0.053619999
3.3429999 -0.235 0.60799998 150 0 0 0 0.053630002
3.3429999 -0.23199999 0.597 150 0 0 0 0.053640001
3.3469999 -0.229 0.58700001 150 0 0 0 0.053649999
3.3399999 -0.22499999 0.57599998 150 0 0 0 0.053660002
3.342 -0.222 0.56599998 150 0 0 0 0.05367
3.3410001 -0.21799999 0.55500001 150 0 0 0 0.053679999
3.342 -0.215 0.54500002 150 0 0 0 0.053690001
3.3440001 -0.211 0.53500003 150 0 0 0 0.0537
3.339 -0.207 0.52399999 150 0 0 0 0.053709999
3.3429999 -0.204 0.514 150 0 0 0 0.053720001
