# .PCD v0.7 - Point Cloud Data file format
VERSION 0.7
FIELDS x y z intensity normal_x normal_y normal_z curvature
SIZE 4 4 4 4 4 4 4 4
TYPE F F F F F F F F
COUNT 1 1 1 1 1 1 1 1
WIDTH 1039
HEIGHT 1
VIEWPOINT 0 0 0 1 0 0 0
POINTS 1039
DATA ascii
1.402 -0.31 -0.82099998 15 0 0 0 0.00489
1.409 -0.30899999 -0.82200003 15 0 0 0 0.0049000001
1.411 -0.30599999 -0.82099998 15 0 0 0 0.0049100001
1.4220001 -0.30599999 -0.824 15 0 0 0 0.0049200002
1.426 -0.30399999 -0.82300001 15 0 0 0 0.0049299998
1.4299999 -0.30199999 -0.82300001 14 0 0 0 0.0049399999
1.434 -0.30000001 -0.82200003 14 0 0 0 0.00495
1.444 -0.29899999 -0.82499999 14 0 0 0 0.00496
1.448 -0.29699999 -0.824 14 0 0 0 0.0049700001
1.4529999 -0.296 -0.824 14 0 0 0 0.0049800002
1.455 -0.29300001 -0.82099998 14 0 0 0 0.0049899998
1.465 -0.29300001 -0.824 13 0 0 0 0.0049999999
1.473 -0.29100001 -0.82499999 12 0 0 0 0.00501
1.475 -0.289 -0.82200003 12 0 0 0 0.00502
1.484 -0.28799999 -0.824 13 0 0 0 0.0050300001
1.489 -0.28600001 -0.82300001 14 0 0 0 0.0050400002
1.495 -0.28400001 -0.82300001 14 0 0 0 0.0050499998
1.5 -0.28200001 -0.82200003 13 0 0 0 0.0050599999
1.505 -0.28099999 -0.82099998 13 0 0 0 0.00507
1.5190001 -0.28 -0.82499999 14 0 0 0 0.00508
1.526 -0.27900001 -0.82499999 14 0 0 0 0.0050900001
1.529 -0.27700001 -0.82300001 15 0 0 0 0.0051000002
1.5470001 -0.27700001 -0.82800001 14 0 0 0 0.0051099998
1.556 -0.27599999 -0.829 14 0 0 0 0.0051199999
1.558 -0.273 -0.82700002 14 0 0 0 0.0051299999
1.569 -0.27200001 -0.82800001 14 0 0 0 0.00514
1.5779999 -0.271 -0.829 15 0 0 0 0.0051500001
1.586 -0.26899999 -0.829 15 0 0 0 0.0051600002
1.594 -0.26800001 -0.829 14 0 0 0 0.0051699998
1.601 -0.266 -0.82800001 14 0 0 0 0.0051799999
1.609 -0.26499999 -0.82800001 14 0 0 0 0.0051899999
1.618 -0.26300001 -0.82800001 15 0 0 0 0.0052
1.628 -0.26199999 -0.829 14 0 0 0 0.0052100001
1.6339999 -0.25999999 -0.82800001 14 0 0 0 0.0052200002
1.643 -0.259 -0.82800001 15 0 0 0 0.0052299998
1.656 -0.25799999 -0.82999998 15 0 0 0 0.0052399999
1.666 -0.257 -0.829 15 0 0 0 0.0052499999
1.67 -0.25400001 -0.82700002 15 0 0 0 0.00526
1.683 -0.25400001 -0.829 14 0 0 0 0.0052700001
1.693 -0.252 -0.829 15 0 0 0 0.0052800002
1.702 -0.25099999 -0.82800001 14 0 0 0 0.0052899998
1.714 -0.25 -0.829 14 0 0 0 0.0052999998
1.722 -0.248 -0.82800001 15 0 0 0 0.0053099999
1.735 -0.24699999 -0.82999998 15 0 0 0 0.00532
1.748 -0.24600001 -0.83099997 15 0 0 0 0.0053300001
1.761 -0.245 -0.83099997 15 0 0 0 0.0053400001
1.772 -0.243 -0.83099997 15 0 0 0 0.0053500002
1.7819999 -0.242 -0.83099997 15 0 0 0 0.0053599998
1.79 -0.23999999 -0.829 15 0 0 0 0.0053699999
1.803 -0.23899999 -0.82999998 14 0 0 0 0.00538
1.8200001 -0.23800001 -0.833 15 0 0 0 0.0053900001
1.825 -0.236 -0.829 43 0 0 0 0.0054000001
1.8430001 -0.236 -0.83200002 40 0 0 0 0.0054100002
1.855 -0.234 -0.83200002 43 0 0 0 0.0054199998
1.862 -0.23199999 -0.829 42 0 0 0 0.0054299999
1.8789999 -0.23199999 -0.83200002 41 0 0 0 0.00544
1.89 -0.23 -0.83099997 38 0 0 0 0.0054500001
1.901 -0.229 -0.829 36 0 0 0 0.0054600001
1.916 -0.228 -0.82999998 37 0 0 0 0.0054700002
1.928 -0.226 -0.82999998 36 0 0 0 0.0054799998
1.942 -0.22499999 -0.829 37 0 0 0 0.0054899999
1.96 -0.22400001 -0.83099997 32 0 0 0 0.0055
1.975 -0.223 -0.83099997 32 0 0 0 0.00551
1.989 -0.222 -0.83099997 31 0 0 0 0.0055200001
2.0050001 -0.221 -0.83200002 32 0 0 0 0.0055300002
2.026 -0.22 -0.83399999 32 0 0 0 0.0055399998
2.0350001 -0.21799999 -0.83200002 32 0 0 0 0.0055499999
2.0510001 -0.21699999 -0.83200002 31 0 0 0 0.00556
2.0680001 -0.21600001 -0.83200002 31 0 0 0 0.00557
2.0869999 -0.215 -0.833 31 0 0 0 0.0055800001
2.099 -0.214 -0.83200002 29 0 0 0 0.0055900002
2.1170001 -0.212 -0.83200002 29 0 0 0 0.0055999998
2.1389999 -0.212 -0.83399999 29 0 0 0 0.0056099999
2.158 -0.211 -0.83499998 31 0 0 0 0.00562
2.1689999 -0.20900001 -0.83200002 30 0 0 0 0.00563
2.191 -0.208 -0.833 30 0 0 0 0.0056400001
2.214 -0.208 -0.83499998 31 0 0 0 0.0056500002
2.237 -0.207 -0.83700001 31 0 0 0 0.0056599998
2.2550001 -0.206 -0.83700001 30 0 0 0 0.0056699999
2.2750001 -0.204 -0.83600003 30 0 0 0 0.0056799999
2.2920001 -0.20299999 -0.83600003 30 0 0 0 0.00569
2.3110001 -0.20200001 -0.83499998 30 0 0 0 0.0057000001
2.3369999 -0.20100001 -0.83700001 30 0 0 0 0.0057100002
2.3529999 -0.2 -0.83499998 30 0 0 0 0.0057199998
2.3789999 -0.199 -0.83700001 30 0 0 0 0.0057299999
2.402 -0.198 -0.83700001 30 0 0 0 0.0057399999
2.4219999 -0.197 -0.83700001 30 0 0 0 0.00575
2.4460001 -0.19599999 -0.83700001 30 0 0 0 0.0057600001
2.4690001 -0.19499999 -0.83700001 30 0 0 0 0.0057700002
2.49 -0.19400001 -0.83700001 30 0 0 0 0.0057799998
2.516 -0.193 -0.83700001 31 0 0 0 0.0057899999
2.5439999 -0.192 -0.838 30 0 0 0 0.0057999999
2.573 -0.191 -0.83999997 31 0 0 0 0.00581
2.598 -0.19 -0.83899999 31 0 0 0 0.0058200001
2.6300001 -0.19 -0.84100002 33 0 0 0 0.0058300002
2.655 -0.189 -0.84100002 32 0 0 0 0.0058400002
2.6849999 -0.18799999 -0.84200001 31 0 0 0 0.0058499998
2.72 -0.18700001 -0.84399998 30 0 0 0 0.0058599999
2.7490001 -0.186 -0.84399998 30 0 0 0 0.00587
2.776 -0.185 -0.84399998 31 0 0 0 0.0058800001
2.813 -0.185 -0.84600002 32 0 0 0 0.0058900001
2.8399999 -0.183 -0.84500003 30 0 0 0 0.0059000002
2.8729999 -0.182 -0.84500003 30 0 0 0 0.0059099998
2.918 -0.182 -0.84899998 30 0 0 0 0.0059199999
2.954 -0.182 -0.85000002 29 0 0 0 0.00593
2.9879999 -0.18099999 -0.85000002 29 0 0 0 0.0059400001
3.0239999 -0.18000001 -0.85100001 29 0 0 0 0.0059500001
3.059 -0.17900001 -0.85100001 29 0 0 0 0.0059600002
3.0869999 -0.177 -0.84899998 28 0 0 0 0.0059699998
3.1300001 -0.177 -0.85000002 29 0 0 0 0.0059799999
3.1700001 -0.176 -0.85100001 30 0 0 0 0.00599
3.2030001 -0.175 -0.84899998 30 0 0 0 0.0060000001
3.244 -0.17399999 -0.85000002 30 0 0 0 0.0060100001
3.2909999 -0.17299999 -0.852 31 0 0 0 0.0060200002
3.3280001 -0.17200001 -0.85000002 30 0 0 0 0.0060299998
3.3629999 -0.171 -0.84799999 31 0 0 0 0.0060399999
3.4070001 -0.17 -0.84899998 32 0 0 0 0.00605
3.4289999 -0.168 -0.84299999 74 0 0 0 0.00606
3.425 -0.164 -0.83099997 150 0 0 0 0.0060700001
3.425 -0.161 -0.81999999 150 0 0 0 0.0060800002
3.424 -0.15800001 -0.80900002 150 0 0 0 0.0060899998
3.424 -0.155 -0.79799998 150 0 0 0 0.0060999999
3.4289999 -0.152 -0.78799999 151 0 0 0 0.00611
3.4219999 -0.149 -0.77600002 150 0 0 0 0.00612
3.4230001 -0.146 -0.76499999 150 0 0 0 0.0061300001
3.4200001 -0.14300001 -0.75300002 150 0 0 0 0.0061400002
3.4219999 -0.141 -0.74199998 151 0 0 0 0.0061499998
3.424 -0.138 -0.73199999 151 0 0 0 0.0061599999
3.424 -0.13500001 -0.72100002 151 0 0 0 0.0061699999
3.4260001 -0.132 -0.70999998 151 0 0 0 0.00618
3.424 -0.12899999 -0.699 150 0 0 0 0.0061900001
3.4260001 -0.127 -0.68800002 151 0 0 0 0.0062000002
3.427 -0.124 -0.67699999 151 0 0 0 0.0062099998
3.4230001 -0.121 -0.66600001 151 0 0 0 0.0062199999
3.424 -0.119 -0.65499997 151 0 0 0 0.0062299999
3.425 -0.116 -0.64399999 151 0 0 0 0.00624
3.4260001 -0.113 -0.63300002 150 0 0 0 0.0062500001
3.428 -0.111 -0.62199998 151 0 0 0 0.0062600002
3.4260001 -0.108 -0.611 151 0 0 0 0.0062699998
3.4230001 -0.105 -0.59899998 151 0 0 0 0.0062799999
3.425 -0.103 -0.58899999 151 0 0 0 0.0062899999
3.424 -0.1 -0.57800001 151 0 0 0 0.0063
3.4260001 -0.097999997 -0.56699997 151 0 0 0 0.0063100001
3.428 -0.096000001 -0.55599999 151 0 0 0 0.0063200002
3.424 -0.093000002 -0.54500002 151 0 0 0 0.0063299998
3.4219999 -0.090999998 -0.53299999 151 0 0 0 0.0063399998
3.424 -0.088 -0.52200001 151 0 0 0 0.0063499999
3.425 -0.086000003 -0.51200002 151 0 0 0 0.00636
3.4219999 -0.083999999 -0.5 151 0 0 0 0.0063700001
3.424 -0.081 -0.48899999 151 0 0 0 0.0063800002
3.428 -0.079000004 -0.479 151 0 0 0 0.0063900002
3.427 -0.077 -0.46799999 151 0 0 0 0.0063999998
3.4230001 -0.074000001 -0.45699999 151 0 0 0 0.0064099999
3.4200001 -0.071999997 -0.44499999 151 0 0 0 0.00642
3.4230001 -0.07 -0.43399999 151 0 0 0 0.0064300001
3.425 -0.068000004 -0.42399999 151 0 0 0 0.0064400001
3.424 -0.066 -0.41299999 151 0 0 0 0.0064500002
3.4219999 -0.063000001 -0.40099999 151 0 0 0 0.0064599998
3.427 -0.061000001 -0.391 151 0 0 0 0.0064699999
3.425 -0.059 -0.38 151 0 0 0 0.00648
3.424 -0.057 -0.36899999 151 0 0 0 0.0064900001
3.424 -0.055 -0.35800001 151 0 0 0 0.0065000001
3.4260001 -0.052999999 -0.347 151 0 0 0 0.0065100002
3.4230001 -0.050999999 -0.336 151 0 0 0 0.0065199998
3.4260001 -0.048999999 -0.32499999 151 0 0 0 0.0065299999
3.425 -0.046999998 -0.31400001 151 0 0 0 0.00654
3.421 -0.045000002 -0.303 151 0 0 0 0.00655
3.427 -0.043000001 -0.292 151 0 0 0 0.0065600001
3.4219999 -0.041000001 -0.28099999 151 0 0 0 0.0065700002
3.424 -0.039000001 -0.27000001 151 0 0 0 0.0065799998
3.424 -0.037999999 -0.259 151 0 0 0 0.0065899999
3.424 -0.035999998 -0.248 151 0 0 0 0.0066
3.4260001 -0.034000002 -0.237 151 0 0 0 0.00661
3.421 -0.032000002 -0.226 151 0 0 0 0.0066200001
3.4219999 -0.029999999 -0.215 151 0 0 0 0.0066300002
3.421 -0.028999999 -0.204 151 0 0 0 0.0066399998
3.4219999 -0.027000001 -0.193 151 0 0 0 0.0066499999
3.4230001 -0.025 -0.182 151 0 0 0 0.00666
3.4230001 -0.023 -0.171 151 0 0 0 0.00667
3.424 -0.022 -0.16 151 0 0 0 0.0066800001
3.4219999 -0.02 -0.149 151 0 0 0 0.0066900002
3.4230001 -0.017999999 -0.138 151 0 0 0 0.0066999998
3.4219999 -0.017000001 -0.127 151 0 0 0 0.0067099999
3.4219999 -0.015 -0.117 151 0 0 0 0.0067199999
3.4230001 -0.013 -0.106 151 0 0 0 0.00673
3.4200001 -0.012 -0.093999997 151 0 0 0 0.0067400001
3.424 -0.0099999998 -0.082999997 151 0 0 0 0.0067500002
3.4219999 -0.0089999996 -0.071999997 152 0 0 0 0.0067599998
3.4219999 -0.0070000002 -0.061000001 151 0 0 0 0.0067699999
3.4219999 -0.0060000001 -0.050000001 152 0 0 0 0.0067799999
3.4219999 -0.0040000002 -0.039000001 152 0 0 0 0.00679
3.4219999 -0.003 -0.028999999 151 0 0 0 0.0068000001
3.4219999 -0.001 -0.017000001 152 0 0 0 0.0068100002
3.4219999 0 -0.0060000001 152 0 0 0 0.0068199998
3.4219999 0 0.0040000002 152 0 0 0 0.0068299999
3.4219999 0.0020000001 0.014 152 0 0 0 0.0068399999
3.4230001 0.003 0.025 152 0 0 0 0.00685
3.4230001 0.0049999999 0.037 152 0 0 0 0.0068600001
3.4219999 0.0060000001 0.048 152 0 0 0 0.0068700002
3.4219999 0.0070000002 0.057999998 152 0 0 0 0.0068799998
3.4219999 0.0089999996 0.068999998 152 0 0 0 0.0068899998
3.424 0.0099999998 0.079999998 152 0 0 0 0.0068999999
3.4219999 0.011 0.090999998 152 0 0 0 0.00691
3.4230001 0.012 0.103 152 0 0 0 0.0069200001
3.4230001 0.014 0.114 152 0 0 0 0.0069300001
3.424 0.015 0.125 152 0 0 0 0.0069400002
3.425 0.016000001 0.13600001 152 0 0 0 0.0069499998
3.421 0.017000001 0.147 151 0 0 0 0.0069599999
3.427 0.017999999 0.15800001 152 0 0 0 0.00697
3.424 0.018999999 0.169 151 0 0 0 0.0069800001
3.421 0.02 0.18000001 152 0 0 0 0.0069900001
3.4219999 0.022 0.191 151 0 0 0 0.0070000002
3.4219999 0.023 0.20200001 151 0 0 0 0.0070099998
3.421 0.024 0.213 151 0 0 0 0.0070199999
3.4200001 0.025 0.22400001 151 0 0 0 0.00703
3.421 0.026000001 0.235 151 0 0 0 0.0070400001
3.424 0.027000001 0.24600001 151 0 0 0 0.0070500001
3.4260001 0.028000001 0.25799999 151 0 0 0 0.0070600002
3.424 0.028999999 0.26800001 151 0 0 0 0.0070699998
3.4230001 0.029999999 0.27900001 151 0 0 0 0.0070799999
3.425 0.030999999 0.29100001 151 0 0 0 0.00709
3.4260001 0.030999999 0.30199999 151 0 0 0 0.0071
3.427 0.032000002 0.31299999 151 0 0 0 0.0071100001
3.4260001 0.033 0.324 151 0 0 0 0.0071200002
3.4230001 0.034000002 0.33500001 151 0 0 0 0.0071299998
3.4219999 0.035 0.34599999 151 0 0 0 0.0071399999
3.4260001 0.035999998 0.35800001 151 0 0 0 0.00715
3.4230001 0.035999998 0.36899999 151 0 0 0 0.00716
3.425 0.037 0.38 151 0 0 0 0.0071700001
3.425 0.037999999 0.391 151 0 0 0 0.0071800002
3.4230001 0.039000001 0.40200001 151 0 0 0 0.0071899998
3.4260001 0.039000001 0.41299999 151 0 0 0 0.0071999999
3.4230001 0.039999999 0.42399999 151 0 0 0 0.00721
3.4219999 0.041000001 0.435 151 0 0 0 0.00722
3.4200001 0.041000001 0.44600001 151 0 0 0 0.0072300001
3.427 0.041999999 0.458 151 0 0 0 0.0072400002
3.4189999 0.041999999 0.46799999 151 0 0 0 0.0072499998
3.4260001 0.043000001 0.47999999 151 0 0 0 0.0072599999
3.424 0.044 0.491 151 0 0 0 0.0072699999
3.4219999 0.044 0.50199997 151 0 0 0 0.00728
3.421 0.045000002 0.51300001 151 0 0 0 0.0072900001
3.4260001 0.045000002 0.52499998 151 0 0 0 0.0073000002
3.4219999 0.046 0.53600001 151 0 0 0 0.0073099998
3.428 0.046 0.54799998 151 0 0 0 0.0073199999
3.4289999 0.046 0.55900002 151 0 0 0 0.0073299999
3.427 0.046999998 0.56999999 151 0 0 0 0.00734
3.427 0.046999998 0.58200002 151 0 0 0 0.0073500001
3.4300001 0.048 0.59399998 151 0 0 0 0.0073600002
3.4319999 0.048 0.60500002 151 0 0 0 0.0073699998
3.4300001 0.048 0.616 151 0 0 0 0.0073799998
3.4289999 0.048999999 0.62699997 151 0 0 0 0.0073899999
3.4260001 0.048999999 0.63800001 151 0 0 0 0.0074
3.424 0.048999999 0.64899999 151 0 0 0 0.0074100001
3.4260001 0.048999999 0.66100001 151 0 0 0 0.0074200002
3.431 0.048999999 0.67299998 151 0 0 0 0.0074300002
3.4300001 0.050000001 0.68400002 151 0 0 0 0.0074399998
3.4260001 0.050000001 0.69499999 151 0 0 0 0.0074499999
3.4300001 0.050000001 0.70700002 150 0 0 0 0.00746
3.4300001 0.050000001 0.71799999 150 0 0 0 0.0074700001
3.427 0.050000001 0.72899997 150 0 0 0 0.0074800001
3.4300001 0.050000001 0.741 151 0 0 0 0.0074900002
3.428 0.050000001 0.75199997 150 0 0 0 0.0074999998
3.4260001 0.050000001 0.76300001 150 0 0 0 0.0075099999
3.427 0.050000001 0.77499998 150 0 0 0 0.00752
3.427 0.050000001 0.78600001 150 0 0 0 0.0075300001
3.427 0.050000001 0.79799998 150 0 0 0 0.0075400001
3.424 0.050000001 0.80800003 150 0 0 0 0.0075500002
3.424 0.050000001 0.81999999 150 0 0 0 0.0075599998
3.431 0.050000001 0.833 150 0 0 0 0.0075699999
3.4260001 0.048999999 0.84299999 150 0 0 0 0.00758
3.4260001 0.048999999 0.85500002 150 0 0 0 0.0075900001
3.427 0.048999999 0.866 150 0 0 0 0.0076000001
3.427 0.048999999 0.87800002 150 0 0 0 0.0076100002
3.428 0.048 0.88999999 150 0 0 0 0.0076199998
3.4219999 0.048 0.89999998 150 0 0 0 0.0076299999
3.428 0.048 0.912 150 0 0 0 0.00764
3.427 0.046999998 0.92400002 150 0 0 0 0.00765
3.4260001 0.046999998 0.935 150 0 0 0 0.0076600001
3.4230001 0.046 0.94599998 150 0 0 0 0.0076700002
3.425 0.046 0.958 150 0 0 0 0.0076799998
3.425 0.045000002 0.96899998 150 0 0 0 0.0076899999
3.424 0.045000002 0.98100001 150 0 0 0 0.0077
3.4260001 0.044 0.99299997 150 0 0 0 0.00771
3.425 0.044 1.0039999 150 0 0 0 0.0077200001
3.4289999 0.043000001 1.017 150 0 0 0 0.0077300002
3.4289999 0.041999999 1.028 150 0 0 0 0.0077399998
3.4319999 0.041999999 1.041 150 0 0 0 0.0077499999
3.4300001 0.041000001 1.052 150 0 0 0 0.0077599999
3.428 0.039999999 1.063 150 0 0 0 0.00777
3.4319999 0.039999999 1.075 150 0 0 0 0.0077800001
3.4289999 0.039000001 1.086 150 0 0 0 0.0077900002
3.428 0.037999999 1.097 150 0 0 0 0.0077999998
3.427 0.037 1.109 150 0 0 0 0.0078099999
3.4300001 0.035999998 1.1210001 150 0 0 0 0.0078199999
3.4319999 0.035 1.133 150 0 0 0 0.0078299996
3.428 0.034000002 1.1440001 150 0 0 0 0.0078400001
3.434 0.033 1.158 150 0 0 0 0.0078499997
3.434 0.032000002 1.169 150 0 0 0 0.0078600002
3.4330001 0.030999999 1.1799999 150 0 0 0 0.0078699999
3.4319999 0.029999999 1.192 150 0 0 0 0.0078800004
3.4349999 0.028999999 1.204 150 0 0 0 0.00789
3.434 0.028000001 1.216 150 0 0 0 0.0078999996
3.4349999 0.026000001 1.227 150 0 0 0 0.0079100002
3.4360001 0.025 1.239 150 0 0 0 0.0079199998
3.4349999 0.024 1.251 150 0 0 0 0.0079300003
3.4360001 0.023 1.263 150 0 0 0 0.0079399999
3.4100001 0.021 1.265 83 0 0 0 0.0079500005
3.3800001 0.018999999 1.265 143 0 0 0 0.0079600001
3.372 0.017999999 1.274 150 0 0 0 0.0079699997
3.3699999 0.017000001 1.284 150 0 0 0 0.0079800002
3.365 0.015 1.294 150 0 0 0 0.0079899998
3.345 0.013 1.298 150 0 0 0 0.0080000004
3.3399999 0.012 1.307 150 0 0 0 0.00801
3.336 0.0099999998 1.316 150 0 0 0 0.0080199996
3.3429999 0.0089999996 1.331 150 0 0 0 0.0080300001
3.3429999 0.0070000002 1.342 150 0 0 0 0.0080399998
3.3440001 0.0049999999 1.354 150 0 0 0 0.0080500003
3.342 0.0040000002 1.364 150 0 0 0 0.0080599999
3.346 0.0020000001 1.377 150 0 0 0 0.0080700004
3.3469999 0 1.3890001 150 0 0 0 0.0080800001
3.346 -0.001 1.4 150 0 0 0 0.0080899997
3.346 -0.003 1.411 150 0 0 0 0.0081000002
3.349 -0.0049999999 1.424 150 0 0 0 0.0081099998
3.348 -0.0070000002 1.434 150 0 0 0 0.0081200004
3.345 -0.0080000004 1.444 150 0 0 0 0.00813
3.352 -0.011 1.4579999 150 0 0 0 0.0081399996
3.3469999 -0.013 1.467 150 0 0 0 0.0081500001
3.349 -0.015 1.48 150 0 0 0 0.0081599997
3.349 -0.017000001 1.49 150 0 0 0 0.0081700003
3.349 -0.018999999 1.502 150 0 0 0 0.0081799999
3.3499999 -0.022 1.5140001 150 0 0 0 0.0081900004
3.3510001 -0.024 1.525 150 0 0 0 0.0082
3.3499999 -0.026000001 1.536 150 0 0 0 0.0082099997
3.349 -0.028000001 1.5470001 150 0 0 0 0.0082200002
3.3510001 -0.030999999 1.559 150 0 0 0 0.0082299998
3.352 -0.033 1.5700001 150 0 0 0 0.0082400003
3.346 -0.035999998 1.5779999 150 0 0 0 0.00825
3.349 -0.039000001 1.591 150 0 0 0 0.0082599996
3.3410001 -0.041000001 1.598 150 0 0 0 0.0082700001
3.3210001 -0.044 1.599 115 0 0 0 0.0082799997
3.303 -0.046 1.601 101 0 0 0 0.0082900003
3.276 -0.048 1.599 99 0 0 0 0.0082999999
3.26 -0.050999999 1.602 101 0 0 0 0.0083100004
3.2409999 -0.052999999 1.603 101 0 0 0 0.00832
3.217 -0.056000002 1.602 103 0 0 0 0.0083299996
3.1960001 -0.057999998 1.601 101 0 0 0 0.0083400002
3.1830001 -0.059999999 1.605 104 0 0 0 0.0083499998
3.1619999 -0.063000001 1.605 109 0 0 0 0.0083600003
3.1440001 -0.064999998 1.6059999 113 0 0 0 0.0083699999
3.1259999 -0.068000004 1.6059999 114 0 0 0 0.0083799995
3.1040001 -0.07 1.605 113 0 0 0 0.0083900001
3.0829999 -0.072999999 1.604 112 0 0 0 0.0083999997
3.0680001 -0.075000003 1.605 121 0 0 0 0.0084100002
3.049 -0.078000002 1.605 119 0 0 0 0.0084199999
3.0320001 -0.079999998 1.6059999 118 0 0 0 0.0084300004
3.017 -0.082999997 1.607 116 0 0 0 0.00844
2.997 -0.085000001 1.6059999 114 0 0 0 0.0084499996
2.9790001 -0.088 1.605 111 0 0 0 0.0084600002
2.961 -0.090999998 1.605 118 0 0 0 0.0084699998
2.9460001 -0.093000002 1.605 130 0 0 0 0.0084800003
2.928 -0.096000001 1.604 128 0 0 0 0.0084899999
2.911 -0.097999997 1.604 142 0 0 0 0.0085000005
2.8989999 -0.101 1.6059999 144 0 0 0 0.0085100001
2.8800001 -0.104 1.604 138 0 0 0 0.0085199997
2.8670001 -0.106 1.605 132 0 0 0 0.0085300002
2.852 -0.109 1.605 137 0 0 0 0.0085399998
2.8399999 -0.112 1.6059999 145 0 0 0 0.0085500004
2.825 -0.114 1.6059999 150 0 0 0 0.00856
2.812 -0.117 1.607 139 0 0 0 0.0085699996
2.7969999 -0.12 1.6059999 132 0 0 0 0.0085800001
2.7839999 -0.123 1.607 144 0 0 0 0.0085899998
2.7720001 -0.125 1.608 150 0 0 0 0.0086000003
2.7550001 -0.12800001 1.6059999 143 0 0 0 0.0086099999
2.74 -0.131 1.605 150 0 0 0 0.0086200004
2.7290001 -0.134 1.6059999 140 0 0 0 0.0086300001
2.7149999 -0.13600001 1.605 143 0 0 0 0.0086399997
2.7030001 -0.139 1.605 147 0 0 0 0.0086500002
2.6889999 -0.142 1.604 141 0 0 0 0.0086599998
2.6800001 -0.145 1.6059999 150 0 0 0 0.0086700004
2.6689999 -0.148 1.6059999 145 0 0 0 0.00868
2.654 -0.15099999 1.604 150 0 0 0 0.0086899996
2.6470001 -0.154 1.607 150 0 0 0 0.0087000001
2.635 -0.15700001 1.6059999 150 0 0 0 0.0087099997
2.6240001 -0.15899999 1.6059999 150 0 0 0 0.0087200003
2.615 -0.162 1.607 150 0 0 0 0.0087299999
2.6040001 -0.16500001 1.607 150 0 0 0 0.0087400004
2.5899999 -0.168 1.604 150 0 0 0 0.00875
2.5799999 -0.171 1.604 150 0 0 0 0.0087599996
2.5710001 -0.17399999 1.605 150 0 0 0 0.0087700002
2.566 -0.177 1.608 150 0 0 0 0.0087799998
2.556 -0.18000001 1.607 150 0 0 0 0.0087900003
2.5439999 -0.183 1.6059999 150 0 0 0 0.0088
2.533 -0.186 1.604 150 0 0 0 0.0088099996
2.526 -0.189 1.605 150 0 0 0 0.0088200001
2.52 -0.192 1.607 150 0 0 0 0.0088299997
2.5090001 -0.19499999 1.605 150 0 0 0 0.0088400003
2.5020001 -0.198 1.6059999 150 0 0 0 0.0088499999
2.493 -0.20100001 1.605 150 0 0 0 0.0088600004
2.4860001 -0.204 1.6059999 150 0 0 0 0.00887
2.48 -0.207 1.607 150 0 0 0 0.0088799996
2.473 -0.20999999 1.607 150 0 0 0 0.0088900002
2.4630001 -0.213 1.605 150 0 0 0 0.0088999998
2.4590001 -0.21600001 1.607 150 0 0 0 0.0089100003
2.4519999 -0.22 1.607 150 0 0 0 0.0089199999
2.4460001 -0.223 1.607 150 0 0 0 0.0089299995
2.441 -0.226 1.609 150 0 0 0 0.0089400001
2.4360001 -0.229 1.609 150 0 0 0 0.0089499997
2.428 -0.23199999 1.608 150 0 0 0 0.0089600002
2.424 -0.236 1.609 150 0 0 0 0.0089699998
2.4189999 -0.23899999 1.61 150 0 0 0 0.0089800004
2.4130001 -0.242 1.609 150 0 0 0 0.00899
2.4100001 -0.245 1.6109999 150 0 0 0 0.0089999996
2.4030001 -0.248 1.609 150 0 0 0 0.0090100002
2.3970001 -0.25099999 1.608 150 0 0 0 0.0090199998
2.392 -0.255 1.609 150 0 0 0 0.0090300003
2.3870001 -0.25799999 1.608 150 0 0 0 0.0090399999
2.3859999 -0.26100001 1.61 150 0 0 0 0.0090500005
2.3770001 -0.264 1.607 150 0 0 0 0.0090600001
2.375 -0.26800001 1.609 150 0 0 0 0.0090699997
2.3729999 -0.271 1.61 150 0 0 0 0.0090800002
2.369 -0.27399999 1.61 144 0 0 0 0.0090899998
2.359 -0.27700001 1.605 124 0 0 0 0.0091000004
2.3570001 -0.28 1.6059999 124 0 0 0 0.00911
2.359 -0.28400001 1.609 149 0 0 0 0.0091199996
2.3570001 -0.28799999 1.61 150 0 0 0 0.0091300001
2.355 -0.29100001 1.6109999 150 0 0 0 0.0091399997
2.349 -0.294 1.608 150 0 0 0 0.0091500003
2.3510001 -0.29800001 1.6109999 150 0 0 0 0.0091599999
2.3469999 -0.301 1.61 150 0 0 0 0.0091700004
2.3469999 -0.30399999 1.61 150 0 0 0 0.0091800001
2.346 -0.308 1.6109999 150 0 0 0 0.0091899997
2.345 -0.31099999 1.612 150 0 0 0 0.0092000002
2.3369999 -0.31400001 1.607 150 0 0 0 0.0092099998
2.339 -0.317 1.609 150 0 0 0 0.0092200004
2.3399999 -0.32100001 1.61 150 0 0 0 0.00923
2.335 -0.324 1.608 150 0 0 0 0.0092399996
2.3369999 -0.32800001 1.609 150 0 0 0 0.0092500001
2.336 -0.331 1.609 150 0 0 0 0.0092599997
2.3410001 -0.33500001 1.613 150 0 0 0 0.0092700003
2.339 -0.338 1.6109999 150 0 0 0 0.0092799999
2.3399999 -0.34200001 1.612 145 0 0 0 0.0092900004
2.3380001 -0.345 1.6109999 142 0 0 0 0.0093
2.3399999 -0.34900001 1.6109999 150 0 0 0 0.0093099996
2.3399999 -0.352 1.6109999 150 0 0 0 0.0093200002
2.3399999 -0.35499999 1.61 150 0 0 0 0.0093299998
2.3399999 -0.35800001 1.61 150 0 0 0 0.0093400003
2.3399999 -0.36199999 1.609 140 0 0 0 0.0093499999
2.3410001 -0.36500001 1.608 145 0 0 0 0.0093599996
2.345 -0.36899999 1.61 150 0 0 0 0.0093700001
2.348 -0.37200001 1.6109999 137 0 0 0 0.0093799997
2.3529999 -0.37599999 1.613 145 0 0 0 0.0093900003
2.3529999 -0.37900001 1.612 150 0 0 0 0.0093999999
2.3570001 -0.38299999 1.613 147 0 0 0 0.0094100004
2.3570001 -0.38600001 1.6109999 142 0 0 0 0.00942
2.3599999 -0.38999999 1.6109999 147 0 0 0 0.0094299996
2.362 -0.39300001 1.61 137 0 0 0 0.0094400002
2.3670001 -0.39700001 1.612 136 0 0 0 0.0094499998
2.368 -0.40000001 1.61 126 0 0 0 0.0094600003
2.3740001 -0.40400001 1.612 94 0 0 0 0.0094699999
2.3759999 -0.40700001 1.6109999 78 0 0 0 0.0094799995
2.3829999 -0.41100001 1.613 68 0 0 0 0.0094900001
2.375 -0.412 1.605 56 0 0 0 0.0094999997
2.382 -0.41600001 1.607 50 0 0 0 0.0095100002
2.385 -0.419 1.6059999 40 0 0 0 0.0095199998
2.388 -0.42199999 1.604 33 0 0 0 0.0095300004
2.3970001 -0.426 1.607 22 0 0 0 0.00954
2.392 -0.428 1.601 12 0 0 0 0.0095499996
2.395 -0.43099999 1.599 12 0 0 0 0.0095600002
2.398 -0.43399999 1.598 13 0 0 0 0.0095699998
2.3940001 -0.43599999 1.591 13 0 0 0 0.0095800003
2.392 -0.43799999 1.586 14 0 0 0 0.0095899999
2.391 -0.44 1.582 14 0 0 0 0.0096000005
2.392 -0.442 1.5779999 15 0 0 0 0.0096100001
2.3940001 -0.44499999 1.576 14 0 0 0 0.0096199997
2.3929999 -0.447 1.571 15 0 0 0 0.0096300002
2.3929999 -0.449 1.566 17 0 0 0 0.0096399998
2.388 -0.44999999 1.558 19 0 0 0 0.0096500004
2.3940001 -0.45300001 1.558 20 0 0 0 0.00966
2.3929999 -0.45500001 1.552 21 0 0 0 0.0096699996
2.395 -0.45699999 1.549 21 0 0 0 0.0096800001
2.392 -0.458 1.543 20 0 0 0 0.0096899997
2.3929999 -0.46000001 1.538 19 0 0 0 0.0097000003
2.392 -0.46200001 1.533 18 0 0 0 0.0097099999
2.3959999 -0.46399999 1.53 18 0 0 0 0.0097200004
2.395 -0.465 1.524 19 0 0 0 0.00973
2.395 -0.46700001 1.5190001 17 0 0 0 0.0097399997
2.392 -0.46799999 1.512 18 0 0 0 0.0097500002
2.395 -0.47 1.508 19 0 0 0 0.0097599998
2.395 -0.472 1.502 19 0 0 0 0.0097700004
2.388 -0.47099999 1.492 20 0 0 0 0.00978
2.395 -0.47400001 1.4910001 18 0 0 0 0.0097899996
2.3889999 -0.47400001 1.4809999 18 0 0 0 0.0098000001
2.392 -0.47600001 1.477 17 0 0 0 0.0098099997
2.392 -0.477 1.471 18 0 0 0 0.0098200003
2.3900001 -0.47799999 1.464 17 0 0 0 0.0098299999
2.392 -0.479 1.46 16 0 0 0 0.0098400004
2.3929999 -0.47999999 1.454 17 0 0 0 0.00985
2.391 -0.48100001 1.446 16 0 0 0 0.0098599996
2.388 -0.48100001 1.438 15 0 0 0 0.0098700002
2.391 -0.48300001 1.434 15 0 0 0 0.0098799998
2.3940001 -0.484 1.429 15 0 0 0 0.0098900003
2.3900001 -0.484 1.42 15 0 0 0 0.0098999999
2.3929999 -0.48500001 1.416 16 0 0 0 0.0099099996
2.3959999 -0.486 1.41 16 0 0 0 0.0099200001
2.391 -0.486 1.401 17 0 0 0 0.0099299997
2.3929999 -0.48699999 1.395 18 0 0 0 0.0099400003
2.3889999 -0.486 1.387 16 0 0 0 0.0099499999
2.3959999 -0.48800001 1.3839999 18 0 0 0 0.0099600004
2.3929999 -0.48800001 1.375 17 0 0 0 0.00997
2.3900001 -0.48699999 1.367 16 0 0 0 0.0099799996
2.3900001 -0.48800001 1.359 16 0 0 0 0.0099900002
2.3940001 -0.48899999 1.355 18 0 0 0 0.0099999998
2.391 -0.48800001 1.346 18 0 0 0 0.01001
2.3900001 -0.48800001 1.3380001 20 0 0 0 0.01002
2.388 -0.48699999 1.33 19 0 0 0 0.01003
2.388 -0.48800001 1.323 18 0 0 0 0.01004
2.3900001 -0.48800001 1.317 19 0 0 0 0.01005
2.391 -0.48800001 1.3099999 20 0 0 0 0.01006
2.391 -0.48800001 1.303 19 0 0 0 0.01007
2.391 -0.48800001 1.296 19 0 0 0 0.01008
2.3889999 -0.48699999 1.2869999 19 0 0 0 0.01009
2.385 -0.486 1.277 17 0 0 0 0.0101
2.388 -0.486 1.271 19 0 0 0 0.01011
2.3889999 -0.486 1.265 19 0 0 0 0.01012
2.3889999 -0.48500001 1.257 19 0 0 0 0.01013
2.3900001 -0.48500001 1.25 20 0 0 0 0.01014
2.3900001 -0.484 1.243 20 0 0 0 0.01015
2.3900001 -0.484 1.235 20 0 0 0 0.01016
2.388 -0.48199999 1.226 19 0 0 0 0.01017
2.3870001 -0.48199999 1.2180001 14 0 0 0 0.01018
2.3959999 -0.48300001 1.215 24 0 0 0 0.01019
2.8699999 -0.57700002 1.446 150 0 0 0 0.0102
3.2320001 -0.64899999 1.619 46 0 0 0 0.01021
3.2320001 -0.648 1.608 37 0 0 0 0.01022
3.2509999 -0.64999998 1.607 41 0 0 0 0.01023
3.2739999 -0.65399998 1.608 42 0 0 0 0.01024
3.2969999 -0.65700001 1.608 45 0 0 0 0.01025
3.3139999 -0.65899998 1.6059999 41 0 0 0 0.01026
3.3380001 -0.662 1.607 42 0 0 0 0.01027
3.3570001 -0.66399997 1.605 44 0 0 0 0.01028
3.382 -0.66799998 1.6059999 41 0 0 0 0.01029
3.405 -0.67000002 1.605 40 0 0 0 0.0103
3.427 -0.67299998 1.605 41 0 0 0 0.01031
3.454 -0.676 1.6059999 37 0 0 0 0.01032
3.4779999 -0.67900002 1.6059999 35 0 0 0 0.01033
3.497 -0.68099999 1.603 35 0 0 0 0.01034
3.5309999 -0.685 1.607 37 0 0 0 0.01035
3.559 -0.68800002 1.608 38 0 0 0 0.01036
3.5799999 -0.69 1.6059999 36 0 0 0 0.01037
3.6070001 -0.69300002 1.6059999 36 0 0 0 0.01038
3.635 -0.69599998 1.6059999 33 0 0 0 0.01039
3.6530001 -0.69700003 1.602 32 0 0 0 0.0104
3.684 -0.69999999 1.604 33 0 0 0 0.01041
3.7119999 -0.70300001 1.604 32 0 0 0 0.01042
3.7390001 -0.70599997 1.603 28 0 0 0 0.01043
3.7679999 -0.708 1.603 30 0 0 0 0.01044
3.7939999 -0.71100003 1.602 30 0 0 0 0.01045
3.8239999 -0.713 1.601 32 0 0 0 0.01046
3.8499999 -0.71499997 1.6 29 0 0 0 0.01047
3.881 -0.71799999 1.6 28 0 0 0 0.01048
3.9100001 -0.72000003 1.599 28 0 0 0 0.01049
3.9460001 -0.72399998 1.601 26 0 0 0 0.0105
3.9760001 -0.72600001 1.6 42 0 0 0 0.01051
3.9820001 -0.72399998 1.589 49 0 0 0 0.01052
3.9879999 -0.72100002 1.5779999 51 0 0 0 0.01053
3.997 -0.72000003 1.568 36 0 0 0 0.01054
4.0240002 -0.72100002 1.566 13 0 0 0 0.01055
4.0739999 -0.72600001 1.572 10 0 0 0 0.01056
4.1090002 -0.72899997 1.572 9 0 0 0 0.01057
4.1420002 -0.73100001 1.571 9 0 0 0 0.01058
4.1830001 -0.73400003 1.573 8 0 0 0 0.01059
0 0 0 0 0 0 0 0.0106
2.8399999 -0.493 1.049 0 0 0 0 0.01061
0 0 0 0 0 0 0 0.01062
0 0 0 0 0 0 0 0.01063
0 0 0 0 0 0 0 0.01064
0 0 0 0 0 0 0 0.01065
0 0 0 0 0 0 0 0.01066
0 0 0 0 0 0 0 0.01067
0 0 0 0 0 0 0 0.01068
0 0 0 0 0 0 0 0.01069
0 0 0 0 0 0 0 0.0107
0 0 0 0 0 0 0 0.01071
0 0 0 0 0 0 0 0.01072
0 0 0 0 0 0 0 0.01073
0 0 0 0 0 0 0 0.01074
0 0 0 0 0 0 0 0.01075
0 0 0 0 0 0 0 0.01076
0 0 0 0 0 0 0 0.01077
0 0 0 0 0 0 0 0.01078
0 0 0 0 0 0 0 0.01079
0 0 0 0 0 0 0 0.0108
0 0 0 0 0 0 0 0.01081
0 0 0 0 0 0 0 0.01082
0 0 0 0 0 0 0 0.01083
0 0 0 0 0 0 0 0.01084
0 0 0 0 0 0 0 0.01085
0 0 0 0 0 0 0 0.01086
0 0 0 0 0 0 0 0.01087
0 0 0 0 0 0 0 0.01088
0 0 0 0 0 0 0 0.01089
0 0 0 0 0 0 0 0.0109
0 0 0 0 0 0 0 0.01091
0 0 0 0 0 0 0 0.01092
0 0 0 0 0 0 0 0.01093
0 0 0 0 0 0 0 0.01094
0 0 0 0 0 0 0 0.01095
0 0 0 0 0 0 0 0.01096
0 0 0 0 0 0 0 0.01097
2.4089999 -0.317 0.60399997 0 0 0 0 0.01098
2.381 -0.31 0.58999997 4 0 0 0 0.01099
2.381 -0.30700001 0.58200002 20 0 0 0 0.011
2.382 -0.30399999 0.57499999 32 0 0 0 0.01101
2.3870001 -0.30199999 0.56900001 32 0 0 0 0.01102
2.4030001 -0.301 0.565 15 0 0 0 0.01103
2.4360001 -0.30199999 0.56599998 15 0 0 0 0.01104
2.4619999 -0.301 0.56400001 17 0 0 0 0.01105
2.4790001 -0.30000001 0.56 18 0 0 0 0.01106
2.506 -0.30000001 0.55900002 20 0 0 0 0.01107
2.5190001 -0.29800001 0.55400002 20 0 0 0 0.01108
2.549 -0.29800001 0.55299997 21 0 0 0 0.01109
2.5710001 -0.29800001 0.55000001 22 0 0 0 0.0111
2.849 -0.32600001 0.60000002 107 0 0 0 0.01111
2.9260001 -0.331 0.60799998 150 0 0 0 0.01112
3.0899999 -0.345 0.63300002 150 0 0 0 0.01113
3.2160001 -0.35499999 0.64899999 150 0 0 0 0.01114
3.2190001 -0.35100001 0.63999999 150 0 0 0 0.01115
3.2179999 -0.34599999 0.63 150 0 0 0 0.01116
3.2149999 -0.34099999 0.61900002 150 0 0 0 0.01117
3.217 -0.33700001 0.61000001 150 0 0 0 0.01118
3.2149999 -0.33199999 0.60000002 150 0 0 0 0.01119
3.214 -0.32699999 0.58999997 150 0 0 0 0.0112
3.2179999 -0.32300001 0.58099997 150 0 0 0 0.01121
3.2160001 -0.31799999 0.57099998 150 0 0 0 0.01122
3.217 -0.31400001 0.56199998 150 0 0 0 0.01123
3.2149999 -0.30899999 0.55199999 150 0 0 0 0.01124
3.2279999 -0.30500001 0.54400003 150 0 0 0 0.01125
3.2390001 -0.30199999 0.537 150 0 0 0 0.01126
3.2420001 -0.29699999 0.528 150 0 0 0 0.01127
3.2409999 -0.29300001 0.51800001 150 0 0 0 0.01128
3.2409999 -0.28799999 0.50800002 150 0 0 0 0.01129
3.237 -0.28299999 0.498 150 0 0 0 0.0113
3.2379999 -0.278 0.48899999 150 0 0 0 0.01131
3.24 -0.273 0.479 150 0 0 0 0.01132
3.2390001 -0.26800001 0.47 150 0 0 0 0.01133
3.234 -0.26300001 0.46000001 150 0 0 0 0.01134
3.2349999 -0.25799999 0.44999999 150 0 0 0 0.01135
3.24 -0.25400001 0.44100001 81 0 0 0 0.01136
3.276 -0.252 0.43700001 22 0 0 0 0.01137
3.3380001 -0.25099999 0.435 29 0 0 0 0.01138
3.335 -0.24600001 0.42500001 150 0 0 0 0.01139
3.345 -0.242 0.417 150 0 0 0 0.0114
3.345 -0.237 0.40700001 150 0 0 0 0.01141
3.342 -0.23100001 0.39700001 150 0 0 0 0.01142
3.3429999 -0.226 0.38800001 150 0 0 0 0.01143
3.3429999 -0.221 0.37799999 150 0 0 0 0.01144
3.3440001 -0.21600001 0.36899999 150 0 0 0 0.01145
3.342 -0.211 0.359 150 0 0 0 0.01146
3.3469999 -0.206 0.34999999 150 0 0 0 0.01147
3.358 -0.20100001 0.34099999 150 0 0 0 0.01148
3.375 -0.197 0.333 150 0 0 0 0.01149
3.375 -0.192 0.32300001 151 0 0 0 0.0115
3.378 -0.186 0.31400001 150 0 0 0 0.01151
3.375 -0.18099999 0.30399999 150 0 0 0 0.01152
3.3729999 -0.175 0.29499999 150 0 0 0 0.01153
3.414 -0.17200001 0.28799999 150 0 0 0 0.01154
3.4400001 -0.168 0.28099999 150 0 0 0 0.01155
3.4349999 -0.162 0.271 151 0 0 0 0.01156
3.4430001 -0.15700001 0.26199999 150 0 0 0 0.01157
3.437 -0.15099999 0.25099999 150 0 0 0 0.01158
3.438 -0.146 0.242 150 0 0 0 0.01159
3.4360001 -0.14 0.23199999 150 0 0 0 0.0116
3.437 -0.13500001 0.222 150 0 0 0 0.01161
3.437 -0.12899999 0.213 150 0 0 0 0.01162
3.4300001 -0.123 0.20200001 150 0 0 0 0.01163
3.431 -0.118 0.193 150 0 0 0 0.01164
3.434 -0.112 0.184 150 0 0 0 0.01165
3.431 -0.106 0.17399999 150 0 0 0 0.01166
3.4330001 -0.101 0.164 150 0 0 0 0.01167
3.434 -0.094999999 0.155 150 0 0 0 0.01168
3.4300001 -0.089000002 0.145 150 0 0 0 0.01169
3.431 -0.083999999 0.13500001 150 0 0 0 0.0117
3.4289999 -0.078000002 0.126 150 0 0 0 0.01171
3.4300001 -0.071999997 0.116 150 0 0 0 0.01172
3.427 -0.066 0.107 150 0 0 0 0.01173
3.431 -0.061000001 0.097000003 150 0 0 0 0.01174
3.428 -0.055 0.088 150 0 0 0 0.01175
3.428 -0.048999999 0.078000002 150 0 0 0 0.01176
3.427 -0.043000001 0.068999998 150 0 0 0 0.01177
3.4289999 -0.037 0.059 150 0 0 0 0.01178
3.4289999 -0.032000002 0.050000001 150 0 0 0 0.01179
3.424 -0.026000001 0.039999999 150 0 0 0 0.0118
3.4189999 -0.02 0.030999999 150 0 0 0 0.01181
3.424 -0.014 0.022 151 0 0 0 0.01182
3.4230001 -0.0080000004 0.012 151 0 0 0 0.01183
3.4189999 -0.0020000001 0.003 151 0 0 0 0.01184
3.418 0.003 -0.0049999999 151 0 0 0 0.01185
3.418 0.0089999996 -0.015 151 0 0 0 0.01186
3.418 0.015 -0.024 151 0 0 0 0.01187
3.4200001 0.021 -0.033 151 0 0 0 0.01188
3.421 0.027000001 -0.043000001 151 0 0 0 0.01189
3.4200001 0.033 -0.052000001 152 0 0 0 0.0119
3.4230001 0.039000001 -0.061000001 152 0 0 0 0.01191
3.4219999 0.045000002 -0.071000002 152 0 0 0 0.01192
3.4170001 0.050999999 -0.079999998 152 0 0 0 0.01193
3.4159999 0.057 -0.089000002 152 0 0 0 0.01194
3.415 0.063000001 -0.097999997 152 0 0 0 0.01195
3.415 0.068999998 -0.108 152 0 0 0 0.01196
3.4100001 0.075000003 -0.117 152 0 0 0 0.01197
3.4119999 0.081 -0.126 152 0 0 0 0.01198
3.414 0.086999997 -0.13500001 152 0 0 0 0.01199
3.4189999 0.093000002 -0.145 152 0 0 0 0.012
3.4189999 0.1 -0.154 152 0 0 0 0.01201
3.4130001 0.106 -0.163 152 0 0 0 0.01202
3.4170001 0.112 -0.17200001 152 0 0 0 0.01203
3.411 0.118 -0.18099999 152 0 0 0 0.01204
3.4130001 0.124 -0.19 152 0 0 0 0.01205
3.4100001 0.13 -0.199 152 0 0 0 0.01206
3.4100001 0.13699999 -0.208 152 0 0 0 0.01207
3.4100001 0.14300001 -0.21699999 151 0 0 0 0.01208
3.4059999 0.149 -0.226 151 0 0 0 0.01209
3.4070001 0.156 -0.236 151 0 0 0 0.0121
3.4089999 0.162 -0.245 151 0 0 0 0.01211
3.4070001 0.168 -0.25400001 151 0 0 0 0.01212
3.4070001 0.175 -0.26300001 151 0 0 0 0.01213
3.3989999 0.18099999 -0.271 151 0 0 0 0.01214
3.398 0.18700001 -0.28 150 0 0 0 0.01215
3.402 0.19400001 -0.28999999 151 0 0 0 0.01216
3.401 0.2 -0.29800001 150 0 0 0 0.01217
3.3989999 0.206 -0.30700001 150 0 0 0 0.01218
3.4030001 0.213 -0.317 150 0 0 0 0.01219
3.3970001 0.219 -0.32499999 150 0 0 0 0.0122
3.405 0.226 -0.33500001 150 0 0 0 0.01221
3.3989999 0.23199999 -0.34299999 150 0 0 0 0.01222
3.398 0.23899999 -0.352 150 0 0 0 0.01223
3.401 0.24600001 -0.361 150 0 0 0 0.01224
3.395 0.252 -0.37 150 0 0 0 0.01225
3.3970001 0.25799999 -0.37900001 150 0 0 0 0.01226
3.395 0.26499999 -0.38699999 150 0 0 0 0.01227
3.3970001 0.27200001 -0.39700001 150 0 0 0 0.01228
3.398 0.278 -0.40599999 150 0 0 0 0.01229
3.3940001 0.285 -0.414 150 0 0 0 0.0123
3.398 0.292 -0.42300001 150 0 0 0 0.01231
3.3940001 0.29800001 -0.43200001 150 0 0 0 0.01232
3.3870001 0.30399999 -0.44 150 0 0 0 0.01233
3.3929999 0.31200001 -0.449 150 0 0 0 0.01234
3.391 0.31799999 -0.458 150 0 0 0 0.01235
3.3929999 0.32499999 -0.46700001 150 0 0 0 0.01236
3.3959999 0.33199999 -0.47600001 150 0 0 0 0.01237
3.395 0.33899999 -0.48500001 150 0 0 0 0.01238
3.3889999 0.345 -0.493 150 0 0 0 0.01239
3.391 0.35299999 -0.50199997 150 0 0 0 0.0124
3.388 0.359 -0.51099998 150 0 0 0 0.01241
3.3870001 0.366 -0.51899999 150 0 0 0 0.01242
3.388 0.373 -0.528 150 0 0 0 0.01243
3.388 0.38 -0.537 150 0 0 0 0.01244
3.391 0.38699999 -0.546 150 0 0 0 0.01245
3.3889999 0.39399999 -0.55500001 150 0 0 0 0.01246
3.3870001 0.40099999 -0.56300002 150 0 0 0 0.01247
3.3870001 0.40799999 -0.57200003 150 0 0 0 0.01248
3.388 0.41499999 -0.58099997 150 0 0 0 0.01249
3.3859999 0.42199999 -0.58899999 150 0 0 0 0.0125
3.382 0.42899999 -0.597 150 0 0 0 0.01251
3.3829999 0.43599999 -0.60600001 150 0 0 0 0.01252
3.381 0.44299999 -0.61400002 150 0 0 0 0.01253
3.378 0.44999999 -0.62199998 150 0 0 0 0.01254
3.3789999 0.45699999 -0.63099998 150 0 0 0 0.01255
3.382 0.465 -0.63999999 150 0 0 0 0.01256
3.3770001 0.47099999 -0.648 150 0 0 0 0.01257
3.381 0.479 -0.65700001 150 0 0 0 0.01258
3.378 0.486 -0.66500002 150 0 0 0 0.01259
3.3759999 0.493 -0.67299998 150 0 0 0 0.0126
3.355 0.49700001 -0.67799997 150 0 0 0 0.01261
3.313 0.49900001 -0.67799997 150 0 0 0 0.01262
3.3110001 0.50599998 -0.68599999 150 0 0 0 0.01263
3.3099999 0.51300001 -0.69400001 150 0 0 0 0.01264
3.3050001 0.51899999 -0.70099998 150 0 0 0 0.01265
3.28 0.52200001 -0.704 150 0 0 0 0.01266
3.2709999 0.528 -0.70999998 150 0 0 0 0.01267
3.27 0.53500003 -0.71799999 150 0 0 0 0.01268
3.2720001 0.54299998 -0.727 150 0 0 0 0.01269
3.2709999 0.55000001 -0.73500001 150 0 0 0 0.0127
3.266 0.55699998 -0.74199998 150 0 0 0 0.01271
3.257 0.56300002 -0.74800003 45 0 0 0 0.01272
3.214 0.56300002 -0.74599999 25 0 0 0 0.01273
3.1600001 0.56 -0.74199998 27 0 0 0 0.01274
3.102 0.55699998 -0.736 27 0 0 0 0.01275
3.059 0.55599999 -0.73299998 27 0 0 0 0.01276
3.0550001 0.56300002 -0.74000001 29 0 0 0 0.01277
3.0190001 0.56300002 -0.73799998 31 0 0 0 0.01278
2.9679999 0.56099999 -0.73299998 31 0 0 0 0.01279
2.905 0.55500001 -0.72500002 30 0 0 0 0.0128
2.8039999 0.54299998 -0.70700002 28 0 0 0 0.01281
2.724 0.53399998 -0.69300002 24 0 0 0 0.01282
2.6459999 0.52399999 -0.67900002 21 0 0 0 0.01283
2.5940001 0.51999998 -0.67299998 17 0 0 0 0.01284
2.543 0.51599997 -0.66600001 11 0 0 0 0.01285
2.5 0.51300001 -0.66000003 8 0 0 0 0.01286
2.454 0.50999999 -0.65399998 7 0 0 0 0.01287
2.418 0.50800002 -0.64999998 7 0 0 0 0.01288
2.3789999 0.50599998 -0.64600003 7 0 0 0 0.01289
2.342 0.50300002 -0.64099997 7 0 0 0 0.0129
2.2850001 0.49700001 -0.63099998 15 0 0 0 0.01291
2.2509999 0.495 -0.62699997 115 0 0 0 0.01292
2.2479999 0.5 -0.63200003 150 0 0 0 0.01293
2.2490001 0.505 -0.63700002 151 0 0 0 0.01294
2.247 0.50999999 -0.64200002 151 0 0 0 0.01295
2.2349999 0.51300001 -0.64399999 150 0 0 0 0.01296
2.2219999 0.51499999 -0.64499998 150 0 0 0 0.01297
2.217 0.51999998 -0.64899999 150 0 0 0 0.01298
2.2149999 0.52499998 -0.65399998 150 0 0 0 0.01299
2.2130001 0.52999997 -0.65799999 151 0 0 0 0.013
2.21 0.53500003 -0.662 150 0 0 0 0.01301
2.217 0.542 -0.67000002 151 0 0 0 0.01302
2.214 0.54699999 -0.67400002 151 0 0 0 0.01303
2.2149999 0.55299997 -0.67900002 151 0 0 0 0.01304
2.2130001 0.55800003 -0.68400002 151 0 0 0 0.01305
2.214 0.56300002 -0.68900001 151 0 0 0 0.01306
2.214 0.56900001 -0.69400001 151 0 0 0 0.01307
2.214 0.57499999 -0.699 151 0 0 0 0.01308
2.2190001 0.58200002 -0.70599997 151 0 0 0 0.01309
2.22 0.588 -0.71100003 151 0 0 0 0.0131
2.2190001 0.59299999 -0.71600002 151 0 0 0 0.01311
2.223 0.60000002 -0.722 151 0 0 0 0.01312
2.223 0.60600001 -0.727 151 0 0 0 0.01313
2.221 0.611 -0.73100001 151 0 0 0 0.01314
2.234 0.62 -0.741 150 0 0 0 0.01315
2.289 0.64200002 -0.764 150 0 0 0 0.01316
2.4200001 0.685 -0.81300002 150 0 0 0 0.01317
2.4760001 0.70700002 -0.83700001 150 0 0 0 0.01318
2.4749999 0.71399999 -0.84200001 150 0 0 0 0.01319
2.4760001 0.72000003 -0.84799999 114 0 0 0 0.0132
2.474 0.72600001 -0.852 62 0 0 0 0.01321
2.4590001 0.72799999 -0.852 39 0 0 0 0.01322
2.358 0.70499998 -0.82200003 150 0 0 0 0.01323
2.4519999 0.73900002 -0.86000001 150 0 0 0 0.01324
1.495 0.45500001 -0.52700001 21 0 0 0 0.01325
1.469 0.45100001 -0.52100003 4 0 0 0 0.01326
1.4579999 0.45100001 -0.51999998 5 0 0 0 0.01327
1.439 0.449 -0.51599997 5 0 0 0 0.01328
1.428 0.44999999 -0.51499999 7 0 0 0 0.01329
1.414 0.449 -0.51300001 6 0 0 0 0.0133
1.39 0.44499999 -0.50700003 6 0 0 0 0.01331
1.381 0.44600001 -0.50700003 6 0 0 0 0.01332
1.3660001 0.44499999 -0.50400001 6 0 0 0 0.01333
1.352 0.44400001 -0.50099999 6 0 0 0 0.01334
1.336 0.442 -0.498 6 0 0 0 0.01335
1.3200001 0.44100001 -0.495 21 0 0 0 0.01336
1.294 0.435 -0.48699999 121 0 0 0 0.01337
1.281 0.435 -0.48500001 150 0 0 0 0.01338
1.278 0.43700001 -0.486 150 0 0 0 0.01339
1.274 0.43900001 -0.48699999 150 0 0 0 0.0134
1.274 0.44299999 -0.49000001 150 0 0 0 0.01341
1.275 0.44600001 -0.49200001 150 0 0 0 0.01342
1.278 0.45100001 -0.49599999 150 0 0 0 0.01343
1.277 0.454 -0.49700001 150 0 0 0 0.01344
1.275 0.45699999 -0.49900001 150 0 0 0 0.01345
1.275 0.46000001 -0.50099999 150 0 0 0 0.01346
1.279 0.46599999 -0.505 150 0 0 0 0.01347
1.274 0.46700001 -0.505 150 0 0 0 0.01348
1.273 0.47 -0.50700003 150 0 0 0 0.01349
1.277 0.47499999 -0.51099998 150 0 0 0 0.0135
1.28 0.47999999 -0.514 150 0 0 0 0.01351
1.2819999 0.484 -0.51700002 51 0 0 0 0.01352
1.253 0.477 -0.50700003 40 0 0 0 0.01353
1.2359999 0.47299999 -0.50199997 59 0 0 0 0.01354
1.222 0.47099999 -0.498 75 0 0 0 0.01355
1.21 0.47 -0.495 83 0 0 0 0.01356
1.201 0.47 -0.49399999 83 0 0 0 0.01357
1.191 0.46900001 -0.491 78 0 0 0 0.01358
1.177 0.46700001 -0.48699999 75 0 0 0 0.01359
1.165 0.46599999 -0.484 77 0 0 0 0.0136
1.161 0.46700001 -0.484 78 0 0 0 0.01361
1.153 0.46700001 -0.48199999 78 0 0 0 0.01362
1.146 0.46700001 -0.48100001 76 0 0 0 0.01363
1.135 0.46599999 -0.47799999 73 0 0 0 0.01364
1.127 0.46599999 -0.47600001 75 0 0 0 0.01365
1.114 0.463 -0.472 64 0 0 0 0.01366
1.105 0.46200001 -0.46900001 58 0 0 0 0.01367
1.094 0.461 -0.46599999 63 0 0 0 0.01368
1.089 0.46200001 -0.465 53 0 0 0 0.01369
1.082 0.46200001 -0.463 65 0 0 0 0.0137
1.075 0.461 -0.46200001 73 0 0 0 0.01371
1.0650001 0.46000001 -0.45899999 80 0 0 0 0.01372
1.059 0.46000001 -0.45699999 87 0 0 0 0.01373
1.049 0.45899999 -0.454 81 0 0 0 0.01374
1.045 0.46000001 -0.45300001 86 0 0 0 0.01375
1.035 0.458 -0.44999999 82 0 0 0 0.01376
1.03 0.458 -0.449 80 0 0 0 0.01377
1.028 0.46000001 -0.449 78 0 0 0 0.01378
1.0190001 0.45899999 -0.44600001 80 0 0 0 0.01379
1.012 0.458 -0.44400001 85 0 0 0 0.0138
1.007 0.45899999 -0.44299999 77 0 0 0 0.01381
1.001 0.458 -0.44100001 71 0 0 0 0.01382
0.99000001 0.456 -0.43700001 67 0 0 0 0.01383
0.98400003 0.456 -0.435 66 0 0 0 0.01384
0.977 0.45500001 -0.433 60 0 0 0 0.01385
0.97299999 0.45500001 -0.43099999 58 0 0 0 0.01386
0.972 0.45699999 -0.43099999 60 0 0 0 0.01387
0.96600002 0.45699999 -0.43000001 60 0 0 0 0.01388
0.95899999 0.456 -0.42699999 67 0 0 0 0.01389
0.95200002 0.45500001 -0.42399999 59 0 0 0 0.0139
0.94400001 0.45300001 -0.421 60 0 0 0 0.01391
0.94 0.454 -0.41999999 57 0 0 0 0.01392
0.93699998 0.454 -0.419 55 0 0 0 0.01393
0.935 0.45500001 -0.419 47 0 0 0 0.01394
0.92799997 0.454 -0.41600001 46 0 0 0 0.01395
0.91799998 0.45100001 -0.412 57 0 0 0 0.01396
0.912 0.44999999 -0.40900001 58 0 0 0 0.01397
0.903 0.44800001 -0.405 59 0 0 0 0.01398
0.89899999 0.44800001 -0.40400001 69 0 0 0 0.01399
0.89399999 0.447 -0.40200001 59 0 0 0 0.014
0.89200002 0.44800001 -0.40099999 74 0 0 0 0.01401
0.89200002 0.44999999 -0.40099999 77 0 0 0 0.01402
0.89300001 0.45300001 -0.40200001 71 0 0 0 0.01403
0.88700002 0.45100001 -0.39899999 62 0 0 0 0.01404
0.89200002 0.456 -0.40099999 51 0 0 0 0.01405
0.89399999 0.45899999 -0.40200001 39 0 0 0 0.01406
0.89499998 0.461 -0.403 35 0 0 0 0.01407
0.89399999 0.46200001 -0.40200001 32 0 0 0 0.01408
0.89300001 0.463 -0.40200001 29 0 0 0 0.01409
0.89999998 0.46900001 -0.405 29 0 0 0 0.0141
0.89899999 0.47 -0.40400001 30 0 0 0 0.01411
0.91100001 0.47799999 -0.40900001 47 0 0 0 0.01412
0.94800001 0.49900001 -0.426 69 0 0 0 0.01413
0.98000002 0.51700002 -0.44 95 0 0 0 0.01414
0.99400002 0.52700001 -0.44600001 113 0 0 0 0.01415
1.0140001 0.53799999 -0.454 118 0 0 0 0.01416
1.02 0.54299998 -0.456 109 0 0 0 0.01417
1.0190001 0.54500002 -0.45500001 106 0 0 0 0.01418
1.012 0.54299998 -0.45199999 98 0 0 0 0.01419
0.99900001 0.537 -0.44499999 88 0 0 0 0.0142
0.98000002 0.528 -0.43599999 71 0 0 0 0.01421
0.95099998 0.514 -0.42300001 50 0 0 0 0.01422
0.92400002 0.50099999 -0.41 36 0 0 0 0.01423
0.91299999 0.49599999 -0.405 26 0 0 0 0.01424
0.90499997 0.493 -0.40099999 24 0 0 0 0.01425
0.898 0.49000001 -0.39700001 23 0 0 0 0.01426
0.898 0.491 -0.396 21 0 0 0 0.01427
0.89499998 0.491 -0.39399999 20 0 0 0 0.01428
0.89399999 0.491 -0.39300001 20 0 0 0 0.01429
0.89700001 0.49399999 -0.39300001 22 0 0 0 0.0143
0.89700001 0.495 -0.39199999 21 0 0 0 0.01431
0.89499998 0.495 -0.38999999 19 0 0 0 0.01432
0.89600003 0.49599999 -0.38999999 22 0 0 0 0.01433
0.89499998 0.49599999 -0.38800001 19 0 0 0 0.01434
0.89600003 0.498 -0.38800001 15 0 0 0 0.01435
0.89399999 0.49700001 -0.38600001 11 0 0 0 0.01436
0.89700001 0.5 -0.38600001 10 0 0 0 0.01437
0.89700001 0.50099999 -0.38499999 8 0 0 0 0.01438
0.89499998 0.5 -0.38299999 7 0 0 0 0.01439
0.89600003 0.50099999 -0.382 7 0 0 0 0.0144
0.89499998 0.50099999 -0.38100001 7 0 0 0 0.01441
0.89300001 0.50099999 -0.37900001 7 0 0 0 0.01442
0.89300001 0.50099999 -0.37799999 7 0 0 0 0.01443
0.88800001 0.49900001 -0.37400001 7 0 0 0 0.01444
0.89399999 0.50300002 -0.37599999 7 0 0 0 0.01445
0.889 0.5 -0.37200001 7 0 0 0 0.01446
0.889 0.5 -0.37099999 6 0 0 0 0.01447
0.89099997 0.50199997 -0.37 7 0 0 0 0.01448
0.88999999 0.50199997 -0.36899999 6 0 0 0 0.01449
0.88499999 0.49900001 -0.36500001 6 0 0 0 0.0145
0.88599998 0.5 -0.36399999 6 0 0 0 0.01451
0.88599998 0.5 -0.36300001 6 0 0 0 0.01452
0.88599998 0.5 -0.361 6 0 0 0 0.01453
0.889 0.50099999 -0.361 6 0 0 0 0.01454
0.88800001 0.50099999 -0.359 6 0 0 0 0.01455
0.889 0.50199997 -0.35800001 6 0 0 0 0.01456
0.89099997 0.50300002 -0.35699999 6 0 0 0 0.01457
0.88999999 0.50199997 -0.35499999 6 0 0 0 0.01458
0.89099997 0.50199997 -0.354 6 0 0 0 0.01459
0.89399999 0.50400001 -0.354 6 0 0 0 0.0146
0.89399999 0.50400001 -0.352 6 0 0 0 0.01461
0.89499998 0.50400001 -0.35100001 6 0 0 0 0.01462
0.89499998 0.50300002 -0.34900001 6 0 0 0 0.01463
0.89700001 0.50400001 -0.34799999 6 0 0 0 0.01464
0.89700001 0.50400001 -0.34599999 6 0 0 0 0.01465
0.89899999 0.505 -0.345 6 0 0 0 0.01466
0.90399998 0.50700003 -0.345 6 0 0 0 0.01467
0.90399998 0.50700003 -0.34400001 6 0 0 0 0.01468
0.898 0.50300002 -0.34 6 0 0 0 0.01469
0.90200001 0.50400001 -0.33899999 6 0 0 0 0.0147
0.90700001 0.50599998 -0.33899999 6 0 0 0 0.01471
0.90799999 0.50599998 -0.338 6 0 0 0 0.01472
0.90899998 0.50599998 -0.336 6 0 0 0 0.01473
0.91100001 0.50700003 -0.33500001 6 0 0 0 0.01474
0.91600001 0.509 -0.33500001 6 0 0 0 0.01475
0.91299999 0.50599998 -0.33199999 6 0 0 0 0.01476
0.91900003 0.50800002 -0.33199999 6 0 0 0 0.01477
0.92000002 0.50800002 -0.33000001 6 0 0 0 0.01478
0.92500001 0.50999999 -0.33000001 6 0 0 0 0.01479
0.92400002 0.50800002 -0.32800001 6 0 0 0 0.0148
0.92400002 0.50700003 -0.32600001 6 0 0 0 0.01481
0.92900002 0.509 -0.32600001 6 0 0 0 0.01482
0.93000001 0.50800002 -0.324 6 0 0 0 0.01483
0.93599999 0.50999999 -0.324 7 0 0 0 0.01484
0.94199997 0.51300001 -0.324 6 0 0 0 0.01485
0.94099998 0.51099998 -0.322 6 0 0 0 0.01486
0.94400001 0.51099998 -0.31999999 7 0 0 0 0.01487
0.94700003 0.51200002 -0.31900001 6 0 0 0 0.01488
0.94800001 0.51099998 -0.31799999 6 0 0 0 0.01489
0.94800001 0.509 -0.315 7 0 0 0 0.0149
0.94599998 0.50700003 -0.31299999 7 0 0 0 0.01491
0.94 0.50199997 -0.308 7 0 0 0 0.01492
0.935 0.498 -0.30500001 7 0 0 0 0.01493
0.92500001 0.491 -0.29899999 7 0 0 0 0.01494
0.92199999 0.48800001 -0.296 6 0 0 0 0.01495
0.91399997 0.48300001 -0.292 6 0 0 0 0.01496
0.912 0.47999999 -0.289 6 0 0 0 0.01497
0.91399997 0.479 -0.287 6 0 0 0 0.01498
0.91500002 0.47799999 -0.28600001 6 0 0 0 0.01499
0.90899998 0.47400001 -0.28200001 7 0 0 0 0.015
0.90799999 0.47099999 -0.27900001 7 0 0 0 0.01501
0.90799999 0.47 -0.27700001 8 0 0 0 0.01502
0.90899998 0.46900001 -0.27500001 8 0 0 0 0.01503
0.90799999 0.46599999 -0.273 9 0 0 0 0.01504
0.90799999 0.465 -0.271 12 0 0 0 0.01505
0.912 0.465 -0.27000001 13 0 0 0 0.01506
0.912 0.463 -0.26800001 12 0 0 0 0.01507
0.91100001 0.461 -0.266 14 0 0 0 0.01508
0.90600002 0.456 -0.26199999 9 0 0 0 0.01509
0.91399997 0.45899999 -0.26199999 8 0 0 0 0.0151
0.92000002 0.46000001 -0.26199999 6 0 0 0 0.01511
0.90700001 0.45199999 -0.25600001 0 0 0 0 0.01512
0.91399997 0.45300001 -0.25600001 0 0 0 0 0.01513
3.0599999 1.51 -0.85000002 1 0 0 0 0.01514
3.049 1.498 -0.83999997 2 0 0 0 0.01515
3.0810001 1.508 -0.84200001 3 0 0 0 0.01516
3.0739999 1.497 -0.833 3 0 0 0 0.01517
3.075 1.4910001 -0.82599998 3 0 0 0 0.01518
3.072 1.483 -0.81800002 3 0 0 0 0.01519
3.0680001 1.474 -0.81 3 0 0 0 0.0152
3.073 1.469 -0.80500001 3 0 0 0 0.01521
3.076 1.4630001 -0.79799998 3 0 0 0 0.01522
3.0880001 1.462 -0.79500002 3 0 0 0 0.01523
3.0910001 1.456 -0.78899997 3 0 0 0 0.01524
3.096 1.451 -0.78299999 3 0 0 0 0.01525
3.1099999 1.45 -0.77899998 3 0 0 0 0.01526
3.122 1.449 -0.77600002 4 0 0 0 0.01527
