# .PCD v0.7 - Point Cloud Data file format
VERSION 0.7
FIELDS x y z intensity normal_x normal_y normal_z curvature
SIZE 4 4 4 4 4 4 4 4
TYPE F F F F F F F F
COUNT 1 1 1 1 1 1 1 1
WIDTH 1007
HEIGHT 1
VIEWPOINT 0 0 0 1 0 0 0
POINTS 1007
DATA ascii
1.1670001 -0.56900001 -0.57800001 13 0 0 0 0.032930002
1.13 -0.54900002 -0.56099999 8 0 0 0 0.03294
1.118 -0.54100001 -0.55500001 4 0 0 0 0.032949999
1.1210001 -0.54100001 -0.55599999 5 0 0 0 0.032960001
1.117 -0.537 -0.55400002 6 0 0 0 0.03297
1.119 -0.53600001 -0.55599999 6 0 0 0 0.032979999
1.12 -0.53399998 -0.55599999 6 0 0 0 0.032990001
1.1210001 -0.53200001 -0.55699998 7 0 0 0 0.033
1.122 -0.53100002 -0.55699998 7 0 0 0 0.033009999
1.122 -0.52899998 -0.55699998 7 0 0 0 0.033020001
1.151 -0.54000002 -0.57099998 14 0 0 0 0.03303
1.268 -0.59200001 -0.62900001 32 0 0 0 0.033039998
1.441 -0.671 -0.71499997 66 0 0 0 0.033050001
1.536 -0.71100003 -0.76200002 55 0 0 0 0.033059999
1.608 -0.74199998 -0.79699999 23 0 0 0 0.033070002
1.635 -0.75099999 -0.81 37 0 0 0 0.03308
1.637 -0.74800003 -0.81 37 0 0 0 0.033089999
1.64 -0.74599999 -0.81099999 38 0 0 0 0.033100002
1.642 -0.74299997 -0.81199998 36 0 0 0 0.03311
1.643 -0.74000001 -0.81099999 38 0 0 0 0.033119999
1.645 -0.73799998 -0.81099999 37 0 0 0 0.033130001
1.649 -0.736 -0.81199998 36 0 0 0 0.03314
1.648 -0.73100001 -0.81099999 38 0 0 0 0.033149999
1.655 -0.73100001 -0.81300002 40 0 0 0 0.033160001
1.656 -0.727 -0.81300002 39 0 0 0 0.03317
1.655 -0.72299999 -0.81099999 38 0 0 0 0.033179998
1.661 -0.722 -0.81300002 38 0 0 0 0.033190001
1.664 -0.72000003 -0.81300002 37 0 0 0 0.033199999
1.666 -0.71600002 -0.81300002 37 0 0 0 0.033209998
1.668 -0.713 -0.81199998 34 0 0 0 0.033220001
1.671 -0.71100003 -0.81199998 34 0 0 0 0.033229999
1.673 -0.70700002 -0.81199998 34 0 0 0 0.033240002
1.6799999 -0.70599997 -0.81300002 36 0 0 0 0.03325
1.686 -0.70499998 -0.81400001 35 0 0 0 0.033259999
1.687 -0.70099998 -0.81400001 35 0 0 0 0.033270001
1.693 -0.69999999 -0.815 36 0 0 0 0.03328
1.694 -0.69599998 -0.81300002 33 0 0 0 0.033289999
1.701 -0.69400001 -0.81400001 34 0 0 0 0.033300001
1.704 -0.69099998 -0.81400001 35 0 0 0 0.03331
1.711 -0.69 -0.81599998 35 0 0 0 0.033319999
1.716 -0.68800002 -0.81599998 35 0 0 0 0.033330001
1.722 -0.68599999 -0.81599998 36 0 0 0 0.03334
1.723 -0.68199998 -0.815 35 0 0 0 0.033349998
1.728 -0.67900002 -0.815 36 0 0 0 0.033360001
1.738 -0.67900002 -0.81699997 35 0 0 0 0.033369999
1.7410001 -0.676 -0.81599998 33 0 0 0 0.033380002
1.745 -0.67299998 -0.81599998 34 0 0 0 0.03339
1.752 -0.671 -0.81699997 35 0 0 0 0.033399999
1.755 -0.66799998 -0.815 35 0 0 0 0.033410002
1.7589999 -0.66500002 -0.815 35 0 0 0 0.03342
1.77 -0.66399997 -0.81699997 34 0 0 0 0.033429999
1.772 -0.66100001 -0.815 34 0 0 0 0.033440001
1.786 -0.66100001 -0.81900001 34 0 0 0 0.03345
1.791 -0.65799999 -0.81800002 34 0 0 0 0.033459999
1.795 -0.65499997 -0.81699997 34 0 0 0 0.033470001
1.802 -0.653 -0.81699997 32 0 0 0 0.03348
1.808 -0.65100002 -0.81699997 34 0 0 0 0.033489998
1.813 -0.648 -0.81599998 33 0 0 0 0.033500001
1.817 -0.64399999 -0.815 31 0 0 0 0.03351
1.8329999 -0.64600003 -0.81900001 31 0 0 0 0.033519998
1.837 -0.64200002 -0.81800002 31 0 0 0 0.033530001
1.8430001 -0.639 -0.81699997 31 0 0 0 0.033539999
1.854 -0.63800001 -0.81800002 34 0 0 0 0.033550002
1.858 -0.63499999 -0.81699997 34 0 0 0 0.03356
1.867 -0.63300002 -0.81699997 33 0 0 0 0.033569999
1.876 -0.63099998 -0.81800002 33 0 0 0 0.033580001
1.885 -0.63 -0.81800002 32 0 0 0 0.03359
1.8940001 -0.62699997 -0.81800002 33 0 0 0 0.033599999
1.903 -0.62599999 -0.81900001 33 0 0 0 0.033610001
1.914 -0.625 -0.81999999 33 0 0 0 0.03362
1.92 -0.62099999 -0.81800002 33 0 0 0 0.033629999
1.931 -0.62 -0.81900001 33 0 0 0 0.033640001
1.942 -0.61900002 -0.81999999 33 0 0 0 0.03365
1.947 -0.61500001 -0.81800002 33 0 0 0 0.033659998
1.962 -0.61500001 -0.81999999 34 0 0 0 0.033670001
1.969 -0.61199999 -0.81900001 33 0 0 0 0.033679999
1.98 -0.61000001 -0.81999999 33 0 0 0 0.033690002
1.99 -0.60799998 -0.81999999 32 0 0 0 0.0337
2 -0.60600001 -0.81999999 33 0 0 0 0.033709999
2.0139999 -0.60500002 -0.82099998 33 0 0 0 0.033720002
2.023 -0.60299999 -0.81999999 33 0 0 0 0.03373
2.0350001 -0.60100001 -0.82099998 33 0 0 0 0.033739999
2.046 -0.59899998 -0.82099998 32 0 0 0 0.033750001
2.059 -0.59799999 -0.82099998 32 0 0 0 0.03376
2.0699999 -0.59600002 -0.82099998 33 0 0 0 0.033769999
2.082 -0.59500003 -0.82200003 32 0 0 0 0.033780001
2.0969999 -0.59299999 -0.82200003 32 0 0 0 0.03379
2.1029999 -0.58999997 -0.81999999 32 0 0 0 0.033799998
2.1210001 -0.58999997 -0.82200003 30 0 0 0 0.033810001
2.1329999 -0.588 -0.82200003 30 0 0 0 0.03382
2.1530001 -0.588 -0.82499999 29 0 0 0 0.033829998
2.1670001 -0.58600003 -0.82499999 28 0 0 0 0.033840001
2.1789999 -0.58399999 -0.82499999 29 0 0 0 0.033849999
2.1960001 -0.583 -0.82599998 29 0 0 0 0.033860002
2.2060001 -0.57999998 -0.82499999 29 0 0 0 0.03387
2.2260001 -0.57999998 -0.82700002 30 0 0 0 0.033879999
2.2349999 -0.57700002 -0.82499999 29 0 0 0 0.033890001
2.25 -0.57599998 -0.82499999 29 0 0 0 0.0339
2.27 -0.57499999 -0.82700002 29 0 0 0 0.033909999
2.2869999 -0.574 -0.82800001 30 0 0 0 0.033920001
2.296 -0.57099998 -0.82499999 30 0 0 0 0.03393
2.3099999 -0.56900001 -0.82499999 26 0 0 0 0.033939999
2.3310001 -0.56800002 -0.82700002 26 0 0 0 0.033950001
2.349 -0.56699997 -0.82700002 27 0 0 0 0.03396
2.3610001 -0.565 -0.82599998 29 0 0 0 0.033969998
2.3640001 -0.56 -0.82099998 28 0 0 0 0.033980001
2.3659999 -0.55500001 -0.81599998 26 0 0 0 0.033989999
2.368 -0.54900002 -0.81099999 23 0 0 0 0.034000002
2.368 -0.54400003 -0.80500001 21 0 0 0 0.034010001
2.365 -0.53799999 -0.79799998 18 0 0 0 0.034019999
2.3670001 -0.53299999 -0.79299998 20 0 0 0 0.034030002
2.3640001 -0.52700001 -0.78600001 24 0 0 0 0.03404
2.3629999 -0.52100003 -0.77999997 25 0 0 0 0.034049999
2.365 -0.51599997 -0.77399999 24 0 0 0 0.034060001
2.3640001 -0.50999999 -0.76800001 24 0 0 0 0.03407
2.3640001 -0.505 -0.76200002 21 0 0 0 0.034079999
2.3659999 -0.5 -0.75700003 19 0 0 0 0.034090001
2.3659999 -0.495 -0.75 19 0 0 0 0.0341
2.3610001 -0.48800001 -0.74299997 17 0 0 0 0.034109998
2.3670001 -0.484 -0.73900002 16 0 0 0 0.034120001
2.3610001 -0.47799999 -0.73100001 16 0 0 0 0.03413
2.3640001 -0.47299999 -0.72500002 18 0 0 0 0.034139998
2.3629999 -0.46799999 -0.71899998 19 0 0 0 0.034150001
2.3629999 -0.46200001 -0.713 20 0 0 0 0.034159999
2.3629999 -0.45699999 -0.70700002 22 0 0 0 0.034170002
2.3640001 -0.45199999 -0.70099998 22 0 0 0 0.03418
2.3629999 -0.447 -0.69400001 22 0 0 0 0.034189999
2.3629999 -0.442 -0.68800002 22 0 0 0 0.034200002
2.3629999 -0.43700001 -0.68199998 26 0 0 0 0.03421
2.359 -0.43099999 -0.67500001 27 0 0 0 0.034219999
2.3599999 -0.426 -0.66900003 22 0 0 0 0.034230001
2.3599999 -0.421 -0.66299999 19 0 0 0 0.03424
2.362 -0.41600001 -0.65700001 20 0 0 0 0.034249999
2.358 -0.41 -0.64899999 23 0 0 0 0.034260001
2.362 -0.40599999 -0.64399999 22 0 0 0 0.03427
2.3629999 -0.40099999 -0.63800001 23 0 0 0 0.034279998
2.3570001 -0.39500001 -0.63 24 0 0 0 0.034290001
2.359 -0.38999999 -0.625 23 0 0 0 0.034299999
2.3570001 -0.38499999 -0.61799997 21 0 0 0 0.034309998
2.3559999 -0.38 -0.611 18 0 0 0 0.034320001
2.358 -0.37599999 -0.60500002 20 0 0 0 0.034329999
2.3570001 -0.37099999 -0.59899998 19 0 0 0 0.034340002
2.362 -0.36700001 -0.59399998 17 0 0 0 0.03435
2.358 -0.361 -0.58600003 17 0 0 0 0.034359999
2.355 -0.35600001 -0.579 16 0 0 0 0.034370001
2.3610001 -0.352 -0.574 16 0 0 0 0.03438
2.3570001 -0.347 -0.56699997 16 0 0 0 0.034389999
2.3559999 -0.34200001 -0.56 18 0 0 0 0.034400001
2.355 -0.33700001 -0.55400002 19 0 0 0 0.03441
2.3599999 -0.333 -0.54900002 18 0 0 0 0.034419999
2.3710001 -0.33000001 -0.54500002 15 0 0 0 0.034430001
2.4000001 -0.329 -0.54500002 18 0 0 0 0.03444
2.4289999 -0.32800001 -0.54500002 18 0 0 0 0.034449998
2.4579999 -0.32800001 -0.54500002 18 0 0 0 0.034460001
2.4749999 -0.32499999 -0.542 17 0 0 0 0.034469999
2.4990001 -0.32300001 -0.54000002 18 0 0 0 0.034480002
2.5280001 -0.322 -0.54000002 19 0 0 0 0.03449
2.5569999 -0.32100001 -0.53899997 21 0 0 0 0.034499999
2.7839999 -0.34400001 -0.579 133 0 0 0 0.034510002
2.8859999 -0.35100001 -0.59299999 150 0 0 0 0.03452
3.098 -0.37099999 -0.62699997 151 0 0 0 0.034529999
3.2130001 -0.37900001 -0.64200002 150 0 0 0 0.034540001
3.21 -0.37200001 -0.63300002 151 0 0 0 0.03455
3.2090001 -0.366 -0.62400001 150 0 0 0 0.034559999
3.2119999 -0.36000001 -0.61500001 150 0 0 0 0.034570001
3.2090001 -0.354 -0.60600001 150 0 0 0 0.03458
3.2090001 -0.34799999 -0.597 150 0 0 0 0.034589998
3.2119999 -0.34299999 -0.58899999 150 0 0 0 0.034600001
3.211 -0.336 -0.57999998 150 0 0 0 0.03461
3.2190001 -0.331 -0.57200003 150 0 0 0 0.034619998
3.2349999 -0.32699999 -0.56599998 151 0 0 0 0.034630001
3.2379999 -0.322 -0.55800003 151 0 0 0 0.034639999
3.2360001 -0.315 -0.54799998 151 0 0 0 0.034650002
3.2379999 -0.31 -0.54000002 151 0 0 0 0.03466
3.2390001 -0.30399999 -0.53100002 151 0 0 0 0.034669999
3.233 -0.29800001 -0.52100003 151 0 0 0 0.034680001
3.2409999 -0.292 -0.51300001 150 0 0 0 0.03469
3.237 -0.28600001 -0.50400001 150 0 0 0 0.034699999
3.234 -0.28 -0.49399999 151 0 0 0 0.034710001
3.2360001 -0.27500001 -0.48500001 150 0 0 0 0.03472
3.2390001 -0.26899999 -0.477 150 0 0 0 0.034729999
3.2880001 -0.26800001 -0.47499999 48 0 0 0 0.034740001
3.3310001 -0.26499999 -0.472 150 0 0 0 0.03475
3.3399999 -0.25999999 -0.46399999 151 0 0 0 0.034759998
3.335 -0.25400001 -0.454 151 0 0 0 0.034770001
3.335 -0.248 -0.44499999 151 0 0 0 0.034779999
3.3310001 -0.242 -0.435 151 0 0 0 0.034790002
3.3299999 -0.237 -0.42500001 151 0 0 0 0.0348
3.336 -0.23100001 -0.417 151 0 0 0 0.034809999
3.3310001 -0.22499999 -0.40700001 151 0 0 0 0.034820002
3.345 -0.22 -0.39899999 150 0 0 0 0.03483
3.3640001 -0.21600001 -0.39199999 151 0 0 0 0.034839999
3.3710001 -0.211 -0.38299999 151 0 0 0 0.034850001
3.3640001 -0.205 -0.373 151 0 0 0 0.03486
3.369 -0.199 -0.36399999 151 0 0 0 0.034869999
3.3699999 -0.19400001 -0.35499999 151 0 0 0 0.034880001
3.3699999 -0.18799999 -0.345 150 0 0 0 0.03489
3.3989999 -0.184 -0.33899999 150 0 0 0 0.034899998
3.431 -0.18000001 -0.33199999 151 0 0 0 0.034910001
3.4349999 -0.175 -0.32300001 152 0 0 0 0.03492
3.4289999 -0.169 -0.31299999 151 0 0 0 0.034929998
3.4300001 -0.163 -0.303 151 0 0 0 0.034940001
3.4289999 -0.15800001 -0.294 151 0 0 0 0.034949999
3.431 -0.152 -0.28400001 151 0 0 0 0.034960002
3.4300001 -0.147 -0.27399999 151 0 0 0 0.03497
3.428 -0.141 -0.264 151 0 0 0 0.034979999
3.4319999 -0.13600001 -0.255 151 0 0 0 0.034990001
3.4319999 -0.13 -0.245 151 0 0 0 0.035
3.431 -0.125 -0.235 151 0 0 0 0.035009999
3.434 -0.12 -0.226 151 0 0 0 0.035020001
3.425 -0.114 -0.21600001 151 0 0 0 0.03503
3.4319999 -0.109 -0.206 151 0 0 0 0.035039999
3.431 -0.103 -0.19599999 151 0 0 0 0.035050001
3.4319999 -0.097999997 -0.18700001 151 0 0 0 0.03506
3.428 -0.092 -0.177 151 0 0 0 0.035069998
3.428 -0.086999997 -0.167 151 0 0 0 0.035080001
3.4289999 -0.082000002 -0.15700001 151 0 0 0 0.035089999
3.4289999 -0.075999998 -0.147 151 0 0 0 0.035100002
3.4230001 -0.071000002 -0.138 151 0 0 0 0.035110001
3.4200001 -0.066 -0.12800001 151 0 0 0 0.035119999
3.421 -0.061000001 -0.118 151 0 0 0 0.035130002
3.4189999 -0.055 -0.108 151 0 0 0 0.03514
3.4219999 -0.050000001 -0.097999997 151 0 0 0 0.035149999
3.4200001 -0.045000002 -0.088 151 0 0 0 0.035160001
3.4200001 -0.039999999 -0.079000004 151 0 0 0 0.03517
3.421 -0.035 -0.068999998 151 0 0 0 0.035179999
3.421 -0.028999999 -0.059 151 0 0 0 0.035190001
3.427 -0.024 -0.048999999 151 0 0 0 0.0352
3.4200001 -0.018999999 -0.039000001 151 0 0 0 0.035209998
3.424 -0.014 -0.029999999 151 0 0 0 0.035220001
3.424 -0.0089999996 -0.02 151 0 0 0 0.03523
3.418 -0.0040000002 -0.0099999998 151 0 0 0 0.035239998
3.4230001 0 0 151 0 0 0 0.035250001
3.4219999 0.0049999999 0.0089999996 152 0 0 0 0.035259999
3.4230001 0.0099999998 0.018999999 152 0 0 0 0.035270002
3.4219999 0.015 0.028999999 151 0 0 0 0.03528
3.4230001 0.02 0.039000001 152 0 0 0 0.035289999
3.4219999 0.025 0.048999999 152 0 0 0 0.035300002
3.4230001 0.029999999 0.059 152 0 0 0 0.03531
3.418 0.034000002 0.068000004 152 0 0 0 0.035319999
3.4219999 0.039000001 0.078000002 152 0 0 0 0.035330001
3.4219999 0.044 0.088 152 0 0 0 0.03534
3.4219999 0.048999999 0.097999997 152 0 0 0 0.035349999
3.424 0.054000001 0.109 152 0 0 0 0.035360001
3.424 0.059 0.119 152 0 0 0 0.03537
3.4200001 0.064000003 0.12800001 152 0 0 0 0.035379998
3.4200001 0.068000004 0.138 152 0 0 0 0.035390001
3.4219999 0.072999999 0.148 152 0 0 0 0.035399999
3.4189999 0.078000002 0.15800001 152 0 0 0 0.035409998
3.4189999 0.082999997 0.168 152 0 0 0 0.035420001
3.418 0.086999997 0.178 152 0 0 0 0.035429999
3.4170001 0.092 0.18799999 152 0 0 0 0.035440002
3.4200001 0.097000003 0.199 151 0 0 0 0.03545
3.4200001 0.101 0.20900001 151 0 0 0 0.035459999
3.4170001 0.106 0.21799999 152 0 0 0 0.035470001
3.418 0.111 0.229 151 0 0 0 0.03548
3.4219999 0.115 0.23899999 151 0 0 0 0.035489999
3.415 0.12 0.249 151 0 0 0 0.035500001
3.415 0.124 0.259 152 0 0 0 0.03551
3.4159999 0.12899999 0.26899999 151 0 0 0 0.035519999
3.4200001 0.134 0.27900001 151 0 0 0 0.035530001
3.4130001 0.138 0.289 151 0 0 0 0.03554
3.4170001 0.14300001 0.29899999 151 0 0 0 0.035549998
3.4170001 0.147 0.31 151 0 0 0 0.035560001
3.4200001 0.152 0.31999999 151 0 0 0 0.035569999
3.414 0.156 0.33000001 151 0 0 0 0.035580002
3.418 0.16 0.34 151 0 0 0 0.03559
3.418 0.16500001 0.35100001 151 0 0 0 0.035599999
3.4200001 0.169 0.361 151 0 0 0 0.035610002
3.4189999 0.17399999 0.37099999 151 0 0 0 0.03562
3.418 0.178 0.38100001 151 0 0 0 0.035629999
3.4159999 0.182 0.391 151 0 0 0 0.035640001
3.415 0.18700001 0.40200001 151 0 0 0 0.03565
3.4170001 0.191 0.412 151 0 0 0 0.035659999
3.4130001 0.19499999 0.42199999 151 0 0 0 0.035670001
3.411 0.199 0.43200001 151 0 0 0 0.03568
3.4119999 0.204 0.442 151 0 0 0 0.035689998
3.411 0.208 0.45300001 151 0 0 0 0.035700001
3.4100001 0.212 0.463 151 0 0 0 0.03571
3.408 0.21600001 0.47299999 151 0 0 0 0.035719998
3.414 0.221 0.484 151 0 0 0 0.035730001
3.4119999 0.22499999 0.49399999 151 0 0 0 0.035739999
3.4100001 0.229 0.505 151 0 0 0 0.035750002
3.4089999 0.233 0.51499999 151 0 0 0 0.03576
3.414 0.237 0.52600002 151 0 0 0 0.035769999
3.4119999 0.241 0.53600001 151 0 0 0 0.035780001
3.408 0.245 0.546 151 0 0 0 0.03579
3.4059999 0.249 0.55599999 151 0 0 0 0.035799999
3.4130001 0.25400001 0.56800002 151 0 0 0 0.035810001
3.4100001 0.257 0.57800001 151 0 0 0 0.03582
3.411 0.26199999 0.58899999 151 0 0 0 0.035829999
3.4089999 0.26499999 0.59899998 151 0 0 0 0.035840001
3.4100001 0.26899999 0.60900003 151 0 0 0 0.03585
3.4119999 0.27399999 0.62 151 0 0 0 0.035859998
3.4130001 0.278 0.63099998 150 0 0 0 0.035870001
3.4130001 0.28099999 0.64200002 150 0 0 0 0.035879999
3.411 0.285 0.65200001 151 0 0 0 0.035890002
3.4089999 0.289 0.662 150 0 0 0 0.0359
3.4070001 0.292 0.67199999 151 0 0 0 0.035909999
3.4100001 0.29699999 0.68400002 150 0 0 0 0.035920002
3.411 0.30000001 0.69499999 150 0 0 0 0.03593
3.405 0.30399999 0.704 150 0 0 0 0.035939999
3.4059999 0.308 0.71499997 150 0 0 0 0.035950001
3.4059999 0.31099999 0.72600001 150 0 0 0 0.03596
3.408 0.315 0.73699999 150 0 0 0 0.035969999
3.4089999 0.31900001 0.74800003 150 0 0 0 0.035980001
3.411 0.32300001 0.759 150 0 0 0 0.03599
3.408 0.32600001 0.76899999 150 0 0 0 0.035999998
3.4070001 0.33000001 0.77999997 150 0 0 0 0.036010001
3.4059999 0.333 0.79000002 150 0 0 0 0.03602
3.405 0.33700001 0.801 150 0 0 0 0.036029998
3.4059999 0.34 0.81199998 150 0 0 0 0.036040001
3.404 0.34400001 0.82200003 150 0 0 0 0.036049999
3.4059999 0.347 0.83399999 150 0 0 0 0.036060002
3.405 0.35100001 0.84399998 150 0 0 0 0.03607
3.404 0.354 0.85500002 150 0 0 0 0.036079999
3.405 0.35800001 0.866 150 0 0 0 0.036090001
3.402 0.361 0.87599999 150 0 0 0 0.0361
3.401 0.36399999 0.88700002 151 0 0 0 0.036109999
3.404 0.368 0.89899999 150 0 0 0 0.036120001
3.4030001 0.37099999 0.91000003 150 0 0 0 0.03613
3.4030001 0.37400001 0.921 150 0 0 0 0.036139999
3.4000001 0.377 0.93099999 150 0 0 0 0.036150001
3.4030001 0.38100001 0.94300002 150 0 0 0 0.03616
3.4030001 0.384 0.954 150 0 0 0 0.036169998
3.4030001 0.38699999 0.96499997 150 0 0 0 0.036180001
3.4059999 0.391 0.977 150 0 0 0 0.036189999
3.405 0.39399999 0.98799998 150 0 0 0 0.036200002
3.402 0.39700001 0.99800003 150 0 0 0 0.036210001
3.401 0.40000001 1.0089999 150 0 0 0 0.036219999
3.4070001 0.403 1.021 150 0 0 0 0.036230002
3.404 0.40599999 1.0319999 150 0 0 0 0.03624
3.404 0.40900001 1.043 150 0 0 0 0.036249999
3.405 0.412 1.0549999 150 0 0 0 0.036260001
3.3989999 0.414 1.064 150 0 0 0 0.03627
3.4000001 0.417 1.075 150 0 0 0 0.036279999
3.3959999 0.41999999 1.085 150 0 0 0 0.036290001
3.401 0.42300001 1.098 150 0 0 0 0.0363
3.404 0.426 1.11 150 0 0 0 0.036309998
3.4000001 0.42899999 1.12 150 0 0 0 0.036320001
3.3989999 0.43099999 1.131 150 0 0 0 0.03633
3.4030001 0.435 1.1440001 150 0 0 0 0.036339998
3.404 0.43700001 1.155 150 0 0 0 0.036350001
3.4000001 0.44 1.165 150 0 0 0 0.036359999
3.404 0.44299999 1.178 150 0 0 0 0.036370002
3.4000001 0.44499999 1.188 150 0 0 0 0.03638
3.4030001 0.44800001 1.2 150 0 0 0 0.036389999
3.3989999 0.44999999 1.21 150 0 0 0 0.036400001
3.3989999 0.45199999 1.222 150 0 0 0 0.03641
3.4030001 0.45500001 1.234 150 0 0 0 0.036419999
3.401 0.45699999 1.245 150 0 0 0 0.036430001
3.404 0.46000001 1.257 150 0 0 0 0.03644
3.3859999 0.46000001 1.262 93 0 0 0 0.036449999
3.3540001 0.458 1.261 87 0 0 0 0.036460001
3.3399999 0.458 1.267 150 0 0 0 0.03647
3.3329999 0.45899999 1.276 150 0 0 0 0.036479998
3.336 0.46200001 1.288 150 0 0 0 0.036490001
3.3150001 0.461 1.291 150 0 0 0 0.036499999
3.3010001 0.461 1.2970001 150 0 0 0 0.036509998
3.3050001 0.463 1.3099999 150 0 0 0 0.036520001
3.302 0.465 1.319 150 0 0 0 0.036529999
3.3 0.46700001 1.33 150 0 0 0 0.036540002
3.3050001 0.46900001 1.3430001 150 0 0 0 0.03655
3.303 0.47099999 1.353 150 0 0 0 0.036559999
3.3080001 0.47299999 1.3660001 150 0 0 0 0.036570001
3.3080001 0.47499999 1.377 150 0 0 0 0.03658
3.3039999 0.47600001 1.387 150 0 0 0 0.036589999
3.3069999 0.47799999 1.399 150 0 0 0 0.036600001
3.3010001 0.479 1.408 150 0 0 0 0.03661
3.3080001 0.48100001 1.4220001 150 0 0 0 0.036619999
3.3069999 0.48300001 1.433 150 0 0 0 0.036630001
3.3050001 0.484 1.443 150 0 0 0 0.03664
3.303 0.48500001 1.4529999 150 0 0 0 0.036649998
3.3080001 0.48699999 1.467 150 0 0 0 0.036660001
3.3099999 0.48899999 1.479 150 0 0 0 0.036669999
3.3080001 0.49000001 1.489 150 0 0 0 0.036680002
3.3110001 0.49200001 1.501 150 0 0 0 0.03669
3.309 0.493 1.511 150 0 0 0 0.036699999
3.3069999 0.493 1.521 150 0 0 0 0.036710002
3.306 0.49399999 1.5319999 150 0 0 0 0.03672
3.309 0.49599999 1.545 150 0 0 0 0.036729999
3.306 0.49599999 1.554 150 0 0 0 0.036740001
3.3039999 0.49700001 1.564 150 0 0 0 0.03675
3.3050001 0.498 1.576 150 0 0 0 0.036759999
3.3039999 0.49900001 1.586 150 0 0 0 0.036770001
3.293 0.498 1.592 150 0 0 0 0.03678
3.2739999 0.49599999 1.594 94 0 0 0 0.036789998
3.2479999 0.49200001 1.592 91 0 0 0 0.036800001
3.2279999 0.49000001 1.592 91 0 0 0 0.036809999
3.207 0.48699999 1.592 90 0 0 0 0.036819998
3.1900001 0.48500001 1.595 91 0 0 0 0.036830001
3.171 0.48300001 1.595 93 0 0 0 0.036839999
3.151 0.47999999 1.596 90 0 0 0 0.036850002
3.1300001 0.477 1.595 93 0 0 0 0.03686
3.1129999 0.47499999 1.597 94 0 0 0 0.036869999
3.0929999 0.472 1.597 96 0 0 0 0.036880001
3.073 0.46900001 1.596 93 0 0 0 0.03689
3.0510001 0.46599999 1.595 94 0 0 0 0.036899999
3.0369999 0.46399999 1.597 97 0 0 0 0.036910001
3.016 0.461 1.596 97 0 0 0 0.03692
2.9990001 0.458 1.597 100 0 0 0 0.036929999
2.983 0.456 1.597 97 0 0 0 0.036940001
2.964 0.45300001 1.597 99 0 0 0 0.03695
2.948 0.44999999 1.598 96 0 0 0 0.036959998
2.931 0.447 1.597 101 0 0 0 0.036970001
2.911 0.44400001 1.596 99 0 0 0 0.036979999
2.8959999 0.44100001 1.596 100 0 0 0 0.036990002
2.8800001 0.43799999 1.597 102 0 0 0 0.037
2.8640001 0.435 1.596 111 0 0 0 0.037009999
2.845 0.43200001 1.595 107 0 0 0 0.037020002
2.832 0.42899999 1.596 105 0 0 0 0.03703
2.8139999 0.426 1.594 108 0 0 0 0.037039999
2.8050001 0.42399999 1.598 104 0 0 0 0.037050001
2.7939999 0.421 1.6 108 0 0 0 0.03706
2.777 0.41800001 1.598 105 0 0 0 0.037069999
2.7620001 0.41499999 1.598 110 0 0 0 0.037080001
2.743 0.41100001 1.595 114 0 0 0 0.03709
2.73 0.40799999 1.595 110 0 0 0 0.037099998
2.72 0.40599999 1.597 110 0 0 0 0.037110001
2.7049999 0.403 1.596 117 0 0 0 0.03712
2.694 0.40000001 1.597 103 0 0 0 0.037129998
2.678 0.396 1.596 108 0 0 0 0.037140001
2.6700001 0.39399999 1.599 125 0 0 0 0.037149999
2.655 0.391 1.597 125 0 0 0 0.037160002
2.6459999 0.38800001 1.599 123 0 0 0 0.03717
2.6300001 0.384 1.596 120 0 0 0 0.037179999
2.619 0.38100001 1.597 131 0 0 0 0.037190001
2.6099999 0.37900001 1.598 127 0 0 0 0.0372
2.5969999 0.37599999 1.597 124 0 0 0 0.037209999
2.5840001 0.37200001 1.596 127 0 0 0 0.037220001
2.5769999 0.37 1.598 129 0 0 0 0.03723
2.569 0.36700001 1.6 134 0 0 0 0.037239999
2.556 0.36300001 1.598 128 0 0 0 0.037250001
2.5450001 0.36000001 1.598 123 0 0 0 0.03726
2.5350001 0.35699999 1.598 127 0 0 0 0.037269998
2.529 0.354 1.6 130 0 0 0 0.037280001
2.517 0.35100001 1.599 133 0 0 0 0.037289999
2.506 0.347 1.598 142 0 0 0 0.037300002
2.4979999 0.34400001 1.598 145 0 0 0 0.037310001
2.4849999 0.34099999 1.596 141 0 0 0 0.037319999
2.4779999 0.338 1.597 150 0 0 0 0.037330002
2.4719999 0.33500001 1.599 150 0 0 0 0.03734
2.46 0.331 1.596 148 0 0 0 0.037349999
2.4549999 0.329 1.599 150 0 0 0 0.037360001
2.4519999 0.32600001 1.602 149 0 0 0 0.03737
2.4400001 0.322 1.599 135 0 0 0 0.037379999
2.4319999 0.31900001 1.599 148 0 0 0 0.037390001
2.424 0.31600001 1.598 135 0 0 0 0.0374
2.4200001 0.31299999 1.6 143 0 0 0 0.037409998
2.414 0.31 1.601 144 0 0 0 0.037420001
2.4070001 0.30700001 1.601 147 0 0 0 0.03743
2.4030001 0.30399999 1.602 149 0 0 0 0.037439998
2.395 0.30000001 1.601 150 0 0 0 0.037450001
2.3840001 0.296 1.598 142 0 0 0 0.037459999
2.382 0.294 1.6 130 0 0 0 0.037470002
2.3740001 0.28999999 1.599 142 0 0 0 0.03748
2.3729999 0.287 1.602 149 0 0 0 0.037489999
2.3659999 0.28400001 1.601 143 0 0 0 0.037500001
2.362 0.28099999 1.602 147 0 0 0 0.03751
2.3559999 0.278 1.602 144 0 0 0 0.037519999
2.3469999 0.27399999 1.599 143 0 0 0 0.037530001
2.3429999 0.271 1.599 142 0 0 0 0.03754
2.3399999 0.26800001 1.6 150 0 0 0 0.037549999
2.339 0.26499999 1.602 146 0 0 0 0.037560001
2.329 0.26100001 1.598 148 0 0 0 0.03757
2.3310001 0.25799999 1.602 143 0 0 0 0.037579998
2.322 0.25400001 1.599 139 0 0 0 0.037590001
2.3239999 0.25099999 1.603 146 0 0 0 0.037599999
2.3180001 0.248 1.601 140 0 0 0 0.037610002
2.3169999 0.245 1.602 148 0 0 0 0.037620001
2.3139999 0.242 1.603 144 0 0 0 0.037629999
2.3080001 0.23800001 1.6 150 0 0 0 0.037640002
2.3050001 0.235 1.6 150 0 0 0 0.03765
2.306 0.23199999 1.602 139 0 0 0 0.037659999
2.3010001 0.228 1.601 141 0 0 0 0.037670001
2.3 0.22499999 1.602 141 0 0 0 0.03768
2.299 0.222 1.602 147 0 0 0 0.037689999
2.2969999 0.21799999 1.602 139 0 0 0 0.037700001
2.296 0.215 1.602 142 0 0 0 0.03771
2.296 0.212 1.603 148 0 0 0 0.037719999
2.296 0.20900001 1.604 140 0 0 0 0.037730001
2.296 0.206 1.605 138 0 0 0 0.03774
2.2950001 0.20200001 1.605 143 0 0 0 0.037749998
2.2939999 0.199 1.604 141 0 0 0 0.037760001
2.2950001 0.19599999 1.6059999 137 0 0 0 0.037769999
2.2939999 0.192 1.605 143 0 0 0 0.037780002
2.2939999 0.189 1.605 143 0 0 0 0.03779
2.293 0.186 1.605 142 0 0 0 0.037799999
2.2939999 0.183 1.605 144 0 0 0 0.037810002
2.2939999 0.17900001 1.605 147 0 0 0 0.03782
2.2950001 0.176 1.605 137 0 0 0 0.037829999
2.296 0.17299999 1.605 137 0 0 0 0.037840001
2.2980001 0.17 1.6059999 141 0 0 0 0.03785
2.2980001 0.16599999 1.605 141 0 0 0 0.037859999
2.299 0.163 1.605 141 0 0 0 0.037870001
2.3 0.16 1.605 143 0 0 0 0.03788
2.3010001 0.156 1.604 150 0 0 0 0.037889998
2.3039999 0.153 1.604 150 0 0 0 0.037900001
2.3039999 0.15000001 1.603 144 0 0 0 0.037909999
2.3050001 0.146 1.602 136 0 0 0 0.037919998
2.3069999 0.14300001 1.602 137 0 0 0 0.037930001
2.3080001 0.14 1.601 143 0 0 0 0.037939999
2.312 0.13699999 1.601 149 0 0 0 0.037950002
2.3139999 0.134 1.601 146 0 0 0 0.03796
2.316 0.13 1.6 146 0 0 0 0.037969999
2.325 0.127 1.604 150 0 0 0 0.037980001
2.326 0.124 1.602 149 0 0 0 0.03799
2.3280001 0.121 1.601 145 0 0 0 0.037999999
2.335 0.118 1.603 141 0 0 0 0.038010001
2.336 0.114 1.601 149 0 0 0 0.03802
2.342 0.111 1.603 149 0 0 0 0.038029999
2.349 0.108 1.604 145 0 0 0 0.038040001
2.3510001 0.105 1.602 150 0 0 0 0.03805
2.355 0.102 1.601 141 0 0 0 0.038059998
2.3570001 0.097999997 1.6 140 0 0 0 0.038070001
2.3629999 0.094999999 1.6 138 0 0 0 0.038079999
2.3699999 0.092 1.602 137 0 0 0 0.038090002
2.3759999 0.089000002 1.601 137 0 0 0 0.0381
2.3789999 0.086000003 1.6 139 0 0 0 0.038109999
2.3889999 0.082999997 1.602 133 0 0 0 0.038120002
2.395 0.079999998 1.602 140 0 0 0 0.03813
2.401 0.077 1.602 133 0 0 0 0.038139999
2.405 0.074000001 1.601 136 0 0 0 0.038150001
2.4130001 0.071000002 1.601 134 0 0 0 0.03816
2.4230001 0.068000004 1.603 127 0 0 0 0.038169999
2.4300001 0.064000003 1.603 122 0 0 0 0.038180001
2.4360001 0.061000001 1.602 128 0 0 0 0.03819
2.4460001 0.057999998 1.604 136 0 0 0 0.038199998
2.451 0.055 1.602 137 0 0 0 0.038210001
2.4590001 0.052000001 1.602 133 0 0 0 0.03822
2.464 0.048999999 1.6 129 0 0 0 0.038229998
2.474 0.046 1.602 129 0 0 0 0.038240001
2.48 0.043000001 1.6 126 0 0 0 0.038249999
2.487 0.039999999 1.599 135 0 0 0 0.038260002
2.4960001 0.037 1.599 129 0 0 0 0.03827
2.506 0.034000002 1.6 130 0 0 0 0.038279999
2.5120001 0.030999999 1.598 132 0 0 0 0.038290001
2.5239999 0.028000001 1.599 126 0 0 0 0.0383
2.539 0.026000001 1.603 121 0 0 0 0.038309999
2.5469999 0.023 1.601 123 0 0 0 0.038320001
2.5569999 0.02 1.602 118 0 0 0 0.03833
2.566 0.017000001 1.601 115 0 0 0 0.038339999
2.5769999 0.014 1.601 118 0 0 0 0.038350001
2.5880001 0.011 1.601 112 0 0 0 0.03836
2.5999999 0.0080000004 1.602 117 0 0 0 0.038369998
2.608 0.0049999999 1.6 99 0 0 0 0.038380001
2.622 0.0020000001 1.602 104 0 0 0 0.038389999
3.421 0.012 -0.055 151 0 0 0 0.040320002
3.418 0.014 -0.066 151 0 0 0 0.04033
3.4200001 0.017000001 -0.077 151 0 0 0 0.040339999
3.4189999 0.02 -0.088 151 0 0 0 0.040350001
3.4189999 0.022 -0.097999997 151 0 0 0 0.04036
3.4170001 0.025 -0.109 151 0 0 0 0.040369999
3.4189999 0.027000001 -0.12 151 0 0 0 0.040380001
3.4189999 0.029999999 -0.131 151 0 0 0 0.04039
3.4189999 0.033 -0.142 152 0 0 0 0.040399998
3.418 0.035 -0.152 151 0 0 0 0.040410001
3.4200001 0.037999999 -0.163 151 0 0 0 0.04042
3.414 0.041000001 -0.17299999 151 0 0 0 0.040429998
3.4130001 0.043000001 -0.184 151 0 0 0 0.040440001
3.415 0.046 -0.19499999 151 0 0 0 0.040449999
3.4119999 0.048999999 -0.206 151 0 0 0 0.040460002
3.411 0.052000001 -0.21600001 151 0 0 0 0.04047
3.411 0.055 -0.227 151 0 0 0 0.040479999
3.415 0.057 -0.23800001 151 0 0 0 0.040490001
3.4089999 0.059999999 -0.248 151 0 0 0 0.0405
3.4130001 0.063000001 -0.259 150 0 0 0 0.040509999
3.4130001 0.066 -0.27000001 151 0 0 0 0.040520001
3.4070001 0.068999998 -0.28 150 0 0 0 0.04053
3.411 0.071999997 -0.29100001 150 0 0 0 0.040539999
3.415 0.075000003 -0.30199999 151 0 0 0 0.040550001
3.4089999 0.078000002 -0.31200001 150 0 0 0 0.04056
3.4159999 0.081 -0.324 151 0 0 0 0.040569998
3.4119999 0.083999999 -0.33399999 150 0 0 0 0.040580001
3.411 0.086999997 -0.34400001 150 0 0 0 0.040589999
3.4130001 0.090000004 -0.35499999 150 0 0 0 0.040600002
3.408 0.093000002 -0.366 150 0 0 0 0.04061
3.4100001 0.096000001 -0.377 150 0 0 0 0.040619999
3.4119999 0.098999999 -0.38699999 150 0 0 0 0.040630002
3.408 0.102 -0.398 150 0 0 0 0.04064
3.4089999 0.105 -0.40900001 150 0 0 0 0.040649999
3.4100001 0.109 -0.419 150 0 0 0 0.040660001
3.4089999 0.112 -0.43000001 150 0 0 0 0.04067
3.408 0.115 -0.44 150 0 0 0 0.040679999
3.4089999 0.118 -0.45100001 150 0 0 0 0.040690001
3.4070001 0.122 -0.46200001 150 0 0 0 0.0407
3.404 0.125 -0.472 150 0 0 0 0.040709998
3.408 0.12800001 -0.48300001 150 0 0 0 0.040720001
3.4130001 0.132 -0.495 150 0 0 0 0.04073
3.4119999 0.13500001 -0.505 150 0 0 0 0.040739998
3.4030001 0.138 -0.514 150 0 0 0 0.040750001
3.4030001 0.142 -0.52499998 150 0 0 0 0.040759999
3.4059999 0.145 -0.53600001 150 0 0 0 0.040770002
3.405 0.148 -0.546 150 0 0 0 0.04078
3.4100001 0.152 -0.55800003 150 0 0 0 0.040789999
3.408 0.156 -0.56800002 150 0 0 0 0.040800001
3.4059999 0.15899999 -0.579 150 0 0 0 0.04081
3.404 0.162 -0.58899999 150 0 0 0 0.040819999
3.405 0.16599999 -0.60000002 150 0 0 0 0.040830001
3.4030001 0.169 -0.61000001 150 0 0 0 0.04084
3.405 0.17299999 -0.62099999 150 0 0 0 0.040849999
3.4030001 0.177 -0.63099998 150 0 0 0 0.040860001
3.4000001 0.18000001 -0.64099997 150 0 0 0 0.04087
3.4030001 0.184 -0.653 150 0 0 0 0.040879998
3.3989999 0.18799999 -0.66299999 150 0 0 0 0.040890001
3.402 0.192 -0.67400002 150 0 0 0 0.040899999
3.4000001 0.19499999 -0.68400002 150 0 0 0 0.040910002
3.4030001 0.199 -0.69499999 150 0 0 0 0.040920001
3.401 0.20299999 -0.70499998 150 0 0 0 0.040929999
3.4000001 0.207 -0.71600002 150 0 0 0 0.040940002
3.3970001 0.20999999 -0.72600001 150 0 0 0 0.04095
3.395 0.214 -0.736 150 0 0 0 0.040959999
3.3940001 0.21799999 -0.74699998 150 0 0 0 0.040970001
3.392 0.222 -0.75700003 150 0 0 0 0.04098
3.3970001 0.226 -0.76800001 150 0 0 0 0.040989999
3.395 0.23 -0.778 150 0 0 0 0.041000001
3.3940001 0.234 -0.78899997 150 0 0 0 0.04101
3.3940001 0.23800001 -0.80000001 150 0 0 0 0.041019998
3.3929999 0.242 -0.81 150 0 0 0 0.041030001
3.3900001 0.24600001 -0.81999999 150 0 0 0 0.04104
3.392 0.25 -0.83099997 151 0 0 0 0.041049998
3.3940001 0.25400001 -0.84200001 132 0 0 0 0.041060001
3.391 0.25799999 -0.852 27 0 0 0 0.041069999
3.352 0.259 -0.852 26 0 0 0 0.041080002
3.3139999 0.26100001 -0.85299999 26 0 0 0 0.04109
3.2809999 0.26199999 -0.85500002 27 0 0 0 0.041099999
3.247 0.264 -0.85600001 27 0 0 0 0.041110002
3.2030001 0.264 -0.85399997 27 0 0 0 0.04112
3.1619999 0.26499999 -0.85299999 29 0 0 0 0.041129999
3.1300001 0.266 -0.85399997 29 0 0 0 0.041140001
3.102 0.26800001 -0.85600001 30 0 0 0 0.04115
3.066 0.26899999 -0.85600001 29 0 0 0 0.041159999
3.0280001 0.26899999 -0.85500002 29 0 0 0 0.041170001
2.9879999 0.27000001 -0.85299999 29 0 0 0 0.04118
2.96 0.271 -0.85399997 28 0 0 0 0.041189998
2.918 0.271 -0.85100001 27 0 0 0 0.041200001
2.8829999 0.27200001 -0.84899998 27 0 0 0 0.041209999
2.849 0.273 -0.84799999 26 0 0 0 0.041219998
2.8199999 0.27399999 -0.84799999 27 0 0 0 0.041230001
2.79 0.27500001 -0.84799999 25 0 0 0 0.041239999
2.763 0.27599999 -0.84799999 26 0 0 0 0.041250002
2.734 0.27700001 -0.84799999 26 0 0 0 0.04126
2.7119999 0.278 -0.84899998 26 0 0 0 0.041269999
2.6830001 0.27900001 -0.84899998 27 0 0 0 0.041280001
2.654 0.28 -0.84799999 27 0 0 0 0.04129
2.6259999 0.28099999 -0.847 26 0 0 0 0.041299999
2.598 0.28200001 -0.84600002 26 0 0 0 0.041310001
2.576 0.28299999 -0.847 26 0 0 0 0.04132
2.55 0.28400001 -0.84600002 25 0 0 0 0.041329999
2.5239999 0.285 -0.84500003 25 0 0 0 0.041340001
2.4979999 0.285 -0.84399998 24 0 0 0 0.04135
2.474 0.28600001 -0.84299999 24 0 0 0 0.041359998
2.4519999 0.28799999 -0.84299999 25 0 0 0 0.041370001
2.4330001 0.289 -0.84399998 25 0 0 0 0.041379999
2.4089999 0.28999999 -0.84299999 25 0 0 0 0.041390002
2.3840001 0.28999999 -0.84200001 25 0 0 0 0.0414
2.365 0.292 -0.84200001 25 0 0 0 0.041409999
2.346 0.29300001 -0.84299999 25 0 0 0 0.041420002
2.3280001 0.294 -0.84299999 25 0 0 0 0.04143
2.3080001 0.296 -0.84299999 25 0 0 0 0.041439999
2.2869999 0.29699999 -0.84200001 25 0 0 0 0.041450001
2.266 0.29699999 -0.84100002 24 0 0 0 0.04146
2.2479999 0.29899999 -0.84200001 25 0 0 0 0.041469999
2.2309999 0.30000001 -0.84200001 26 0 0 0 0.041480001
2.214 0.301 -0.84200001 25 0 0 0 0.04149
2.1960001 0.30199999 -0.84200001 25 0 0 0 0.041499998
2.184 0.30399999 -0.84399998 25 0 0 0 0.041510001
2.1559999 0.30399999 -0.83899999 25 0 0 0 0.04152
2.1470001 0.30599999 -0.84200001 26 0 0 0 0.041529998
2.131 0.308 -0.84200001 25 0 0 0 0.041540001
2.109 0.308 -0.83999997 25 0 0 0 0.041549999
2.095 0.31 -0.83999997 24 0 0 0 0.041560002
2.0780001 0.31099999 -0.83999997 25 0 0 0 0.04157
2.0610001 0.31200001 -0.83899999 27 0 0 0 0.041579999
2.0510001 0.31400001 -0.84100002 28 0 0 0 0.041590001
2.0339999 0.315 -0.83999997 28 0 0 0 0.0416
2.0239999 0.317 -0.84100002 28 0 0 0 0.041609999
2.0079999 0.31799999 -0.84100002 28 0 0 0 0.041620001
1.992 0.31900001 -0.83999997 28 0 0 0 0.04163
1.978 0.31999999 -0.83999997 28 0 0 0 0.041639999
1.964 0.32100001 -0.83999997 28 0 0 0 0.041650001
1.949 0.322 -0.83899999 29 0 0 0 0.04166
1.938 0.324 -0.83899999 28 0 0 0 0.041669998
1.926 0.32499999 -0.83999997 29 0 0 0 0.041680001
1.914 0.32699999 -0.83999997 29 0 0 0 0.041689999
1.902 0.32800001 -0.83999997 30 0 0 0 0.041700002
1.887 0.329 -0.83899999 29 0 0 0 0.04171
1.8789999 0.331 -0.84100002 29 0 0 0 0.041719999
1.869 0.333 -0.84100002 30 0 0 0 0.041730002
1.852 0.333 -0.83899999 31 0 0 0 0.04174
1.8380001 0.33399999 -0.83700001 30 0 0 0 0.041749999
1.834 0.33700001 -0.84100002 31 0 0 0 0.041760001
1.8200001 0.338 -0.83899999 30 0 0 0 0.04177
1.8099999 0.34 -0.83999997 29 0 0 0 0.041779999
1.802 0.34200001 -0.84100002 29 0 0 0 0.041790001
1.789 0.34299999 -0.83899999 32 0 0 0 0.0418
1.777 0.34400001 -0.83899999 29 0 0 0 0.041809998
1.768 0.345 -0.83899999 31 0 0 0 0.041820001
1.7589999 0.347 -0.83899999 37 0 0 0 0.04183
1.7460001 0.34799999 -0.838 40 0 0 0 0.041839998
1.737 0.34999999 -0.838 39 0 0 0 0.041850001
1.728 0.35100001 -0.838 39 0 0 0 0.041859999
1.7180001 0.35299999 -0.838 45 0 0 0 0.041870002
1.711 0.35499999 -0.83899999 40 0 0 0 0.04188
1.702 0.35600001 -0.83899999 43 0 0 0 0.041889999
1.6950001 0.35800001 -0.83999997 39 0 0 0 0.041900001
1.684 0.359 -0.83899999 44 0 0 0 0.04191
1.674 0.36000001 -0.838 43 0 0 0 0.041919999
1.6670001 0.36199999 -0.83899999 45 0 0 0 0.041930001
1.6619999 0.36500001 -0.83999997 46 0 0 0 0.04194
1.647 0.36500001 -0.83700001 49 0 0 0 0.041949999
1.643 0.36700001 -0.83899999 48 0 0 0 0.041960001
1.636 0.36899999 -0.83899999 47 0 0 0 0.04197
1.627 0.37 -0.838 48 0 0 0 0.041979998
1.626 0.373 -0.84100002 13 0 0 0 0.041990001
1.617 0.375 -0.84100002 13 0 0 0 0.041999999
1.61 0.377 -0.84100002 13 0 0 0 0.042010002
1.6059999 0.37900001 -0.84200001 13 0 0 0 0.042020001
1.598 0.38100001 -0.84200001 13 0 0 0 0.042029999
1.59 0.382 -0.84100002 13 0 0 0 0.042040002
1.585 0.384 -0.84200001 13 0 0 0 0.04205
1.576 0.38499999 -0.84100002 13 0 0 0 0.042059999
1.5700001 0.38699999 -0.84100002 13 0 0 0 0.042070001
1.566 0.389 -0.84200001 13 0 0 0 0.04208
1.564 0.39199999 -0.84399998 13 0 0 0 0.042089999
1.558 0.39399999 -0.84399998 13 0 0 0 0.042100001
1.548 0.39500001 -0.84200001 13 0 0 0 0.04211
1.5420001 0.396 -0.84200001 13 0 0 0 0.042119998
1.534 0.398 -0.84100002 13 0 0 0 0.042130001
1.529 0.39899999 -0.84100002 13 0 0 0 0.04214
1.527 0.40200001 -0.84299999 13 0 0 0 0.042149998
1.523 0.40400001 -0.84399998 13 0 0 0 0.042160001
1.517 0.40599999 -0.84299999 13 0 0 0 0.042169999
1.508 0.40700001 -0.84100002 12 0 0 0 0.042180002
1.505 0.40900001 -0.84200001 12 0 0 0 0.04219
1.4960001 0.41 -0.83999997 12 0 0 0 0.042199999
1.497 0.414 -0.84299999 13 0 0 0 0.042210001
1.483 0.41299999 -0.83700001 12 0 0 0 0.04222
1.48 0.41499999 -0.838 13 0 0 0 0.042229999
1.47 0.41499999 -0.83499998 12 0 0 0 0.042240001
1.466 0.417 -0.83499998 12 0 0 0 0.04225
1.465 0.41999999 -0.83700001 12 0 0 0 0.042259999
1.4630001 0.42300001 -0.838 12 0 0 0 0.042270001
1.459 0.42500001 -0.838 12 0 0 0 0.04228
1.4579999 0.42699999 -0.83899999 12 0 0 0 0.042289998
1.455 0.43000001 -0.83999997 12 0 0 0 0.042300001
1.45 0.43099999 -0.83899999 23 0 0 0 0.042309999
1.446 0.433 -0.83899999 24 0 0 0 0.042319998
1.443 0.435 -0.83899999 24 0 0 0 0.042330001
1.4400001 0.43700001 -0.83899999 23 0 0 0 0.042339999
1.436 0.43900001 -0.83899999 20 0 0 0 0.042350002
1.432 0.44 -0.838 14 0 0 0 0.04236
1.432 0.44299999 -0.83899999 13 0 0 0 0.042369999
1.428 0.44499999 -0.838 11 0 0 0 0.042380001
1.4220001 0.44600001 -0.83700001 10 0 0 0 0.04239
1.413 0.44600001 -0.833 11 0 0 0 0.042399999
1.426 0.45300001 -0.84100002 2 0 0 0 0.042410001
1.405 0.449 -0.83099997 8 0 0 0 0.04242
1.3890001 0.447 -0.82300001 8 0 0 0 0.042429999
1.368 0.44299999 -0.81099999 8 0 0 0 0.042440001
1.353 0.44 -0.80400002 8 0 0 0 0.04245
1.334 0.43700001 -0.79299998 9 0 0 0 0.042459998
1.321 0.435 -0.78600001 12 0 0 0 0.042470001
1.302 0.43099999 -0.77600002 18 0 0 0 0.042479999
1.295 0.43099999 -0.773 62 0 0 0 0.042490002
1.2869999 0.43099999 -0.76899999 140 0 0 0 0.0425
1.288 0.43399999 -0.76999998 150 0 0 0 0.042509999
1.2819999 0.43399999 -0.76700002 150 0 0 0 0.042520002
1.275 0.43399999 -0.76300001 150 0 0 0 0.04253
1.274 0.43599999 -0.76300001 150 0 0 0 0.042539999
1.274 0.43799999 -0.76300001 150 0 0 0 0.042550001
1.273 0.44 -0.76300001 150 0 0 0 0.04256
1.272 0.442 -0.76300001 150 0 0 0 0.042569999
1.279 0.447 -0.76800001 150 0 0 0 0.042580001
1.271 0.44600001 -0.76300001 150 0 0 0 0.04259
1.271 0.44800001 -0.76300001 150 0 0 0 0.042599998
1.277 0.45300001 -0.76700002 150 0 0 0 0.042610001
1.277 0.454 -0.76700002 150 0 0 0 0.042619999
1.276 0.456 -0.76599997 150 0 0 0 0.042629998
1.276 0.458 -0.76599997 150 0 0 0 0.042640001
1.276 0.46000001 -0.76599997 150 0 0 0 0.042649999
1.275 0.46200001 -0.76499999 150 0 0 0 0.042660002
1.275 0.46399999 -0.76499999 150 0 0 0 0.04267
1.274 0.465 -0.764 150 0 0 0 0.042679999
1.274 0.46700001 -0.764 150 0 0 0 0.042690001
1.273 0.46900001 -0.76300001 150 0 0 0 0.0427
1.278 0.472 -0.76499999 150 0 0 0 0.042709999
1.273 0.472 -0.76099998 150 0 0 0 0.042720001
1.273 0.47400001 -0.76099998 150 0 0 0 0.04273
1.272 0.47499999 -0.75999999 150 0 0 0 0.042739999
1.273 0.477 -0.759 150 0 0 0 0.042750001
1.272 0.479 -0.75800002 150 0 0 0 0.04276
1.273 0.47999999 -0.75700003 150 0 0 0 0.042769998
1.273 0.48199999 -0.75599998 150 0 0 0 0.042780001
1.28 0.486 -0.75999999 150 0 0 0 0.042789999
1.272 0.48500001 -0.75400001 150 0 0 0 0.042800002
1.272 0.486 -0.75300002 150 0 0 0 0.04281
1.272 0.48699999 -0.75199997 150 0 0 0 0.042819999
1.273 0.48899999 -0.75099999 150 0 0 0 0.042830002
1.281 0.493 -0.75400001 150 0 0 0 0.04284
1.273 0.49200001 -0.74800003 150 0 0 0 0.042849999
1.273 0.493 -0.74699998 150 0 0 0 0.042860001
1.279 0.49599999 -0.74900001 150 0 0 0 0.04287
1.274 0.495 -0.74400002 150 0 0 0 0.042879999
1.274 0.49700001 -0.74299997 150 0 0 0 0.042890001
1.274 0.498 -0.741 150 0 0 0 0.0429
1.275 0.49900001 -0.74000001 150 0 0 0 0.042909998
1.2690001 0.498 -0.73500001 150 0 0 0 0.042920001
1.276 0.50099999 -0.73699999 150 0 0 0 0.04293
1.27 0.5 -0.73100001 150 0 0 0 0.042939998
1.272 0.50099999 -0.73100001 150 0 0 0 0.042950001
1.267 0.50099999 -0.72600001 150 0 0 0 0.042959999
1.265 0.5 -0.72299999 150 0 0 0 0.042970002
1.261 0.5 -0.71899998 148 0 0 0 0.04298
1.253 0.49700001 -0.71200001 106 0 0 0 0.042989999
1.2309999 0.48899999 -0.69700003 70 0 0 0 0.043000001
1.1950001 0.47499999 -0.67500001 44 0 0 0 0.04301
1.158 0.461 -0.65200001 41 0 0 0 0.043019999
1.149 0.458 -0.64399999 53 0 0 0 0.043030001
1.146 0.45699999 -0.64099997 63 0 0 0 0.04304
1.143 0.456 -0.63700002 60 0 0 0 0.043049999
1.151 0.45899999 -0.639 64 0 0 0 0.043060001
1.159 0.463 -0.64099997 59 0 0 0 0.04307
1.165 0.46599999 -0.64200002 52 0 0 0 0.043079998
1.175 0.47 -0.64499998 59 0 0 0 0.043090001
1.176 0.47 -0.64300001 47 0 0 0 0.043099999
1.181 0.47299999 -0.64399999 44 0 0 0 0.043110002
1.186 0.47499999 -0.64399999 45 0 0 0 0.043120001
1.188 0.47600001 -0.64300001 40 0 0 0 0.043129999
1.187 0.47499999 -0.639 43 0 0 0 0.043140002
1.1900001 0.47600001 -0.639 44 0 0 0 0.04315
1.1950001 0.47799999 -0.63800001 52 0 0 0 0.043159999
1.191 0.47600001 -0.63300002 47 0 0 0 0.043170001
1.192 0.477 -0.63099998 46 0 0 0 0.04318
1.193 0.477 -0.63 45 0 0 0 0.043189999
1.193 0.477 -0.62599999 46 0 0 0 0.043200001
1.1950001 0.477 -0.625 42 0 0 0 0.04321
1.196 0.477 -0.62199998 44 0 0 0 0.043219998
1.197 0.477 -0.62 50 0 0 0 0.043230001
1.198 0.477 -0.61799997 31 0 0 0 0.04324
1.202 0.47799999 -0.61699998 27 0 0 0 0.043249998
1.262 0.50199997 -0.64399999 150 0 0 0 0.043260001
1.204 0.47799999 -0.61199999 33 0 0 0 0.043269999
1.206 0.47799999 -0.61000001 34 0 0 0 0.043280002
1.205 0.47799999 -0.60600001 32 0 0 0 0.04329
1.21 0.479 -0.60500002 43 0 0 0 0.043299999
1.2130001 0.479 -0.60399997 41 0 0 0 0.043310001
1.215 0.479 -0.602 47 0 0 0 0.04332
1.216 0.479 -0.59899998 49 0 0 0 0.043329999
1.217 0.479 -0.59600002 53 0 0 0 0.043340001
1.219 0.479 -0.59399998 49 0 0 0 0.04335
1.222 0.479 -0.59200001 49 0 0 0 0.043359999
1.226 0.47999999 -0.59100002 14 0 0 0 0.043370001
1.232 0.48100001 -0.58999997 15 0 0 0 0.04338
1.23 0.479 -0.58600003 15 0 0 0 0.043389998
1.2309999 0.479 -0.583 15 0 0 0 0.043400001
1.233 0.47799999 -0.58099997 14 0 0 0 0.043409999
1.234 0.47799999 -0.57800001 14 0 0 0 0.043419998
1.239 0.479 -0.57700002 13 0 0 0 0.043430001
1.242 0.47799999 -0.574 14 0 0 0 0.043439999
1.2460001 0.479 -0.57300001 13 0 0 0 0.043450002
1.2460001 0.47799999 -0.56999999 12 0 0 0 0.04346
1.247 0.477 -0.56599998 11 0 0 0 0.043469999
1.261 0.48100001 -0.56900001 11 0 0 0 0.043480001
1.278 0.486 -0.57300001 12 0 0 0 0.04349
1.2819999 0.486 -0.57099998 14 0 0 0 0.043499999
1.283 0.48500001 -0.56900001 22 0 0 0 0.043510001
1.285 0.484 -0.56599998 51 0 0 0 0.04352
1.276 0.47999999 -0.55800003 150 0 0 0 0.043529999
1.28 0.479 -0.55599999 150 0 0 0 0.043540001
1.279 0.477 -0.55199999 150 0 0 0 0.04355
1.278 0.47600001 -0.54799998 150 0 0 0 0.043559998
1.277 0.47400001 -0.54400003 150 0 0 0 0.043570001
1.275 0.47099999 -0.53899997 150 0 0 0 0.043579999
1.28 0.47099999 -0.53799999 150 0 0 0 0.043590002
1.278 0.46900001 -0.53299999 150 0 0 0 0.0436
1.28 0.46799999 -0.52999997 150 0 0 0 0.043609999
1.281 0.46700001 -0.52700001 150 0 0 0 0.043620002
1.281 0.465 -0.523 150 0 0 0 0.04363
1.278 0.46200001 -0.51800001 150 0 0 0 0.043639999
1.279 0.461 -0.51499999 150 0 0 0 0.043650001
1.278 0.45899999 -0.51099998 150 0 0 0 0.04366
1.28 0.45699999 -0.50800002 150 0 0 0 0.043669999
1.278 0.45500001 -0.50400001 150 0 0 0 0.043680001
1.278 0.45300001 -0.5 150 0 0 0 0.04369
1.28 0.45100001 -0.49700001 150 0 0 0 0.043699998
1.281 0.44999999 -0.493 150 0 0 0 0.043710001
1.28 0.447 -0.48899999 150 0 0 0 0.043719999
1.278 0.44499999 -0.48500001 150 0 0 0 0.043729998
1.278 0.44299999 -0.48100001 150 0 0 0 0.043740001
1.279 0.44100001 -0.47799999 150 0 0 0 0.043749999
1.283 0.44 -0.47600001 150 0 0 0 0.043760002
1.286 0.43900001 -0.47299999 150 0 0 0 0.04377
1.2920001 0.43900001 -0.47099999 88 0 0 0 0.043779999
1.3099999 0.44299999 -0.47400001 17 0 0 0 0.043790001
1.324 0.44499999 -0.47499999 8 0 0 0 0.0438
1.33 0.44499999 -0.47400001 2 0 0 0 0.043809999
1.345 0.44800001 -0.47499999 1 0 0 0 0.043820001
1.355 0.449 -0.47499999 1 0 0 0 0.04383
1.363 0.449 -0.47400001 2 0 0 0 0.043839999
1.372 0.44999999 -0.47299999 2 0 0 0 0.043850001
1.378 0.449 -0.47099999 2 0 0 0 0.04386
1.386 0.44999999 -0.47 1 0 0 0 0.043869998
1.402 0.45199999 -0.47099999 1 0 0 0 0.043880001
1.4119999 0.45300001 -0.47099999 1 0 0 0 0.043889999
1.423 0.454 -0.47 1 0 0 0 0.043900002
1.432 0.454 -0.46900001 1 0 0 0 0.04391
1.441 0.454 -0.46799999 1 0 0 0 0.043919999
1.457 0.456 -0.46900001 1 0 0 0 0.043930002
1.465 0.456 -0.46799999 1 0 0 0 0.04394
1.478 0.45699999 -0.46799999 1 0 0 0 0.043949999
1.494 0.46000001 -0.46900001 27 0 0 0 0.043960001
2.48 0.75800002 -0.77100003 150 0 0 0 0.04397
2.3210001 0.70499998 -0.71499997 150 0 0 0 0.043979999
2.3889999 0.72100002 -0.72899997 150 0 0 0 0.043990001
2.477 0.74299997 -0.74900001 150 0 0 0 0.044
2.4790001 0.73900002 -0.74299997 150 0 0 0 0.044009998
2.4790001 0.73400003 -0.736 150 0 0 0 0.044020001
2.48 0.72899997 -0.72899997 150 0 0 0 0.04403
2.48 0.72399998 -0.722 150 0 0 0 0.044039998
2.477 0.71799999 -0.71499997 150 0 0 0 0.044050001
2.483 0.71499997 -0.70999998 150 0 0 0 0.044059999
2.424 0.69300002 -0.68599999 150 0 0 0 0.044070002
2.296 0.65200001 -0.64399999 150 0 0 0 0.04408
2.2460001 0.63300002 -0.62300003 151 0 0 0 0.044089999
2.2279999 0.62300003 -0.61199999 151 0 0 0 0.044100001
2.2279999 0.61900002 -0.60600001 151 0 0 0 0.04411
2.2219999 0.61199999 -0.59899998 151 0 0 0 0.044119999
2.223 0.60799998 -0.59299999 151 0 0 0 0.044130001
2.217 0.602 -0.58499998 151 0 0 0 0.04414
2.2190001 0.59799999 -0.57999998 151 0 0 0 0.044149999
2.2219999 0.59399998 -0.574 151 0 0 0 0.044160001
2.221 0.58899999 -0.56800002 151 0 0 0 0.04417
2.2179999 0.583 -0.56199998 151 0 0 0 0.044179998
2.2179999 0.57800001 -0.55599999 151 0 0 0 0.044190001
2.2130001 0.57200003 -0.54799998 151 0 0 0 0.044199999
2.214 0.56800002 -0.54299998 151 0 0 0 0.044210002
2.2160001 0.56400001 -0.53799999 151 0 0 0 0.044220001
2.2190001 0.56 -0.53200001 151 0 0 0 0.044229999
2.2179999 0.55500001 -0.52600002 151 0 0 0 0.044240002
2.2179999 0.55000001 -0.52100003 151 0 0 0 0.04425
2.2149999 0.54500002 -0.514 151 0 0 0 0.044259999
2.217 0.54000002 -0.509 151 0 0 0 0.044270001
2.22 0.53600001 -0.50400001 151 0 0 0 0.04428
2.2219999 0.53200001 -0.498 151 0 0 0 0.044289999
2.223 0.52700001 -0.493 151 0 0 0 0.044300001
2.227 0.523 -0.48800001 150 0 0 0 0.04431
2.2460001 0.52200001 -0.486 151 0 0 0 0.044319998
2.2420001 0.51700002 -0.47999999 151 0 0 0 0.044330001
2.2409999 0.51099998 -0.47400001 151 0 0 0 0.04434
2.243 0.50700003 -0.46900001 151 0 0 0 0.044349998
2.256 0.505 -0.46599999 150 0 0 0 0.044360001
2.277 0.50400001 -0.46399999 100 0 0 0 0.044369999
2.342 0.51300001 -0.472 23 0 0 0 0.044380002
2.3770001 0.51599997 -0.47299999 22 0 0 0 0.04439
2.4170001 0.51899999 -0.47499999 24 0 0 0 0.044399999
2.4679999 0.52399999 -0.479 26 0 0 0 0.044410001
2.5079999 0.52700001 -0.47999999 27 0 0 0 0.04442
2.5539999 0.53100002 -0.48199999 27 0 0 0 0.044429999
2.589 0.53200001 -0.48300001 26 0 0 0 0.044440001
2.6329999 0.53500003 -0.484 26 0 0 0 0.04445
2.6800001 0.53899997 -0.486 27 0 0 0 0.044459999
2.7539999 0.54699999 -0.493 31 0 0 0 0.044470001
2.858 0.56199998 -0.505 34 0 0 0 0.04448
2.914 0.56599998 -0.50700003 34 0 0 0 0.044489998
2.948 0.56599998 -0.50599998 32 0 0 0 0.044500001
3.0109999 0.57099998 -0.50999999 32 0 0 0 0.044509999
3.0380001 0.56900001 -0.50700003 30 0 0 0 0.044520002
3.072 0.56800002 -0.505 30 0 0 0 0.044530001
3.1389999 0.57300001 -0.509 30 0 0 0 0.044539999
3.201 0.57700002 -0.51099998 30 0 0 0 0.044550002
3.2320001 0.57499999 -0.50800002 30 0 0 0 0.04456
3.266 0.57300001 -0.50599998 77 0 0 0 0.044569999
3.277 0.56800002 -0.5 151 0 0 0 0.044580001
3.279 0.56 -0.49200001 152 0 0 0 0.04459
3.2850001 0.55400002 -0.48500001 152 0 0 0 0.044599999
3.2839999 0.546 -0.477 152 0 0 0 0.044610001
3.2869999 0.53799999 -0.47 152 0 0 0 0.04462
3.296 0.53200001 -0.46399999 151 0 0 0 0.044629999
3.313 0.52700001 -0.458 151 0 0 0 0.044640001
3.3139999 0.51899999 -0.45100001 152 0 0 0 0.04465
3.3150001 0.51200002 -0.44299999 151 0 0 0 0.044659998
3.3340001 0.50700003 -0.43799999 151 0 0 0 0.044670001
3.3800001 0.50599998 -0.43599999 152 0 0 0 0.044679999
3.3840001 0.498 -0.42899999 151 0 0 0 0.044690002
3.3829999 0.49000001 -0.421 151 0 0 0 0.0447
3.385 0.48300001 -0.414 151 0 0 0 0.044709999
3.3840001 0.47400001 -0.40599999 151 0 0 0 0.044720002
3.388 0.46700001 -0.39899999 151 0 0 0 0.04473
3.385 0.458 -0.391 151 0 0 0 0.044739999
3.3870001 0.45100001 -0.38299999 151 0 0 0 0.044750001
3.3889999 0.44299999 -0.37599999 151 0 0 0 0.04476
3.3859999 0.43399999 -0.368 151 0 0 0 0.044769999
3.388 0.426 -0.36000001 151 0 0 0 0.044780001
3.3900001 0.41800001 -0.35299999 151 0 0 0 0.04479
3.3859999 0.41 -0.345 151 0 0 0 0.044799998
3.388 0.40200001 -0.338 151 0 0 0 0.044810001
3.3900001 0.39399999 -0.33000001 151 0 0 0 0.044819999
3.3840001 0.38499999 -0.322 151 0 0 0 0.044829998
3.3859999 0.377 -0.315 151 0 0 0 0.044840001
3.388 0.36899999 -0.308 151 0 0 0 0.044849999
3.3940001 0.361 -0.301 151 0 0 0 0.044860002
3.3900001 0.352 -0.29300001 151 0 0 0 0.04487
3.391 0.34400001 -0.28600001 151 0 0 0 0.044879999
3.3959999 0.33700001 -0.27900001 152 0 0 0 0.044890001
3.3970001 0.32800001 -0.271 152 0 0 0 0.0449
3.3959999 0.31999999 -0.264 152 0 0 0 0.044909999
