# .PCD v0.7 - Point Cloud Data file format
VERSION 0.7
FIELDS x y z intensity normal_x normal_y normal_z curvature
SIZE 4 4 4 4 4 4 4 4
TYPE F F F F F F F F
COUNT 1 1 1 1 1 1 1 1
WIDTH 1068
HEIGHT 1
VIEWPOINT 0 0 0 1 0 0 0
POINTS 1068
DATA ascii
1.452 -0.156 -0.82300001 13 0 0 0 0.00105
1.443 -0.155 -0.82300001 14 0 0 0 0.00106
1.439 -0.154 -0.824 14 0 0 0 0.00107
1.428 -0.152 -0.82300001 14 0 0 0 0.00108
1.423 -0.15099999 -0.824 14 0 0 0 0.00109
1.414 -0.149 -0.82300001 14 0 0 0 0.0011
1.409 -0.148 -0.824 14 0 0 0 0.00111
1.404 -0.146 -0.82499999 14 0 0 0 0.00112
1.392 -0.14399999 -0.82200003 13 0 0 0 0.00113
1.383 -0.14300001 -0.82099998 13 0 0 0 0.0011399999
1.378 -0.141 -0.82200003 13 0 0 0 0.00115
1.376 -0.14 -0.82499999 14 0 0 0 0.00116
1.365 -0.138 -0.82200003 14 0 0 0 0.0011699999
1.362 -0.13699999 -0.824 14 0 0 0 0.00118
1.357 -0.13600001 -0.82499999 14 0 0 0 0.00119
1.347 -0.134 -0.82300001 13 0 0 0 0.0012000001
1.342 -0.132 -0.82300001 14 0 0 0 0.00121
1.337 -0.131 -0.82300001 14 0 0 0 0.00122
1.331 -0.12899999 -0.82300001 14 0 0 0 0.0012300001
1.323 -0.12800001 -0.82200003 14 0 0 0 0.00124
1.318 -0.126 -0.82200003 14 0 0 0 0.00125
1.313 -0.125 -0.82300001 14 0 0 0 0.00126
1.306 -0.123 -0.82099998 14 0 0 0 0.00127
1.303 -0.122 -0.82300001 15 0 0 0 0.00128
1.2970001 -0.12 -0.82200003 15 0 0 0 0.00129
1.294 -0.119 -0.824 14 0 0 0 0.0013
1.289 -0.117 -0.824 14 0 0 0 0.00131
1.283 -0.115 -0.82300001 14 0 0 0 0.00132
1.277 -0.114 -0.82200003 14 0 0 0 0.00133
1.273 -0.112 -0.82200003 14 0 0 0 0.00134
1.271 -0.111 -0.824 14 0 0 0 0.00135
1.265 -0.109 -0.82300001 14 0 0 0 0.00136
1.263 -0.108 -0.824 14 0 0 0 0.00137
1.2589999 -0.106 -0.824 14 0 0 0 0.00138
1.251 -0.104 -0.82200003 14 0 0 0 0.00139
1.25 -0.103 -0.824 15 0 0 0 0.0014
1.245 -0.101 -0.82300001 15 0 0 0 0.00141
1.239 -0.098999999 -0.82200003 14 0 0 0 0.00142
1.237 -0.097999997 -0.82300001 14 0 0 0 0.0014299999
1.2359999 -0.097000003 -0.82499999 14 0 0 0 0.00144
1.233 -0.094999999 -0.82499999 14 0 0 0 0.00145
1.23 -0.093000002 -0.82499999 14 0 0 0 0.0014600001
1.224 -0.092 -0.82300001 14 0 0 0 0.00147
1.219 -0.090000004 -0.82200003 15 0 0 0 0.00148
1.217 -0.088 -0.82200003 15 0 0 0 0.0014900001
1.2180001 -0.086999997 -0.82499999 15 0 0 0 0.0015
1.2130001 -0.085000001 -0.824 15 0 0 0 0.00151
1.2079999 -0.082999997 -0.82200003 15 0 0 0 0.00152
1.2079999 -0.082000002 -0.824 16 0 0 0 0.00153
1.204 -0.079999998 -0.824 15 0 0 0 0.00154
1.2029999 -0.079000004 -0.824 15 0 0 0 0.00155
1.2 -0.077 -0.824 16 0 0 0 0.00156
1.199 -0.075000003 -0.82499999 16 0 0 0 0.00157
1.198 -0.074000001 -0.82599998 16 0 0 0 0.00158
1.197 -0.071999997 -0.82599998 16 0 0 0 0.00159
1.192 -0.07 -0.82499999 15 0 0 0 0.0016
1.194 -0.068999998 -0.82700002 16 0 0 0 0.00161
1.188 -0.067000002 -0.824 16 0 0 0 0.00162
1.187 -0.064999998 -0.82499999 16 0 0 0 0.00163
1.1849999 -0.064000003 -0.82499999 16 0 0 0 0.00164
1.184 -0.061999999 -0.82499999 16 0 0 0 0.00165
1.184 -0.059999999 -0.82599998 16 0 0 0 0.00166
1.181 -0.059 -0.82499999 16 0 0 0 0.00167
1.179 -0.057 -0.82499999 16 0 0 0 0.00168
1.179 -0.055 -0.82499999 16 0 0 0 0.0016899999
1.179 -0.054000001 -0.82599998 16 0 0 0 0.0017
1.179 -0.052000001 -0.82599998 17 0 0 0 0.00171
1.177 -0.050000001 -0.82599998 16 0 0 0 0.0017199999
1.176 -0.048999999 -0.82599998 16 0 0 0 0.00173
1.178 -0.046999998 -0.82800001 17 0 0 0 0.00174
1.176 -0.046 -0.82700002 17 0 0 0 0.0017500001
1.178 -0.044 -0.82800001 17 0 0 0 0.00176
1.173 -0.041999999 -0.82599998 17 0 0 0 0.00177
1.176 -0.041000001 -0.82700002 17 0 0 0 0.00178
1.173 -0.039000001 -0.82599998 17 0 0 0 0.00179
1.171 -0.037 -0.824 18 0 0 0 0.0018
1.171 -0.035 -0.824 18 0 0 0 0.00181
1.173 -0.034000002 -0.82599998 18 0 0 0 0.00182
1.173 -0.032000002 -0.82599998 17 0 0 0 0.00183
1.171 -0.029999999 -0.824 18 0 0 0 0.00184
1.175 -0.028999999 -0.82700002 17 0 0 0 0.00185
1.174 -0.027000001 -0.82599998 17 0 0 0 0.00186
1.174 -0.025 -0.82499999 17 0 0 0 0.00187
1.178 -0.024 -0.82800001 17 0 0 0 0.00188
1.178 -0.022 -0.82800001 17 0 0 0 0.00189
1.177 -0.02 -0.82599998 16 0 0 0 0.0019
1.177 -0.018999999 -0.82599998 16 0 0 0 0.00191
1.178 -0.017000001 -0.82499999 17 0 0 0 0.00192
1.1799999 -0.015 -0.82599998 17 0 0 0 0.00193
1.181 -0.014 -0.82599998 17 0 0 0 0.00194
1.184 -0.012 -0.82700002 17 0 0 0 0.0019499999
1.184 -0.0099999998 -0.82700002 17 0 0 0 0.00196
1.186 -0.0089999996 -0.82700002 17 0 0 0 0.0019700001
1.186 -0.0070000002 -0.82599998 17 0 0 0 0.0019799999
1.188 -0.0049999999 -0.82599998 17 0 0 0 0.00199
1.191 -0.0040000002 -0.82700002 17 0 0 0 0.0020000001
1.192 -0.0020000001 -0.82599998 17 0 0 0 0.0020099999
1.191 0 -0.824 16 0 0 0 0.00202
1.198 0 -0.82800001 17 0 0 0 0.0020300001
1.2 0.0020000001 -0.82800001 17 0 0 0 0.0020399999
1.2 0.003 -0.82700002 17 0 0 0 0.00205
1.2029999 0.0049999999 -0.82700002 16 0 0 0 0.0020600001
1.204 0.0070000002 -0.82599998 17 0 0 0 0.0020699999
1.2079999 0.0080000004 -0.82700002 16 0 0 0 0.00208
1.209 0.0099999998 -0.82599998 16 0 0 0 0.0020900001
1.212 0.012 -0.82599998 16 0 0 0 0.0020999999
1.2180001 0.013 -0.82800001 16 0 0 0 0.00211
1.2180001 0.015 -0.82700002 16 0 0 0 0.0021200001
1.22 0.016000001 -0.82599998 15 0 0 0 0.0021299999
1.223 0.017999999 -0.82599998 16 0 0 0 0.00214
1.229 0.02 -0.82800001 16 0 0 0 0.0021500001
1.23 0.021 -0.82599998 16 0 0 0 0.0021599999
1.2359999 0.023 -0.82800001 15 0 0 0 0.00217
1.242 0.024 -0.829 16 0 0 0 0.0021800001
1.243 0.026000001 -0.82800001 16 0 0 0 0.0021899999
1.2460001 0.028000001 -0.82800001 15 0 0 0 0.0022
1.25 0.028999999 -0.82800001 16 0 0 0 0.0022100001
1.253 0.030999999 -0.82800001 15 0 0 0 0.0022199999
1.255 0.032000002 -0.82599998 16 0 0 0 0.00223
1.2640001 0.034000002 -0.829 16 0 0 0 0.0022400001
1.267 0.035 -0.829 16 0 0 0 0.0022499999
1.27 0.037 -0.82800001 16 0 0 0 0.00226
1.275 0.039000001 -0.82800001 16 0 0 0 0.0022700001
1.28 0.039999999 -0.829 16 0 0 0 0.0022799999
1.283 0.041999999 -0.82800001 16 0 0 0 0.00229
1.2869999 0.043000001 -0.82700002 15 0 0 0 0.0023000001
1.295 0.045000002 -0.829 16 0 0 0 0.0023099999
1.298 0.046 -0.82800001 16 0 0 0 0.00232
1.302 0.048 -0.82700002 16 0 0 0 0.00233
1.307 0.048999999 -0.82700002 16 0 0 0 0.0023399999
1.312 0.050999999 -0.82700002 16 0 0 0 0.00235
1.314 0.052000001 -0.82499999 16 0 0 0 0.00236
1.322 0.054000001 -0.82700002 16 0 0 0 0.0023699999
1.331 0.056000002 -0.829 15 0 0 0 0.00238
1.336 0.057 -0.829 16 0 0 0 0.00239
1.339 0.057999998 -0.82700002 15 0 0 0 0.0024000001
1.35 0.059999999 -0.82999998 16 0 0 0 0.00241
1.352 0.061000001 -0.82800001 16 0 0 0 0.00242
1.3609999 0.063000001 -0.82999998 16 0 0 0 0.0024300001
1.365 0.064000003 -0.82800001 17 0 0 0 0.00244
1.372 0.066 -0.829 17 0 0 0 0.00245
1.377 0.067000002 -0.82800001 17 0 0 0 0.0024600001
1.385 0.068999998 -0.829 16 0 0 0 0.0024699999
1.3940001 0.07 -0.82999998 17 0 0 0 0.00248
1.404 0.071999997 -0.83200002 17 0 0 0 0.0024900001
1.408 0.072999999 -0.82999998 16 0 0 0 0.0024999999
1.416 0.075000003 -0.83099997 16 0 0 0 0.00251
1.424 0.075999998 -0.83099997 16 0 0 0 0.0025200001
1.431 0.078000002 -0.83099997 16 0 0 0 0.0025299999
1.4400001 0.079000004 -0.83200002 15 0 0 0 0.00254
1.448 0.081 -0.833 14 0 0 0 0.0025500001
1.455 0.082000002 -0.83200002 14 0 0 0 0.0025599999
1.461 0.082999997 -0.83099997 16 0 0 0 0.00257
1.47 0.085000001 -0.83200002 15 0 0 0 0.0025800001
1.479 0.086000003 -0.83200002 15 0 0 0 0.0025899999
1.489 0.088 -0.833 15 0 0 0 0.0026
1.494 0.089000002 -0.83200002 15 0 0 0 0.0026100001
1.506 0.090999998 -0.83399999 14 0 0 0 0.0026199999
1.513 0.092 -0.833 14 0 0 0 0.00263
1.526 0.093999997 -0.83499998 13 0 0 0 0.0026400001
1.536 0.094999999 -0.83600003 12 0 0 0 0.0026499999
1.546 0.096000001 -0.83600003 12 0 0 0 0.00266
1.552 0.097999997 -0.83499998 9 0 0 0 0.0026700001
1.561 0.098999999 -0.83499998 7 0 0 0 0.0026799999
1.573 0.101 -0.83600003 5 0 0 0 0.00269
1.586 0.102 -0.83700001 5 0 0 0 0.0027000001
1.59 0.103 -0.83399999 4 0 0 0 0.0027099999
1.601 0.104 -0.83499998 5 0 0 0 0.00272
1.612 0.106 -0.83499998 5 0 0 0 0.0027300001
1.626 0.107 -0.838 7 0 0 0 0.0027399999
1.642 0.109 -0.83999997 8 0 0 0 0.00275
1.641 0.11 -0.83499998 26 0 0 0 0.0027600001
1.6619999 0.112 -0.83999997 12 0 0 0 0.0027699999
1.675 0.113 -0.84100002 13 0 0 0 0.00278
1.6799999 0.114 -0.83700001 13 0 0 0 0.0027900001
1.692 0.115 -0.838 13 0 0 0 0.0027999999
1.7029999 0.116 -0.838 14 0 0 0 0.00281
1.7180001 0.118 -0.83899999 14 0 0 0 0.0028200001
1.73 0.119 -0.83899999 14 0 0 0 0.0028299999
1.7359999 0.12 -0.83700001 15 0 0 0 0.00284
1.749 0.122 -0.83700001 15 0 0 0 0.00285
1.7640001 0.123 -0.83899999 15 0 0 0 0.0028599999
1.777 0.124 -0.838 15 0 0 0 0.00287
1.793 0.126 -0.83999997 15 0 0 0 0.00288
1.796 0.126 -0.83600003 43 0 0 0 0.0028899999
1.824 0.12800001 -0.84200001 16 0 0 0 0.0029
1.831 0.12899999 -0.83899999 45 0 0 0 0.00291
1.841 0.13 -0.838 49 0 0 0 0.0029200001
1.86 0.132 -0.83999997 45 0 0 0 0.00293
1.869 0.133 -0.838 44 0 0 0 0.00294
1.886 0.134 -0.83899999 46 0 0 0 0.0029500001
1.895 0.13500001 -0.83600003 43 0 0 0 0.00296
1.9119999 0.13600001 -0.83700001 44 0 0 0 0.00297
1.926 0.13699999 -0.83700001 42 0 0 0 0.0029800001
1.943 0.139 -0.838 40 0 0 0 0.0029899999
1.96 0.14 -0.838 40 0 0 0 0.003
1.979 0.141 -0.83999997 41 0 0 0 0.0030100001
1.9960001 0.14300001 -0.83999997 41 0 0 0 0.0030199999
2.013 0.14399999 -0.84100002 40 0 0 0 0.00303
2.0250001 0.145 -0.83899999 41 0 0 0 0.0030400001
2.0469999 0.146 -0.84100002 39 0 0 0 0.0030499999
2.059 0.147 -0.83899999 39 0 0 0 0.00306
2.0799999 0.148 -0.83999997 41 0 0 0 0.0030700001
2.0969999 0.15000001 -0.83999997 40 0 0 0 0.0030799999
2.1170001 0.15099999 -0.84100002 37 0 0 0 0.00309
2.1400001 0.152 -0.84299999 36 0 0 0 0.0031000001
2.1559999 0.153 -0.84100002 37 0 0 0 0.0031099999
2.171 0.154 -0.83999997 37 0 0 0 0.00312
2.1989999 0.156 -0.84299999 39 0 0 0 0.0031300001
2.221 0.15700001 -0.84399998 30 0 0 0 0.0031399999
2.24 0.15800001 -0.84299999 32 0 0 0 0.00315
2.26 0.15899999 -0.84299999 31 0 0 0 0.0031600001
2.2839999 0.16 -0.84500003 32 0 0 0 0.0031699999
2.306 0.161 -0.84500003 33 0 0 0 0.00318
2.3299999 0.163 -0.84600002 32 0 0 0 0.0031900001
2.3510001 0.164 -0.84500003 33 0 0 0 0.0031999999
2.3670001 0.164 -0.84299999 33 0 0 0 0.00321
2.395 0.16599999 -0.84500003 32 0 0 0 0.0032200001
2.4189999 0.167 -0.84500003 32 0 0 0 0.0032299999
2.4449999 0.168 -0.84600002 30 0 0 0 0.00324
2.4690001 0.169 -0.84600002 30 0 0 0 0.0032500001
2.493 0.17 -0.84600002 30 0 0 0 0.0032599999
2.5209999 0.171 -0.847 29 0 0 0 0.00327
2.5469999 0.17200001 -0.847 29 0 0 0 0.0032800001
2.5799999 0.17399999 -0.84899998 30 0 0 0 0.0032899999
2.605 0.175 -0.84799999 30 0 0 0 0.0033
2.632 0.176 -0.84799999 29 0 0 0 0.0033100001
2.6600001 0.177 -0.84799999 29 0 0 0 0.0033199999
2.6949999 0.178 -0.85000002 30 0 0 0 0.00333
2.724 0.17900001 -0.85000002 30 0 0 0 0.0033400001
2.753 0.18000001 -0.85000002 30 0 0 0 0.0033499999
2.7820001 0.18099999 -0.85000002 29 0 0 0 0.00336
2.812 0.182 -0.84899998 32 0 0 0 0.00337
2.845 0.183 -0.85000002 33 0 0 0 0.0033799999
2.8859999 0.185 -0.852 30 0 0 0 0.00339
2.9189999 0.186 -0.852 30 0 0 0 0.0034
2.9630001 0.18700001 -0.85500002 28 0 0 0 0.0034099999
2.994 0.18799999 -0.85399997 28 0 0 0 0.00342
3.03 0.189 -0.85399997 27 0 0 0 0.00343
3.0669999 0.19 -0.85399997 27 0 0 0 0.0034399999
3.102 0.191 -0.85399997 27 0 0 0 0.00345
3.135 0.192 -0.852 24 0 0 0 0.00346
3.1789999 0.193 -0.85399997 19 0 0 0 0.0034700001
3.2219999 0.19400001 -0.85500002 15 0 0 0 0.00348
3.2679999 0.19499999 -0.85600001 17 0 0 0 0.00349
3.313 0.197 -0.85600001 19 0 0 0 0.0035000001
3.3529999 0.197 -0.85600001 22 0 0 0 0.00351
3.395 0.198 -0.85500002 32 0 0 0 0.00352
3.398 0.197 -0.84500003 150 0 0 0 0.0035300001
3.398 0.19499999 -0.83399999 151 0 0 0 0.0035399999
3.398 0.193 -0.82200003 151 0 0 0 0.00355
3.3959999 0.191 -0.81099999 151 0 0 0 0.0035600001
3.3989999 0.19 -0.80000001 151 0 0 0 0.0035699999
3.401 0.18799999 -0.78899997 151 0 0 0 0.00358
3.3970001 0.186 -0.77700001 151 0 0 0 0.0035900001
3.398 0.184 -0.76599997 151 0 0 0 0.0035999999
3.401 0.183 -0.75599998 151 0 0 0 0.00361
3.4030001 0.18099999 -0.745 151 0 0 0 0.0036200001
3.4030001 0.17900001 -0.73400003 151 0 0 0 0.0036299999
3.405 0.177 -0.72299999 151 0 0 0 0.00364
3.4030001 0.175 -0.71200001 151 0 0 0 0.0036500001
3.3989999 0.17299999 -0.69999999 151 0 0 0 0.0036599999
3.4030001 0.171 -0.68900001 151 0 0 0 0.00367
3.405 0.169 -0.67900002 151 0 0 0 0.0036800001
3.4059999 0.167 -0.66799998 151 0 0 0 0.0036899999
3.398 0.164 -0.65499997 151 0 0 0 0.0037
3.4000001 0.162 -0.64499998 151 0 0 0 0.0037100001
3.402 0.16 -0.634 151 0 0 0 0.0037199999
3.404 0.15800001 -0.62300003 151 0 0 0 0.00373
3.404 0.156 -0.61199999 151 0 0 0 0.0037400001
3.4030001 0.154 -0.60100001 151 0 0 0 0.0037499999
3.405 0.152 -0.58999997 151 0 0 0 0.00376
3.4070001 0.15000001 -0.57999998 151 0 0 0 0.0037700001
3.408 0.147 -0.56900001 151 0 0 0 0.0037799999
3.404 0.145 -0.55699998 151 0 0 0 0.00379
3.405 0.14300001 -0.546 151 0 0 0 0.0038000001
3.405 0.14 -0.53500003 151 0 0 0 0.0038099999
3.4059999 0.138 -0.52499998 151 0 0 0 0.00382
3.4059999 0.13600001 -0.514 151 0 0 0 0.0038300001
3.404 0.133 -0.50199997 151 0 0 0 0.0038399999
3.408 0.131 -0.49200001 151 0 0 0 0.00385
3.4070001 0.12800001 -0.48100001 151 0 0 0 0.0038600001
3.4089999 0.126 -0.47 151 0 0 0 0.0038699999
3.4059999 0.124 -0.45899999 151 0 0 0 0.00388
3.4100001 0.121 -0.449 151 0 0 0 0.0038900001
3.4089999 0.119 -0.43799999 151 0 0 0 0.0038999999
3.4059999 0.116 -0.426 151 0 0 0 0.00391
3.4070001 0.113 -0.41600001 151 0 0 0 0.00392
3.4089999 0.111 -0.405 151 0 0 0 0.0039300001
3.4100001 0.108 -0.39399999 151 0 0 0 0.0039400002
3.411 0.106 -0.384 151 0 0 0 0.0039499998
3.4130001 0.103 -0.373 151 0 0 0 0.0039599999
3.408 0.1 -0.36199999 151 0 0 0 0.00397
3.408 0.097999997 -0.35100001 151 0 0 0 0.00398
3.408 0.094999999 -0.34 151 0 0 0 0.0039900001
3.4100001 0.093000002 -0.33000001 151 0 0 0 0.0040000002
3.4100001 0.090000004 -0.31900001 151 0 0 0 0.0040099998
3.4100001 0.086999997 -0.308 151 0 0 0 0.0040199999
3.4100001 0.083999999 -0.29699999 152 0 0 0 0.00403
3.4119999 0.082000002 -0.287 152 0 0 0 0.00404
3.4119999 0.079000004 -0.27599999 151 0 0 0 0.0040500001
3.411 0.075999998 -0.26499999 152 0 0 0 0.0040600002
3.414 0.072999999 -0.255 152 0 0 0 0.0040699998
3.4119999 0.07 -0.244 152 0 0 0 0.0040799999
3.4170001 0.068000004 -0.233 152 0 0 0 0.0040899999
3.4170001 0.064999998 -0.223 152 0 0 0 0.0041
3.4170001 0.061999999 -0.212 152 0 0 0 0.0041100001
3.411 0.059 -0.20100001 152 0 0 0 0.0041200002
3.4130001 0.056000002 -0.19 152 0 0 0 0.0041299998
3.4070001 0.052999999 -0.17900001 153 0 0 0 0.0041399999
3.4030001 0.050000001 -0.169 153 0 0 0 0.0041499999
3.4030001 0.046999998 -0.15800001 153 0 0 0 0.00416
3.4089999 0.044 -0.148 153 0 0 0 0.0041700001
3.401 0.041000001 -0.13699999 153 0 0 0 0.0041800002
3.405 0.037999999 -0.126 153 0 0 0 0.0041899998
3.405 0.035 -0.116 153 0 0 0 0.0041999999
3.4059999 0.032000002 -0.105 153 0 0 0 0.0042099999
3.4030001 0.028999999 -0.093999997 153 0 0 0 0.00422
3.4059999 0.025 -0.083999999 153 0 0 0 0.0042300001
3.404 0.022 -0.072999999 153 0 0 0 0.0042400002
3.4070001 0.018999999 -0.063000001 153 0 0 0 0.0042500002
3.404 0.016000001 -0.052000001 153 0 0 0 0.0042599998
3.4070001 0.013 -0.041999999 153 0 0 0 0.0042699999
3.4070001 0.0099999998 -0.030999999 153 0 0 0 0.00428
3.4070001 0.0060000001 -0.02 153 0 0 0 0.0042900001
3.418 0.003 -0.0099999998 153 0 0 0 0.0043000001
3.418 0 0 152 0 0 0 0.0043100002
3.4170001 -0.0020000001 0.0099999998 152 0 0 0 0.0043199998
3.4230001 -0.0060000001 0.021 152 0 0 0 0.0043299999
3.4230001 -0.0089999996 0.030999999 152 0 0 0 0.00434
3.4230001 -0.012 0.041999999 152 0 0 0 0.0043500001
3.4230001 -0.016000001 0.052000001 152 0 0 0 0.0043600001
3.424 -0.018999999 0.063000001 152 0 0 0 0.0043700002
3.4219999 -0.022 0.074000001 152 0 0 0 0.0043799998
3.4219999 -0.026000001 0.083999999 152 0 0 0 0.0043899999
3.4219999 -0.028999999 0.094999999 151 0 0 0 0.0044
3.4170001 -0.033 0.105 151 0 0 0 0.0044100001
3.4230001 -0.035999998 0.116 152 0 0 0 0.0044200001
3.425 -0.039999999 0.126 151 0 0 0 0.0044300002
3.424 -0.043000001 0.13699999 151 0 0 0 0.0044399998
3.427 -0.046999998 0.147 151 0 0 0 0.0044499999
3.4230001 -0.050000001 0.15800001 152 0 0 0 0.00446
3.425 -0.054000001 0.168 151 0 0 0 0.00447
3.425 -0.057 0.17900001 151 0 0 0 0.0044800001
3.4289999 -0.061000001 0.19 151 0 0 0 0.0044900002
3.4289999 -0.064999998 0.2 151 0 0 0 0.0044999998
3.428 -0.068000004 0.211 151 0 0 0 0.0045099999
3.427 -0.071999997 0.221 151 0 0 0 0.00452
3.431 -0.075999998 0.23199999 151 0 0 0 0.00453
3.4300001 -0.079999998 0.242 151 0 0 0 0.0045400001
3.4289999 -0.082999997 0.25299999 151 0 0 0 0.0045500002
3.428 -0.086999997 0.26300001 151 0 0 0 0.0045599998
3.431 -0.090999998 0.27399999 151 0 0 0 0.0045699999
3.4300001 -0.094999999 0.285 151 0 0 0 0.0045799999
3.4330001 -0.097999997 0.29499999 151 0 0 0 0.00459
3.431 -0.102 0.30599999 151 0 0 0 0.0046000001
3.4330001 -0.106 0.31600001 151 0 0 0 0.0046100002
3.4319999 -0.11 0.32699999 151 0 0 0 0.0046199998
3.4330001 -0.114 0.33700001 151 0 0 0 0.0046299999
3.438 -0.118 0.34799999 151 0 0 0 0.0046399999
3.4289999 -0.122 0.35800001 151 0 0 0 0.00465
3.437 -0.126 0.36899999 151 0 0 0 0.0046600001
3.4360001 -0.13 0.37900001 151 0 0 0 0.0046700002
3.4349999 -0.134 0.38999999 151 0 0 0 0.0046799998
3.4360001 -0.138 0.40000001 151 0 0 0 0.0046899999
3.4349999 -0.142 0.41100001 151 0 0 0 0.0046999999
3.437 -0.146 0.421 151 0 0 0 0.00471
3.437 -0.15000001 0.43200001 151 0 0 0 0.0047200001
3.4330001 -0.154 0.442 151 0 0 0 0.0047300002
3.434 -0.15800001 0.45300001 151 0 0 0 0.0047399998
3.441 -0.163 0.46399999 151 0 0 0 0.0047499998
3.4400001 -0.167 0.47400001 151 0 0 0 0.0047599999
3.438 -0.171 0.484 151 0 0 0 0.00477
3.4389999 -0.175 0.495 151 0 0 0 0.0047800001
3.4349999 -0.17900001 0.505 151 0 0 0 0.0047900002
3.4349999 -0.183 0.51499999 151 0 0 0 0.0048000002
3.437 -0.18799999 0.52600002 151 0 0 0 0.0048099998
3.437 -0.192 0.53600001 151 0 0 0 0.0048199999
3.4260001 -0.19599999 0.54500002 150 0 0 0 0.00483
3.391 -0.198 0.55000001 150 0 0 0 0.0048400001
3.375 -0.20100001 0.55800003 150 0 0 0 0.0048500001
3.3740001 -0.206 0.56800002 151 0 0 0 0.0048600002
3.3729999 -0.20999999 0.57800001 151 0 0 0 0.0048699998
3.3710001 -0.214 0.588 151 0 0 0 0.0048799999
3.3789999 -0.219 0.59899998 151 0 0 0 0.00489
3.3629999 -0.223 0.60699999 150 0 0 0 0.0049000001
3.352 -0.226 0.61500001 150 0 0 0 0.0049100001
3.3440001 -0.23 0.62400001 150 0 0 0 0.0049200002
3.3440001 -0.235 0.634 151 0 0 0 0.0049299998
3.345 -0.23899999 0.64399999 151 0 0 0 0.0049399999
3.3410001 -0.243 0.65399998 150 0 0 0 0.00495
3.3499999 -0.249 0.66500002 151 0 0 0 0.00496
3.3469999 -0.25299999 0.67500001 151 0 0 0 0.0049700001
3.348 -0.25799999 0.685 151 0 0 0 0.0049800002
3.352 -0.26199999 0.69599998 151 0 0 0 0.0049899998
3.348 -0.26699999 0.70599997 151 0 0 0 0.0049999999
3.3510001 -0.27200001 0.71600002 150 0 0 0 0.00501
3.335 -0.27500001 0.72299999 34 0 0 0 0.00502
3.2609999 -0.27399999 0.71700001 54 0 0 0 0.0050300001
3.2379999 -0.27599999 0.722 150 0 0 0 0.0050400002
3.2379999 -0.28099999 0.73100001 150 0 0 0 0.0050499998
3.24 -0.28600001 0.74199998 150 0 0 0 0.0050599999
3.2379999 -0.28999999 0.75099999 150 0 0 0 0.00507
3.2360001 -0.29499999 0.75999999 151 0 0 0 0.00508
3.237 -0.29899999 0.76999998 151 0 0 0 0.0050900001
3.2360001 -0.30399999 0.77999997 151 0 0 0 0.0051000002
3.2409999 -0.30899999 0.79100001 151 0 0 0 0.0051099998
3.2379999 -0.31400001 0.80000001 151 0 0 0 0.0051199999
3.24 -0.31900001 0.81 151 0 0 0 0.0051299999
3.2349999 -0.32300001 0.81800002 150 0 0 0 0.00514
3.2190001 -0.32600001 0.824 150 0 0 0 0.0051500001
3.2130001 -0.331 0.83200002 150 0 0 0 0.0051600002
3.2149999 -0.336 0.84200001 150 0 0 0 0.0051699998
3.2149999 -0.34099999 0.852 151 0 0 0 0.0051799999
3.214 -0.345 0.861 150 0 0 0 0.0051899999
3.2160001 -0.35100001 0.87099999 150 0 0 0 0.0052
3.2149999 -0.35600001 0.88099998 151 0 0 0 0.0052100001
3.2119999 -0.36000001 0.88999999 150 0 0 0 0.0052200002
3.214 -0.366 0.89999998 150 0 0 0 0.0052299998
3.2179999 -0.37099999 0.91000003 150 0 0 0 0.0052399999
3.177 -0.37200001 0.90799999 151 0 0 0 0.0052499999
2.971 -0.352 0.85799998 151 0 0 0 0.00526
2.8540001 -0.34299999 0.833 150 0 0 0 0.0052700001
2.598 -0.31600001 0.76599997 31 0 0 0 0.0052800002
2.563 -0.31600001 0.76300001 33 0 0 0 0.0052899998
2.5339999 -0.317 0.76200002 30 0 0 0 0.0052999998
2.506 -0.31799999 0.76099998 28 0 0 0 0.0053099999
2.477 -0.31799999 0.75999999 28 0 0 0 0.00532
2.4519999 -0.31900001 0.759 25 0 0 0 0.0053300001
2.408 -0.317 0.75300002 30 0 0 0 0.0053400001
2.3889999 -0.31900001 0.75400001 79 0 0 0 0.0053500002
2.381 -0.322 0.75800002 59 0 0 0 0.0053599998
2.378 -0.32499999 0.76499999 21 0 0 0 0.0053699999
0 0 0 0 0 0 0 0.00538
0 0 0 0 0 0 0 0.0053900001
0 0 0 0 0 0 0 0.0054000001
0 0 0 0 0 0 0 0.0054100002
0 0 0 0 0 0 0 0.0054199998
0 0 0 0 0 0 0 0.0054299999
0 0 0 0 0 0 0 0.00544
0 0 0 0 0 0 0 0.0054500001
0 0 0 0 0 0 0 0.0054600001
0 0 0 0 0 0 0 0.0054700002
0 0 0 0 0 0 0 0.0054799998
0 0 0 0 0 0 0 0.0054899999
0 0 0 0 0 0 0 0.0055
0 0 0 0 0 0 0 0.00551
0 0 0 0 0 0 0 0.0055200001
0 0 0 0 0 0 0 0.0055300002
0 0 0 0 0 0 0 0.0055399998
0 0 0 0 0 0 0 0.0055499999
0 0 0 0 0 0 0 0.00556
4.1459999 -0.71700001 1.573 13 0 0 0 0.00557
4.1160002 -0.72000003 1.574 13 0 0 0 0.0055800001
4.0869999 -0.722 1.574 14 0 0 0 0.0055900002
4.0479999 -0.72299999 1.5700001 15 0 0 0 0.0055999998
4.0089998 -0.72399998 1.566 29 0 0 0 0.0056099999
3.99 -0.72799999 1.5700001 55 0 0 0 0.00562
3.9790001 -0.73400003 1.577 69 0 0 0 0.00563
3.983 -0.74299997 1.59 73 0 0 0 0.0056400001
3.971 -0.74800003 1.596 66 0 0 0 0.0056500002
3.9579999 -0.75400001 1.602 54 0 0 0 0.0056599998
3.928 -0.75599998 1.6 41 0 0 0 0.0056699999
3.908 -0.75999999 1.603 44 0 0 0 0.0056799999
3.8789999 -0.76200002 1.602 38 0 0 0 0.00569
3.8540001 -0.76499999 1.602 40 0 0 0 0.0057000001
3.8340001 -0.76899999 1.604 39 0 0 0 0.0057100002
3.809 -0.77200001 1.604 41 0 0 0 0.0057199998
3.789 -0.77499998 1.6059999 41 0 0 0 0.0057299999
3.7690001 -0.77899998 1.607 41 0 0 0 0.0057399999
3.74 -0.78100002 1.605 43 0 0 0 0.00575
3.723 -0.78500003 1.607 44 0 0 0 0.0057600001
3.7 -0.78799999 1.607 41 0 0 0 0.0057700002
3.6760001 -0.79000002 1.607 42 0 0 0 0.0057799998
3.6559999 -0.79400003 1.608 43 0 0 0 0.0057899999
3.6400001 -0.79799998 1.61 42 0 0 0 0.0057999999
3.618 -0.801 1.61 42 0 0 0 0.00581
3.5969999 -0.80400002 1.61 44 0 0 0 0.0058200001
3.579 -0.80699998 1.6109999 42 0 0 0 0.0058300002
3.5550001 -0.80900002 1.609 45 0 0 0 0.0058400002
3.5380001 -0.81300002 1.61 45 0 0 0 0.0058499998
3.526 -0.81800002 1.614 45 0 0 0 0.0058599999
3.503 -0.81999999 1.612 45 0 0 0 0.00587
3.4849999 -0.82300001 1.612 44 0 0 0 0.0058800001
3.4679999 -0.82700002 1.613 44 0 0 0 0.0058900001
3.444 -0.829 1.61 42 0 0 0 0.0059000002
3.4300001 -0.833 1.612 43 0 0 0 0.0059099998
3.4100001 -0.83499998 1.6109999 43 0 0 0 0.0059199999
3.395 -0.83899999 1.612 43 0 0 0 0.00593
3.3759999 -0.84200001 1.6109999 42 0 0 0 0.0059400001
3.3610001 -0.84600002 1.612 42 0 0 0 0.0059500001
3.346 -0.84899998 1.612 42 0 0 0 0.0059600002
3.3269999 -0.852 1.6109999 42 0 0 0 0.0059699998
3.316 -0.85699999 1.613 46 0 0 0 0.0059799999
3.3 -0.86000001 1.613 45 0 0 0 0.00599
3.283 -0.86299998 1.612 51 0 0 0 0.0060000001
3.2690001 -0.866 1.612 50 0 0 0 0.0060100001
3.2590001 -0.87099999 1.615 51 0 0 0 0.0060200002
3.2420001 -0.87400001 1.614 50 0 0 0 0.0060299998
3.2449999 -0.88200003 1.622 45 0 0 0 0.0060399999
3.2420001 -0.889 1.628 54 0 0 0 0.00605
3.105 -0.85799998 1.5650001 150 0 0 0 0.00606
2.74 -0.76300001 1.387 150 0 0 0 0.0060700001
2.401 -0.67400002 1.22 51 0 0 0 0.0060800002
2.3989999 -0.67900002 1.224 19 0 0 0 0.0060899998
2.3970001 -0.68400002 1.228 22 0 0 0 0.0060999999
2.388 -0.68699998 1.229 26 0 0 0 0.00611
2.3940001 -0.69400001 1.2359999 26 0 0 0 0.00612
2.4000001 -0.70099998 1.244 27 0 0 0 0.0061300001
2.3959999 -0.70499998 1.2460001 28 0 0 0 0.0061400002
2.3959999 -0.71100003 1.251 28 0 0 0 0.0061499998
2.398 -0.71700001 1.256 28 0 0 0 0.0061599999
2.3970001 -0.722 1.261 28 0 0 0 0.0061699999
2.3970001 -0.72799999 1.265 25 0 0 0 0.00618
2.398 -0.73299998 1.2690001 23 0 0 0 0.0061900001
2.401 -0.74000001 1.275 23 0 0 0 0.0062000002
2.401 -0.745 1.279 24 0 0 0 0.0062099998
2.398 -0.75 1.2819999 21 0 0 0 0.0062199999
2.3989999 -0.75599998 1.286 22 0 0 0 0.0062299999
2.402 -0.76200002 1.2920001 24 0 0 0 0.00624
2.402 -0.76700002 1.296 28 0 0 0 0.0062500001
2.404 -0.773 1.3 29 0 0 0 0.0062600002
2.405 -0.77899998 1.3049999 29 0 0 0 0.0062699998
2.402 -0.78299999 1.306 29 0 0 0 0.0062799999
2.402 -0.78899997 1.3099999 29 0 0 0 0.0062899999
2.405 -0.79500002 1.3150001 27 0 0 0 0.0063
2.408 -0.801 1.3200001 21 0 0 0 0.0063100001
2.4059999 -0.80599999 1.322 21 0 0 0 0.0063200002
2.404 -0.81099999 1.324 29 0 0 0 0.0063299998
2.4070001 -0.81699997 1.329 29 0 0 0 0.0063399998
2.402 -0.81999999 1.329 27 0 0 0 0.0063499999
2.4059999 -0.82700002 1.334 23 0 0 0 0.00636
2.4089999 -0.833 1.339 24 0 0 0 0.0063700001
2.408 -0.838 1.341 26 0 0 0 0.0063800002
2.4059999 -0.84299999 1.342 28 0 0 0 0.0063900002
2.405 -0.847 1.344 29 0 0 0 0.0063999998
2.411 -0.85500002 1.35 29 0 0 0 0.0064099999
2.4100001 -0.86000001 1.352 29 0 0 0 0.00642
2.4089999 -0.86400002 1.353 29 0 0 0 0.0064300001
2.4070001 -0.86900002 1.354 29 0 0 0 0.0064400001
2.411 -0.875 1.358 30 0 0 0 0.0064500002
2.4089999 -0.87900001 1.359 30 0 0 0 0.0064599998
2.4070001 -0.88300002 1.36 30 0 0 0 0.0064699999
2.408 -0.889 1.362 30 0 0 0 0.00648
2.408 -0.89399999 1.364 28 0 0 0 0.0064900001
2.4100001 -0.89899999 1.3660001 22 0 0 0 0.0065000001
2.415 -0.90499997 1.37 19 0 0 0 0.0065100002
2.4189999 -0.912 1.374 17 0 0 0 0.0065199998
2.4130001 -0.91399997 1.372 14 0 0 0 0.0065299999
2.414 -0.91900003 1.373 13 0 0 0 0.00654
2.4170001 -0.92500001 1.376 13 0 0 0 0.00655
2.4200001 -0.93000001 1.3789999 14 0 0 0 0.0065600001
2.4159999 -0.93300003 1.377 16 0 0 0 0.0065700002
2.414 -0.93699998 1.377 17 0 0 0 0.0065799998
2.414 -0.94099998 1.377 18 0 0 0 0.0065899999
2.4130001 -0.94599998 1.377 17 0 0 0 0.0066
2.414 -0.94999999 1.378 20 0 0 0 0.00661
2.418 -0.95599997 1.381 21 0 0 0 0.0066200001
2.415 -0.95899999 1.3789999 23 0 0 0 0.0066300002
2.4159999 -0.963 1.3789999 26 0 0 0 0.0066399998
2.414 -0.96700001 1.378 23 0 0 0 0.0066499999
2.4189999 -0.972 1.381 23 0 0 0 0.00666
2.4159999 -0.97500002 1.3789999 23 0 0 0 0.00667
2.4189999 -0.98000002 1.38 22 0 0 0 0.0066800001
2.4159999 -0.98299998 1.378 23 0 0 0 0.0066900002
2.4200001 -0.98799998 1.3789999 26 0 0 0 0.0066999998
2.4189999 -0.991 1.378 25 0 0 0 0.0067099999
2.415 -0.99299997 1.375 30 0 0 0 0.0067199999
2.418 -0.99800003 1.375 30 0 0 0 0.00673
2.4170001 -1.001 1.374 29 0 0 0 0.0067400001
2.4159999 -1.0039999 1.372 23 0 0 0 0.0067500002
2.4219999 -1.0089999 1.374 24 0 0 0 0.0067599998
2.4189999 -1.011 1.37 24 0 0 0 0.0067699999
2.418 -1.0140001 1.369 26 0 0 0 0.0067799999
2.418 -1.017 1.367 25 0 0 0 0.00679
2.4200001 -1.021 1.3660001 25 0 0 0 0.0068000001
2.4200001 -1.023 1.364 26 0 0 0 0.0068100002
2.4170001 -1.025 1.36 28 0 0 0 0.0068199998
2.414 -1.027 1.3559999 29 0 0 0 0.0068299999
2.418 -1.031 1.357 28 0 0 0 0.0068399999
2.4200001 -1.034 1.355 29 0 0 0 0.00685
2.4189999 -1.036 1.352 26 0 0 0 0.0068600001
2.4189999 -1.039 1.35 25 0 0 0 0.0068700002
2.4219999 -1.0420001 1.348 21 0 0 0 0.0068799998
2.421 -1.044 1.345 18 0 0 0 0.0068899998
2.4189999 -1.045 1.341 19 0 0 0 0.0068999999
2.4200001 -1.048 1.339 19 0 0 0 0.00691
2.4189999 -1.049 1.335 18 0 0 0 0.0069200001
2.421 -1.052 1.3329999 17 0 0 0 0.0069300001
2.4219999 -1.054 1.331 17 0 0 0 0.0069400002
2.4230001 -1.056 1.3279999 15 0 0 0 0.0069499998
2.4230001 -1.058 1.324 14 0 0 0 0.0069599999
2.4200001 -1.058 1.319 15 0 0 0 0.00697
2.4219999 -1.0599999 1.316 16 0 0 0 0.0069800001
2.424 -1.062 1.314 18 0 0 0 0.0069900001
2.4260001 -1.0650001 1.311 20 0 0 0 0.0070000002
2.4260001 -1.066 1.307 19 0 0 0 0.0070099998
2.425 -1.066 1.303 20 0 0 0 0.0070199999
2.418 -1.064 1.295 20 0 0 0 0.00703
2.4219999 -1.067 1.293 17 0 0 0 0.0070400001
2.4189999 -1.066 1.2869999 18 0 0 0 0.0070500001
2.4200001 -1.068 1.283 18 0 0 0 0.0070600002
2.418 -1.067 1.277 18 0 0 0 0.0070699998
2.4170001 -1.067 1.272 17 0 0 0 0.0070799999
2.418 -1.068 1.268 17 0 0 0 0.00709
2.421 -1.0700001 1.265 17 0 0 0 0.0071
2.4219999 -1.0700001 1.261 17 0 0 0 0.0071100001
2.424 -1.071 1.257 17 0 0 0 0.0071200002
2.4230001 -1.071 1.252 17 0 0 0 0.0071299998
2.418 -1.069 1.244 16 0 0 0 0.0071399999
2.4219999 -1.0700001 1.2410001 15 0 0 0 0.00715
2.4219999 -1.0700001 1.2359999 11 0 0 0 0.00716
2.4300001 -1.073 1.235 10 0 0 0 0.0071700001
2.4579999 -1.085 1.244 35 0 0 0 0.0071800002
3.0380001 -1.341 1.531 70 0 0 0 0.0071899998
3.2320001 -1.426 1.6210001 74 0 0 0 0.0071999999
3.273 -1.443 1.6339999 27 0 0 0 0.00721
3.2850001 -1.447 1.633 38 0 0 0 0.00722
3.3 -1.4529999 1.633 43 0 0 0 0.0072300001
3.306 -1.454 1.628 32 0 0 0 0.0072400002
3.3 -1.45 1.617 21 0 0 0 0.0072499998
3.3039999 -1.45 1.6109999 20 0 0 0 0.0072599999
3.313 -1.452 1.608 18 0 0 0 0.0072699999
3.316 -1.452 1.601 18 0 0 0 0.00728
3.3199999 -1.452 1.595 18 0 0 0 0.0072900001
3.323 -1.452 1.589 18 0 0 0 0.0073000002
3.3269999 -1.451 1.582 18 0 0 0 0.0073099998
3.3329999 -1.451 1.577 18 0 0 0 0.0073199999
3.336 -1.451 1.5700001 18 0 0 0 0.0073299999
3.3380001 -1.449 1.562 18 0 0 0 0.00734
3.3440001 -1.449 1.557 18 0 0 0 0.0073500001
3.349 -1.449 1.551 18 0 0 0 0.0073600002
3.3610001 -1.451 1.548 19 0 0 0 0.0073699998
3.3699999 -1.452 1.543 19 0 0 0 0.0073799998
3.378 -1.4529999 1.538 19 0 0 0 0.0073899999
3.3829999 -1.452 1.531 19 0 0 0 0.0074
3.3889999 -1.451 1.525 18 0 0 0 0.0074100001
3.3989999 -1.452 1.521 19 0 0 0 0.0074200002
3.404 -1.451 1.5140001 16 0 0 0 0.0074300002
3.415 -1.452 1.51 17 0 0 0 0.0074399998
3.4219999 -1.451 1.5039999 17 0 0 0 0.0074499999
3.427 -1.45 1.497 17 0 0 0 0.00746
3.438 -1.451 1.493 17 0 0 0 0.0074700001
3.447 -1.45 1.487 16 0 0 0 0.0074800001
3.451 -1.448 1.479 16 0 0 0 0.0074900002
3.464 -1.449 1.476 16 0 0 0 0.0074999998
3.477 -1.451 1.472 17 0 0 0 0.0075099999
3.48 -1.447 1.4630001 17 0 0 0 0.00752
3.4979999 -1.45 1.461 18 0 0 0 0.0075300001
3.5179999 -1.454 1.46 19 0 0 0 0.0075400001
3.5380001 -1.4579999 1.459 19 0 0 0 0.0075500002
3.562 -1.4630001 1.459 19 0 0 0 0.0075599998
3.585 -1.467 1.4579999 20 0 0 0 0.0075699999
3.6059999 -1.471 1.457 21 0 0 0 0.00758
3.635 -1.477 1.459 25 0 0 0 0.0075900001
3.6559999 -1.4809999 1.457 43 0 0 0 0.0076000001
3.6570001 -1.475 1.447 57 0 0 0 0.0076100002
3.6589999 -1.471 1.438 58 0 0 0 0.0076199998
3.658 -1.465 1.427 58 0 0 0 0.0076299999
3.6589999 -1.46 1.418 58 0 0 0 0.00764
3.655 -1.4529999 1.406 58 0 0 0 0.00765
3.661 -1.449 1.398 55 0 0 0 0.0076600001
3.6619999 -1.444 1.388 31 0 0 0 0.0076700002
3.7320001 -1.465 1.404 26 0 0 0 0.0076799998
3.8080001 -1.489 1.4220001 24 0 0 0 0.0076899999
3.832 -1.492 1.421 19 0 0 0 0.0077
3.848 -1.492 1.416 17 0 0 0 0.00771
3.8670001 -1.493 1.4119999 17 0 0 0 0.0077200001
3.878 -1.49 1.405 16 0 0 0 0.0077300002
3.8989999 -1.4910001 1.402 17 0 0 0 0.0077399998
3.914 -1.49 1.397 17 0 0 0 0.0077499999
3.927 -1.488 1.391 17 0 0 0 0.0077599999
3.9449999 -1.488 1.386 16 0 0 0 0.00777
3.9660001 -1.489 1.382 17 0 0 0 0.0077800001
3.9749999 -1.485 1.375 17 0 0 0 0.0077900002
3.9890001 -1.483 1.368 17 0 0 0 0.0077999998
4.0009999 -1.479 1.3609999 16 0 0 0 0.0078099999
4.006 -1.474 1.352 16 0 0 0 0.0078199999
4.02 -1.471 1.346 17 0 0 0 0.0078299996
4.04 -1.471 1.342 17 0 0 0 0.0078400001
4.052 -1.467 1.334 23 0 0 0 0.0078499997
4.0669999 -1.465 1.3279999 29 0 0 0 0.0078600002
4.1040001 -1.47 1.329 16 0 0 0 0.0078699999
4.1479998 -1.478 1.332 15 0 0 0 0.0078800004
4.1739998 -1.479 1.329 16 0 0 0 0.00789
2.868 -1.01 0.90499997 0 0 0 0 0.0078999996
2.9130001 -1.02 0.912 0 0 0 0 0.0079100002
4.1950002 -1.461 1.301 56 0 0 0 0.0079199998
4.2010002 -1.454 1.2920001 20 0 0 0 0.0079300003
0 0 0 0 0 0 0 0.0079399999
2.8099999 -0.96100003 0.84899998 0 0 0 0 0.0079500005
2.9319999 -0.99699998 0.87800002 0 0 0 0 0.0079600001
2.4030001 -0.81199998 0.713 0 0 0 0 0.0079699997
2.4000001 -0.80599999 0.70599997 0 0 0 0 0.0079800002
2.444 -0.81599998 0.71200001 0 0 0 0 0.0079899998
2.4230001 -0.80299997 0.699 0 0 0 0 0.0080000004
2.711 -0.89300001 0.77600002 0 0 0 0 0.00801
0 0 0 0 0 0 0 0.0080199996
0 0 0 0 0 0 0 0.0080300001
0 0 0 0 0 0 0 0.0080399998
2.444 -0.78399998 0.67299998 0 0 0 0 0.0080500003
2.4719999 -0.787 0.67400002 0 0 0 0 0.0080599999
0 0 0 0 0 0 0 0.0080700004
0 0 0 0 0 0 0 0.0080800001
0 0 0 0 0 0 0 0.0080899997
0 0 0 0 0 0 0 0.0081000002
0 0 0 0 0 0 0 0.0081099998
2.448 -0.74699998 0.63 0 0 0 0 0.0081200004
0 0 0 0 0 0 0 0.00813
0 0 0 0 0 0 0 0.0081399996
0 0 0 0 0 0 0 0.0081500001
0 0 0 0 0 0 0 0.0081599997
0 0 0 0 0 0 0 0.0081700003
0 0 0 0 0 0 0 0.0081799999
0 0 0 0 0 0 0 0.0081900004
0 0 0 0 0 0 0 0.0082
0 0 0 0 0 0 0 0.0082099997
0 0 0 0 0 0 0 0.0082200002
0 0 0 0 0 0 0 0.0082299998
0 0 0 0 0 0 0 0.0082400003
0 0 0 0 0 0 0 0.00825
0 0 0 0 0 0 0 0.0082599996
0 0 0 0 0 0 0 0.0082700001
0 0 0 0 0 0 0 0.0082799997
0 0 0 0 0 0 0 0.0082900003
0 0 0 0 0 0 0 0.0082999999
0 0 0 0 0 0 0 0.0083100004
0 0 0 0 0 0 0 0.00832
0 0 0 0 0 0 0 0.0083299996
0 0 0 0 0 0 0 0.0083400002
0 0 0 0 0 0 0 0.0083499998
0 0 0 0 0 0 0 0.0083600003
0 0 0 0 0 0 0 0.0083699999
0 0 0 0 0 0 0 0.0083799995
0 0 0 0 0 0 0 0.0083900001
0 0 0 0 0 0 0 0.0083999997
0 0 0 0 0 0 0 0.0084100002
0 0 0 0 0 0 0 0.0084199999
0 0 0 0 0 0 0 0.0084300004
0 0 0 0 0 0 0 0.00844
0 0 0 0 0 0 0 0.0084499996
0 0 0 0 0 0 0 0.0084600002
0 0 0 0 0 0 0 0.0084699998
0 0 0 0 0 0 0 0.0084800003
0 0 0 0 0 0 0 0.0084899999
0 0 0 0 0 0 0 0.0085000005
0 0 0 0 0 0 0 0.0085100001
0 0 0 0 0 0 0 0.0085199997
0 0 0 0 0 0 0 0.0085300002
0 0 0 0 0 0 0 0.0085399998
0 0 0 0 0 0 0 0.0085500004
0 0 0 0 0 0 0 0.00856
0 0 0 0 0 0 0 0.0085699996
0 0 0 0 0 0 0 0.0085800001
0 0 0 0 0 0 0 0.0085899998
0 0 0 0 0 0 0 0.0086000003
0 0 0 0 0 0 0 0.0086099999
0 0 0 0 0 0 0 0.0086200004
0 0 0 0 0 0 0 0.0086300001
0 0 0 0 0 0 0 0.0086399997
0 0 0 0 0 0 0 0.0086500002
0 0 0 0 0 0 0 0.0086599998
0 0 0 0 0 0 0 0.0086700004
0 0 0 0 0 0 0 0.00868
0 0 0 0 0 0 0 0.0086899996
0 0 0 0 0 0 0 0.0087000001
0 0 0 0 0 0 0 0.0087099997
0 0 0 0 0 0 0 0.0087200003
0 0 0 0 0 0 0 0.0087299999
0 0 0 0 0 0 0 0.0087400004
2.3870001 -0.36199999 0.264 0 0 0 0 0.00875
2.3789999 -0.35499999 0.25799999 0 0 0 0 0.0087599996
2.375 -0.34799999 0.25299999 0 0 0 0 0.0087700002
2.3670001 -0.34099999 0.24699999 0 0 0 0 0.0087799998
2.3789999 -0.33700001 0.244 14 0 0 0 0.0087900003
2.391 -0.33199999 0.23999999 20 0 0 0 0.0088
2.4330001 -0.33199999 0.23899999 15 0 0 0 0.0088099996
2.4760001 -0.331 0.23800001 17 0 0 0 0.0088200001
2.5220001 -0.331 0.23800001 20 0 0 0 0.0088299997
2.569 -0.331 0.237 21 0 0 0 0.0088400003
2.865 -0.361 0.25799999 150 0 0 0 0.0088499999
3.122 -0.38600001 0.27500001 150 0 0 0 0.0088600004
3.204 -0.38800001 0.27599999 150 0 0 0 0.00887
3.2079999 -0.38 0.27000001 150 0 0 0 0.0088799996
3.2079999 -0.37200001 0.264 150 0 0 0 0.0088900002
3.21 -0.36300001 0.257 150 0 0 0 0.0088999998
3.2049999 -0.35499999 0.25 150 0 0 0 0.0089100003
3.2079999 -0.34599999 0.244 150 0 0 0 0.0089199999
3.23 -0.34099999 0.23999999 150 0 0 0 0.0089299995
3.2309999 -0.33199999 0.233 150 0 0 0 0.0089400001
3.2360001 -0.324 0.227 150 0 0 0 0.0089499997
3.2309999 -0.315 0.221 150 0 0 0 0.0089600002
3.2320001 -0.30700001 0.214 150 0 0 0 0.0089699998
3.23 -0.29899999 0.208 150 0 0 0 0.0089800004
3.2279999 -0.28999999 0.20100001 150 0 0 0 0.00899
3.286 -0.28600001 0.199 28 0 0 0 0.0089999996
3.339 -0.28200001 0.19499999 150 0 0 0 0.0090100002
3.342 -0.27399999 0.189 151 0 0 0 0.0090199998
3.3399999 -0.26499999 0.183 150 0 0 0 0.0090300003
3.3380001 -0.25600001 0.176 150 0 0 0 0.0090399999
3.3429999 -0.248 0.17 150 0 0 0 0.0090500005
3.349 -0.23899999 0.164 150 0 0 0 0.0090600001
3.3710001 -0.23199999 0.15899999 151 0 0 0 0.0090699997
3.372 -0.223 0.152 151 0 0 0 0.0090800002
3.3710001 -0.214 0.146 150 0 0 0 0.0090899998
3.4059999 -0.207 0.141 150 0 0 0 0.0091000004
3.441 -0.2 0.13600001 152 0 0 0 0.00911
3.4360001 -0.191 0.12899999 150 0 0 0 0.0091199996
3.438 -0.182 0.123 150 0 0 0 0.0091300001
3.434 -0.17299999 0.116 150 0 0 0 0.0091399997
3.431 -0.163 0.11 150 0 0 0 0.0091500003
3.431 -0.154 0.103 150 0 0 0 0.0091599999
3.4300001 -0.145 0.097000003 150 0 0 0 0.0091700004
3.431 -0.13600001 0.090999998 150 0 0 0 0.0091800001
3.431 -0.127 0.083999999 150 0 0 0 0.0091899997
3.425 -0.117 0.078000002 150 0 0 0 0.0092000002
3.427 -0.108 0.071999997 150 0 0 0 0.0092099998
3.427 -0.098999999 0.064999998 150 0 0 0 0.0092200004
3.4260001 -0.090000004 0.059 150 0 0 0 0.00923
3.4260001 -0.079999998 0.052999999 150 0 0 0 0.0092399996
3.4230001 -0.071000002 0.046999998 150 0 0 0 0.0092500001
3.424 -0.061999999 0.039999999 150 0 0 0 0.0092599997
3.4289999 -0.052999999 0.034000002 151 0 0 0 0.0092700003
3.428 -0.044 0.028000001 150 0 0 0 0.0092799999
3.4230001 -0.034000002 0.022 150 0 0 0 0.0092900004
3.418 -0.025 0.016000001 151 0 0 0 0.0093
3.418 -0.016000001 0.0099999998 151 0 0 0 0.0093099996
3.418 -0.0070000002 0.0040000002 151 0 0 0 0.0093200002
3.418 0.0020000001 -0.001 151 0 0 0 0.0093299998
3.4200001 0.011 -0.0070000002 152 0 0 0 0.0093400003
3.4230001 0.02 -0.013 152 0 0 0 0.0093499999
3.4170001 0.028999999 -0.018999999 152 0 0 0 0.0093599996
3.404 0.039000001 -0.025 153 0 0 0 0.0093700001
3.3989999 0.048 -0.030999999 153 0 0 0 0.0093799997
3.401 0.057 -0.037 153 0 0 0 0.0093900003
3.3989999 0.066 -0.043000001 153 0 0 0 0.0093999999
3.382 0.075000003 -0.048999999 154 0 0 0 0.0094100004
3.382 0.083999999 -0.055 154 0 0 0 0.00942
3.3829999 0.093999997 -0.061000001 154 0 0 0 0.0094299996
3.381 0.103 -0.066 154 0 0 0 0.0094400002
3.3829999 0.112 -0.071999997 155 0 0 0 0.0094499998
3.3699999 0.121 -0.078000002 156 0 0 0 0.0094600003
3.3710001 0.131 -0.083999999 156 0 0 0 0.0094699999
3.3670001 0.14 -0.089000002 157 0 0 0 0.0094799995
3.365 0.149 -0.094999999 157 0 0 0 0.0094900001
3.3640001 0.15800001 -0.101 157 0 0 0 0.0094999997
3.362 0.167 -0.106 157 0 0 0 0.0095100002
3.3640001 0.177 -0.112 157 0 0 0 0.0095199998
3.3629999 0.186 -0.118 157 0 0 0 0.0095300004
3.3629999 0.19499999 -0.123 157 0 0 0 0.00954
3.365 0.205 -0.12899999 157 0 0 0 0.0095499996
3.365 0.214 -0.13500001 157 0 0 0 0.0095600002
3.362 0.223 -0.14 156 0 0 0 0.0095699998
3.362 0.233 -0.146 156 0 0 0 0.0095800003
3.368 0.243 -0.152 156 0 0 0 0.0095899999
3.3699999 0.252 -0.15700001 156 0 0 0 0.0096000005
3.3699999 0.26199999 -0.163 155 0 0 0 0.0096100001
3.3710001 0.271 -0.168 154 0 0 0 0.0096199997
3.381 0.28099999 -0.17399999 154 0 0 0 0.0096300002
3.3900001 0.292 -0.18000001 153 0 0 0 0.0096399998
3.3859999 0.301 -0.186 153 0 0 0 0.0096500004
3.388 0.31099999 -0.191 153 0 0 0 0.00966
3.395 0.32100001 -0.197 153 0 0 0 0.0096699996
3.3929999 0.33000001 -0.20299999 153 0 0 0 0.0096800001
3.4000001 0.34099999 -0.208 152 0 0 0 0.0096899997
3.398 0.34999999 -0.214 152 0 0 0 0.0097000003
3.3900001 0.359 -0.219 151 0 0 0 0.0097099999
3.3900001 0.36899999 -0.22400001 151 0 0 0 0.0097200004
3.392 0.37799999 -0.23 151 0 0 0 0.00973
3.3840001 0.38699999 -0.235 151 0 0 0 0.0097399997
3.392 0.398 -0.23999999 151 0 0 0 0.0097500002
3.3900001 0.40700001 -0.24600001 151 0 0 0 0.0097599998
3.385 0.41600001 -0.25099999 150 0 0 0 0.0097700004
3.3829999 0.426 -0.25600001 150 0 0 0 0.00978
3.3859999 0.43599999 -0.26100001 150 0 0 0 0.0097899996
3.385 0.44600001 -0.26699999 150 0 0 0 0.0098000001
3.3900001 0.456 -0.27200001 150 0 0 0 0.0098099997
3.3889999 0.46599999 -0.27700001 151 0 0 0 0.0098200003
3.368 0.47299999 -0.28099999 151 0 0 0 0.0098299999
3.319 0.47600001 -0.28200001 150 0 0 0 0.0098400004
3.316 0.48500001 -0.287 150 0 0 0 0.00985
3.3150001 0.495 -0.292 150 0 0 0 0.0098599996
3.2909999 0.50099999 -0.29499999 150 0 0 0 0.0098700002
3.2920001 0.50999999 -0.30000001 151 0 0 0 0.0098799998
3.2850001 0.51899999 -0.30399999 151 0 0 0 0.0098900003
3.2839999 0.528 -0.30899999 151 0 0 0 0.0098999999
3.28 0.537 -0.31400001 150 0 0 0 0.0099099996
3.257 0.54299998 -0.31600001 24 0 0 0 0.0099200001
3.2149999 0.546 -0.317 23 0 0 0 0.0099299997
3.1559999 0.54500002 -0.31600001 23 0 0 0 0.0099400003
3.073 0.54000002 -0.31200001 24 0 0 0 0.0099499999
2.994 0.53500003 -0.30899999 23 0 0 0 0.0099600004
2.8989999 0.52600002 -0.303 22 0 0 0 0.00997
2.8280001 0.52200001 -0.30000001 21 0 0 0 0.0099799996
2.743 0.514 -0.29499999 20 0 0 0 0.0099900002
2.6630001 0.50700003 -0.28999999 18 0 0 0 0.0099999998
2.605 0.50400001 -0.28799999 17 0 0 0 0.01001
2.553 0.50199997 -0.28600001 16 0 0 0 0.01002
2.5039999 0.49900001 -0.28400001 16 0 0 0 0.01003
2.448 0.49599999 -0.28099999 15 0 0 0 0.01004
2.3940001 0.49200001 -0.278 14 0 0 0 0.01005
2.3469999 0.48899999 -0.27599999 14 0 0 0 0.01006
2.273 0.48100001 -0.27000001 59 0 0 0 0.01007
2.26 0.48500001 -0.27200001 150 0 0 0 0.01008
2.257 0.491 -0.27500001 151 0 0 0 0.01009
2.2579999 0.498 -0.278 151 0 0 0 0.0101
2.2360001 0.5 -0.27900001 150 0 0 0 0.01011
2.23 0.505 -0.28099999 150 0 0 0 0.01012
2.2309999 0.51300001 -0.28400001 150 0 0 0 0.01013
2.2290001 0.51899999 -0.287 151 0 0 0 0.01014
2.224 0.52499998 -0.289 151 0 0 0 0.01015
2.23 0.53299999 -0.29300001 151 0 0 0 0.01016
2.2279999 0.53899997 -0.296 151 0 0 0 0.01017
2.2260001 0.546 -0.29899999 151 0 0 0 0.01018
2.2190001 0.551 -0.301 151 0 0 0 0.01019
2.2249999 0.55900002 -0.30399999 151 0 0 0 0.0102
2.2360001 0.56900001 -0.30899999 151 0 0 0 0.01021
2.2360001 0.57599998 -0.31200001 151 0 0 0 0.01022
2.2320001 0.58200002 -0.31400001 151 0 0 0 0.01023
2.2320001 0.58899999 -0.317 151 0 0 0 0.01024
2.234 0.59600002 -0.31999999 151 0 0 0 0.01025
2.2379999 0.60399997 -0.324 151 0 0 0 0.01026
2.3080001 0.63 -0.33700001 150 0 0 0 0.01027
2.487 0.68699998 -0.366 150 0 0 0 0.01028
2.487 0.69499999 -0.36899999 150 0 0 0 0.01029
2.4890001 0.70300001 -0.373 150 0 0 0 0.0103
2.49 0.71100003 -0.37599999 150 0 0 0 0.01031
2.4349999 0.70300001 -0.37099999 150 0 0 0 0.01032
2.335 0.68199998 -0.35800001 150 0 0 0 0.01033
2.526 0.74599999 -0.391 150 0 0 0 0.01034
1.479 0.44100001 -0.23 6 0 0 0 0.01035
1.462 0.44100001 -0.23 5 0 0 0 0.01036
1.4450001 0.44 -0.229 6 0 0 0 0.01037
1.432 0.44100001 -0.228 5 0 0 0 0.01038
1.413 0.44 -0.227 5 0 0 0 0.01039
1.395 0.43799999 -0.226 4 0 0 0 0.0104
1.374 0.43599999 -0.22400001 3 0 0 0 0.01041
1.3559999 0.435 -0.223 4 0 0 0 0.01042
1.3329999 0.43200001 -0.22 7 0 0 0 0.01043
1.3099999 0.428 -0.21799999 49 0 0 0 0.01044
1.2920001 0.42699999 -0.21600001 150 0 0 0 0.01045
1.285 0.42899999 -0.21699999 150 0 0 0 0.01046
1.291 0.435 -0.219 150 0 0 0 0.01047
1.291 0.43900001 -0.221 150 0 0 0 0.01048
1.288 0.442 -0.221 150 0 0 0 0.01049
1.288 0.44600001 -0.223 150 0 0 0 0.0105
1.2869999 0.44999999 -0.22400001 150 0 0 0 0.01051
1.286 0.454 -0.22499999 150 0 0 0 0.01052
1.285 0.458 -0.226 150 0 0 0 0.01053
1.285 0.46200001 -0.228 150 0 0 0 0.01054
1.283 0.46599999 -0.229 150 0 0 0 0.01055
1.29 0.472 -0.23100001 87 0 0 0 0.01056
1.288 0.47499999 -0.23199999 16 0 0 0 0.01057
1.257 0.46799999 -0.228 0 0 0 0 0.01058
1.2359999 0.46399999 -0.22499999 5 0 0 0 0.01059
1.21 0.45899999 -0.222 4 0 0 0 0.0106
1.206 0.461 -0.222 4 0 0 0 0.01061
1.193 0.46000001 -0.221 4 0 0 0 0.01062
1.176 0.45699999 -0.219 0 0 0 0 0.01063
1.171 0.45899999 -0.219 0 0 0 0 0.01064
1.1619999 0.45899999 -0.21799999 0 0 0 0 0.01065
1.146 0.45699999 -0.21600001 3 0 0 0 0.01066
1.138 0.458 -0.21600001 3 0 0 0 0.01067
1.132 0.45899999 -0.21600001 0 0 0 0 0.01068
1.119 0.45699999 -0.214 0 0 0 0 0.01069
1.107 0.456 -0.213 0 0 0 0 0.0107
1.1 0.45699999 -0.212 0 0 0 0 0.01071
1.091 0.45699999 -0.211 0 0 0 0 0.01072
1.0779999 0.45500001 -0.20999999 0 0 0 0 0.01073
1.0700001 0.45500001 -0.20900001 0 0 0 0 0.01074
1.063 0.45500001 -0.208 0 0 0 0 0.01075
1.0549999 0.456 -0.208 0 0 0 0 0.01076
1.028 0.447 -0.20299999 0 0 0 0 0.01077
1.0190001 0.44600001 -0.20200001 0 0 0 0 0.01078
1.016 0.449 -0.20200001 3 0 0 0 0.01079
1.0039999 0.447 -0.20100001 0 0 0 0 0.0108
0.99800003 0.447 -0.2 0 0 0 0 0.01081
0.99000001 0.447 -0.199 0 0 0 0 0.01082
0.98500001 0.44800001 -0.199 0 0 0 0 0.01083
0.97299999 0.44600001 -0.197 0 0 0 0 0.01084
0.96899998 0.447 -0.197 0 0 0 0 0.01085
0.96200001 0.447 -0.19599999 0 0 0 0 0.01086
0.949 0.44400001 -0.19400001 0 0 0 0 0.01087
0.94599998 0.44499999 -0.19400001 0 0 0 0 0.01088
0.94400001 0.44800001 -0.19400001 0 0 0 0 0.01089
0.93699998 0.44800001 -0.193 0 0 0 0 0.0109
0.92400002 0.44400001 -0.191 0 0 0 0 0.01091
0.917 0.44400001 -0.19 0 0 0 0 0.01092
0.92299998 0.44999999 -0.191 6 0 0 0 0.01093
0.91500002 0.449 -0.19 9 0 0 0 0.01094
0.91399997 0.45100001 -0.19 13 0 0 0 0.01095
0.91500002 0.45500001 -0.191 12 0 0 0 0.01096
0.91600001 0.458 -0.191 9 0 0 0 0.01097
0.91299999 0.46000001 -0.191 7 0 0 0 0.01098
0.91600001 0.46399999 -0.192 6 0 0 0 0.01099
0.91500002 0.46700001 -0.192 6 0 0 0 0.011
0.91900003 0.472 -0.193 6 0 0 0 0.01101
0.92199999 0.47600001 -0.19400001 4 0 0 0 0.01102
0.91500002 0.47499999 -0.193 3 0 0 0 0.01103
0.926 0.484 -0.19599999 0 0 0 0 0.01104
0.93599999 0.49200001 -0.198 0 0 0 0 0.01105
0 0 0 0 0 0 0 0.01106
0 0 0 0 0 0 0 0.01107
0 0 0 0 0 0 0 0.01108
0 0 0 0 0 0 0 0.01109
1.013 0.54799998 -0.215 0 0 0 0 0.0111
0 0 0 0 0 0 0 0.01111
1.02 0.55800003 -0.21699999 0 0 0 0 0.01112
1.038 0.57099998 -0.221 1 0 0 0 0.01113
1.044 0.57700002 -0.222 4 0 0 0 0.01114
1.0420001 0.579 -0.222 6 0 0 0 0.01115
1.035 0.579 -0.22 7 0 0 0 0.01116
1.034 0.58099997 -0.22 7 0 0 0 0.01117
1.0319999 0.583 -0.22 7 0 0 0 0.01118
1.022 0.57999998 -0.21799999 6 0 0 0 0.01119
1.0190001 0.58200002 -0.21699999 6 0 0 0 0.0112
1.013 0.58099997 -0.215 6 0 0 0 0.01121
1.006 0.57999998 -0.214 6 0 0 0 0.01122
1 0.579 -0.212 6 0 0 0 0.01123
0.99599999 0.57999998 -0.212 6 0 0 0 0.01124
0.99000001 0.579 -0.20999999 6 0 0 0 0.01125
0.98699999 0.57999998 -0.20900001 6 0 0 0 0.01126
0.98199999 0.57999998 -0.208 6 0 0 0 0.01127
0.97799999 0.57999998 -0.207 6 0 0 0 0.01128
0.97100002 0.57800001 -0.205 5 0 0 0 0.01129
0.963 0.57599998 -0.20299999 5 0 0 0 0.0113
0.95999998 0.57700002 -0.20200001 5 0 0 0 0.01131
0.95599997 0.57800001 -0.20100001 5 0 0 0 0.01132
0.95099998 0.57700002 -0.2 5 0 0 0 0.01133
0.95300001 0.57999998 -0.2 5 0 0 0 0.01134
0.94499999 0.57800001 -0.198 5 0 0 0 0.01135
0.93900001 0.57700002 -0.19599999 5 0 0 0 0.01136
0.935 0.57599998 -0.19499999 5 0 0 0 0.01137
0.93199998 0.57700002 -0.19400001 5 0 0 0 0.01138
0.93000001 0.57800001 -0.193 5 0 0 0 0.01139
0.92299998 0.57599998 -0.191 5 0 0 0 0.0114
0.92199999 0.57700002 -0.19 5 0 0 0 0.01141
0.917 0.57599998 -0.189 5 0 0 0 0.01142
0.90799999 0.57200003 -0.186 5 0 0 0 0.01143
0.90499997 0.57200003 -0.185 6 0 0 0 0.01144
0.90600002 0.57499999 -0.185 7 0 0 0 0.01145
0.91000003 0.579 -0.185 7 0 0 0 0.01146
0.90499997 0.57800001 -0.183 8 0 0 0 0.01147
0.90600002 0.58099997 -0.183 7 0 0 0 0.01148
0.90700001 0.58399999 -0.182 7 0 0 0 0.01149
0.91000003 0.58700001 -0.182 8 0 0 0 0.0115
0.93099999 0.602 -0.186 9 0 0 0 0.01151
0.94800001 0.61500001 -0.18799999 10 0 0 0 0.01152
0.963 0.62699997 -0.191 11 0 0 0 0.01153
0.96200001 0.62800002 -0.19 11 0 0 0 0.01154
0.95499998 0.62599999 -0.18700001 11 0 0 0 0.01155
0.949 0.62300003 -0.185 12 0 0 0 0.01156
0.94300002 0.62 -0.183 11 0 0 0 0.01157
0.92900002 0.61299998 -0.18000001 10 0 0 0 0.01158
0.91900003 0.60799998 -0.177 8 0 0 0 0.01159
0.91299999 0.60500002 -0.175 8 0 0 0 0.0116
0.903 0.60000002 -0.17200001 7 0 0 0 0.01161
0.90600002 0.60299999 -0.17200001 7 0 0 0 0.01162
0.90200001 0.602 -0.17 7 0 0 0 0.01163
0.89999998 0.602 -0.169 7 0 0 0 0.01164
0.90700001 0.60699999 -0.169 7 0 0 0 0.01165
0.90499997 0.60699999 -0.168 7 0 0 0 0.01166
0.90600002 0.60900003 -0.167 7 0 0 0 0.01167
0.89999998 0.60600001 -0.16500001 7 0 0 0 0.01168
0.90499997 0.611 -0.16500001 7 0 0 0 0.01169
0.89899999 0.60799998 -0.162 7 0 0 0 0.0117
0.89999998 0.61000001 -0.162 8 0 0 0 0.01171
0.89999998 0.61000001 -0.161 9 0 0 0 0.01172
