# .PCD v0.7 - Point Cloud Data file format
VERSION 0.7
FIELDS x y z intensity normal_x normal_y normal_z curvature
SIZE 4 4 4 4 4 4 4 4
TYPE F F F F F F F F
COUNT 1 1 1 1 1 1 1 1
WIDTH 1034
HEIGHT 1
VIEWPOINT 0 0 0 1 0 0 0
POINTS 1034
DATA ascii
3.2079999 -0.32600001 0.085000001 150 0 0 0 0.036419999
3.2079999 -0.336 0.088 151 0 0 0 0.036430001
3.2130001 -0.347 0.090000004 151 0 0 0 0.03644
3.211 -0.35699999 0.092 151 0 0 0 0.036449999
3.2130001 -0.36700001 0.094999999 151 0 0 0 0.036460001
3.0669999 -0.36000001 0.092 151 0 0 0 0.03647
2.8099999 -0.33899999 0.086999997 126 0 0 0 0.036479998
2.5569999 -0.317 0.081 30 0 0 0 0.036490001
2.5039999 -0.31799999 0.081 29 0 0 0 0.036499999
2.444 -0.31799999 0.079999998 23 0 0 0 0.036509998
2.4000001 -0.31999999 0.081 18 0 0 0 0.036520001
2.369 -0.324 0.081 23 0 0 0 0.036529999
2.362 -0.33000001 0.082000002 24 0 0 0 0.036540002
2.3629999 -0.338 0.083999999 20 0 0 0 0.03655
2.362 -0.345 0.086000003 20 0 0 0 0.036559999
2.3629999 -0.35299999 0.086999997 17 0 0 0 0.036570001
2.3640001 -0.361 0.089000002 21 0 0 0 0.03658
2.365 -0.36899999 0.090000004 24 0 0 0 0.036589999
2.3670001 -0.377 0.092 26 0 0 0 0.036600001
2.3659999 -0.384 0.093000002 26 0 0 0 0.03661
2.3629999 -0.391 0.094999999 27 0 0 0 0.036619999
2.365 -0.39899999 0.096000001 25 0 0 0 0.036630001
2.3670001 -0.40700001 0.097999997 24 0 0 0 0.03664
2.3670001 -0.41499999 0.098999999 25 0 0 0 0.036649998
2.3659999 -0.42199999 0.101 25 0 0 0 0.036660001
2.3729999 -0.43099999 0.102 19 0 0 0 0.036669999
2.3789999 -0.44 0.104 19 0 0 0 0.036680002
2.3710001 -0.44600001 0.105 18 0 0 0 0.03669
2.3729999 -0.45500001 0.106 18 0 0 0 0.036699999
2.3770001 -0.463 0.108 18 0 0 0 0.036710002
2.375 -0.47 0.109 19 0 0 0 0.03672
2.372 -0.47799999 0.11 20 0 0 0 0.036729999
2.378 -0.486 0.112 21 0 0 0 0.036740001
2.378 -0.49399999 0.113 21 0 0 0 0.03675
2.3759999 -0.50199997 0.114 22 0 0 0 0.036759999
2.381 -0.51099998 0.116 19 0 0 0 0.036770001
2.3789999 -0.51800001 0.117 17 0 0 0 0.03678
2.385 -0.52700001 0.118 14 0 0 0 0.036789998
2.381 -0.53399998 0.119 12 0 0 0 0.036800001
2.3800001 -0.542 0.121 9 0 0 0 0.036809999
2.3870001 -0.551 0.122 8 0 0 0 0.036819998
2.3900001 -0.56 0.123 7 0 0 0 0.036830001
2.3900001 -0.56800002 0.124 4 0 0 0 0.036839999
2.3900001 -0.57599998 0.126 3 0 0 0 0.036850002
2.4000001 -0.58600003 0.127 1 0 0 0 0.03686
2.4089999 -0.59600002 0.12899999 0 0 0 0 0.036869999
2.4400001 -0.61199999 0.132 0 0 0 0 0.036880001
0 0 0 0 0 0 0 0.03689
0 0 0 0 0 0 0 0.036899999
0 0 0 0 0 0 0 0.036910001
0 0 0 0 0 0 0 0.03692
0 0 0 0 0 0 0 0.036929999
0 0 0 0 0 0 0 0.036940001
0 0 0 0 0 0 0 0.03695
0 0 0 0 0 0 0 0.036959998
0 0 0 0 0 0 0 0.036970001
0 0 0 0 0 0 0 0.036979999
0 0 0 0 0 0 0 0.036990002
0 0 0 0 0 0 0 0.037
0 0 0 0 0 0 0 0.037009999
0 0 0 0 0 0 0 0.037020002
0 0 0 0 0 0 0 0.03703
0 0 0 0 0 0 0 0.037039999
0 0 0 0 0 0 0 0.037050001
0 0 0 0 0 0 0 0.03706
0 0 0 0 0 0 0 0.037069999
0 0 0 0 0 0 0 0.037080001
0 0 0 0 0 0 0 0.03709
0 0 0 0 0 0 0 0.037099998
0 0 0 0 0 0 0 0.037110001
0 0 0 0 0 0 0 0.03712
0 0 0 0 0 0 0 0.037129998
0 0 0 0 0 0 0 0.037140001
0 0 0 0 0 0 0 0.037149999
0 0 0 0 0 0 0 0.037160002
0 0 0 0 0 0 0 0.03717
0 0 0 0 0 0 0 0.037179999
0 0 0 0 0 0 0 0.037190001
4.026 -1.4450001 0.25600001 14 0 0 0 0.0372
4.0500002 -1.467 0.25799999 16 0 0 0 0.037209999
4.0180001 -1.469 0.257 13 0 0 0 0.037220001
3.967 -1.464 0.25400001 8 0 0 0 0.03723
3.937 -1.466 0.25299999 8 0 0 0 0.037239999
3.9189999 -1.473 0.252 8 0 0 0 0.037250001
3.892 -1.476 0.25099999 7 0 0 0 0.03726
3.875 -1.483 0.25 5 0 0 0 0.037269998
3.8440001 -1.484 0.248 7 0 0 0 0.037280001
3.8380001 -1.495 0.248 7 0 0 0 0.037289999
3.7869999 -1.488 0.245 15 0 0 0 0.037300002
3.8039999 -1.508 0.24600001 8 0 0 0 0.037310001
3.812 -1.524 0.24699999 12 0 0 0 0.037319999
3.7839999 -1.525 0.245 8 0 0 0 0.037330002
3.75 -1.525 0.243 9 0 0 0 0.03734
3.4349999 -1.408 0.222 5 0 0 0 0.037349999
4.546 -1.8789999 0.294 74 0 0 0 0.037360001
4.5770001 -1.908 0.296 99 0 0 0 0.03737
4.6269999 -1.944 0.29899999 105 0 0 0 0.037379999
4.651 -1.97 0.30000001 23 0 0 0 0.037390001
4.6500001 -1.9859999 0.30000001 22 0 0 0 0.0374
4.645 -2 0.29899999 34 0 0 0 0.037409998
4.6399999 -2.013 0.29899999 88 0 0 0 0.037420001
4.6129999 -2.017 0.296 127 0 0 0 0.03743
4.6199999 -2.036 0.296 117 0 0 0 0.037439998
4.6209998 -2.052 0.296 122 0 0 0 0.037450001
4.598 -2.0569999 0.294 131 0 0 0 0.037459999
0 0 0 0 0 0 0 0.037470002
4.586 -2.0829999 0.29100001 115 0 0 0 0.03748
4.6609998 -2.1329999 0.29499999 35 0 0 0 0.037489999
0 0 0 0 0 0 0 0.037500001
0 0 0 0 0 0 0 0.03751
0 0 0 0 0 0 0 0.037519999
0 0 0 0 0 0 0 0.037530001
0 0 0 0 0 0 0 0.03754
0 0 0 0 0 0 0 0.037549999
0 0 0 0 0 0 0 0.037560001
0 0 0 0 0 0 0 0.03757
4.6830001 -2.2850001 0.28600001 32 0 0 0 0.037579998
0 0 0 0 0 0 0 0.037590001
0 0 0 0 0 0 0 0.037599999
0 0 0 0 0 0 0 0.037610002
4.6890001 -2.3499999 0.27900001 22 0 0 0 0.037620001
0 0 0 0 0 0 0 0.037629999
4.6929998 -2.3829999 0.27599999 17 0 0 0 0.037640002
4.698 -2.401 0.27399999 15 0 0 0 0.03765
0 0 0 0 0 0 0 0.037659999
0 0 0 0 0 0 0 0.037670001
1.3049999 -0.68000001 0.074000001 0 0 0 0 0.03768
4.6700001 -2.448 0.264 2 0 0 0 0.037689999
1.3200001 -0.69599998 0.074000001 0 0 0 0 0.037700001
1.299 -0.68900001 0.071999997 0 0 0 0 0.03771
1.318 -0.70300001 0.071999997 0 0 0 0 0.037719999
1.28 -0.68699998 0.068999998 1 0 0 0 0.037730001
1.307 -0.70599997 0.07 1 0 0 0 0.03774
1.299 -0.70599997 0.068999998 1 0 0 0 0.037749998
1.29 -0.70499998 0.068000004 1 0 0 0 0.037760001
1.262 -0.69300002 0.066 1 0 0 0 0.037769999
1.256 -0.69400001 0.064999998 1 0 0 0 0.037780002
1.26 -0.69999999 0.064000003 2 0 0 0 0.03779
1.256 -0.70200002 0.063000001 3 0 0 0 0.037799999
1.255 -0.70499998 0.061999999 3 0 0 0 0.037810002
1.255 -0.70899999 0.061000001 3 0 0 0 0.03782
1.256 -0.71399999 0.059999999 4 0 0 0 0.037829999
1.252 -0.71499997 0.059 4 0 0 0 0.037840001
1.252 -0.71899998 0.057999998 5 0 0 0 0.03785
1.2539999 -0.72399998 0.057999998 5 0 0 0 0.037859999
1.2539999 -0.727 0.057 5 0 0 0 0.037870001
1.253 -0.73000002 0.056000002 6 0 0 0 0.03788
1.253 -0.73400003 0.055 6 0 0 0 0.037889998
1.252 -0.73699999 0.054000001 6 0 0 0 0.037900001
1.257 -0.74400002 0.052999999 6 0 0 0 0.037909999
1.253 -0.745 0.050999999 5 0 0 0 0.037919998
1.251 -0.74800003 0.050000001 5 0 0 0 0.037930001
1.251 -0.75099999 0.048999999 5 0 0 0 0.037939999
1.251 -0.75400001 0.048 5 0 0 0 0.037950002
1.249 -0.75700003 0.046999998 5 0 0 0 0.03796
1.253 -0.76300001 0.046 5 0 0 0 0.037969999
1.245 -0.76099998 0.045000002 4 0 0 0 0.037980001
1.252 -0.76899999 0.044 4 0 0 0 0.03799
1.251 -0.77100003 0.041999999 4 0 0 0 0.037999999
1.243 -0.76999998 0.041000001 4 0 0 0 0.038010001
1.25 -0.77700001 0.039999999 4 0 0 0 0.03802
1.247 -0.77899998 0.039000001 5 0 0 0 0.038029999
1.248 -0.78299999 0.037 5 0 0 0 0.038040001
1.2460001 -0.78500003 0.035999998 5 0 0 0 0.03805
1.2460001 -0.78799999 0.035 5 0 0 0 0.038059998
1.244 -0.78899997 0.033 6 0 0 0 0.038070001
1.245 -0.79299998 0.032000002 5 0 0 0 0.038079999
1.244 -0.796 0.030999999 5 0 0 0 0.038090002
1.2410001 -0.79699999 0.028999999 5 0 0 0 0.0381
1.238 -0.79799998 0.028000001 5 0 0 0 0.038109999
1.24 -0.80199999 0.026000001 5 0 0 0 0.038120002
1.238 -0.80299997 0.025 4 0 0 0 0.03813
1.238 -0.80599999 0.024 5 0 0 0 0.038139999
1.239 -0.80900002 0.022 5 0 0 0 0.038150001
1.237 -0.81099999 0.021 5 0 0 0 0.03816
1.237 -0.81300002 0.018999999 5 0 0 0 0.038169999
1.238 -0.81599998 0.017999999 5 0 0 0 0.038180001
1.237 -0.81800002 0.016000001 5 0 0 0 0.03819
1.239 -0.82200003 0.015 4 0 0 0 0.038199998
1.235 -0.82200003 0.013 5 0 0 0 0.038210001
1.234 -0.82300001 0.012 5 0 0 0 0.03822
1.233 -0.82499999 0.0099999998 5 0 0 0 0.038229998
1.232 -0.82599998 0.0080000004 5 0 0 0 0.038240001
1.232 -0.829 0.0070000002 5 0 0 0 0.038249999
1.2309999 -0.82999998 0.0049999999 5 0 0 0 0.038260002
1.23 -0.83099997 0.0040000002 5 0 0 0 0.03827
1.229 -0.833 0.0020000001 5 0 0 0 0.038279999
1.228 -0.83399999 0 4 0 0 0 0.038290001
1.229 -0.83700001 0 5 0 0 0 0.0383
1.226 -0.83700001 -0.0020000001 5 0 0 0 0.038309999
1.224 -0.83700001 -0.0040000002 5 0 0 0 0.038320001
1.229 -0.84200001 -0.0049999999 4 0 0 0 0.03833
1.225 -0.84100002 -0.0070000002 5 0 0 0 0.038339999
1.22 -0.83999997 -0.0089999996 5 0 0 0 0.038350001
1.224 -0.84299999 -0.0099999998 5 0 0 0 0.03836
1.223 -0.84399998 -0.012 5 0 0 0 0.038369998
1.222 -0.84500003 -0.014 5 0 0 0 0.038380001
1.222 -0.84600002 -0.015 5 0 0 0 0.038389999
2.378 -0.583 -0.20200001 25 0 0 0 0.040320002
2.3789999 -0.57499999 -0.20100001 26 0 0 0 0.04033
2.382 -0.56900001 -0.199 23 0 0 0 0.040339999
2.385 -0.56199998 -0.197 22 0 0 0 0.040350001
2.3870001 -0.55400002 -0.19499999 19 0 0 0 0.04036
2.385 -0.546 -0.193 16 0 0 0 0.040369999
2.3889999 -0.53899997 -0.191 14 0 0 0 0.040380001
2.3870001 -0.53100002 -0.189 15 0 0 0 0.04039
2.3829999 -0.523 -0.186 15 0 0 0 0.040399998
2.3789999 -0.514 -0.184 17 0 0 0 0.040410001
2.372 -0.505 -0.18099999 19 0 0 0 0.04042
2.3789999 -0.49900001 -0.18000001 21 0 0 0 0.040429998
2.3770001 -0.491 -0.177 18 0 0 0 0.040440001
2.372 -0.48199999 -0.175 19 0 0 0 0.040449999
2.3729999 -0.47499999 -0.17299999 16 0 0 0 0.040460002
2.3710001 -0.46700001 -0.17 15 0 0 0 0.04047
2.3699999 -0.45899999 -0.168 17 0 0 0 0.040479999
2.372 -0.45199999 -0.16599999 20 0 0 0 0.040490001
2.3729999 -0.44499999 -0.164 22 0 0 0 0.0405
2.3670001 -0.43599999 -0.161 20 0 0 0 0.040509999
2.369 -0.42899999 -0.15899999 21 0 0 0 0.040520001
2.3670001 -0.421 -0.156 21 0 0 0 0.04053
2.369 -0.414 -0.154 20 0 0 0 0.040539999
2.365 -0.40599999 -0.152 20 0 0 0 0.040550001
2.3640001 -0.398 -0.149 23 0 0 0 0.04056
2.3670001 -0.391 -0.147 24 0 0 0 0.040569998
2.362 -0.38299999 -0.14399999 20 0 0 0 0.040580001
2.3629999 -0.37599999 -0.142 17 0 0 0 0.040589999
2.365 -0.36899999 -0.14 18 0 0 0 0.040600002
2.3659999 -0.36199999 -0.13699999 15 0 0 0 0.04061
2.3670001 -0.354 -0.13500001 15 0 0 0 0.040619999
2.368 -0.347 -0.133 17 0 0 0 0.040630002
2.365 -0.33899999 -0.13 16 0 0 0 0.04064
2.3599999 -0.331 -0.127 19 0 0 0 0.040649999
2.3829999 -0.32699999 -0.126 17 0 0 0 0.040660001
2.427 -0.32499999 -0.126 18 0 0 0 0.04067
2.4779999 -0.32499999 -0.126 23 0 0 0 0.040679999
2.5280001 -0.32300001 -0.126 23 0 0 0 0.040690001
2.562 -0.31999999 -0.125 21 0 0 0 0.0407
2.8629999 -0.34900001 -0.13600001 150 0 0 0 0.040709998
3.1760001 -0.377 -0.148 150 0 0 0 0.040720001
3.2049999 -0.37 -0.146 150 0 0 0 0.04073
3.21 -0.361 -0.142 150 0 0 0 0.040739998
3.207 -0.35100001 -0.139 150 0 0 0 0.040750001
3.2060001 -0.34099999 -0.13500001 150 0 0 0 0.040759999
3.211 -0.33199999 -0.132 150 0 0 0 0.040770002
3.234 -0.324 -0.12899999 151 0 0 0 0.04078
3.2379999 -0.315 -0.126 151 0 0 0 0.040789999
3.2320001 -0.30399999 -0.122 151 0 0 0 0.040800001
3.237 -0.29499999 -0.118 151 0 0 0 0.04081
3.2390001 -0.285 -0.115 151 0 0 0 0.040819999
3.233 -0.27500001 -0.111 151 0 0 0 0.040830001
3.2579999 -0.26699999 -0.108 150 0 0 0 0.04084
3.3380001 -0.26300001 -0.107 151 0 0 0 0.040849999
3.342 -0.25299999 -0.103 152 0 0 0 0.040860001
3.3440001 -0.243 -0.098999999 152 0 0 0 0.04087
3.3429999 -0.233 -0.094999999 152 0 0 0 0.040879998
3.346 -0.223 -0.090999998 151 0 0 0 0.040890001
3.375 -0.215 -0.088 151 0 0 0 0.040899999
3.372 -0.204 -0.083999999 151 0 0 0 0.040910002
3.369 -0.19400001 -0.079999998 151 0 0 0 0.040920001
3.404 -0.186 -0.077 151 0 0 0 0.040929999
3.415 -0.176 -0.072999999 154 0 0 0 0.040940002
3.4360001 -0.167 -0.068999998 150 0 0 0 0.04095
3.4360001 -0.15700001 -0.064999998 150 0 0 0 0.040959999
3.4349999 -0.146 -0.061000001 150 0 0 0 0.040970001
3.434 -0.13600001 -0.057 150 0 0 0 0.04098
3.4330001 -0.125 -0.052999999 150 0 0 0 0.040989999
3.4300001 -0.115 -0.048 150 0 0 0 0.041000001
3.431 -0.105 -0.044 150 0 0 0 0.04101
3.4300001 -0.093999997 -0.039999999 150 0 0 0 0.041019998
3.431 -0.083999999 -0.035999998 150 0 0 0 0.041030001
3.4319999 -0.074000001 -0.032000002 150 0 0 0 0.04104
3.4330001 -0.064000003 -0.027000001 150 0 0 0 0.041049998
3.424 -0.052999999 -0.023 150 0 0 0 0.041060001
3.4289999 -0.043000001 -0.018999999 150 0 0 0 0.041069999
3.424 -0.033 -0.014 150 0 0 0 0.041080002
3.424 -0.023 -0.0099999998 151 0 0 0 0.04109
3.424 -0.012 -0.0060000001 151 0 0 0 0.041099999
3.424 -0.0020000001 -0.001 151 0 0 0 0.041110002
3.4200001 0.0070000002 0.0020000001 151 0 0 0 0.04112
3.418 0.017000001 0.0070000002 151 0 0 0 0.041129999
3.421 0.027000001 0.011 152 0 0 0 0.041140001
3.4230001 0.037 0.015 152 0 0 0 0.04115
3.421 0.048 0.02 152 0 0 0 0.041159999
3.4170001 0.057 0.024 152 0 0 0 0.041170001
3.4070001 0.067000002 0.028999999 153 0 0 0 0.04118
3.4059999 0.078000002 0.033 153 0 0 0 0.041189998
3.4059999 0.088 0.037999999 153 0 0 0 0.041200001
3.4059999 0.097999997 0.041999999 153 0 0 0 0.041209999
3.3970001 0.107 0.046999998 154 0 0 0 0.041219998
3.3970001 0.117 0.050999999 154 0 0 0 0.041230001
3.3970001 0.127 0.056000002 154 0 0 0 0.041239999
3.388 0.13699999 0.059999999 154 0 0 0 0.041250002
3.3859999 0.147 0.064999998 154 0 0 0 0.04126
3.382 0.15700001 0.068999998 154 0 0 0 0.041269999
3.382 0.167 0.074000001 155 0 0 0 0.041280001
3.381 0.177 0.079000004 154 0 0 0 0.04129
3.3800001 0.18700001 0.082999997 155 0 0 0 0.041299999
3.3800001 0.197 0.088 154 0 0 0 0.041310001
3.3770001 0.206 0.093000002 155 0 0 0 0.04132
3.3759999 0.21600001 0.097000003 155 0 0 0 0.041329999
3.3789999 0.226 0.102 154 0 0 0 0.041340001
3.3789999 0.236 0.107 154 0 0 0 0.04135
3.392 0.24699999 0.112 154 0 0 0 0.041359998
3.388 0.257 0.117 154 0 0 0 0.041370001
3.3870001 0.266 0.121 154 0 0 0 0.041379999
3.391 0.27700001 0.126 154 0 0 0 0.041390002
3.3929999 0.287 0.131 153 0 0 0 0.0414
3.392 0.296 0.13600001 153 0 0 0 0.041409999
3.402 0.30700001 0.142 152 0 0 0 0.041420002
3.4030001 0.317 0.147 152 0 0 0 0.04143
3.3970001 0.32699999 0.15099999 152 0 0 0 0.041439999
3.4030001 0.33700001 0.156 152 0 0 0 0.041450001
3.4000001 0.347 0.161 152 0 0 0 0.04146
3.3959999 0.35600001 0.16599999 151 0 0 0 0.041469999
3.3940001 0.366 0.171 151 0 0 0 0.041480001
3.3929999 0.37599999 0.176 151 0 0 0 0.04149
3.395 0.38600001 0.18099999 151 0 0 0 0.041499998
3.3970001 0.396 0.186 151 0 0 0 0.041510001
3.398 0.40599999 0.192 151 0 0 0 0.04152
3.392 0.41499999 0.19599999 151 0 0 0 0.041529998
3.392 0.42500001 0.20200001 151 0 0 0 0.041540001
3.395 0.435 0.207 151 0 0 0 0.041549999
3.3970001 0.44499999 0.212 150 0 0 0 0.041560002
3.388 0.454 0.21699999 150 0 0 0 0.04157
3.3929999 0.46399999 0.222 36 0 0 0 0.041579999
3.3940001 0.47400001 0.228 43 0 0 0 0.041590001
3.382 0.48199999 0.23199999 11 0 0 0 0.0416
3.3859999 0.493 0.23800001 37 0 0 0 0.041609999
3.3929999 0.50300002 0.244 151 0 0 0 0.041620001
3.3859999 0.51200002 0.248 151 0 0 0 0.04163
3.326 0.51300001 0.249 150 0 0 0 0.041639999
3.3180001 0.52100003 0.25400001 151 0 0 0 0.041650001
3.323 0.53100002 0.25999999 151 0 0 0 0.04166
3.299 0.537 0.26300001 150 0 0 0 0.041669998
3.289 0.54500002 0.26699999 151 0 0 0 0.041680001
3.2939999 0.55500001 0.273 151 0 0 0 0.041689999
3.29 0.56400001 0.278 151 0 0 0 0.041700002
3.2880001 0.57300001 0.28400001 151 0 0 0 0.04171
3.283 0.58200002 0.28799999 150 0 0 0 0.041719999
3.2550001 0.58600003 0.29100001 27 0 0 0 0.041730002
3.22 0.58899999 0.294 27 0 0 0 0.04174
3.161 0.58700001 0.294 27 0 0 0 0.041749999
3.089 0.583 0.292 27 0 0 0 0.041760001
3.007 0.57599998 0.289 27 0 0 0 0.04177
2.9319999 0.56999999 0.287 25 0 0 0 0.041779999
2.8429999 0.56099999 0.28299999 24 0 0 0 0.041790001
2.773 0.55500001 0.28099999 24 0 0 0 0.0418
2.73 0.55400002 0.28099999 25 0 0 0 0.041809998
2.668 0.54900002 0.27900001 25 0 0 0 0.041820001
2.598 0.542 0.27599999 23 0 0 0 0.04183
2.5280001 0.53500003 0.273 19 0 0 0 0.041839998
2.477 0.53100002 0.27200001 18 0 0 0 0.041850001
2.4289999 0.528 0.271 17 0 0 0 0.041859999
2.3770001 0.523 0.26899999 16 0 0 0 0.041870002
2.3369999 0.52100003 0.26899999 17 0 0 0 0.04188
2.267 0.51200002 0.26499999 150 0 0 0 0.041889999
2.2609999 0.51700002 0.26800001 151 0 0 0 0.041900001
2.2590001 0.523 0.27200001 151 0 0 0 0.04191
2.2579999 0.52899998 0.27599999 151 0 0 0 0.041919999
2.2490001 0.53299999 0.27900001 150 0 0 0 0.041930001
2.23 0.53500003 0.28099999 150 0 0 0 0.04194
2.2320001 0.542 0.285 151 0 0 0 0.041949999
2.2349999 0.54900002 0.289 151 0 0 0 0.041960001
2.2309999 0.55400002 0.29300001 151 0 0 0 0.04197
2.23 0.56 0.29699999 151 0 0 0 0.041979998
2.2290001 0.56599998 0.301 151 0 0 0 0.041990001
2.227 0.57200003 0.30500001 151 0 0 0 0.041999999
2.23 0.579 0.30899999 151 0 0 0 0.042010002
2.227 0.58499998 0.31299999 151 0 0 0 0.042020001
2.2249999 0.58999997 0.317 151 0 0 0 0.042029999
2.2290001 0.59799999 0.322 151 0 0 0 0.042040002
2.2420001 0.60799998 0.32800001 151 0 0 0 0.04205
2.2379999 0.61299998 0.33199999 151 0 0 0 0.042059999
2.2320001 0.61699998 0.33500001 151 0 0 0 0.042070001
2.2320001 0.62300003 0.33899999 151 0 0 0 0.04208
2.2349999 0.63 0.34400001 151 0 0 0 0.042089999
2.237 0.63700002 0.34900001 151 0 0 0 0.042100001
2.293 0.66000003 0.36199999 150 0 0 0 0.04211
2.424 0.704 0.38699999 150 0 0 0 0.042119998
2.4920001 0.73100001 0.403 150 0 0 0 0.042130001
2.5079999 0.74199998 0.41100001 150 0 0 0 0.04214
2.5339999 0.75700003 0.41999999 150 0 0 0 0.042149998
2.55 0.76899999 0.428 150 0 0 0 0.042160001
2.536 0.77200001 0.43099999 150 0 0 0 0.042169999
2.4070001 0.73900002 0.414 151 0 0 0 0.042180002
2.365 0.73199999 0.41100001 150 0 0 0 0.04219
1.497 0.46799999 0.26300001 20 0 0 0 0.042199999
1.478 0.46599999 0.26300001 7 0 0 0 0.042210001
1.466 0.46599999 0.264 7 0 0 0 0.04222
1.443 0.463 0.26300001 7 0 0 0 0.042229999
1.4400001 0.46599999 0.26499999 6 0 0 0 0.042240001
1.421 0.463 0.264 6 0 0 0 0.04225
1.405 0.46200001 0.264 6 0 0 0 0.042259999
1.391 0.461 0.26499999 6 0 0 0 0.042270001
1.375 0.45899999 0.264 6 0 0 0 0.04228
1.362 0.45899999 0.26499999 6 0 0 0 0.042289998
1.348 0.458 0.26499999 6 0 0 0 0.042300001
1.3329999 0.456 0.26499999 7 0 0 0 0.042309999
1.316 0.454 0.264 24 0 0 0 0.042319998
1.303 0.45300001 0.264 80 0 0 0 0.042330001
1.2920001 0.45199999 0.26499999 150 0 0 0 0.042339999
1.2920001 0.456 0.26800001 150 0 0 0 0.042350002
1.289 0.458 0.27000001 150 0 0 0 0.04236
1.294 0.463 0.27399999 150 0 0 0 0.042369999
1.294 0.46700001 0.27700001 150 0 0 0 0.042380001
1.294 0.47 0.28 150 0 0 0 0.04239
1.293 0.47299999 0.28200001 150 0 0 0 0.042399999
1.2920001 0.47600001 0.285 150 0 0 0 0.042410001
1.291 0.479 0.287 150 0 0 0 0.04242
1.2920001 0.48199999 0.29100001 150 0 0 0 0.042429999
1.2869999 0.484 0.29300001 150 0 0 0 0.042440001
1.29 0.48800001 0.296 150 0 0 0 0.04245
1.293 0.493 0.29899999 150 0 0 0 0.042459998
1.296 0.49700001 0.303 149 0 0 0 0.042470001
1.3 0.50199997 0.30700001 66 0 0 0 0.042479999
1.298 0.50400001 0.31 20 0 0 0 0.042490002
1.272 0.498 0.30599999 8 0 0 0 0.0425
1.255 0.49399999 0.30500001 0 0 0 0 0.042509999
1.243 0.49200001 0.30500001 0 0 0 0 0.042520002
3.339 1.332 0.82800001 2 0 0 0 0.04253
3.345 1.342 0.83700001 4 0 0 0 0.042539999
3.329 1.344 0.84100002 5 0 0 0 0.042550001
3.3310001 1.353 0.85000002 5 0 0 0 0.04256
3.335 1.362 0.85799998 3 0 0 0 0.042569999
3.3340001 1.37 0.866 3 0 0 0 0.042580001
3.277 1.354 0.85900003 2 0 0 0 0.04259
3.267 1.358 0.86400002 2 0 0 0 0.042599998
3.2780001 1.37 0.875 3 0 0 0 0.042610001
3.2750001 1.377 0.88200003 3 0 0 0 0.042619999
3.2720001 1.383 0.889 3 0 0 0 0.042629998
3.263 1.387 0.89399999 3 0 0 0 0.042640001
3.2690001 1.397 0.90399998 3 0 0 0 0.042649999
3.267 1.403 0.91100001 3 0 0 0 0.042660002
3.2539999 1.405 0.91500002 3 0 0 0 0.04267
3.2460001 1.409 0.921 3 0 0 0 0.042679999
3.257 1.421 0.93199998 3 0 0 0 0.042690001
3.2449999 1.423 0.93599999 3 0 0 0 0.0427
3.2479999 1.431 0.94499999 3 0 0 0 0.042709999
3.2260001 1.429 0.94599998 2 0 0 0 0.042720001
3.2449999 1.444 0.95999998 2 0 0 0 0.04273
3.2290001 1.444 0.963 1 0 0 0 0.042739999
3.181 1.429 0.95700002 0 0 0 0 0.042750001
3.1570001 1.425 0.95700002 0 0 0 0 0.04276
3.1470001 1.427 0.96200001 1 0 0 0 0.042769998
3.135 1.428 0.96600002 1 0 0 0 0.042780001
3.1429999 1.438 0.97600001 2 0 0 0 0.042789999
3.142 1.444 0.98400003 3 0 0 0 0.042800002
3.122 1.441 0.98500001 3 0 0 0 0.04281
3.1340001 1.4529999 0.99699998 3 0 0 0 0.042819999
3.119 1.452 0.99900001 3 0 0 0 0.042830002
3.1210001 1.459 1.008 3 0 0 0 0.04284
3.132 1.47 1.0190001 3 0 0 0 0.042849999
3.138 1.479 1.029 3 0 0 0 0.042860001
3.125 1.478 1.0319999 3 0 0 0 0.04287
3.1389999 1.4910001 1.045 2 0 0 0 0.042879999
3.1129999 1.484 1.044 2 0 0 0 0.042890001
3.112 1.489 1.051 2 0 0 0 0.0429
3.105 1.4910001 1.057 3 0 0 0 0.042909998
3.1099999 1.499 1.066 3 0 0 0 0.042920001
3.0969999 1.498 1.069 3 0 0 0 0.04293
3.099 1.5039999 1.077 3 0 0 0 0.042939998
3.0869999 1.5039999 1.081 3 0 0 0 0.042950001
3.0899999 1.51 1.089 3 0 0 0 0.042959999
3.1059999 1.523 1.103 3 0 0 0 0.042970002
3.0999999 1.525 1.108 3 0 0 0 0.04298
0.94099998 0.46399999 0.338 0 0 0 0 0.042989999
0.93800002 0.46399999 0.34 0 0 0 0 0.043000001
0.935 0.46399999 0.34099999 0 0 0 0 0.04301
0.93199998 0.46399999 0.34200001 0 0 0 0 0.043019999
0.92799997 0.463 0.34299999 0 0 0 0 0.043030001
0.926 0.463 0.34400001 0 0 0 0 0.04304
0.921 0.46200001 0.345 0 0 0 0 0.043049999
0.921 0.463 0.347 0 0 0 0 0.043060001
0.91399997 0.461 0.347 0 0 0 0 0.04307
0.90799999 0.45899999 0.34599999 0 0 0 0 0.043079998
0.92199999 0.46700001 0.354 0 0 0 0 0.043090001
0.91900003 0.46700001 0.35499999 0 0 0 0 0.043099999
0.90799999 0.46200001 0.35299999 0 0 0 0 0.043110002
0.91500002 0.46700001 0.35800001 6 0 0 0 0.043120001
0.90399998 0.46200001 0.35499999 7 0 0 0 0.043129999
0.90799999 0.465 0.359 8 0 0 0 0.043140002
0.90200001 0.463 0.359 9 0 0 0 0.04315
0.89700001 0.461 0.359 12 0 0 0 0.043159999
0.898 0.463 0.36199999 12 0 0 0 0.043170001
0.89600003 0.46200001 0.36300001 14 0 0 0 0.04318
0.89600003 0.463 0.36500001 14 0 0 0 0.043189999
0.89399999 0.463 0.366 15 0 0 0 0.043200001
0.89399999 0.46399999 0.368 14 0 0 0 0.04321
0.89300001 0.46399999 0.37 16 0 0 0 0.043219998
0.88999999 0.463 0.37 17 0 0 0 0.043230001
0.889 0.463 0.37200001 14 0 0 0 0.04324
0.89499998 0.46599999 0.37599999 13 0 0 0 0.043249998
0.89200002 0.465 0.377 13 0 0 0 0.043260001
0.89399999 0.46700001 0.37900001 13 0 0 0 0.043269999
0.89600003 0.46900001 0.382 14 0 0 0 0.043280002
0.89499998 0.46799999 0.384 13 0 0 0 0.04329
0.89399999 0.46799999 0.38499999 13 0 0 0 0.043299999
0.903 0.47299999 0.391 10 0 0 0 0.043310001
0.89999998 0.472 0.391 10 0 0 0 0.04332
0.89999998 0.472 0.39300001 11 0 0 0 0.043329999
0.90100002 0.47299999 0.39500001 11 0 0 0 0.043340001
0.90100002 0.47299999 0.39700001 11 0 0 0 0.04335
0.90399998 0.47499999 0.40000001 13 0 0 0 0.043359999
0.89999998 0.47299999 0.40000001 11 0 0 0 0.043370001
0.89999998 0.47299999 0.40200001 14 0 0 0 0.04338
0.89999998 0.47299999 0.403 14 0 0 0 0.043389998
0.90100002 0.47299999 0.405 13 0 0 0 0.043400001
0.89899999 0.472 0.40599999 12 0 0 0 0.043409999
0.903 0.47400001 0.40900001 14 0 0 0 0.043419998
0.903 0.47499999 0.41100001 14 0 0 0 0.043430001
0.90200001 0.47400001 0.412 15 0 0 0 0.043439999
0.90200001 0.47299999 0.41299999 18 0 0 0 0.043450002
0.90100002 0.47299999 0.41499999 19 0 0 0 0.04346
0.89399999 0.46799999 0.41299999 21 0 0 0 0.043469999
0.89399999 0.46799999 0.414 21 0 0 0 0.043480001
0.89200002 0.46700001 0.41499999 22 0 0 0 0.04349
0.89200002 0.46700001 0.41600001 23 0 0 0 0.043499999
0.89099997 0.46599999 0.417 23 0 0 0 0.043510001
0.89600003 0.46799999 0.41999999 30 0 0 0 0.04352
0.89499998 0.46700001 0.421 30 0 0 0 0.043529999
0.89600003 0.46700001 0.42300001 30 0 0 0 0.043540001
0.89399999 0.465 0.42300001 32 0 0 0 0.04355
0.89300001 0.46399999 0.42399999 28 0 0 0 0.043559998
0.89700001 0.465 0.42699999 28 0 0 0 0.043570001
0.89399999 0.463 0.426 29 0 0 0 0.043579999
0.89300001 0.46200001 0.42699999 29 0 0 0 0.043590002
0.89399999 0.461 0.428 24 0 0 0 0.0436
0.89499998 0.461 0.43000001 22 0 0 0 0.043609999
0.89899999 0.46200001 0.433 16 0 0 0 0.043620002
0.89899999 0.46200001 0.43399999 15 0 0 0 0.04363
0.90399998 0.463 0.43700001 10 0 0 0 0.043639999
0.90799999 0.46399999 0.44 8 0 0 0 0.043650001
0.91000003 0.46399999 0.442 8 0 0 0 0.04366
0.91600001 0.46599999 0.44499999 7 0 0 0 0.043669999
0.91500002 0.465 0.44600001 6 0 0 0 0.043680001
0.92299998 0.46799999 0.44999999 5 0 0 0 0.04369
0.92900002 0.46900001 0.454 5 0 0 0 0.043699998
0.92699999 0.46700001 0.454 5 0 0 0 0.043710001
0.92900002 0.46700001 0.45500001 6 0 0 0 0.043719999
0.92799997 0.465 0.45500001 7 0 0 0 0.043729998
0.93000001 0.465 0.45699999 9 0 0 0 0.043740001
0.93099999 0.46399999 0.458 10 0 0 0 0.043749999
0.93099999 0.463 0.458 10 0 0 0 0.043760002
0.93099999 0.461 0.458 9 0 0 0 0.04377
0.93800002 0.463 0.463 8 0 0 0 0.043779999
0.94400001 0.465 0.46599999 7 0 0 0 0.043790001
0.94999999 0.46599999 0.46900001 6 0 0 0 0.0438
0.94999999 0.465 0.46900001 5 0 0 0 0.043809999
0.954 0.465 0.472 5 0 0 0 0.043820001
0.958 0.465 0.47400001 0 0 0 0 0.04383
0.96200001 0.46599999 0.47600001 0 0 0 0 0.043839999
0.97600001 0.47099999 0.48300001 0 0 0 0 0.043850001
1.027 0.49399999 0.509 0 0 0 0 0.04386
1.1339999 0.54299998 0.56199998 54 0 0 0 0.043869998
1.168 0.55699998 0.57800001 95 0 0 0 0.043880001
1.189 0.565 0.58899999 139 0 0 0 0.043889999
1.207 0.56999999 0.597 150 0 0 0 0.043900002
1.224 0.57599998 0.60600001 150 0 0 0 0.04391
1.245 0.58399999 0.616 150 0 0 0 0.043919999
1.267 0.59100002 0.62699997 150 0 0 0 0.043930002
1.26 0.58499998 0.62300003 150 0 0 0 0.04394
1.261 0.583 0.62300003 150 0 0 0 0.043949999
1.263 0.58200002 0.62400001 150 0 0 0 0.043960001
1.265 0.57999998 0.62400001 150 0 0 0 0.04397
1.2640001 0.57700002 0.62300003 150 0 0 0 0.043979999
1.26 0.57200003 0.62 150 0 0 0 0.043990001
1.265 0.57200003 0.62199998 150 0 0 0 0.044
1.262 0.56800002 0.62 150 0 0 0 0.044009998
1.263 0.565 0.62 150 0 0 0 0.044020001
1.261 0.56199998 0.61900002 150 0 0 0 0.04403
1.263 0.55900002 0.61900002 150 0 0 0 0.044039998
1.261 0.55599999 0.61699998 150 0 0 0 0.044050001
1.262 0.55400002 0.61699998 150 0 0 0 0.044059999
1.2640001 0.551 0.616 150 0 0 0 0.044070002
1.26 0.54699999 0.61400002 150 0 0 0 0.04408
1.261 0.54400003 0.61299998 150 0 0 0 0.044089999
1.262 0.542 0.61299998 150 0 0 0 0.044100001
1.261 0.53799999 0.611 150 0 0 0 0.04411
1.262 0.53600001 0.611 150 0 0 0 0.044119999
1.26 0.53100002 0.60799998 150 0 0 0 0.044130001
1.261 0.52899998 0.60699999 150 0 0 0 0.04414
1.261 0.52600002 0.60600001 150 0 0 0 0.044149999
1.261 0.523 0.60500002 150 0 0 0 0.044160001
1.2589999 0.51899999 0.60299999 150 0 0 0 0.04417
1.26 0.51700002 0.602 150 0 0 0 0.044179998
1.258 0.51200002 0.59899998 150 0 0 0 0.044190001
1.2640001 0.51200002 0.60100001 150 0 0 0 0.044199999
1.261 0.50700003 0.597 150 0 0 0 0.044210002
1.252 0.5 0.59200001 150 0 0 0 0.044220001
1.2539999 0.498 0.59100002 150 0 0 0 0.044229999
1.255 0.495 0.58999997 150 0 0 0 0.044240002
1.256 0.493 0.58899999 150 0 0 0 0.04425
1.258 0.49000001 0.588 150 0 0 0 0.044259999
1.2589999 0.48699999 0.58700001 150 0 0 0 0.044270001
1.2589999 0.484 0.58499998 150 0 0 0 0.04428
1.255 0.479 0.58099997 150 0 0 0 0.044289999
1.262 0.479 0.583 150 0 0 0 0.044300001
1.258 0.47400001 0.579 150 0 0 0 0.04431
1.26 0.472 0.57800001 150 0 0 0 0.044319998
1.2589999 0.46799999 0.57599998 150 0 0 0 0.044330001
1.253 0.46200001 0.57099998 150 0 0 0 0.04434
1.2539999 0.46000001 0.56900001 150 0 0 0 0.044349998
1.256 0.45699999 0.56800002 150 0 0 0 0.044360001
1.258 0.454 0.56699997 150 0 0 0 0.044369999
1.255 0.44999999 0.56300002 150 0 0 0 0.044380002
1.256 0.447 0.56199998 150 0 0 0 0.04439
1.258 0.44499999 0.56 150 0 0 0 0.044399999
1.2589999 0.442 0.55900002 150 0 0 0 0.044410001
1.2819999 0.447 0.56699997 150 0 0 0 0.04442
1.2869999 0.44499999 0.56699997 71 0 0 0 0.044429999
1.3049999 0.44800001 0.57200003 16 0 0 0 0.044440001
1.336 0.45500001 0.583 11 0 0 0 0.04445
1.344 0.454 0.58399999 11 0 0 0 0.044459999
1.359 0.456 0.588 11 0 0 0 0.044470001
1.376 0.458 0.59299999 11 0 0 0 0.04448
1.388 0.458 0.59500003 12 0 0 0 0.044489998
1.398 0.458 0.597 12 0 0 0 0.044500001
1.414 0.45899999 0.60100001 13 0 0 0 0.044509999
1.432 0.46200001 0.60600001 14 0 0 0 0.044520002
1.446 0.463 0.60900003 14 0 0 0 0.044530001
1.4630001 0.46399999 0.61299998 14 0 0 0 0.044539999
1.489 0.46900001 0.62099999 11 0 0 0 0.044550002
1.489 0.465 0.61799997 11 0 0 0 0.04456
1.501 0.465 0.62 3 0 0 0 0.044569999
1.51 0.46399999 0.62 0 0 0 0 0.044580001
3.78 1.152 1.545 67 0 0 0 0.04459
3.7980001 1.147 1.544 67 0 0 0 0.044599999
3.8139999 1.143 1.543 66 0 0 0 0.044610001
3.8340001 1.1390001 1.5420001 68 0 0 0 0.04462
2.2290001 0.65600002 0.89200002 0 0 0 0 0.044629999
0 0 0 0 0 0 0 0.044640001
0 0 0 0 0 0 0 0.04465
2.237 0.64200002 0.88 151 0 0 0 0.044659998
2.2360001 0.63599998 0.875 150 0 0 0 0.044670001
2.2390001 0.63099998 0.87099999 151 0 0 0 0.044679999
2.237 0.625 0.86500001 151 0 0 0 0.044690002
2.243 0.62099999 0.86199999 150 0 0 0 0.0447
2.2360001 0.61299998 0.85500002 151 0 0 0 0.044709999
2.2379999 0.60799998 0.85000002 150 0 0 0 0.044720002
2.23 0.60100001 0.84200001 150 0 0 0 0.04473
2.23 0.59500003 0.83700001 150 0 0 0 0.044739999
2.2309999 0.58999997 0.83200002 150 0 0 0 0.044750001
2.2309999 0.58499998 0.82700002 150 0 0 0 0.04476
2.2320001 0.579 0.82200003 151 0 0 0 0.044769999
2.2309999 0.574 0.81599998 150 0 0 0 0.044780001
2.23 0.56800002 0.81 150 0 0 0 0.04479
2.2320001 0.56300002 0.80599999 151 0 0 0 0.044799998
2.233 0.55800003 0.801 150 0 0 0 0.044810001
2.233 0.55299997 0.79500002 150 0 0 0 0.044819999
2.23 0.546 0.78899997 150 0 0 0 0.044829998
2.233 0.542 0.78500003 150 0 0 0 0.044840001
2.2449999 0.53899997 0.78299999 150 0 0 0 0.044849999
2.2639999 0.53899997 0.78399998 151 0 0 0 0.044860002
2.2650001 0.53299999 0.77899998 151 0 0 0 0.04487
2.2620001 0.52700001 0.773 151 0 0 0 0.044879999
2.263 0.52200001 0.76700002 150 0 0 0 0.044890001
2.2720001 0.51899999 0.764 121 0 0 0 0.0449
2.3010001 0.51999998 0.76899999 19 0 0 0 0.044909999
2.365 0.52899998 0.78399998 17 0 0 0 0.044920001
2.3989999 0.53200001 0.78899997 16 0 0 0 0.04493
2.4349999 0.53399998 0.79500002 17 0 0 0 0.044939999
2.4790001 0.53799999 0.80299997 19 0 0 0 0.044950001
2.517 0.54000002 0.80900002 20 0 0 0 0.04496
2.5599999 0.54400003 0.81599998 20 0 0 0 0.044969998
2.6099999 0.54799998 0.82599998 22 0 0 0 0.044980001
2.661 0.55299997 0.83499998 23 0 0 0 0.044989999
2.7160001 0.55800003 0.84500003 24 0 0 0 0.045000002
2.766 0.56300002 0.85399997 24 0 0 0 0.04501
2.816 0.56599998 0.86199999 25 0 0 0 0.045019999
2.8900001 0.57499999 0.87699997 26 0 0 0 0.045030002
2.9530001 0.58099997 0.889 27 0 0 0 0.04504
3.016 0.58600003 0.89999998 28 0 0 0 0.045049999
3.0699999 0.58999997 0.90799999 28 0 0 0 0.045060001
3.115 0.59200001 0.91299999 28 0 0 0 0.04507
3.1670001 0.59500003 0.92000002 28 0 0 0 0.045079999
3.221 0.59799999 0.92699999 28 0 0 0 0.045090001
3.26 0.59799999 0.93000001 29 0 0 0 0.0451
3.2839999 0.59600002 0.92799997 39 0 0 0 0.045109998
3.289 0.58899999 0.921 150 0 0 0 0.045120001
3.2950001 0.583 0.91399997 150 0 0 0 0.04513
3.2939999 0.57599998 0.90499997 150 0 0 0 0.045139998
3.2969999 0.56999999 0.89700001 150 0 0 0 0.045150001
3.2980001 0.56300002 0.889 150 0 0 0 0.045159999
3.3010001 0.55599999 0.88099998 150 0 0 0 0.045170002
3.3 0.54900002 0.87199998 150 0 0 0 0.04518
3.3210001 0.546 0.86799997 150 0 0 0 0.045189999
3.3280001 0.54000002 0.86199999 150 0 0 0 0.045200001
3.332 0.53399998 0.85299999 150 0 0 0 0.04521
3.329 0.52600002 0.84399998 150 0 0 0 0.045219999
3.345 0.52200001 0.83899999 150 0 0 0 0.045230001
3.3870001 0.52200001 0.83999997 150 0 0 0 0.04524
3.3940001 0.51599997 0.833 150 0 0 0 0.045249999
3.388 0.50800002 0.82300001 150 0 0 0 0.045260001
3.392 0.50199997 0.81400001 150 0 0 0 0.04527
3.392 0.495 0.80500001 150 0 0 0 0.045279998
3.3889999 0.48800001 0.79500002 150 0 0 0 0.045290001
3.392 0.48100001 0.787 150 0 0 0 0.045299999
3.395 0.47499999 0.778 150 0 0 0 0.045310002
3.398 0.46900001 0.76999998 150 0 0 0 0.04532
3.395 0.46200001 0.75999999 150 0 0 0 0.045329999
3.3989999 0.45500001 0.75199997 150 0 0 0 0.045340002
3.3989999 0.449 0.74299997 150 0 0 0 0.04535
3.402 0.44299999 0.73400003 150 0 0 0 0.045359999
3.405 0.43599999 0.72500002 150 0 0 0 0.045370001
3.3970001 0.42899999 0.71399999 150 0 0 0 0.04538
3.3970001 0.42199999 0.70499998 150 0 0 0 0.045389999
3.4059999 0.417 0.69700003 150 0 0 0 0.045400001
3.3989999 0.40900001 0.68699998 150 0 0 0 0.04541
3.3970001 0.403 0.67699999 150 0 0 0 0.045419998
3.398 0.396 0.66799998 150 0 0 0 0.045430001
3.4000001 0.38999999 0.65899998 150 0 0 0 0.04544
3.402 0.384 0.64999998 150 0 0 0 0.045449998
3.404 0.37799999 0.64099997 150 0 0 0 0.045460001
3.404 0.37099999 0.63200003 150 0 0 0 0.045469999
3.4059999 0.36500001 0.62300003 150 0 0 0 0.045480002
3.4070001 0.359 0.61400002 150 0 0 0 0.04549
3.4030001 0.352 0.60399997 150 0 0 0 0.045499999
3.4070001 0.34599999 0.59500003 150 0 0 0 0.045510001
3.405 0.34 0.58499998 150 0 0 0 0.04552
3.4030001 0.33399999 0.57499999 150 0 0 0 0.045529999
3.4059999 0.32800001 0.56599998 150 0 0 0 0.045540001
3.4070001 0.322 0.55699998 150 0 0 0 0.04555
3.401 0.315 0.54699999 150 0 0 0 0.045559999
3.4030001 0.30899999 0.53799999 150 0 0 0 0.045570001
3.405 0.303 0.528 150 0 0 0 0.04558
3.4030001 0.29699999 0.51899999 150 0 0 0 0.045589998
3.4059999 0.29100001 0.50999999 150 0 0 0 0.045600001
3.408 0.285 0.50099999 150 0 0 0 0.045609999
3.4070001 0.27900001 0.491 150 0 0 0 0.045620002
3.4089999 0.273 0.48199999 150 0 0 0 0.045630001
3.408 0.26699999 0.472 150 0 0 0 0.045639999
3.4119999 0.26100001 0.463 150 0 0 0 0.045650002
3.411 0.255 0.45300001 150 0 0 0 0.04566
3.4089999 0.249 0.44400001 150 0 0 0 0.045669999
3.4089999 0.243 0.43399999 150 0 0 0 0.045680001
3.411 0.23800001 0.42500001 150 0 0 0 0.04569
3.4070001 0.23199999 0.41499999 150 0 0 0 0.045699999
3.4070001 0.226 0.405 150 0 0 0 0.045710001
3.4130001 0.22 0.39700001 150 0 0 0 0.04572
3.408 0.214 0.38600001 151 0 0 0 0.045729998
3.411 0.20900001 0.377 150 0 0 0 0.045740001
3.411 0.20299999 0.368 150 0 0 0 0.04575
3.4089999 0.197 0.35800001 150 0 0 0 0.045759998
3.4130001 0.192 0.34900001 150 0 0 0 0.045770001
3.4119999 0.186 0.33899999 150 0 0 0 0.045779999
3.4089999 0.18000001 0.329 151 0 0 0 0.045790002
3.4130001 0.175 0.31999999 151 0 0 0 0.0458
3.414 0.169 0.31 151 0 0 0 0.045809999
3.411 0.163 0.301 151 0 0 0 0.045820002
3.408 0.15800001 0.29100001 150 0 0 0 0.04583
3.4089999 0.152 0.28099999 151 0 0 0 0.045839999
3.4130001 0.147 0.27200001 151 0 0 0 0.045850001
3.405 0.141 0.26199999 151 0 0 0 0.04586
3.4089999 0.13600001 0.252 151 0 0 0 0.045869999
3.4100001 0.13 0.243 151 0 0 0 0.045880001
3.4100001 0.125 0.233 151 0 0 0 0.04589
3.4119999 0.119 0.22400001 151 0 0 0 0.045899998
3.408 0.114 0.214 151 0 0 0 0.045910001
3.4130001 0.108 0.204 151 0 0 0 0.045919999
3.4170001 0.103 0.19499999 151 0 0 0 0.045929998
3.415 0.097999997 0.185 151 0 0 0 0.045940001
3.4130001 0.092 0.175 151 0 0 0 0.045949999
3.411 0.086999997 0.16500001 151 0 0 0 0.045960002
3.4170001 0.082000002 0.156 151 0 0 0 0.04597
3.4100001 0.075999998 0.146 151 0 0 0 0.045979999
3.418 0.071000002 0.13699999 151 0 0 0 0.045990001
3.4200001 0.066 0.127 152 0 0 0 0.046
3.4119999 0.061000001 0.117 152 0 0 0 0.046009999
3.415 0.055 0.107 151 0 0 0 0.046020001
3.418 0.050000001 0.097000003 152 0 0 0 0.04603
3.4130001 0.045000002 0.088 151 0 0 0 0.046039999
3.4170001 0.039999999 0.078000002 152 0 0 0 0.046050001
3.4170001 0.035 0.068000004 152 0 0 0 0.04606
3.4170001 0.028999999 0.057999998 152 0 0 0 0.046069998
3.4200001 0.024 0.048999999 151 0 0 0 0.046080001
3.4219999 0.018999999 0.039000001 151 0 0 0 0.046089999
3.4159999 0.014 0.028999999 151 0 0 0 0.046100002
3.421 0.0089999996 0.018999999 151 0 0 0 0.04611
3.4189999 0.0040000002 0.0089999996 151 0 0 0 0.046119999
3.4170001 0 0 151 0 0 0 0.046130002
3.4170001 -0.0049999999 -0.0089999996 151 0 0 0 0.04614
3.4170001 -0.0099999998 -0.018999999 151 0 0 0 0.046149999
3.414 -0.015 -0.028999999 151 0 0 0 0.046160001
3.414 -0.02 -0.039000001 151 0 0 0 0.04617
3.4200001 -0.025 -0.048999999 151 0 0 0 0.046179999
3.4159999 -0.029999999 -0.059 151 0 0 0 0.046190001
3.4170001 -0.035 -0.068999998 151 0 0 0 0.0462
3.4189999 -0.039999999 -0.079000004 151 0 0 0 0.046209998
3.4189999 -0.045000002 -0.089000002 151 0 0 0 0.046220001
3.4170001 -0.050000001 -0.097999997 151 0 0 0 0.04623
3.421 -0.055 -0.109 151 0 0 0 0.046239998
3.418 -0.059 -0.118 151 0 0 0 0.046250001
3.4159999 -0.064000003 -0.12800001 151 0 0 0 0.046259999
3.424 -0.068999998 -0.139 151 0 0 0 0.046270002
3.421 -0.074000001 -0.148 151 0 0 0 0.04628
3.4230001 -0.079000004 -0.15899999 151 0 0 0 0.046289999
3.4230001 -0.082999997 -0.169 151 0 0 0 0.046300001
3.4230001 -0.088 -0.17900001 151 0 0 0 0.04631
3.4219999 -0.093000002 -0.189 151 0 0 0 0.046319999
3.4260001 -0.097999997 -0.199 151 0 0 0 0.046330001
3.4260001 -0.102 -0.20900001 151 0 0 0 0.04634
3.428 -0.107 -0.219 151 0 0 0 0.046349999
3.427 -0.112 -0.229 151 0 0 0 0.046360001
3.4260001 -0.117 -0.23899999 150 0 0 0 0.04637
3.425 -0.121 -0.249 150 0 0 0 0.046379998
3.431 -0.126 -0.25999999 150 0 0 0 0.046390001
3.425 -0.13 -0.27000001 150 0 0 0 0.046399999
3.4289999 -0.13500001 -0.28 150 0 0 0 0.046410002
3.425 -0.14 -0.28999999 150 0 0 0 0.04642
3.424 -0.14399999 -0.30000001 150 0 0 0 0.046429999
3.4330001 -0.149 -0.31099999 150 0 0 0 0.046440002
3.4330001 -0.154 -0.32100001 150 0 0 0 0.04645
3.434 -0.15800001 -0.33199999 150 0 0 0 0.046459999
3.4300001 -0.162 -0.34200001 150 0 0 0 0.046470001
3.4319999 -0.167 -0.352 150 0 0 0 0.04648
3.431 -0.171 -0.36199999 150 0 0 0 0.046489999
3.4349999 -0.176 -0.373 150 0 0 0 0.046500001
3.4260001 -0.18000001 -0.382 151 0 0 0 0.04651
3.4289999 -0.185 -0.39300001 151 0 0 0 0.046519998
3.434 -0.189 -0.40400001 150 0 0 0 0.046530001
3.4000001 -0.192 -0.41 150 0 0 0 0.04654
3.3699999 -0.19400001 -0.41600001 150 0 0 0 0.046549998
3.3629999 -0.198 -0.426 150 0 0 0 0.046560001
3.3670001 -0.20299999 -0.43599999 150 0 0 0 0.046569999
3.3659999 -0.207 -0.44600001 151 0 0 0 0.046580002
3.3659999 -0.211 -0.45699999 150 0 0 0 0.04659
3.365 -0.215 -0.46700001 151 0 0 0 0.046599999
3.3629999 -0.219 -0.477 151 0 0 0 0.046610001
3.3599999 -0.223 -0.48699999 150 0 0 0 0.04662
3.3440001 -0.226 -0.49399999 150 0 0 0 0.046629999
3.339 -0.23 -0.50400001 150 0 0 0 0.046640001
3.3340001 -0.234 -0.51300001 150 0 0 0 0.04665
3.335 -0.23800001 -0.52399999 150 0 0 0 0.046659999
3.3329999 -0.242 -0.53399998 150 0 0 0 0.046670001
3.3310001 -0.24600001 -0.54400003 150 0 0 0 0.04668
3.329 -0.25 -0.55400002 150 0 0 0 0.046689998
3.3310001 -0.25400001 -0.56400001 150 0 0 0 0.046700001
3.3329999 -0.25799999 -0.57499999 150 0 0 0 0.046709999
3.332 -0.26199999 -0.58499998 150 0 0 0 0.046720002
3.3340001 -0.266 -0.59600002 151 0 0 0 0.046730001
3.3310001 -0.26899999 -0.60500002 150 0 0 0 0.046739999
3.3280001 -0.273 -0.61500001 150 0 0 0 0.046750002
3.322 -0.27599999 -0.62400001 37 0 0 0 0.04676
3.2809999 -0.27700001 -0.62699997 31 0 0 0 0.046769999
3.243 -0.27700001 -0.63 65 0 0 0 0.046780001
3.2360001 -0.28 -0.63800001 150 0 0 0 0.04679
3.2360001 -0.28400001 -0.648 150 0 0 0 0.046799999
3.2309999 -0.287 -0.65799999 150 0 0 0 0.046810001
3.2360001 -0.29100001 -0.66900003 150 0 0 0 0.04682
3.233 -0.29499999 -0.67799997 150 0 0 0 0.046829998
3.2360001 -0.29899999 -0.68900001 150 0 0 0 0.046840001
3.2320001 -0.30199999 -0.69800001 150 0 0 0 0.04685
3.234 -0.30500001 -0.70899999 150 0 0 0 0.046859998
3.233 -0.30899999 -0.71899998 150 0 0 0 0.046870001
3.2309999 -0.31200001 -0.72899997 150 0 0 0 0.046879999
3.24 -0.317 -0.741 150 0 0 0 0.046890002
3.237 -0.31999999 -0.75099999 150 0 0 0 0.0469
3.2349999 -0.32300001 -0.75999999 150 0 0 0 0.046909999
3.234 -0.32600001 -0.76999998 150 0 0 0 0.046920002
3.2309999 -0.329 -0.77999997 150 0 0 0 0.04693
3.2320001 -0.333 -0.79100001 150 0 0 0 0.046939999
3.2219999 -0.33500001 -0.79799998 150 0 0 0 0.046950001
3.2190001 -0.338 -0.80800003 150 0 0 0 0.04696
3.214 -0.34099999 -0.81699997 150 0 0 0 0.046969999
3.2019999 -0.34299999 -0.824 150 0 0 0 0.046980001
3.2030001 -0.34599999 -0.83499998 114 0 0 0 0.04699
3.1800001 -0.347 -0.83899999 29 0 0 0 0.046999998
3.138 -0.345 -0.838 25 0 0 0 0.047010001
3.1059999 -0.345 -0.83899999 27 0 0 0 0.047019999
3.066 -0.34299999 -0.83899999 27 0 0 0 0.047029998
3.036 -0.34299999 -0.83999997 27 0 0 0 0.047040001
2.9960001 -0.34099999 -0.83899999 27 0 0 0 0.047049999
2.967 -0.34099999 -0.83999997 27 0 0 0 0.047060002
2.9349999 -0.34 -0.84100002 27 0 0 0 0.04707
2.892 -0.338 -0.838 26 0 0 0 0.047079999
2.8529999 -0.336 -0.83600003 25 0 0 0 0.047090001
2.822 -0.33500001 -0.83600003 25 0 0 0 0.0471
2.786 -0.333 -0.83499998 25 0 0 0 0.047109999
2.76 -0.33199999 -0.83600003 25 0 0 0 0.047120001
2.727 -0.331 -0.83499998 25 0 0 0 0.04713
2.6960001 -0.329 -0.83399999 26 0 0 0 0.047139999
2.668 -0.32800001 -0.83399999 26 0 0 0 0.047150001
2.642 -0.32699999 -0.83499998 27 0 0 0 0.04716
2.609 -0.32600001 -0.833 26 0 0 0 0.047169998
2.5829999 -0.324 -0.833 26 0 0 0 0.047180001
2.5469999 -0.322 -0.82999998 24 0 0 0 0.047189999
2.5179999 -0.31999999 -0.829 26 0 0 0 0.047200002
2.4990001 -0.31999999 -0.83099997 25 0 0 0 0.04721
2.4690001 -0.31799999 -0.829 24 0 0 0 0.047219999
2.451 -0.31799999 -0.83099997 25 0 0 0 0.047230002
2.4260001 -0.317 -0.83099997 25 0 0 0 0.04724
2.4000001 -0.315 -0.829 25 0 0 0 0.047249999
2.3759999 -0.31400001 -0.829 25 0 0 0 0.047260001
2.3529999 -0.31200001 -0.829 25 0 0 0 0.04727
2.3310001 -0.31099999 -0.829 25 0 0 0 0.047279999
2.3110001 -0.31 -0.82999998 25 0 0 0 0.047290001
2.29 -0.30899999 -0.82999998 25 0 0 0 0.0473
2.2679999 -0.308 -0.829 25 0 0 0 0.047309998
2.244 -0.30599999 -0.82800001 25 0 0 0 0.047320001
2.2279999 -0.30599999 -0.82999998 25 0 0 0 0.04733
2.204 -0.30399999 -0.82800001 25 0 0 0 0.047339998
2.1830001 -0.30199999 -0.82800001 25 0 0 0 0.047350001
2.1630001 -0.301 -0.82700002 27 0 0 0 0.047359999
2.148 -0.30000001 -0.82800001 26 0 0 0 0.047370002
2.1270001 -0.29899999 -0.82800001 24 0 0 0 0.04738
2.1059999 -0.29699999 -0.82700002 25 0 0 0 0.047389999
2.0899999 -0.296 -0.82700002 25 0 0 0 0.047400001
2.069 -0.294 -0.82599998 25 0 0 0 0.04741
2.0539999 -0.29300001 -0.82700002 25 0 0 0 0.047419999
2.036 -0.292 -0.82599998 25 0 0 0 0.047430001
2.0179999 -0.29100001 -0.82599998 29 0 0 0 0.04744
2 -0.289 -0.82499999 28 0 0 0 0.047449999
1.985 -0.28799999 -0.82599998 29 0 0 0 0.047460001
1.973 -0.287 -0.82700002 30 0 0 0 0.04747
1.948 -0.285 -0.824 29 0 0 0 0.047479998
1.937 -0.28400001 -0.82499999 30 0 0 0 0.047490001
1.921 -0.28200001 -0.82499999 29 0 0 0 0.047499999
1.909 -0.28200001 -0.82599998 30 0 0 0 0.047510002
1.892 -0.28 -0.82499999 29 0 0 0 0.04752
1.881 -0.27900001 -0.82700002 31 0 0 0 0.047529999
1.863 -0.27700001 -0.82499999 30 0 0 0 0.047540002
1.85 -0.27599999 -0.82599998 30 0 0 0 0.04755
1.836 -0.27500001 -0.82599998 31 0 0 0 0.047559999
1.825 -0.27399999 -0.82700002 30 0 0 0 0.047570001
1.811 -0.27200001 -0.82599998 28 0 0 0 0.04758
1.7920001 -0.27000001 -0.824 30 0 0 0 0.047589999
1.778 -0.26899999 -0.82300001 32 0 0 0 0.047600001
1.767 -0.26800001 -0.824 31 0 0 0 0.04761
1.752 -0.266 -0.82300001 32 0 0 0 0.047619998
1.739 -0.264 -0.82300001 33 0 0 0 0.047630001
1.729 -0.26300001 -0.824 32 0 0 0 0.04764
1.715 -0.26199999 -0.82300001 34 0 0 0 0.047649998
1.71 -0.26100001 -0.82599998 12 0 0 0 0.047660001
1.699 -0.25999999 -0.82599998 13 0 0 0 0.047669999
1.688 -0.259 -0.82599998 13 0 0 0 0.047680002
1.678 -0.25799999 -0.82700002 14 0 0 0 0.04769
1.665 -0.25600001 -0.82599998 13 0 0 0 0.047699999
1.651 -0.25400001 -0.82499999 13 0 0 0 0.047710001
1.647 -0.25400001 -0.82800001 13 0 0 0 0.04772
1.632 -0.252 -0.82599998 13 0 0 0 0.047729999
1.622 -0.25 -0.82599998 13 0 0 0 0.047740001
1.612 -0.249 -0.82599998 13 0 0 0 0.04775
1.604 -0.248 -0.82800001 14 0 0 0 0.047759999
1.589 -0.24600001 -0.82499999 13 0 0 0 0.047770001
1.5829999 -0.245 -0.82700002 13 0 0 0 0.04778
1.568 -0.242 -0.824 13 0 0 0 0.047789998
1.5650001 -0.242 -0.82800001 13 0 0 0 0.047800001
1.552 -0.23999999 -0.82599998 13 0 0 0 0.047809999
1.535 -0.237 -0.82099998 12 0 0 0 0.047820002
1.5319999 -0.237 -0.82499999 11 0 0 0 0.047830001
1.526 -0.236 -0.82599998 10 0 0 0 0.047839999
1.516 -0.234 -0.82599998 10 0 0 0 0.047850002
1.5039999 -0.23199999 -0.824 8 0 0 0 0.04786
1.497 -0.23100001 -0.824 9 0 0 0 0.047869999
1.487 -0.229 -0.824 10 0 0 0 0.047880001
1.476 -0.227 -0.82200003 10 0 0 0 0.04789
1.469 -0.226 -0.82300001 11 0 0 0 0.047899999
1.46 -0.22400001 -0.82200003 12 0 0 0 0.047910001
1.4529999 -0.223 -0.82300001 13 0 0 0 0.04792
1.442 -0.221 -0.81999999 13 0 0 0 0.047929998
1.438 -0.22 -0.82300001 14 0 0 0 0.047940001
1.429 -0.21799999 -0.82200003 13 0 0 0 0.04795
1.4220001 -0.21600001 -0.82200003 14 0 0 0 0.047959998
1.4119999 -0.214 -0.82099998 14 0 0 0 0.047970001
1.41 -0.214 -0.82300001 13 0 0 0 0.047979999
1.405 -0.212 -0.82499999 14 0 0 0 0.047990002
1.391 -0.20999999 -0.81999999 13 0 0 0 0.048
1.388 -0.20900001 -0.82300001 13 0 0 0 0.048009999
1.382 -0.207 -0.82300001 14 0 0 0 0.048020002
1.374 -0.206 -0.82200003 14 0 0 0 0.04803
1.368 -0.204 -0.82200003 14 0 0 0 0.048039999
1.36 -0.20200001 -0.82099998 13 0 0 0 0.048050001
1.355 -0.20100001 -0.82200003 14 0 0 0 0.04806
1.351 -0.2 -0.82300001 13 0 0 0 0.048069999
1.344 -0.198 -0.82300001 14 0 0 0 0.048080001
1.339 -0.19599999 -0.82300001 13 0 0 0 0.04809
1.33 -0.19400001 -0.82099998 13 0 0 0 0.048099998
1.3279999 -0.193 -0.82300001 13 0 0 0 0.048110001
1.3200001 -0.191 -0.82099998 13 0 0 0 0.048119999
1.3150001 -0.19 -0.82200003 13 0 0 0 0.048129998
1.311 -0.18799999 -0.82300001 13 0 0 0 0.048140001
1.306 -0.18700001 -0.82200003 14 0 0 0 0.048149999
1.299 -0.185 -0.82200003 14 0 0 0 0.048160002
1.293 -0.183 -0.82099998 14 0 0 0 0.04817
1.2869999 -0.18099999 -0.81999999 14 0 0 0 0.048179999
1.285 -0.18000001 -0.82200003 14 0 0 0 0.048190001
1.283 -0.17900001 -0.824 14 0 0 0 0.0482
1.277 -0.177 -0.82200003 13 0 0 0 0.048209999
1.273 -0.175 -0.82300001 14 0 0 0 0.048220001
1.27 -0.17399999 -0.82300001 14 0 0 0 0.04823
1.2640001 -0.17200001 -0.82300001 14 0 0 0 0.048239999
1.2589999 -0.17 -0.82200003 13 0 0 0 0.048250001
1.261 -0.169 -0.82499999 14 0 0 0 0.04826
1.253 -0.167 -0.82300001 14 0 0 0 0.048269998
1.252 -0.16599999 -0.82499999 14 0 0 0 0.048280001
1.248 -0.164 -0.824 14 0 0 0 0.048289999
1.238 -0.162 -0.82099998 13 0 0 0 0.048300002
1.2359999 -0.16 -0.82200003 13 0 0 0 0.04831
1.239 -0.15899999 -0.82599998 14 0 0 0 0.048319999
1.2309999 -0.15700001 -0.82200003 14 0 0 0 0.048330002
1.23 -0.156 -0.824 14 0 0 0 0.04834
1.23 -0.154 -0.82599998 14 0 0 0 0.048349999
1.225 -0.152 -0.82499999 14 0 0 0 0.048360001
1.2180001 -0.15000001 -0.82200003 14 0 0 0 0.04837
1.2180001 -0.149 -0.824 15 0 0 0 0.048379999
1.216 -0.147 -0.824 15 0 0 0 0.048390001
1.2079999 -0.145 -0.82099998 15 0 0 0 0.0484
1.21 -0.14399999 -0.82300001 15 0 0 0 0.048409998
1.207 -0.142 -0.824 15 0 0 0 0.048420001
1.202 -0.14 -0.82200003 15 0 0 0 0.04843
1.202 -0.139 -0.82300001 15 0 0 0 0.048439998
1.2 -0.13699999 -0.82300001 16 0 0 0 0.048450001
1.201 -0.13600001 -0.82499999 15 0 0 0 0.048459999
1.198 -0.134 -0.824 16 0 0 0 0.048470002
1.197 -0.132 -0.82499999 16 0 0 0 0.04848
1.1950001 -0.131 -0.82499999 16 0 0 0 0.048489999
1.193 -0.12899999 -0.82499999 16 0 0 0 0.048500001
1.1900001 -0.127 -0.82300001 15 0 0 0 0.04851
1.192 -0.126 -0.82599998 17 0 0 0 0.048519999
1.187 -0.124 -0.824 15 0 0 0 0.048530001
1.188 -0.122 -0.82499999 16 0 0 0 0.04854
1.184 -0.12 -0.82300001 17 0 0 0 0.048549999
1.187 -0.119 -0.82599998 16 0 0 0 0.048560001
1.182 -0.117 -0.82300001 16 0 0 0 0.04857
1.182 -0.115 -0.824 16 0 0 0 0.048579998
1.181 -0.113 -0.824 17 0 0 0 0.048590001
1.181 -0.112 -0.824 16 0 0 0 0.048599999
1.183 -0.11 -0.82599998 17 0 0 0 0.048610002
1.183 -0.109 -0.82700002 16 0 0 0 0.04862
1.181 -0.107 -0.82499999 17 0 0 0 0.048629999
1.1799999 -0.105 -0.82499999 17 0 0 0 0.048640002
1.181 -0.103 -0.82499999 16 0 0 0 0.04865
1.178 -0.102 -0.824 17 0 0 0 0.048659999
1.181 -0.1 -0.82599998 17 0 0 0 0.048670001
