# .PCD v0.7 - Point Cloud Data file format
VERSION 0.7
FIELDS x y z intensity normal_x normal_y normal_z curvature
SIZE 4 4 4 4 4 4 4 4
TYPE F F F F F F F F
COUNT 1 1 1 1 1 1 1 1
WIDTH 1008
HEIGHT 1
VIEWPOINT 0 0 0 1 0 0 0
POINTS 1008
DATA ascii
2.3640001 -0.45199999 -0.29699999 24 0 0 0 0.041839998
2.3629999 -0.44499999 -0.29300001 24 0 0 0 0.041850001
2.368 -0.43900001 -0.28999999 22 0 0 0 0.041859999
2.3670001 -0.43200001 -0.28600001 19 0 0 0 0.041870002
2.3670001 -0.42500001 -0.28200001 19 0 0 0 0.04188
2.365 -0.41800001 -0.278 21 0 0 0 0.041889999
2.3629999 -0.41100001 -0.27399999 21 0 0 0 0.041900001
2.3670001 -0.405 -0.27000001 20 0 0 0 0.04191
2.3640001 -0.398 -0.266 21 0 0 0 0.041919999
2.365 -0.391 -0.26199999 22 0 0 0 0.041930001
2.3629999 -0.384 -0.25799999 23 0 0 0 0.04194
2.369 -0.37799999 -0.255 21 0 0 0 0.041949999
2.365 -0.37099999 -0.25 20 0 0 0 0.041960001
2.359 -0.36300001 -0.245 21 0 0 0 0.04197
2.3599999 -0.35699999 -0.242 20 0 0 0 0.041979998
2.3610001 -0.34999999 -0.23800001 22 0 0 0 0.041990001
2.3599999 -0.34299999 -0.234 24 0 0 0 0.041999999
2.381 -0.34 -0.23199999 19 0 0 0 0.042010002
2.4130001 -0.338 -0.23 19 0 0 0 0.042020001
2.4579999 -0.33700001 -0.23 22 0 0 0 0.042029999
2.503 -0.336 -0.23 22 0 0 0 0.042040002
2.5320001 -0.333 -0.229 23 0 0 0 0.04205
2.6600001 -0.34200001 -0.236 35 0 0 0 0.042059999
2.9200001 -0.368 -0.25400001 150 0 0 0 0.042070001
3.2030001 -0.39500001 -0.273 150 0 0 0 0.04208
3.2049999 -0.38600001 -0.26699999 150 0 0 0 0.042089999
3.207 -0.377 -0.26199999 150 0 0 0 0.042100001
3.2049999 -0.368 -0.25600001 150 0 0 0 0.04211
3.204 -0.359 -0.25 150 0 0 0 0.042119998
3.2090001 -0.35100001 -0.245 150 0 0 0 0.042130001
3.2190001 -0.34299999 -0.23999999 150 0 0 0 0.04214
3.2360001 -0.336 -0.236 151 0 0 0 0.042149998
3.233 -0.32699999 -0.23 151 0 0 0 0.042160001
3.2320001 -0.31799999 -0.22400001 151 0 0 0 0.042169999
3.2309999 -0.30899999 -0.21799999 150 0 0 0 0.042180002
3.2320001 -0.30000001 -0.212 151 0 0 0 0.04219
3.2320001 -0.292 -0.206 151 0 0 0 0.042199999
3.2460001 -0.28400001 -0.20100001 150 0 0 0 0.042210001
3.3329999 -0.28299999 -0.20100001 150 0 0 0 0.04222
3.3399999 -0.27399999 -0.19499999 152 0 0 0 0.042229999
3.3410001 -0.26499999 -0.189 152 0 0 0 0.042240001
3.3410001 -0.25600001 -0.183 152 0 0 0 0.04225
3.3380001 -0.24699999 -0.177 152 0 0 0 0.042259999
3.3410001 -0.23800001 -0.171 150 0 0 0 0.042270001
3.368 -0.23100001 -0.16599999 151 0 0 0 0.04228
3.3710001 -0.222 -0.16 151 0 0 0 0.042289998
3.3699999 -0.213 -0.154 151 0 0 0 0.042300001
3.3729999 -0.204 -0.148 150 0 0 0 0.042309999
3.4170001 -0.198 -0.14300001 154 0 0 0 0.042319998
3.4319999 -0.19 -0.138 152 0 0 0 0.042330001
3.431 -0.18000001 -0.131 150 0 0 0 0.042339999
3.434 -0.171 -0.125 150 0 0 0 0.042350002
3.4319999 -0.162 -0.118 150 0 0 0 0.04236
3.427 -0.153 -0.112 150 0 0 0 0.042369999
3.4300001 -0.14399999 -0.105 150 0 0 0 0.042380001
3.4319999 -0.13500001 -0.098999999 150 0 0 0 0.04239
3.4319999 -0.126 -0.093000002 150 0 0 0 0.042399999
3.4260001 -0.117 -0.086000003 150 0 0 0 0.042410001
3.427 -0.108 -0.079999998 151 0 0 0 0.04242
3.425 -0.098999999 -0.072999999 151 0 0 0 0.042429999
3.4260001 -0.090000004 -0.067000002 151 0 0 0 0.042440001
3.4230001 -0.079999998 -0.059999999 151 0 0 0 0.04245
3.4219999 -0.071999997 -0.052999999 151 0 0 0 0.042459998
3.424 -0.063000001 -0.046999998 151 0 0 0 0.042470001
3.4219999 -0.054000001 -0.039999999 151 0 0 0 0.042479999
3.425 -0.045000002 -0.034000002 151 0 0 0 0.042490002
3.4189999 -0.035999998 -0.027000001 151 0 0 0 0.0425
3.418 -0.027000001 -0.021 151 0 0 0 0.042509999
3.421 -0.017999999 -0.014 151 0 0 0 0.042520002
3.4159999 -0.0089999996 -0.0070000002 151 0 0 0 0.04253
3.418 0 -0.001 151 0 0 0 0.042539999
3.4159999 0.0080000004 0.0049999999 152 0 0 0 0.042550001
3.4260001 0.017000001 0.012 152 0 0 0 0.04256
3.4230001 0.025 0.017999999 152 0 0 0 0.042569999
3.4230001 0.034000002 0.025 152 0 0 0 0.042580001
3.418 0.043000001 0.032000002 152 0 0 0 0.04259
3.4119999 0.052000001 0.037999999 153 0 0 0 0.042599998
3.4070001 0.059999999 0.045000002 153 0 0 0 0.042610001
3.411 0.068999998 0.052000001 153 0 0 0 0.042619999
3.4059999 0.078000002 0.059 153 0 0 0 0.042629998
3.4059999 0.086000003 0.064999998 154 0 0 0 0.042640001
3.405 0.094999999 0.071999997 154 0 0 0 0.042649999
3.402 0.104 0.079000004 154 0 0 0 0.042660002
3.402 0.112 0.086000003 154 0 0 0 0.04267
3.404 0.121 0.093000002 154 0 0 0 0.042679999
3.404 0.13 0.098999999 153 0 0 0 0.042690001
3.4000001 0.138 0.106 153 0 0 0 0.0427
3.4070001 0.147 0.113 153 0 0 0 0.042709999
3.402 0.155 0.12 153 0 0 0 0.042720001
3.4000001 0.164 0.127 153 0 0 0 0.04273
3.411 0.17299999 0.134 153 0 0 0 0.042739999
3.405 0.18099999 0.141 153 0 0 0 0.042750001
3.398 0.19 0.148 153 0 0 0 0.04276
3.414 0.199 0.155 152 0 0 0 0.042769998
3.4130001 0.208 0.162 152 0 0 0 0.042780001
3.4089999 0.21600001 0.169 152 0 0 0 0.042789999
3.4119999 0.22499999 0.176 152 0 0 0 0.042800002
3.4100001 0.233 0.183 152 0 0 0 0.04281
3.4100001 0.242 0.19 152 0 0 0 0.042819999
3.4100001 0.25 0.197 152 0 0 0 0.042830002
3.401 0.25799999 0.204 151 0 0 0 0.04284
3.404 0.26699999 0.211 151 0 0 0 0.042849999
3.4030001 0.27500001 0.21799999 151 0 0 0 0.042860001
3.402 0.28400001 0.22499999 151 0 0 0 0.04287
3.4070001 0.29300001 0.233 151 0 0 0 0.042879999
3.404 0.301 0.23999999 151 0 0 0 0.042890001
3.402 0.30899999 0.24699999 151 0 0 0 0.0429
3.404 0.31799999 0.25400001 151 0 0 0 0.042909998
3.402 0.32600001 0.26100001 151 0 0 0 0.042920001
3.4000001 0.33399999 0.26899999 151 0 0 0 0.04293
3.3989999 0.34200001 0.27599999 151 0 0 0 0.042939998
3.404 0.35100001 0.28299999 151 0 0 0 0.042950001
3.402 0.36000001 0.29100001 151 0 0 0 0.042959999
3.404 0.368 0.29800001 151 0 0 0 0.042970002
3.401 0.37599999 0.30500001 151 0 0 0 0.04298
3.4000001 0.38499999 0.31299999 151 0 0 0 0.042989999
3.4000001 0.39300001 0.31999999 151 0 0 0 0.043000001
3.3989999 0.40099999 0.32699999 151 0 0 0 0.04301
3.4000001 0.40900001 0.33500001 150 0 0 0 0.043019999
3.3959999 0.417 0.34200001 150 0 0 0 0.043030001
3.3940001 0.42500001 0.34900001 150 0 0 0 0.04304
3.3940001 0.43399999 0.35699999 150 0 0 0 0.043049999
3.3970001 0.442 0.36500001 150 0 0 0 0.043060001
3.401 0.45100001 0.373 150 0 0 0 0.04307
3.4000001 0.45899999 0.38 151 0 0 0 0.043079998
3.4000001 0.46700001 0.38699999 150 0 0 0 0.043090001
3.391 0.47400001 0.39399999 150 0 0 0 0.043099999
3.3940001 0.48300001 0.40200001 150 0 0 0 0.043110002
3.3970001 0.491 0.41 150 0 0 0 0.043120001
3.3940001 0.49900001 0.417 151 0 0 0 0.043129999
3.3670001 0.50300002 0.42199999 150 0 0 0 0.043140002
3.3269999 0.505 0.42399999 150 0 0 0 0.04315
3.3280001 0.514 0.43200001 151 0 0 0 0.043159999
3.3280001 0.52200001 0.44 151 0 0 0 0.043170001
3.3080001 0.52600002 0.44499999 150 0 0 0 0.04318
3.2969999 0.53299999 0.45100001 150 0 0 0 0.043189999
3.289 0.53899997 0.45699999 150 0 0 0 0.043200001
3.2909999 0.54699999 0.465 151 0 0 0 0.04321
3.293 0.55500001 0.47299999 151 0 0 0 0.043219998
3.2909999 0.56300002 0.47999999 151 0 0 0 0.043230001
3.2869999 0.56999999 0.48699999 150 0 0 0 0.04324
3.2780001 0.57599998 0.49399999 44 0 0 0 0.043249998
3.24 0.57700002 0.49599999 29 0 0 0 0.043260001
3.2030001 0.57800001 0.49700001 29 0 0 0 0.043269999
3.151 0.57599998 0.49700001 29 0 0 0 0.043280002
3.092 0.57300001 0.495 29 0 0 0 0.04329
3.0320001 0.56900001 0.49200001 29 0 0 0 0.043299999
2.9630001 0.56300002 0.48800001 28 0 0 0 0.043310001
2.8970001 0.55699998 0.484 27 0 0 0 0.04332
2.8369999 0.55199999 0.48100001 27 0 0 0 0.043329999
2.786 0.54900002 0.479 26 0 0 0 0.043340001
2.7379999 0.546 0.477 26 0 0 0 0.04335
2.684 0.54100001 0.47400001 25 0 0 0 0.043359999
2.628 0.53600001 0.47099999 23 0 0 0 0.043370001
2.582 0.53299999 0.46900001 22 0 0 0 0.04338
2.5409999 0.52999997 0.46799999 20 0 0 0 0.043389998
2.494 0.52600002 0.465 19 0 0 0 0.043400001
2.457 0.52399999 0.46399999 18 0 0 0 0.043409999
2.4170001 0.52100003 0.463 17 0 0 0 0.043419998
2.382 0.51899999 0.46200001 17 0 0 0 0.043430001
2.3440001 0.51599997 0.46000001 17 0 0 0 0.043439999
2.2839999 0.50800002 0.454 48 0 0 0 0.043450002
2.27 0.50999999 0.45699999 150 0 0 0 0.04346
2.266 0.514 0.46200001 151 0 0 0 0.043469999
2.2650001 0.51899999 0.46700001 151 0 0 0 0.043480001
2.263 0.52399999 0.47299999 151 0 0 0 0.04349
2.2639999 0.52899998 0.47799999 151 0 0 0 0.043499999
2.244 0.52999997 0.47999999 150 0 0 0 0.043510001
2.237 0.53299999 0.484 150 0 0 0 0.04352
2.237 0.53799999 0.49000001 151 0 0 0 0.043529999
2.237 0.54299998 0.495 151 0 0 0 0.043540001
2.2360001 0.54799998 0.50099999 151 0 0 0 0.04355
2.237 0.55299997 0.50700003 151 0 0 0 0.043559998
2.2349999 0.55699998 0.51200002 151 0 0 0 0.043570001
2.234 0.56199998 0.51800001 151 0 0 0 0.043579999
2.2320001 0.56599998 0.523 151 0 0 0 0.043590002
2.2290001 0.57099998 0.528 151 0 0 0 0.0436
2.2309999 0.57599998 0.53500003 151 0 0 0 0.043609999
2.2309999 0.58099997 0.54000002 151 0 0 0 0.043620002
2.233 0.58600003 0.54699999 151 0 0 0 0.04363
2.2379999 0.59200001 0.55400002 151 0 0 0 0.043639999
2.2390001 0.59799999 0.56 151 0 0 0 0.043650001
2.2409999 0.60299999 0.56699997 151 0 0 0 0.04366
2.2409999 0.60799998 0.57200003 151 0 0 0 0.043669999
2.2390001 0.61199999 0.57800001 151 0 0 0 0.043680001
2.243 0.61799997 0.58499998 151 0 0 0 0.04369
2.2409999 0.62199998 0.58999997 151 0 0 0 0.043699998
2.2390001 0.62599999 0.59600002 151 0 0 0 0.043710001
2.2390001 0.63099998 0.602 151 0 0 0 0.043719999
2.2420001 0.63599998 0.60900003 151 0 0 0 0.043729998
0 0 0 0 0 0 0 0.043740001
0 0 0 0 0 0 0 0.043749999
4.0250001 1.169 1.126 65 0 0 0 0.043760002
4.0279999 1.178 1.138 63 0 0 0 0.04377
4.027 1.186 1.148 60 0 0 0 0.043779999
4.026 1.193 1.159 61 0 0 0 0.043790001
4.0300002 1.2029999 1.1720001 65 0 0 0 0.0438
4.026 1.21 1.181 65 0 0 0 0.043809999
1.502 0.454 0.44499999 0 0 0 0 0.043820001
4.0159998 1.223 1.2 31 0 0 0 0.04383
4.007 1.228 1.209 14 0 0 0 0.043839999
3.9860001 1.23 1.2130001 4 0 0 0 0.043850001
1.4960001 0.46399999 0.45899999 2 0 0 0 0.04386
1.4910001 0.46599999 0.46200001 2 0 0 0 0.043869998
1.476 0.46399999 0.461 2 0 0 0 0.043880001
1.454 0.46000001 0.45899999 10 0 0 0 0.043889999
1.4400001 0.458 0.458 10 0 0 0 0.043900002
1.437 0.46000001 0.461 10 0 0 0 0.04391
1.42 0.45699999 0.46000001 10 0 0 0 0.043919999
1.409 0.456 0.46000001 9 0 0 0 0.043930002
1.397 0.45500001 0.46000001 9 0 0 0 0.04394
1.3890001 0.45500001 0.46200001 10 0 0 0 0.043949999
1.381 0.45500001 0.463 9 0 0 0 0.043960001
1.3710001 0.454 0.46399999 9 0 0 0 0.04397
1.3609999 0.45300001 0.46399999 9 0 0 0 0.043979999
1.363 0.456 0.46799999 10 0 0 0 0.043990001
1.357 0.45699999 0.47 10 0 0 0 0.044
1.346 0.45500001 0.47 10 0 0 0 0.044009998
1.337 0.45500001 0.47099999 11 0 0 0 0.044020001
1.327 0.45300001 0.47099999 28 0 0 0 0.04403
1.314 0.45199999 0.47099999 66 0 0 0 0.044039998
1.301 0.449 0.47 142 0 0 0 0.044050001
1.295 0.449 0.47099999 150 0 0 0 0.044059999
1.29 0.44999999 0.47299999 150 0 0 0 0.044070002
1.291 0.45199999 0.477 150 0 0 0 0.04408
1.293 0.45500001 0.48199999 150 0 0 0 0.044089999
1.288 0.45500001 0.48300001 150 0 0 0 0.044100001
1.29 0.458 0.48800001 150 0 0 0 0.04411
1.288 0.46000001 0.491 150 0 0 0 0.044119999
1.29 0.46200001 0.495 150 0 0 0 0.044130001
1.29 0.46399999 0.49900001 150 0 0 0 0.04414
1.289 0.46599999 0.50300002 150 0 0 0 0.044149999
1.289 0.46799999 0.50599998 150 0 0 0 0.044160001
1.2869999 0.46900001 0.509 150 0 0 0 0.04417
1.285 0.47 0.51200002 150 0 0 0 0.044179998
1.284 0.472 0.51499999 150 0 0 0 0.044190001
1.285 0.47400001 0.51899999 150 0 0 0 0.044199999
1.286 0.47600001 0.52399999 150 0 0 0 0.044210002
1.286 0.47799999 0.52700001 150 0 0 0 0.044220001
1.285 0.479 0.52999997 150 0 0 0 0.044229999
1.291 0.48300001 0.537 150 0 0 0 0.044240002
1.266 0.47600001 0.52999997 150 0 0 0 0.04425
1.263 0.47600001 0.53200001 150 0 0 0 0.044259999
1.272 0.48100001 0.54000002 150 0 0 0 0.044270001
1.27 0.48199999 0.54299998 150 0 0 0 0.04428
1.2690001 0.48300001 0.54500002 150 0 0 0 0.044289999
1.267 0.484 0.54799998 150 0 0 0 0.044300001
1.266 0.48500001 0.551 150 0 0 0 0.04431
1.2640001 0.486 0.55400002 150 0 0 0 0.044319998
1.262 0.48699999 0.55699998 150 0 0 0 0.044330001
1.2690001 0.491 0.56300002 150 0 0 0 0.04434
1.267 0.491 0.56599998 150 0 0 0 0.044349998
1.266 0.49200001 0.56900001 150 0 0 0 0.044360001
1.2640001 0.493 0.57200003 150 0 0 0 0.044369999
1.262 0.493 0.57499999 150 0 0 0 0.044380002
1.261 0.49399999 0.57700002 150 0 0 0 0.04439
1.27 0.49900001 0.58499998 150 0 0 0 0.044399999
1.268 0.49900001 0.588 150 0 0 0 0.044410001
1.267 0.5 0.59100002 150 0 0 0 0.04442
1.2690001 0.50199997 0.59500003 150 0 0 0 0.044429999
1.268 0.50300002 0.59799999 150 0 0 0 0.044440001
1.262 0.50099999 0.59899998 150 0 0 0 0.04445
1.267 0.50400001 0.60500002 150 0 0 0 0.044459999
1.266 0.505 0.60699999 150 0 0 0 0.044470001
1.267 0.50599998 0.611 150 0 0 0 0.04448
1.266 0.50599998 0.61400002 150 0 0 0 0.044489998
1.2690001 0.509 0.61900002 150 0 0 0 0.044500001
1.268 0.509 0.62199998 150 0 0 0 0.044509999
1.2690001 0.50999999 0.62599999 150 0 0 0 0.044520002
1.268 0.50999999 0.62800002 150 0 0 0 0.044530001
1.266 0.51099998 0.63099998 150 0 0 0 0.044539999
1.27 0.51300001 0.63599998 150 0 0 0 0.044550002
1.2640001 0.51099998 0.63599998 150 0 0 0 0.04456
1.268 0.51300001 0.64099997 150 0 0 0 0.044569999
1.2690001 0.514 0.64499998 150 0 0 0 0.044580001
1.27 0.51499999 0.648 150 0 0 0 0.04459
1.266 0.514 0.64999998 150 0 0 0 0.044599999
1.265 0.514 0.65200001 150 0 0 0 0.044610001
1.288 0.52399999 0.667 150 0 0 0 0.04462
1.286 0.523 0.66900003 150 0 0 0 0.044629999
1.2869999 0.52399999 0.67199999 150 0 0 0 0.044640001
1.286 0.52399999 0.67500001 150 0 0 0 0.04465
1.288 0.52499998 0.67900002 150 0 0 0 0.044659998
1.293 0.52700001 0.685 150 0 0 0 0.044670001
1.2690001 0.51700002 0.67400002 150 0 0 0 0.044679999
1.284 0.52399999 0.68599999 150 0 0 0 0.044690002
1.285 0.52399999 0.68900001 150 0 0 0 0.0447
1.289 0.52499998 0.69400001 150 0 0 0 0.044709999
1.288 0.52499998 0.69599998 150 0 0 0 0.044720002
1.2640001 0.51499999 0.685 150 0 0 0 0.04473
1.27 0.51800001 0.69099998 150 0 0 0 0.044739999
1.293 0.52600002 0.70599997 150 0 0 0 0.044750001
1.293 0.52600002 0.70899999 150 0 0 0 0.04476
1.291 0.52499998 0.70999998 150 0 0 0 0.044769999
1.267 0.51499999 0.69999999 150 0 0 0 0.044780001
1.289 0.52399999 0.71399999 150 0 0 0 0.04479
1.273 0.51700002 0.708 150 0 0 0 0.044799998
1.288 0.52200001 0.71799999 150 0 0 0 0.044810001
1.289 0.52200001 0.72100002 9 0 0 0 0.044819999
1.2920001 0.523 0.72500002 150 0 0 0 0.044829998
1.27 0.51300001 0.71499997 150 0 0 0 0.044840001
1.2690001 0.51300001 0.71700001 150 0 0 0 0.044849999
1.27 0.51200002 0.71899998 150 0 0 0 0.044860002
1.27 0.51099998 0.72100002 150 0 0 0 0.04487
1.27 0.51099998 0.72299999 150 0 0 0 0.044879999
1.2690001 0.509 0.72399998 150 0 0 0 0.044890001
1.2690001 0.50800002 0.72600001 150 0 0 0 0.0449
1.275 0.50999999 0.73199999 150 0 0 0 0.044909999
1.275 0.509 0.73299998 150 0 0 0 0.044920001
1.274 0.50800002 0.73500001 150 0 0 0 0.04493
1.274 0.50700003 0.736 150 0 0 0 0.044939999
1.274 0.505 0.73799998 150 0 0 0 0.044950001
1.273 0.50400001 0.73900002 150 0 0 0 0.04496
1.273 0.50300002 0.74000001 150 0 0 0 0.044969998
1.273 0.50199997 0.74199998 150 0 0 0 0.044980001
1.273 0.5 0.74299997 150 0 0 0 0.044989999
1.273 0.49900001 0.74400002 150 0 0 0 0.045000002
1.272 0.49700001 0.745 150 0 0 0 0.04501
1.272 0.49599999 0.74599999 150 0 0 0 0.045019999
1.28 0.49700001 0.75199997 150 0 0 0 0.045030002
1.277 0.495 0.75099999 150 0 0 0 0.04504
1.279 0.49399999 0.75400001 150 0 0 0 0.045049999
1.277 0.49200001 0.75300002 150 0 0 0 0.045060001
1.2819999 0.49200001 0.75700003 150 0 0 0 0.04507
1.2819999 0.491 0.75800002 150 0 0 0 0.045079999
1.28 0.48800001 0.75800002 150 0 0 0 0.045090001
1.277 0.48500001 0.75700003 150 0 0 0 0.0451
1.278 0.484 0.75800002 150 0 0 0 0.045109998
1.28 0.48300001 0.75999999 150 0 0 0 0.045120001
1.28 0.48100001 0.76099998 150 0 0 0 0.04513
1.278 0.479 0.75999999 150 0 0 0 0.045139998
1.279 0.477 0.75999999 150 0 0 0 0.045150001
1.279 0.47499999 0.76099998 150 0 0 0 0.045159999
1.279 0.47299999 0.76099998 150 0 0 0 0.045170002
1.28 0.472 0.76200002 150 0 0 0 0.04518
1.28 0.47 0.76200002 150 0 0 0 0.045189999
1.281 0.46799999 0.76300001 150 0 0 0 0.045200001
1.276 0.46399999 0.75999999 150 0 0 0 0.04521
1.277 0.46200001 0.75999999 150 0 0 0 0.045219999
1.2819999 0.46200001 0.764 150 0 0 0 0.045230001
1.279 0.45899999 0.76099998 150 0 0 0 0.04524
1.278 0.456 0.76099998 150 0 0 0 0.045249999
1.279 0.454 0.76099998 150 0 0 0 0.045260001
1.281 0.45300001 0.76200002 150 0 0 0 0.04527
1.281 0.45100001 0.76200002 150 0 0 0 0.045279998
1.29 0.45100001 0.76700002 150 0 0 0 0.045290001
1.288 0.44800001 0.76499999 150 0 0 0 0.045299999
1.298 0.44999999 0.76999998 130 0 0 0 0.045310002
1.306 0.44999999 0.77399999 63 0 0 0 0.04532
1.316 0.45100001 0.77899998 18 0 0 0 0.045329999
1.337 0.456 0.79100001 13 0 0 0 0.045340002
1.347 0.456 0.796 13 0 0 0 0.04535
1.362 0.45899999 0.80400002 13 0 0 0 0.045359999
1.372 0.46000001 0.80900002 13 0 0 0 0.045370001
1.3839999 0.461 0.815 13 0 0 0 0.04538
1.3940001 0.46200001 0.81999999 14 0 0 0 0.045389999
1.402 0.461 0.824 14 0 0 0 0.045400001
1.416 0.463 0.83099997 15 0 0 0 0.04541
1.423 0.463 0.833 15 0 0 0 0.045419998
1.4349999 0.46399999 0.83899999 15 0 0 0 0.045430001
1.446 0.46399999 0.84399998 10 0 0 0 0.04544
1.456 0.465 0.84799999 10 0 0 0 0.045449998
1.472 0.46700001 0.85600001 10 0 0 0 0.045460001
1.4859999 0.46799999 0.86199999 11 0 0 0 0.045469999
0.041000001 0.013 0.024 0 0 0 0 0.045480002
1.781 0.55400002 1.029 150 0 0 0 0.04549
0.043000001 0.013 0.025 0 0 0 0 0.045499999
2.681 0.82200003 1.543 150 0 0 0 0.045510001
2.7179999 0.82800001 1.5599999 80 0 0 0 0.04552
2.7190001 0.82300001 1.557 74 0 0 0 0.045529999
2.7279999 0.81999999 1.559 76 0 0 0 0.045540001
2.7190001 0.81099999 1.55 104 0 0 0 0.04555
2.5380001 0.75199997 1.442 150 0 0 0 0.045559999
2.3889999 0.70200002 1.354 151 0 0 0 0.045570001
2.329 0.68000001 1.317 150 0 0 0 0.04558
2.2620001 0.65499997 1.275 150 0 0 0 0.045589998
2.2409999 0.64499998 1.26 150 0 0 0 0.045600001
2.2490001 0.64200002 1.261 150 0 0 0 0.045609999
2.247 0.63700002 1.255 150 0 0 0 0.045620002
2.244 0.63099998 1.25 150 0 0 0 0.045630001
2.247 0.62699997 1.248 150 0 0 0 0.045639999
2.2479999 0.62300003 1.245 150 0 0 0 0.045650002
2.2479999 0.61799997 1.24 150 0 0 0 0.04566
2.2420001 0.611 1.233 150 0 0 0 0.045669999
2.2390001 0.60600001 1.227 150 0 0 0 0.045680001
2.237 0.60000002 1.221 150 0 0 0 0.04569
2.237 0.59500003 1.217 150 0 0 0 0.045699999
2.2409999 0.59200001 1.215 150 0 0 0 0.045710001
2.2390001 0.58600003 1.209 150 0 0 0 0.04572
2.24 0.58200002 1.205 150 0 0 0 0.045729998
2.2420001 0.57700002 1.201 150 0 0 0 0.045740001
2.237 0.57099998 1.194 150 0 0 0 0.04575
2.24 0.56699997 1.191 150 0 0 0 0.045759998
2.2379999 0.56199998 1.1849999 150 0 0 0 0.045770001
2.2409999 0.55800003 1.182 150 0 0 0 0.045779999
2.244 0.55400002 1.178 150 0 0 0 0.045790002
2.2409999 0.54900002 1.1720001 150 0 0 0 0.0458
2.2420001 0.54400003 1.1670001 150 0 0 0 0.045809999
2.2609999 0.54400003 1.1720001 150 0 0 0 0.045820002
2.2709999 0.542 1.1720001 150 0 0 0 0.04583
2.2720001 0.537 1.1670001 150 0 0 0 0.045839999
2.276 0.53299999 1.164 150 0 0 0 0.045850001
2.2720001 0.52700001 1.1569999 150 0 0 0 0.04586
2.273 0.523 1.152 150 0 0 0 0.045869999
2.293 0.523 1.156 44 0 0 0 0.045880001
2.3399999 0.52899998 1.175 22 0 0 0 0.04589
2.3770001 0.53200001 1.187 20 0 0 0 0.045899998
2.4119999 0.53500003 1.199 17 0 0 0 0.045910001
2.4419999 0.53600001 1.207 16 0 0 0 0.045919999
2.487 0.54100001 1.224 20 0 0 0 0.045929998
2.53 0.54500002 1.238 22 0 0 0 0.045940001
2.5650001 0.54799998 1.249 25 0 0 0 0.045949999
2.612 0.55199999 1.265 25 0 0 0 0.045960002
2.6600001 0.55699998 1.2819999 27 0 0 0 0.04597
2.723 0.565 1.3049999 30 0 0 0 0.045979999
2.786 0.57200003 1.3279999 32 0 0 0 0.045990001
2.8410001 0.57800001 1.346 34 0 0 0 0.046
2.895 0.583 1.365 32 0 0 0 0.046009999
2.9579999 0.58999997 1.386 33 0 0 0 0.046020001
3.0050001 0.59399998 1.401 33 0 0 0 0.04603
3.05 0.59600002 1.413 33 0 0 0 0.046039999
3.089 0.59799999 1.423 32 0 0 0 0.046050001
3.1389999 0.60100001 1.437 29 0 0 0 0.04606
3.171 0.60100001 1.443 24 0 0 0 0.046069998
3.2130001 0.60299999 1.454 23 0 0 0 0.046080001
3.2460001 0.60299999 1.46 21 0 0 0 0.046089999
3.277 0.60299999 1.465 27 0 0 0 0.046100002
3.2880001 0.59899998 1.461 38 0 0 0 0.04611
3.3 0.59399998 1.457 132 0 0 0 0.046119999
3.303 0.58899999 1.449 150 0 0 0 0.046130002
3.302 0.58200002 1.439 150 0 0 0 0.04614
3.3010001 0.57599998 1.4299999 150 0 0 0 0.046149999
3.302 0.56999999 1.42 150 0 0 0 0.046160001
3.306 0.565 1.413 150 0 0 0 0.04617
3.3039999 0.55800003 1.402 150 0 0 0 0.046179999
3.302 0.55199999 1.392 150 0 0 0 0.046190001
3.3010001 0.546 1.382 150 0 0 0 0.0462
3.3050001 0.54000002 1.375 150 0 0 0 0.046209998
3.306 0.53399998 1.365 150 0 0 0 0.046220001
3.3069999 0.52899998 1.3559999 150 0 0 0 0.04623
3.3080001 0.523 1.347 150 0 0 0 0.046239998
3.3010001 0.51599997 1.335 150 0 0 0 0.046250001
3.3 0.50999999 1.324 150 0 0 0 0.046259999
3.3 0.505 1.3150001 150 0 0 0 0.046270002
3.3080001 0.5 1.308 150 0 0 0 0.04628
3.306 0.49399999 1.298 150 0 0 0 0.046289999
3.303 0.48800001 1.2869999 150 0 0 0 0.046300001
3.3199999 0.48500001 1.284 150 0 0 0 0.04631
3.3340001 0.48100001 1.279 150 0 0 0 0.046319999
3.342 0.47600001 1.272 150 0 0 0 0.046330001
3.339 0.47099999 1.261 150 0 0 0 0.04634
3.3429999 0.46599999 1.253 125 0 0 0 0.046349999
3.3659999 0.463 1.251 61 0 0 0 0.046360001
3.398 0.46200001 1.253 150 0 0 0 0.04637
3.405 0.45699999 1.245 150 0 0 0 0.046379998
3.401 0.45100001 1.234 150 0 0 0 0.046390001
3.4000001 0.44499999 1.223 150 0 0 0 0.046399999
3.402 0.44 1.2130001 150 0 0 0 0.046410002
3.405 0.435 1.204 150 0 0 0 0.04642
3.402 0.42899999 1.193 150 0 0 0 0.046429999
3.4030001 0.42399999 1.183 150 0 0 0 0.046440002
3.404 0.419 1.173 150 0 0 0 0.04645
3.4059999 0.414 1.164 150 0 0 0 0.046459999
3.404 0.40900001 1.152 150 0 0 0 0.046470001
3.4070001 0.40400001 1.143 150 0 0 0 0.04648
3.404 0.398 1.132 150 0 0 0 0.046489999
3.404 0.39300001 1.1210001 150 0 0 0 0.046500001
3.408 0.38800001 1.112 150 0 0 0 0.04651
3.3989999 0.382 1.099 150 0 0 0 0.046519998
3.402 0.37799999 1.09 150 0 0 0 0.046530001
3.4089999 0.373 1.081 150 0 0 0 0.04654
3.4059999 0.368 1.0700001 150 0 0 0 0.046549998
3.4059999 0.36300001 1.059 150 0 0 0 0.046560001
3.4089999 0.35800001 1.05 150 0 0 0 0.046569999
3.4059999 0.35299999 1.038 150 0 0 0 0.046580002
3.408 0.34799999 1.028 150 0 0 0 0.04659
3.4100001 0.34400001 1.0190001 150 0 0 0 0.046599999
3.4070001 0.33899999 1.007 150 0 0 0 0.046610001
3.411 0.33399999 0.99800003 150 0 0 0 0.04662
3.4070001 0.329 0.986 150 0 0 0 0.046629999
3.408 0.324 0.97600001 150 0 0 0 0.046640001
3.4089999 0.31999999 0.96600002 150 0 0 0 0.04665
3.4100001 0.315 0.95599997 150 0 0 0 0.046659999
3.4089999 0.31 0.94499999 150 0 0 0 0.046670001
3.4089999 0.30599999 0.93400002 150 0 0 0 0.04668
3.4100001 0.301 0.92400002 150 0 0 0 0.046689998
3.4059999 0.296 0.912 150 0 0 0 0.046700001
3.4100001 0.292 0.903 150 0 0 0 0.046709999
3.4070001 0.28799999 0.89200002 150 0 0 0 0.046720002
3.4059999 0.28299999 0.88099998 150 0 0 0 0.046730001
3.4089999 0.27900001 0.87099999 150 0 0 0 0.046739999
3.4130001 0.27500001 0.861 150 0 0 0 0.046750002
3.4130001 0.27000001 0.85100001 150 0 0 0 0.04676
3.4089999 0.266 0.83999997 150 0 0 0 0.046769999
3.411 0.26199999 0.829 150 0 0 0 0.046780001
3.414 0.25799999 0.81900001 150 0 0 0 0.04679
3.4119999 0.25299999 0.80800003 150 0 0 0 0.046799999
3.414 0.249 0.79799998 150 0 0 0 0.046810001
3.411 0.245 0.787 150 0 0 0 0.04682
3.414 0.241 0.77700001 150 0 0 0 0.046829998
3.4159999 0.237 0.76700002 150 0 0 0 0.046840001
3.418 0.233 0.75700003 150 0 0 0 0.04685
3.415 0.228 0.745 150 0 0 0 0.046859998
3.4119999 0.22400001 0.73400003 150 0 0 0 0.046870001
3.414 0.22 0.72399998 150 0 0 0 0.046879999
3.4159999 0.21600001 0.71399999 150 0 0 0 0.046890002
3.415 0.212 0.70300001 150 0 0 0 0.0469
3.4119999 0.208 0.69099998 150 0 0 0 0.046909999
3.414 0.204 0.68099999 150 0 0 0 0.046920002
3.4159999 0.2 0.671 150 0 0 0 0.04693
3.4159999 0.197 0.66000003 150 0 0 0 0.046939999
3.415 0.193 0.64999998 150 0 0 0 0.046950001
3.4170001 0.189 0.639 150 0 0 0 0.04696
3.418 0.185 0.62900001 150 0 0 0 0.046969999
3.4170001 0.18099999 0.61799997 150 0 0 0 0.046980001
3.4130001 0.177 0.60699999 150 0 0 0 0.04699
3.411 0.17399999 0.59600002 150 0 0 0 0.046999998
3.4170001 0.17 0.58600003 150 0 0 0 0.047010001
3.4159999 0.16599999 0.57499999 150 0 0 0 0.047019999
3.4170001 0.163 0.565 151 0 0 0 0.047029998
3.4119999 0.15899999 0.55299997 150 0 0 0 0.047040001
3.418 0.155 0.54400003 150 0 0 0 0.047049999
3.4159999 0.152 0.53299999 150 0 0 0 0.047060002
3.4170001 0.148 0.52200001 150 0 0 0 0.04707
3.418 0.145 0.51200002 150 0 0 0 0.047079999
3.4170001 0.141 0.50099999 150 0 0 0 0.047090001
3.4159999 0.138 0.49000001 150 0 0 0 0.0471
3.4170001 0.134 0.47999999 150 0 0 0 0.047109999
3.4189999 0.131 0.46900001 150 0 0 0 0.047120001
3.4200001 0.127 0.45899999 150 0 0 0 0.04713
3.4200001 0.124 0.44800001 150 0 0 0 0.047139999
3.4159999 0.12 0.43700001 150 0 0 0 0.047150001
3.4170001 0.117 0.42699999 151 0 0 0 0.04716
3.418 0.114 0.41600001 150 0 0 0 0.047169998
3.415 0.11 0.405 150 0 0 0 0.047180001
3.4189999 0.107 0.39500001 150 0 0 0 0.047189999
3.418 0.104 0.384 150 0 0 0 0.047200002
3.4200001 0.101 0.373 150 0 0 0 0.04721
3.4230001 0.097000003 0.36300001 151 0 0 0 0.047219999
3.414 0.093999997 0.35100001 150 0 0 0 0.047230002
3.4200001 0.090999998 0.34099999 151 0 0 0 0.04724
3.4159999 0.088 0.33000001 150 0 0 0 0.047249999
3.4219999 0.085000001 0.31999999 150 0 0 0 0.047260001
3.4130001 0.081 0.30899999 151 0 0 0 0.04727
3.415 0.078000002 0.29800001 151 0 0 0 0.047279999
3.414 0.075000003 0.28799999 151 0 0 0 0.047290001
3.411 0.071999997 0.27700001 151 0 0 0 0.0473
3.415 0.068999998 0.266 151 0 0 0 0.047309998
3.411 0.066 0.255 151 0 0 0 0.047320001
3.4119999 0.063000001 0.245 151 0 0 0 0.04733
3.418 0.059999999 0.234 151 0 0 0 0.047339998
3.414 0.057 0.223 151 0 0 0 0.047350001
3.414 0.054000001 0.213 151 0 0 0 0.047359999
3.4170001 0.050999999 0.20200001 151 0 0 0 0.047370002
3.4130001 0.048 0.191 151 0 0 0 0.04738
3.4189999 0.045000002 0.18099999 151 0 0 0 0.047389999
3.4200001 0.041999999 0.17 151 0 0 0 0.047400001
3.4130001 0.039000001 0.15899999 151 0 0 0 0.04741
3.415 0.037 0.149 151 0 0 0 0.047419999
3.414 0.034000002 0.138 151 0 0 0 0.047430001
3.414 0.030999999 0.127 151 0 0 0 0.04744
3.4170001 0.028000001 0.117 151 0 0 0 0.047449999
3.4189999 0.025 0.106 151 0 0 0 0.047460001
3.4170001 0.023 0.094999999 151 0 0 0 0.04747
3.4170001 0.02 0.083999999 152 0 0 0 0.047479998
3.4230001 0.017000001 0.074000001 152 0 0 0 0.047490001
3.4230001 0.015 0.063000001 152 0 0 0 0.047499999
3.4230001 0.012 0.052000001 152 0 0 0 0.047510002
3.418 0.0089999996 0.041000001 152 0 0 0 0.04752
3.418 0.0070000002 0.030999999 151 0 0 0 0.047529999
3.4189999 0.0040000002 0.02 151 0 0 0 0.047540002
3.421 0.001 0.0089999996 151 0 0 0 0.04755
3.4159999 0 0 151 0 0 0 0.047559999
3.415 -0.003 -0.011 151 0 0 0 0.047570001
3.4159999 -0.0049999999 -0.022 151 0 0 0 0.04758
3.4159999 -0.0080000004 -0.033 151 0 0 0 0.047589999
3.4159999 -0.0099999998 -0.044 151 0 0 0 0.047600001
3.4230001 -0.013 -0.054000001 151 0 0 0 0.04761
3.4219999 -0.015 -0.064999998 151 0 0 0 0.047619998
3.4159999 -0.017999999 -0.075999998 151 0 0 0 0.047630001
3.415 -0.02 -0.086999997 151 0 0 0 0.04764
3.415 -0.023 -0.097000003 151 0 0 0 0.047649998
3.4159999 -0.025 -0.108 151 0 0 0 0.047660001
3.418 -0.027000001 -0.119 151 0 0 0 0.047669999
3.4159999 -0.029999999 -0.13 151 0 0 0 0.047680002
3.4170001 -0.032000002 -0.141 151 0 0 0 0.04769
3.418 -0.034000002 -0.152 151 0 0 0 0.047699999
3.4170001 -0.037 -0.162 151 0 0 0 0.047710001
3.4170001 -0.039000001 -0.17299999 151 0 0 0 0.04772
3.4170001 -0.041000001 -0.184 151 0 0 0 0.047729999
3.415 -0.044 -0.19499999 151 0 0 0 0.047740001
3.421 -0.046 -0.206 150 0 0 0 0.04775
3.4170001 -0.048 -0.21699999 151 0 0 0 0.047759999
3.4200001 -0.050000001 -0.228 151 0 0 0 0.047770001
3.4159999 -0.052000001 -0.23800001 151 0 0 0 0.04778
3.4200001 -0.055 -0.25 150 0 0 0 0.047789998
3.414 -0.057 -0.25999999 150 0 0 0 0.047800001
3.418 -0.059 -0.271 151 0 0 0 0.047809999
3.4170001 -0.061000001 -0.28200001 151 0 0 0 0.047820002
3.4200001 -0.063000001 -0.29300001 151 0 0 0 0.047830001
3.421 -0.064999998 -0.30399999 151 0 0 0 0.047839999
3.421 -0.067000002 -0.315 151 0 0 0 0.047850002
3.4200001 -0.068999998 -0.32600001 150 0 0 0 0.04786
3.418 -0.071000002 -0.33700001 150 0 0 0 0.047869999
3.4200001 -0.072999999 -0.34799999 150 0 0 0 0.047880001
3.4260001 -0.075000003 -0.36000001 150 0 0 0 0.04789
3.425 -0.077 -0.37099999 150 0 0 0 0.047899999
3.4230001 -0.079000004 -0.38100001 150 0 0 0 0.047910001
3.4230001 -0.081 -0.39199999 150 0 0 0 0.04792
3.4260001 -0.082999997 -0.40400001 150 0 0 0 0.047929998
3.424 -0.085000001 -0.41499999 150 0 0 0 0.047940001
3.424 -0.086999997 -0.426 150 0 0 0 0.04795
3.425 -0.089000002 -0.43700001 150 0 0 0 0.047959998
3.4230001 -0.090000004 -0.44800001 150 0 0 0 0.047970001
3.4219999 -0.092 -0.458 150 0 0 0 0.047979999
3.4230001 -0.093999997 -0.47 150 0 0 0 0.047990002
3.424 -0.096000001 -0.48100001 150 0 0 0 0.048
3.4230001 -0.097000003 -0.49200001 150 0 0 0 0.048009999
3.425 -0.098999999 -0.50300002 150 0 0 0 0.048020002
3.424 -0.101 -0.514 150 0 0 0 0.04803
3.418 -0.102 -0.52399999 150 0 0 0 0.048039999
3.4219999 -0.104 -0.53600001 150 0 0 0 0.048050001
3.4189999 -0.106 -0.54699999 150 0 0 0 0.04806
3.421 -0.107 -0.55800003 150 0 0 0 0.048069999
3.4189999 -0.109 -0.56900001 150 0 0 0 0.048080001
3.4260001 -0.111 -0.58099997 150 0 0 0 0.04809
3.425 -0.112 -0.59200001 150 0 0 0 0.048099998
3.4230001 -0.114 -0.60299999 150 0 0 0 0.048110001
3.421 -0.115 -0.61400002 150 0 0 0 0.048119999
3.421 -0.117 -0.625 150 0 0 0 0.048129998
3.4189999 -0.118 -0.63599998 150 0 0 0 0.048140001
3.418 -0.119 -0.64700001 150 0 0 0 0.048149999
3.4219999 -0.121 -0.65899998 150 0 0 0 0.048160002
3.4189999 -0.122 -0.67000002 150 0 0 0 0.04817
3.421 -0.124 -0.68099999 150 0 0 0 0.048179999
3.418 -0.125 -0.69199997 150 0 0 0 0.048190001
3.421 -0.126 -0.704 150 0 0 0 0.0482
3.4200001 -0.12800001 -0.71499997 150 0 0 0 0.048209999
3.4189999 -0.12899999 -0.72600001 150 0 0 0 0.048220001
3.4200001 -0.13 -0.73799998 150 0 0 0 0.04823
3.4189999 -0.131 -0.74900001 150 0 0 0 0.048239999
3.4170001 -0.132 -0.759 150 0 0 0 0.048250001
3.421 -0.134 -0.77200001 150 0 0 0 0.04826
3.414 -0.13500001 -0.78200001 150 0 0 0 0.048269998
3.4219999 -0.13600001 -0.79500002 150 0 0 0 0.048280001
3.418 -0.13699999 -0.80500001 150 0 0 0 0.048289999
3.4170001 -0.138 -0.81599998 150 0 0 0 0.048300002
3.424 -0.139 -0.829 150 0 0 0 0.04831
3.4200001 -0.14 -0.83999997 55 0 0 0 0.048319999
3.402 -0.14 -0.847 27 0 0 0 0.048330002
3.3529999 -0.139 -0.84600002 22 0 0 0 0.04834
3.3099999 -0.139 -0.84600002 20 0 0 0 0.048349999
3.27 -0.138 -0.847 20 0 0 0 0.048360001
3.23 -0.13699999 -0.847 22 0 0 0 0.04837
3.191 -0.13600001 -0.84799999 25 0 0 0 0.048379999
3.1600001 -0.13500001 -0.85000002 26 0 0 0 0.048390001
3.1259999 -0.13500001 -0.85100001 27 0 0 0 0.0484
3.086 -0.134 -0.85100001 26 0 0 0 0.048409998
3.0409999 -0.132 -0.84899998 26 0 0 0 0.048420001
3.003 -0.131 -0.84799999 26 0 0 0 0.04843
2.9619999 -0.13 -0.84600002 25 0 0 0 0.048439998
2.9189999 -0.12899999 -0.84399998 24 0 0 0 0.048450001
2.885 -0.12800001 -0.84399998 24 0 0 0 0.048459999
2.846 -0.127 -0.84200001 22 0 0 0 0.048470002
2.812 -0.126 -0.84100002 22 0 0 0 0.04848
2.7780001 -0.124 -0.84100002 22 0 0 0 0.048489999
2.7509999 -0.124 -0.84200001 22 0 0 0 0.048500001
2.717 -0.122 -0.83999997 24 0 0 0 0.04851
2.6860001 -0.122 -0.83999997 23 0 0 0 0.048519999
2.654 -0.12 -0.83899999 23 0 0 0 0.048530001
2.6259999 -0.119 -0.83899999 23 0 0 0 0.04854
2.599 -0.118 -0.83899999 23 0 0 0 0.048549999
2.569 -0.117 -0.838 25 0 0 0 0.048560001
2.54 -0.116 -0.83700001 24 0 0 0 0.04857
2.5109999 -0.115 -0.83600003 24 0 0 0 0.048579998
2.487 -0.114 -0.83700001 23 0 0 0 0.048590001
2.461 -0.113 -0.83600003 24 0 0 0 0.048599999
2.4360001 -0.112 -0.83600003 25 0 0 0 0.048610002
2.414 -0.111 -0.83700001 25 0 0 0 0.04862
2.391 -0.11 -0.83700001 25 0 0 0 0.048629999
2.3699999 -0.109 -0.838 25 0 0 0 0.048640002
2.3440001 -0.108 -0.83700001 25 0 0 0 0.04865
2.322 -0.107 -0.83700001 25 0 0 0 0.048659999
2.3 -0.106 -0.83600003 25 0 0 0 0.048670001
2.2780001 -0.105 -0.83700001 24 0 0 0 0.04868
2.2539999 -0.104 -0.83499998 24 0 0 0 0.048689999
2.2349999 -0.103 -0.83600003 25 0 0 0 0.048700001
2.2079999 -0.101 -0.833 24 0 0 0 0.04871
2.1889999 -0.1 -0.83399999 24 0 0 0 0.048719998
2.1719999 -0.098999999 -0.83499998 24 0 0 0 0.048730001
2.152 -0.097999997 -0.83399999 23 0 0 0 0.04874
2.1289999 -0.097000003 -0.833 23 0 0 0 0.048749998
2.1129999 -0.096000001 -0.833 23 0 0 0 0.048760001
2.0910001 -0.094999999 -0.83200002 24 0 0 0 0.048769999
2.075 -0.093999997 -0.833 24 0 0 0 0.048780002
2.059 -0.093000002 -0.833 24 0 0 0 0.04879
2.046 -0.092 -0.83499998 25 0 0 0 0.048799999
2.026 -0.090000004 -0.83399999 24 0 0 0 0.048810001
2.0009999 -0.089000002 -0.82999998 24 0 0 0 0.04882
1.9910001 -0.088 -0.833 25 0 0 0 0.048829999
1.971 -0.086999997 -0.83099997 25 0 0 0 0.048840001
1.956 -0.086000003 -0.83200002 25 0 0 0 0.04885
1.942 -0.085000001 -0.83200002 26 0 0 0 0.048859999
1.92 -0.082999997 -0.829 29 0 0 0 0.048870001
1.905 -0.082000002 -0.829 29 0 0 0 0.04888
1.897 -0.081 -0.83200002 30 0 0 0 0.048889998
1.876 -0.079999998 -0.829 31 0 0 0 0.048900001
1.862 -0.079000004 -0.82999998 32 0 0 0 0.048909999
1.853 -0.078000002 -0.83200002 31 0 0 0 0.048920002
1.831 -0.075999998 -0.82800001 30 0 0 0 0.048930001
1.823 -0.075000003 -0.82999998 34 0 0 0 0.048939999
1.8049999 -0.074000001 -0.82800001 33 0 0 0 0.048950002
1.794 -0.072999999 -0.82999998 30 0 0 0 0.04896
1.783 -0.071000002 -0.82999998 33 0 0 0 0.048969999
1.768 -0.07 -0.829 37 0 0 0 0.048980001
1.757 -0.068999998 -0.82999998 35 0 0 0 0.04899
1.744 -0.068000004 -0.82999998 41 0 0 0 0.048999999
1.734 -0.067000002 -0.83099997 14 0 0 0 0.049010001
1.724 -0.066 -0.83200002 14 0 0 0 0.04902
1.712 -0.064000003 -0.83200002 14 0 0 0 0.049029998
1.701 -0.063000001 -0.83200002 14 0 0 0 0.049040001
1.693 -0.061999999 -0.83399999 14 0 0 0 0.04905
1.6799999 -0.061000001 -0.833 13 0 0 0 0.049059998
1.665 -0.059 -0.83099997 13 0 0 0 0.049070001
1.655 -0.057999998 -0.83200002 14 0 0 0 0.049079999
1.6440001 -0.057 -0.83099997 13 0 0 0 0.049090002
1.636 -0.056000002 -0.833 13 0 0 0 0.0491
1.622 -0.054000001 -0.83099997 13 0 0 0 0.049109999
1.617 -0.052999999 -0.83399999 14 0 0 0 0.049120001
1.603 -0.052000001 -0.83099997 13 0 0 0 0.04913
1.59 -0.050000001 -0.82999998 13 0 0 0 0.049139999
1.586 -0.048999999 -0.833 14 0 0 0 0.049150001
1.574 -0.048 -0.83099997 14 0 0 0 0.04916
1.562 -0.046 -0.82999998 13 0 0 0 0.049169999
1.558 -0.045000002 -0.833 13 0 0 0 0.049180001
1.533 -0.043000001 -0.82499999 13 0 0 0 0.04919
1.528 -0.041999999 -0.82700002 13 0 0 0 0.049199998
1.5190001 -0.041000001 -0.82700002 13 0 0 0 0.049210001
1.515 -0.039999999 -0.829 13 0 0 0 0.049219999
1.5039999 -0.037999999 -0.82800001 13 0 0 0 0.049229998
1.497 -0.037 -0.829 13 0 0 0 0.049240001
1.488 -0.035999998 -0.82800001 13 0 0 0 0.049249999
1.48 -0.034000002 -0.82800001 13 0 0 0 0.049260002
1.47 -0.033 -0.82700002 14 0 0 0 0.04927
1.4630001 -0.030999999 -0.82800001 12 0 0 0 0.049279999
1.4579999 -0.029999999 -0.829 12 0 0 0 0.049290001
1.448 -0.028999999 -0.82800001 12 0 0 0 0.0493
1.439 -0.027000001 -0.82700002 14 0 0 0 0.049309999
1.429 -0.026000001 -0.82499999 14 0 0 0 0.049320001
1.424 -0.024 -0.82700002 14 0 0 0 0.04933
1.4170001 -0.023 -0.82700002 14 0 0 0 0.049339999
1.41 -0.022 -0.82700002 14 0 0 0 0.049350001
1.404 -0.02 -0.82700002 14 0 0 0 0.04936
1.395 -0.018999999 -0.82599998 14 0 0 0 0.049369998
1.386 -0.017000001 -0.82499999 14 0 0 0 0.049380001
1.381 -0.016000001 -0.82599998 14 0 0 0 0.049389999
1.376 -0.014 -0.82700002 14 0 0 0 0.049400002
1.369 -0.013 -0.82599998 14 0 0 0 0.04941
1.365 -0.011 -0.82800001 14 0 0 0 0.049419999
1.355 -0.0099999998 -0.82499999 14 0 0 0 0.049430002
1.351 -0.0089999996 -0.82599998 14 0 0 0 0.04944
1.344 -0.0070000002 -0.82599998 14 0 0 0 0.049449999
1.34 -0.0060000001 -0.82700002 14 0 0 0 0.049460001
1.332 -0.0040000002 -0.82499999 13 0 0 0 0.04947
1.33 -0.003 -0.82700002 13 0 0 0 0.049479999
1.323 -0.001 -0.82700002 14 0 0 0 0.049490001
1.316 0 -0.82499999 13 0 0 0 0.0495
1.3099999 0.001 -0.82499999 14 0 0 0 0.049509998
1.307 0.003 -0.82599998 14 0 0 0 0.049520001
1.304 0.0040000002 -0.82700002 14 0 0 0 0.049529999
1.2970001 0.0060000001 -0.82599998 14 0 0 0 0.049539998
1.291 0.0070000002 -0.82499999 13 0 0 0 0.049550001
1.288 0.0089999996 -0.82599998 14 0 0 0 0.049559999
1.285 0.0099999998 -0.82700002 14 0 0 0 0.049570002
1.28 0.012 -0.82700002 15 0 0 0 0.04958
1.274 0.013 -0.82599998 15 0 0 0 0.049589999
1.27 0.015 -0.82599998 15 0 0 0 0.049600001
1.268 0.016000001 -0.82700002 15 0 0 0 0.04961
1.2640001 0.017999999 -0.82700002 14 0 0 0 0.049619999
1.262 0.018999999 -0.82800001 15 0 0 0 0.049630001
1.258 0.021 -0.82800001 15 0 0 0 0.04964
1.251 0.023 -0.82599998 14 0 0 0 0.049649999
1.249 0.024 -0.82700002 15 0 0 0 0.049660001
1.2460001 0.026000001 -0.82800001 15 0 0 0 0.04967
1.239 0.027000001 -0.82599998 1 0 0 0 0.049679998
1.2359999 0.028999999 -0.82599998 15 0 0 0 0.049690001
1.235 0.029999999 -0.82700002 15 0 0 0 0.049699999
1.2309999 0.032000002 -0.82700002 15 0 0 0 0.049710002
1.229 0.034000002 -0.82800001 15 0 0 0 0.04972
1.223 0.035 -0.82599998 16 0 0 0 0.049729999
1.22 0.037 -0.82499999 15 0 0 0 0.049740002
1.219 0.037999999 -0.82700002 15 0 0 0 0.04975
1.217 0.039999999 -0.82700002 15 0 0 0 0.049759999
1.212 0.041999999 -0.82599998 15 0 0 0 0.049770001
1.211 0.043000001 -0.82700002 16 0 0 0 0.04978
1.21 0.045000002 -0.82700002 15 0 0 0 0.049789999
1.209 0.046999998 -0.82800001 15 0 0 0 0.049800001
1.2029999 0.048 -0.82599998 15 0 0 0 0.04981
1.206 0.050000001 -0.829 16 0 0 0 0.049819998
1.199 0.052000001 -0.82599998 16 0 0 0 0.049830001
1.199 0.052999999 -0.82700002 16 0 0 0 0.04984
1.198 0.055 -0.82800001 16 0 0 0 0.049849998
1.197 0.057 -0.82800001 16 0 0 0 0.049860001
1.196 0.057999998 -0.829 16 0 0 0 0.049869999
1.196 0.059999999 -0.82999998 16 0 0 0 0.049880002
1.1950001 0.061999999 -0.82999998 16 0 0 0 0.04989
1.193 0.063000001 -0.829 16 0 0 0 0.049899999
1.189 0.064999998 -0.82800001 17 0 0 0 0.049910001
1.186 0.066 -0.82599998 16 0 0 0 0.04992
1.186 0.068000004 -0.82700002 17 0 0 0 0.049929999
1.191 0.07 -0.83099997 17 0 0 0 0.049940001
1.1849999 0.071999997 -0.82800001 17 0 0 0 0.04995
1.1849999 0.072999999 -0.82800001 17 0 0 0 0.049959999
1.184 0.075000003 -0.82800001 17 0 0 0 0.049970001
1.1849999 0.077 -0.829 15 0 0 0 0.04998
1.187 0.079000004 -0.83099997 13 0 0 0 0.049989998
1.194 0.081 -0.83600003 11 0 0 0 0.050000001
1.191 0.082000002 -0.83399999 9 0 0 0 0.050009999
1.1900001 0.083999999 -0.83399999 9 0 0 0 0.050020002
1.189 0.086000003 -0.833 9 0 0 0 0.050030001
1.187 0.086999997 -0.83200002 10 0 0 0 0.050039999
1.191 0.089000002 -0.83499998 11 0 0 0 0.050050002
1.1900001 0.090999998 -0.83399999 13 0 0 0 0.05006
1.188 0.092 -0.83200002 14 0 0 0 0.050069999
1.184 0.093999997 -0.829 16 0 0 0 0.050080001
1.183 0.094999999 -0.82800001 18 0 0 0 0.05009
1.186 0.097000003 -0.82999998 16 0 0 0 0.050099999
1.183 0.098999999 -0.82700002 18 0 0 0 0.050110001
1.183 0.1 -0.82700002 18 0 0 0 0.05012
1.186 0.102 -0.82800001 18 0 0 0 0.050129998
1.187 0.104 -0.82800001 17 0 0 0 0.050140001
1.187 0.105 -0.82800001 16 0 0 0 0.05015
1.188 0.107 -0.82700002 16 0 0 0 0.050159998
1.192 0.109 -0.82999998 17 0 0 0 0.050170001
1.193 0.111 -0.829 17 0 0 0 0.050179999
1.193 0.112 -0.829 17 0 0 0 0.050190002
1.194 0.114 -0.82800001 17 0 0 0 0.0502
1.197 0.116 -0.829 17 0 0 0 0.050209999
1.2 0.118 -0.82999998 16 0 0 0 0.050220001
1.2 0.119 -0.829 16 0 0 0 0.05023
1.2029999 0.121 -0.82999998 17 0 0 0 0.050239999
1.206 0.123 -0.82999998 17 0 0 0 0.050250001
1.207 0.124 -0.82999998 17 0 0 0 0.05026
1.21 0.126 -0.82999998 16 0 0 0 0.050269999
1.211 0.12800001 -0.829 17 0 0 0 0.050280001
1.212 0.12899999 -0.82800001 17 0 0 0 0.05029
1.215 0.131 -0.829 16 0 0 0 0.050299998
1.22 0.133 -0.83099997 16 0 0 0 0.050310001
1.221 0.13500001 -0.829 16 0 0 0 0.050319999
1.228 0.13699999 -0.83200002 15 0 0 0 0.050330002
1.228 0.138 -0.83099997 15 0 0 0 0.050340001
1.229 0.139 -0.829 15 0 0 0 0.050349999
1.2359999 0.142 -0.83200002 16 0 0 0 0.050360002
1.238 0.14300001 -0.83099997 16 0 0 0 0.05037
1.2410001 0.145 -0.83099997 15 0 0 0 0.050379999
1.243 0.146 -0.82999998 16 0 0 0 0.050390001
1.244 0.148 -0.829 16 0 0 0 0.0504
1.25 0.15000001 -0.82999998 15 0 0 0 0.050409999
1.256 0.152 -0.83200002 16 0 0 0 0.050420001
1.262 0.154 -0.833 16 0 0 0 0.05043
1.2640001 0.155 -0.83200002 16 0 0 0 0.050439999
1.267 0.156 -0.83099997 15 0 0 0 0.050450001
1.27 0.15800001 -0.82999998 16 0 0 0 0.05046
1.275 0.16 -0.83099997 16 0 0 0 0.050469998
1.28 0.162 -0.83200002 16 0 0 0 0.050480001
1.283 0.163 -0.83099997 16 0 0 0 0.050489999
1.29 0.16500001 -0.833 16 0 0 0 0.050500002
1.293 0.16599999 -0.83200002 16 0 0 0 0.05051
1.296 0.168 -0.82999998 16 0 0 0 0.050519999
1.301 0.17 -0.83099997 15 0 0 0 0.050530002
1.308 0.171 -0.83200002 16 0 0 0 0.05054
1.3099999 0.17299999 -0.82999998 16 0 0 0 0.050549999
1.316 0.17399999 -0.83099997 15 0 0 0 0.050560001
1.323 0.176 -0.83200002 15 0 0 0 0.05057
1.326 0.178 -0.82999998 15 0 0 0 0.050579999
1.337 0.18000001 -0.83399999 15 0 0 0 0.050590001
1.34 0.18099999 -0.833 16 0 0 0 0.0506
1.348 0.183 -0.83399999 15 0 0 0 0.050609998
1.355 0.185 -0.83499998 16 0 0 0 0.050620001
1.358 0.186 -0.833 16 0 0 0 0.050629999
1.363 0.18799999 -0.83200002 15 0 0 0 0.050639998
1.369 0.189 -0.83200002 15 0 0 0 0.050650001
1.375 0.191 -0.83200002 15 0 0 0 0.050659999
1.383 0.193 -0.833 14 0 0 0 0.050670002
1.3890001 0.19400001 -0.833 15 0 0 0 0.05068
1.399 0.19599999 -0.83499998 15 0 0 0 0.050689999
1.4069999 0.198 -0.83600003 15 0 0 0 0.050700001
1.4119999 0.199 -0.83499998 15 0 0 0 0.05071
1.421 0.20100001 -0.83600003 15 0 0 0 0.050719999
1.425 0.20200001 -0.83399999 14 0 0 0 0.050730001
1.433 0.204 -0.83399999 12 0 0 0 0.05074
1.4450001 0.206 -0.838 13 0 0 0 0.050749999
1.4529999 0.208 -0.838 13 0 0 0 0.050760001
1.4529999 0.208 -0.833 15 0 0 0 0.05077
1.466 0.20999999 -0.83700001 15 0 0 0 0.050779998
1.476 0.212 -0.838 15 0 0 0 0.050790001
1.4809999 0.213 -0.83600003 15 0 0 0 0.050799999
1.493 0.215 -0.838 15 0 0 0 0.050810002
1.499 0.21699999 -0.83700001 15 0 0 0 0.05082
1.505 0.21799999 -0.83600003 15 0 0 0 0.050829999
1.521 0.22 -0.83999997 15 0 0 0 0.050840002
1.526 0.221 -0.838 15 0 0 0 0.05085
1.539 0.223 -0.83999997 14 0 0 0 0.050859999
1.553 0.226 -0.84299999 15 0 0 0 0.050870001
1.558 0.226 -0.83999997 15 0 0 0 0.05088
1.568 0.228 -0.84100002 15 0 0 0 0.050889999
1.579 0.23 -0.84200001 15 0 0 0 0.050900001
1.589 0.23100001 -0.84200001 15 0 0 0 0.05091
1.596 0.23199999 -0.83999997 15 0 0 0 0.050919998
1.608 0.234 -0.84200001 15 0 0 0 0.050930001
1.61 0.235 -0.838 65 0 0 0 0.05094
1.627 0.237 -0.84100002 15 0 0 0 0.050949998
1.631 0.23800001 -0.838 62 0 0 0 0.050960001
1.64 0.23899999 -0.83700001 58 0 0 0 0.050969999
1.646 0.23999999 -0.83499998 61 0 0 0 0.050980002
1.6720001 0.243 -0.84299999 15 0 0 0 0.05099
1.673 0.243 -0.838 55 0 0 0 0.050999999
1.693 0.24600001 -0.84200001 15 0 0 0 0.051010001
1.704 0.24699999 -0.84200001 15 0 0 0 0.05102
1.7079999 0.248 -0.83899999 55 0 0 0 0.051029999
1.727 0.25 -0.84200001 16 0 0 0 0.051040001
1.74 0.252 -0.84200001 16 0 0 0 0.05105
1.752 0.25299999 -0.84299999 16 0 0 0 0.051059999
1.766 0.255 -0.84299999 16 0 0 0 0.051070001
1.773 0.255 -0.84100002 15 0 0 0 0.05108
1.793 0.25799999 -0.84399998 15 0 0 0 0.051089998
1.804 0.259 -0.84399998 16 0 0 0 0.051100001
1.819 0.26100001 -0.84399998 16 0 0 0 0.051109999
1.83 0.26199999 -0.84399998 48 0 0 0 0.051120002
1.844 0.26300001 -0.84399998 16 0 0 0 0.051130001
1.853 0.264 -0.84200001 45 0 0 0 0.051139999
1.87 0.26499999 -0.84299999 46 0 0 0 0.051150002
1.88 0.266 -0.84100002 44 0 0 0 0.05116
1.8940001 0.26800001 -0.84100002 41 0 0 0 0.051169999
1.91 0.26899999 -0.84200001 42 0 0 0 0.051180001
1.926 0.271 -0.84200001 40 0 0 0 0.05119
1.9400001 0.27200001 -0.84200001 41 0 0 0 0.051199999
1.96 0.27399999 -0.84399998 40 0 0 0 0.051210001
1.973 0.27500001 -0.84299999 40 0 0 0 0.05122
1.9910001 0.27599999 -0.84399998 41 0 0 0 0.051229998
2.006 0.27700001 -0.84299999 40 0 0 0 0.051240001
2.02 0.278 -0.84299999 40 0 0 0 0.05125
2.039 0.28 -0.84399998 39 0 0 0 0.051259998
2.0550001 0.28099999 -0.84299999 40 0 0 0 0.051270001
2.0739999 0.28299999 -0.84399998 40 0 0 0 0.051279999
2.092 0.28400001 -0.84500003 38 0 0 0 0.051290002
2.112 0.28600001 -0.84500003 32 0 0 0 0.0513
2.1300001 0.287 -0.84500003 34 0 0 0 0.051309999
2.1459999 0.28799999 -0.84500003 35 0 0 0 0.051320001
2.1659999 0.28999999 -0.84500003 36 0 0 0 0.05133
2.1889999 0.29100001 -0.847 34 0 0 0 0.051339999
2.2090001 0.29300001 -0.847 34 0 0 0 0.051350001
2.227 0.294 -0.84600002 34 0 0 0 0.05136
2.2449999 0.29499999 -0.84600002 34 0 0 0 0.051369999
2.2690001 0.296 -0.847 33 0 0 0 0.051380001
2.29 0.29800001 -0.847 34 0 0 0 0.05139
2.313 0.29899999 -0.84799999 34 0 0 0 0.051399998
2.3369999 0.301 -0.84899998 35 0 0 0 0.051410001
2.3499999 0.301 -0.84600002 35 0 0 0 0.051419999
2.378 0.303 -0.84799999 36 0 0 0 0.051430002
2.401 0.30399999 -0.84799999 34 0 0 0 0.051440001
2.425 0.30500001 -0.84899998 34 0 0 0 0.051449999
2.4460001 0.30599999 -0.84799999 35 0 0 0 0.051460002
2.474 0.308 -0.84899998 35 0 0 0 0.05147
2.497 0.30899999 -0.84899998 34 0 0 0 0.051479999
2.53 0.31099999 -0.852 35 0 0 0 0.051490001
2.556 0.31200001 -0.852 36 0 0 0 0.0515
2.5829999 0.31400001 -0.852 35 0 0 0 0.051509999
2.6059999 0.315 -0.85100001 37 0 0 0 0.051520001
2.645 0.317 -0.85500002 38 0 0 0 0.05153
2.6689999 0.31799999 -0.85399997 38 0 0 0 0.051539999
2.7 0.31900001 -0.85500002 40 0 0 0 0.051550001
2.733 0.32100001 -0.85699999 40 0 0 0 0.05156
2.756 0.322 -0.85500002 38 0 0 0 0.051569998
2.789 0.32300001 -0.85600001 37 0 0 0 0.051580001
2.8169999 0.324 -0.85500002 39 0 0 0 0.051589999
2.8429999 0.32499999 -0.85399997 37 0 0 0 0.051600002
2.8859999 0.32699999 -0.85699999 36 0 0 0 0.05161
2.9200001 0.32800001 -0.85799998 37 0 0 0 0.051619999
2.9660001 0.331 -0.86199999 37 0 0 0 0.051630002
3 0.33199999 -0.86199999 36 0 0 0 0.05164
3.0380001 0.33399999 -0.86299998 36 0 0 0 0.051649999
3.0780001 0.33500001 -0.86400002 36 0 0 0 0.051660001
3.109 0.336 -0.86199999 36 0 0 0 0.05167
3.1340001 0.336 -0.85900003 35 0 0 0 0.051679999
3.1659999 0.336 -0.85799998 35 0 0 0 0.051690001
3.21 0.338 -0.85900003 36 0 0 0 0.0517
3.2579999 0.34 -0.86199999 36 0 0 0 0.051709998
3.299 0.34099999 -0.86199999 36 0 0 0 0.051720001
3.3280001 0.34099999 -0.85799998 32 0 0 0 0.051729999
3.3729999 0.34200001 -0.85900003 33 0 0 0 0.051739998
3.392 0.34099999 -0.85299999 140 0 0 0 0.051750001
3.3829999 0.33700001 -0.83999997 151 0 0 0 0.051759999
3.3859999 0.33399999 -0.82999998 151 0 0 0 0.051770002
3.388 0.33000001 -0.81999999 150 0 0 0 0.05178
3.3870001 0.32699999 -0.80800003 151 0 0 0 0.051789999
3.3900001 0.324 -0.79799998 151 0 0 0 0.051800001
3.385 0.31999999 -0.78600001 151 0 0 0 0.05181
3.3929999 0.317 -0.77700001 151 0 0 0 0.051819999
3.3900001 0.31299999 -0.76599997 151 0 0 0 0.051830001
3.3889999 0.31 -0.755 151 0 0 0 0.05184
3.3900001 0.30599999 -0.745 151 0 0 0 0.051849999
3.395 0.303 -0.73500001 151 0 0 0 0.051860001
3.3959999 0.30000001 -0.72399998 151 0 0 0 0.05187
3.3959999 0.296 -0.71399999 151 0 0 0 0.051879998
3.3959999 0.29300001 -0.70300001 151 0 0 0 0.051890001
3.395 0.289 -0.69199997 151 0 0 0 0.051899999
3.395 0.285 -0.68099999 151 0 0 0 0.051910002
