# .PCD v0.7 - Point Cloud Data file format
VERSION 0.7
FIELDS x y z intensity normal_x normal_y normal_z curvature
SIZE 4 4 4 4 4 4 4 4
TYPE F F F F F F F F
COUNT 1 1 1 1 1 1 1 1
WIDTH 1024
HEIGHT 1
VIEWPOINT 0 0 0 1 0 0 0
POINTS 1024
DATA ascii
3.405 0.20100001 0.227 151 0 0 0 0.053610001
3.4059999 0.193 0.219 151 0 0 0 0.053619999
3.4089999 0.186 0.211 151 0 0 0 0.053630002
3.411 0.178 0.20299999 151 0 0 0 0.053640001
3.4119999 0.171 0.19400001 151 0 0 0 0.053649999
3.4130001 0.164 0.186 152 0 0 0 0.053660002
3.408 0.156 0.178 151 0 0 0 0.05367
3.4119999 0.149 0.17 151 0 0 0 0.053679999
3.4130001 0.141 0.162 151 0 0 0 0.053690001
3.4089999 0.134 0.153 151 0 0 0 0.0537
3.4130001 0.126 0.145 152 0 0 0 0.053709999
3.4189999 0.119 0.13699999 152 0 0 0 0.053720001
3.4130001 0.111 0.12899999 152 0 0 0 0.05373
3.404 0.104 0.12 152 0 0 0 0.053739998
3.4089999 0.097000003 0.112 152 0 0 0 0.053750001
3.405 0.089000002 0.104 153 0 0 0 0.05376
3.405 0.082000002 0.096000001 153 0 0 0 0.053769998
3.4030001 0.075000003 0.086999997 153 0 0 0 0.053780001
3.411 0.067000002 0.079000004 152 0 0 0 0.053789999
3.4059999 0.059999999 0.071000002 153 0 0 0 0.053800002
3.4059999 0.052999999 0.061999999 152 0 0 0 0.05381
3.4059999 0.046 0.054000001 152 0 0 0 0.053819999
3.4059999 0.037999999 0.046 152 0 0 0 0.053830002
3.415 0.030999999 0.037 152 0 0 0 0.05384
3.4170001 0.024 0.028999999 152 0 0 0 0.053849999
3.4170001 0.017000001 0.021 152 0 0 0 0.053860001
3.4170001 0.0099999998 0.012 152 0 0 0 0.05387
3.418 0.0020000001 0.0040000002 152 0 0 0 0.053879999
3.421 -0.0040000002 -0.0040000002 151 0 0 0 0.053890001
3.4119999 -0.011 -0.012 151 0 0 0 0.0539
3.415 -0.017999999 -0.021 151 0 0 0 0.053909998
3.4159999 -0.025 -0.028999999 151 0 0 0 0.053920001
3.4170001 -0.032000002 -0.037999999 151 0 0 0 0.053929999
3.418 -0.039000001 -0.046 151 0 0 0 0.053939998
3.4159999 -0.046 -0.055 151 0 0 0 0.053950001
3.415 -0.052999999 -0.063000001 151 0 0 0 0.053959999
3.4200001 -0.061000001 -0.071999997 151 0 0 0 0.053970002
3.4189999 -0.067000002 -0.079999998 151 0 0 0 0.05398
3.418 -0.074000001 -0.089000002 151 0 0 0 0.053989999
3.4219999 -0.082000002 -0.097999997 151 0 0 0 0.054000001
3.425 -0.089000002 -0.106 150 0 0 0 0.05401
3.421 -0.096000001 -0.115 151 0 0 0 0.054019999
3.421 -0.102 -0.123 150 0 0 0 0.054030001
3.4200001 -0.109 -0.132 151 0 0 0 0.05404
3.4200001 -0.116 -0.14 151 0 0 0 0.054049999
3.427 -0.123 -0.149 151 0 0 0 0.054060001
3.427 -0.13 -0.15800001 151 0 0 0 0.05407
3.427 -0.13699999 -0.167 151 0 0 0 0.054079998
3.428 -0.14399999 -0.176 150 0 0 0 0.054090001
3.427 -0.15099999 -0.184 150 0 0 0 0.054099999
3.4260001 -0.15800001 -0.193 150 0 0 0 0.054110002
3.427 -0.16500001 -0.20200001 150 0 0 0 0.05412
3.428 -0.17200001 -0.211 150 0 0 0 0.054129999
3.425 -0.178 -0.219 150 0 0 0 0.054140002
3.428 -0.185 -0.228 150 0 0 0 0.05415
3.4319999 -0.192 -0.23800001 150 0 0 0 0.054159999
3.431 -0.199 -0.24600001 150 0 0 0 0.054170001
3.425 -0.206 -0.255 152 0 0 0 0.05418
3.4289999 -0.213 -0.264 150 0 0 0 0.054189999
3.372 -0.21600001 -0.26800001 150 0 0 0 0.054200001
3.3610001 -0.222 -0.27599999 151 0 0 0 0.05421
3.365 -0.228 -0.285 151 0 0 0 0.054219998
3.3640001 -0.235 -0.294 151 0 0 0 0.054230001
3.3670001 -0.242 -0.303 151 0 0 0 0.05424
3.3610001 -0.248 -0.31099999 150 0 0 0 0.054249998
3.3410001 -0.25299999 -0.31799999 150 0 0 0 0.054260001
3.3340001 -0.259 -0.32600001 151 0 0 0 0.054269999
3.3329999 -0.26499999 -0.33500001 151 0 0 0 0.054280002
3.332 -0.27200001 -0.34400001 151 0 0 0 0.05429
3.332 -0.278 -0.35299999 151 0 0 0 0.054299999
3.332 -0.28400001 -0.361 151 0 0 0 0.054310001
3.332 -0.29100001 -0.37 151 0 0 0 0.05432
3.329 -0.29699999 -0.37900001 99 0 0 0 0.054329999
3.26 -0.29699999 -0.38 51 0 0 0 0.054340001
3.234 -0.301 -0.38499999 150 0 0 0 0.05435
3.2249999 -0.30599999 -0.39300001 150 0 0 0 0.054359999
3.2309999 -0.31299999 -0.40200001 150 0 0 0 0.054370001
3.227 -0.31900001 -0.41 150 0 0 0 0.05438
3.2260001 -0.32499999 -0.419 150 0 0 0 0.054389998
3.2260001 -0.331 -0.428 150 0 0 0 0.054400001
3.2360001 -0.338 -0.43700001 150 0 0 0 0.054409999
3.2360001 -0.34400001 -0.44600001 150 0 0 0 0.054420002
3.234 -0.34999999 -0.45500001 151 0 0 0 0.05443
3.233 -0.35600001 -0.463 150 0 0 0 0.054439999
3.2149999 -0.36000001 -0.47 150 0 0 0 0.054450002
3.1989999 -0.36399999 -0.47600001 150 0 0 0 0.05446
3.1989999 -0.37 -0.48500001 150 0 0 0 0.054469999
3.204 -0.37599999 -0.49399999 150 0 0 0 0.054480001
3.2030001 -0.382 -0.50300002 150 0 0 0 0.05449
3.2060001 -0.38800001 -0.51200002 150 0 0 0 0.054499999
3.204 -0.39399999 -0.52100003 150 0 0 0 0.054510001
3.2079999 -0.40000001 -0.52999997 150 0 0 0 0.05452
3.2060001 -0.40599999 -0.53899997 150 0 0 0 0.054529998
3.1849999 -0.40900001 -0.54400003 150 0 0 0 0.054540001
2.9300001 -0.382 -0.509 150 0 0 0 0.05455
2.8210001 -0.373 -0.498 150 0 0 0 0.054559998
2.5680001 -0.34400001 -0.46000001 19 0 0 0 0.054570001
2.5409999 -0.345 -0.46200001 20 0 0 0 0.054579999
2.52 -0.347 -0.46599999 19 0 0 0 0.054590002
2.4960001 -0.34799999 -0.46799999 18 0 0 0 0.0546
2.47 -0.34799999 -0.47 17 0 0 0 0.054609999
2.4389999 -0.34799999 -0.47099999 17 0 0 0 0.054620001
2.4130001 -0.34900001 -0.47299999 16 0 0 0 0.05463
2.4070001 -0.352 -0.479 20 0 0 0 0.054639999
2.382 -0.35299999 -0.47999999 18 0 0 0 0.054650001
2.362 -0.354 -0.48300001 20 0 0 0 0.05466
2.3559999 -0.35699999 -0.48899999 20 0 0 0 0.054669999
2.358 -0.36199999 -0.49599999 19 0 0 0 0.054680001
2.3659999 -0.36700001 -0.50400001 16 0 0 0 0.05469
2.3659999 -0.37099999 -0.51099998 13 0 0 0 0.054699998
2.362 -0.375 -0.51700002 13 0 0 0 0.054710001
2.355 -0.37799999 -0.52200001 15 0 0 0 0.054719999
2.358 -0.382 -0.52999997 15 0 0 0 0.054730002
2.3510001 -0.38499999 -0.53500003 15 0 0 0 0.054740001
2.3559999 -0.38999999 -0.54299998 17 0 0 0 0.054749999
2.358 -0.39399999 -0.55000001 18 0 0 0 0.054760002
2.3559999 -0.398 -0.55699998 17 0 0 0 0.05477
2.3540001 -0.40200001 -0.56300002 17 0 0 0 0.054779999
2.358 -0.40599999 -0.57099998 18 0 0 0 0.054790001
2.3529999 -0.40900001 -0.57700002 18 0 0 0 0.0548
2.352 -0.41299999 -0.583 21 0 0 0 0.054809999
2.3529999 -0.417 -0.58999997 22 0 0 0 0.054820001
2.3570001 -0.42199999 -0.59799999 22 0 0 0 0.05483
2.355 -0.42500001 -0.60500002 21 0 0 0 0.054839998
2.3559999 -0.42899999 -0.61199999 20 0 0 0 0.054850001
2.355 -0.433 -0.61900002 19 0 0 0 0.05486
2.3570001 -0.43700001 -0.62599999 19 0 0 0 0.054869998
2.358 -0.44100001 -0.634 19 0 0 0 0.054880001
2.3529999 -0.44400001 -0.639 17 0 0 0 0.054889999
2.3540001 -0.44800001 -0.64700001 18 0 0 0 0.054900002
2.358 -0.45300001 -0.65499997 20 0 0 0 0.05491
2.359 -0.45699999 -0.662 21 0 0 0 0.054919999
2.355 -0.45899999 -0.66799998 20 0 0 0 0.054930001
2.3570001 -0.46399999 -0.676 18 0 0 0 0.05494
2.358 -0.46799999 -0.68300003 20 0 0 0 0.054949999
2.3559999 -0.47099999 -0.69 20 0 0 0 0.054960001
2.3570001 -0.47499999 -0.69700003 21 0 0 0 0.05497
2.359 -0.479 -0.70499998 20 0 0 0 0.054979999
2.3570001 -0.48199999 -0.71200001 19 0 0 0 0.054990001
2.358 -0.486 -0.71899998 18 0 0 0 0.055
2.358 -0.48899999 -0.727 18 0 0 0 0.055009998
2.3570001 -0.493 -0.73400003 17 0 0 0 0.055020001
2.358 -0.49599999 -0.741 16 0 0 0 0.055029999
2.358 -0.5 -0.74800003 18 0 0 0 0.055039998
2.3570001 -0.50300002 -0.755 15 0 0 0 0.055050001
2.359 -0.50700003 -0.76300001 17 0 0 0 0.055059999
2.3599999 -0.51099998 -0.77100003 17 0 0 0 0.055070002
2.3629999 -0.51499999 -0.77899998 19 0 0 0 0.05508
2.3599999 -0.51700002 -0.78500003 20 0 0 0 0.055089999
2.362 -0.52100003 -0.79299998 21 0 0 0 0.055100001
2.3540001 -0.523 -0.79799998 21 0 0 0 0.05511
2.3610001 -0.528 -0.80800003 24 0 0 0 0.055119999
2.3610001 -0.53100002 -0.815 29 0 0 0 0.055130001
2.359 -0.53399998 -0.82200003 31 0 0 0 0.05514
2.342 -0.53299999 -0.82300001 26 0 0 0 0.055149999
2.316 -0.52999997 -0.82099998 26 0 0 0 0.055160001
2.296 -0.52899998 -0.82099998 27 0 0 0 0.05517
2.28 -0.528 -0.82300001 27 0 0 0 0.055179998
2.2579999 -0.52600002 -0.82200003 27 0 0 0 0.055190001
2.243 -0.52499998 -0.824 27 0 0 0 0.055199999
2.2219999 -0.523 -0.82300001 27 0 0 0 0.055210002
2.2019999 -0.52100003 -0.82200003 27 0 0 0 0.05522
2.1819999 -0.51999998 -0.82200003 31 0 0 0 0.055229999
2.1659999 -0.51899999 -0.82300001 29 0 0 0 0.055240002
2.141 -0.51499999 -0.81999999 25 0 0 0 0.05525
2.125 -0.514 -0.82099998 25 0 0 0 0.055259999
2.1110001 -0.51300001 -0.82200003 26 0 0 0 0.055270001
2.092 -0.51099998 -0.82099998 27 0 0 0 0.05528
2.0739999 -0.509 -0.82099998 27 0 0 0 0.055289999
2.056 -0.50700003 -0.81999999 27 0 0 0 0.055300001
2.0409999 -0.50599998 -0.81999999 27 0 0 0 0.05531
2.0239999 -0.50400001 -0.81999999 27 0 0 0 0.055319998
2.0090001 -0.50199997 -0.81999999 27 0 0 0 0.055330001
1.995 -0.50099999 -0.82099998 27 0 0 0 0.055339999
1.979 -0.49900001 -0.81999999 28 0 0 0 0.055349998
1.9630001 -0.49700001 -0.81999999 28 0 0 0 0.055360001
1.947 -0.495 -0.81999999 28 0 0 0 0.055369999
1.928 -0.493 -0.81800002 28 0 0 0 0.055380002
1.9170001 -0.49200001 -0.81900001 27 0 0 0 0.05539
1.903 -0.49000001 -0.81900001 28 0 0 0 0.055399999
1.891 -0.48899999 -0.81999999 27 0 0 0 0.055410001
1.875 -0.48699999 -0.81900001 27 0 0 0 0.05542
1.86 -0.48500001 -0.81900001 27 0 0 0 0.055429999
1.852 -0.484 -0.82099998 28 0 0 0 0.055440001
1.836 -0.48199999 -0.81999999 29 0 0 0 0.05545
1.821 -0.47999999 -0.81900001 25 0 0 0 0.055459999
1.803 -0.477 -0.81699997 26 0 0 0 0.055470001
1.798 -0.477 -0.81999999 28 0 0 0 0.05548
1.786 -0.47499999 -0.81999999 29 0 0 0 0.055489998
1.773 -0.47299999 -0.81900001 33 0 0 0 0.055500001
1.758 -0.47099999 -0.81800002 32 0 0 0 0.055509999
1.745 -0.46900001 -0.81699997 32 0 0 0 0.055520002
1.732 -0.46599999 -0.81699997 33 0 0 0 0.05553
1.719 -0.46399999 -0.81599998 35 0 0 0 0.055539999
1.71 -0.463 -0.81699997 33 0 0 0 0.055550002
1.698 -0.461 -0.81699997 32 0 0 0 0.05556
1.687 -0.45899999 -0.81699997 32 0 0 0 0.055569999
1.677 -0.458 -0.81699997 35 0 0 0 0.055580001
1.6670001 -0.456 -0.81699997 36 0 0 0 0.05559
1.661 -0.45500001 -0.81900001 13 0 0 0 0.055599999
1.653 -0.454 -0.81999999 13 0 0 0 0.055610001
1.6440001 -0.45300001 -0.82099998 13 0 0 0 0.05562
1.6289999 -0.44999999 -0.81800002 13 0 0 0 0.055629998
1.6210001 -0.44800001 -0.81999999 13 0 0 0 0.055640001
1.615 -0.44800001 -0.82099998 13 0 0 0 0.05565
1.604 -0.44600001 -0.82099998 13 0 0 0 0.055659998
1.5930001 -0.44299999 -0.81999999 15 0 0 0 0.055670001
1.5829999 -0.44100001 -0.81900001 14 0 0 0 0.055679999
1.5779999 -0.44 -0.82099998 15 0 0 0 0.055690002
1.5700001 -0.43900001 -0.82200003 14 0 0 0 0.0557
1.5599999 -0.43700001 -0.82099998 14 0 0 0 0.055709999
1.551 -0.435 -0.82099998 14 0 0 0 0.055720001
1.5420001 -0.433 -0.82099998 14 0 0 0 0.05573
1.535 -0.43099999 -0.82200003 14 0 0 0 0.055739999
1.522 -0.428 -0.81900001 14 0 0 0 0.055750001
1.5190001 -0.428 -0.82200003 14 0 0 0 0.05576
1.498 -0.42199999 -0.815 14 0 0 0 0.055769999
1.49 -0.41999999 -0.815 14 0 0 0 0.055780001
1.489 -0.41999999 -0.81800002 13 0 0 0 0.05579
1.4809999 -0.41800001 -0.81800002 12 0 0 0 0.055799998
1.472 -0.41600001 -0.81699997 12 0 0 0 0.055810001
1.464 -0.414 -0.81699997 14 0 0 0 0.055819999
1.459 -0.41299999 -0.81800002 14 0 0 0 0.055830002
1.451 -0.41100001 -0.81800002 14 0 0 0 0.055840001
1.443 -0.40900001 -0.81699997 14 0 0 0 0.055849999
1.441 -0.40799999 -0.81999999 15 0 0 0 0.055860002
1.433 -0.40599999 -0.81900001 14 0 0 0 0.05587
1.426 -0.40400001 -0.81900001 14 0 0 0 0.055879999
1.416 -0.40099999 -0.81699997 14 0 0 0 0.055890001
1.41 -0.39899999 -0.81699997 14 0 0 0 0.0559
1.404 -0.39700001 -0.81699997 14 0 0 0 0.055909999
1.4 -0.396 -0.81800002 14 0 0 0 0.055920001
1.396 -0.39500001 -0.81900001 14 0 0 0 0.05593
1.39 -0.39199999 -0.81900001 14 0 0 0 0.055939998
1.38 -0.38999999 -0.81699997 14 0 0 0 0.055950001
1.378 -0.389 -0.81900001 15 0 0 0 0.05596
1.374 -0.38699999 -0.81999999 15 0 0 0 0.055969998
1.364 -0.384 -0.81699997 14 0 0 0 0.055980001
1.359 -0.382 -0.81699997 14 0 0 0 0.055989999
1.355 -0.38100001 -0.81800002 14 0 0 0 0.056000002
1.353 -0.37900001 -0.81999999 14 0 0 0 0.05601
1.345 -0.37599999 -0.81800002 14 0 0 0 0.056019999
1.344 -0.37599999 -0.81999999 14 0 0 0 0.056030001
1.335 -0.373 -0.81699997 14 0 0 0 0.05604
1.33 -0.37099999 -0.81699997 14 0 0 0 0.056049999
1.324 -0.368 -0.81599998 14 0 0 0 0.056060001
1.3200001 -0.366 -0.81699997 14 0 0 0 0.05607
1.319 -0.36500001 -0.81800002 14 0 0 0 0.056079999
1.3150001 -0.36300001 -0.81900001 14 0 0 0 0.056090001
1.3099999 -0.361 -0.81800002 14 0 0 0 0.0561
1.304 -0.359 -0.81599998 14 0 0 0 0.056109998
1.299 -0.35699999 -0.81599998 14 0 0 0 0.056120001
1.299 -0.35499999 -0.81800002 14 0 0 0 0.056129999
1.294 -0.35299999 -0.81699997 14 0 0 0 0.056139998
1.29 -0.35100001 -0.81699997 15 0 0 0 0.056150001
1.286 -0.34900001 -0.81599998 14 0 0 0 0.056159999
1.2819999 -0.347 -0.81599998 15 0 0 0 0.056170002
1.2819999 -0.34599999 -0.81800002 14 0 0 0 0.05618
1.281 -0.345 -0.81900001 15 0 0 0 0.056189999
1.275 -0.34200001 -0.81699997 15 0 0 0 0.056200001
1.274 -0.34 -0.81900001 15 0 0 0 0.05621
1.267 -0.33700001 -0.81599998 16 0 0 0 0.056219999
1.266 -0.336 -0.81699997 16 0 0 0 0.056230001
1.2640001 -0.33399999 -0.81699997 15 0 0 0 0.05624
1.261 -0.33199999 -0.81699997 16 0 0 0 0.056249999
1.258 -0.33000001 -0.81599998 15 0 0 0 0.056260001
1.258 -0.329 -0.81800002 15 0 0 0 0.05627
1.255 -0.32699999 -0.81699997 15 0 0 0 0.056279998
1.255 -0.32499999 -0.81900001 15 0 0 0 0.056290001
1.251 -0.32300001 -0.81699997 15 0 0 0 0.056299999
1.2460001 -0.31999999 -0.815 15 0 0 0 0.056310002
1.248 -0.31900001 -0.81800002 15 0 0 0 0.05632
1.245 -0.317 -0.81699997 15 0 0 0 0.056329999
1.2460001 -0.31600001 -0.81800002 15 0 0 0 0.056340002
1.245 -0.31400001 -0.81900001 15 0 0 0 0.05635
1.244 -0.31200001 -0.81900001 15 0 0 0 0.056359999
1.24 -0.30899999 -0.81699997 14 0 0 0 0.056370001
1.243 -0.30899999 -0.81900001 16 0 0 0 0.05638
1.239 -0.30599999 -0.81800002 16 0 0 0 0.056389999
1.237 -0.30399999 -0.81699997 16 0 0 0 0.056400001
1.2359999 -0.30199999 -0.81699997 15 0 0 0 0.05641
1.237 -0.30000001 -0.81800002 15 0 0 0 0.056419998
1.237 -0.29899999 -0.81900001 15 0 0 0 0.056430001
1.237 -0.29699999 -0.81900001 15 0 0 0 0.056439999
1.237 -0.29499999 -0.81900001 16 0 0 0 0.056449998
1.235 -0.29300001 -0.81800002 16 0 0 0 0.056460001
1.235 -0.29100001 -0.81800002 15 0 0 0 0.056469999
1.2359999 -0.289 -0.81900001 15 0 0 0 0.056480002
1.2359999 -0.28799999 -0.81900001 15 0 0 0 0.05649
1.2359999 -0.28600001 -0.81900001 16 0 0 0 0.056499999
1.238 -0.28400001 -0.81999999 15 0 0 0 0.056510001
1.237 -0.28200001 -0.81900001 16 0 0 0 0.05652
1.239 -0.28099999 -0.81999999 16 0 0 0 0.056529999
1.24 -0.27900001 -0.82099998 16 0 0 0 0.056540001
1.238 -0.27700001 -0.81900001 15 0 0 0 0.05655
1.24 -0.27500001 -0.81999999 15 0 0 0 0.056559999
1.242 -0.273 -0.81999999 15 0 0 0 0.056570001
1.2410001 -0.271 -0.81999999 15 0 0 0 0.05658
1.243 -0.27000001 -0.81999999 16 0 0 0 0.056589998
1.243 -0.26800001 -0.81999999 15 0 0 0 0.056600001
1.247 -0.266 -0.82099998 14 0 0 0 0.056609999
1.25 -0.26499999 -0.82200003 13 0 0 0 0.056620002
1.248 -0.26199999 -0.81999999 11 0 0 0 0.05663
1.2539999 -0.26199999 -0.82300001 10 0 0 0 0.056639999
1.26 -0.26100001 -0.82599998 10 0 0 0 0.056650002
1.2589999 -0.259 -0.82499999 10 0 0 0 0.05666
1.26 -0.257 -0.824 10 0 0 0 0.056669999
1.261 -0.255 -0.82300001 10 0 0 0 0.056680001
1.26 -0.252 -0.82099998 11 0 0 0 0.05669
1.263 -0.25099999 -0.82200003 13 0 0 0 0.056699999
1.2640001 -0.249 -0.82200003 14 0 0 0 0.056710001
1.2690001 -0.24699999 -0.82300001 15 0 0 0 0.05672
1.266 -0.245 -0.81999999 16 0 0 0 0.056729998
1.272 -0.244 -0.82200003 15 0 0 0 0.056740001
1.273 -0.242 -0.82099998 16 0 0 0 0.05675
1.274 -0.23999999 -0.81999999 15 0 0 0 0.056759998
1.28 -0.23800001 -0.82200003 16 0 0 0 0.056770001
1.2819999 -0.237 -0.82200003 16 0 0 0 0.056779999
1.2819999 -0.234 -0.81900001 16 0 0 0 0.056790002
1.2869999 -0.233 -0.82099998 16 0 0 0 0.0568
1.2920001 -0.23199999 -0.82200003 16 0 0 0 0.056809999
1.293 -0.23 -0.81999999 16 0 0 0 0.056820001
1.298 -0.228 -0.82200003 16 0 0 0 0.05683
1.303 -0.227 -0.82200003 16 0 0 0 0.056839999
1.301 -0.22400001 -0.81900001 16 0 0 0 0.056850001
1.309 -0.223 -0.82200003 16 0 0 0 0.05686
1.314 -0.222 -0.82300001 16 0 0 0 0.056869999
1.317 -0.22 -0.82200003 16 0 0 0 0.056880001
1.3200001 -0.21799999 -0.82200003 15 0 0 0 0.05689
1.327 -0.21699999 -0.824 15 0 0 0 0.056899998
1.329 -0.215 -0.82200003 15 0 0 0 0.056910001
1.335 -0.214 -0.82300001 16 0 0 0 0.056919999
1.339 -0.212 -0.82300001 16 0 0 0 0.056930002
1.346 -0.211 -0.824 16 0 0 0 0.056940001
1.348 -0.20900001 -0.82300001 16 0 0 0 0.056949999
1.351 -0.207 -0.82200003 16 0 0 0 0.056960002
1.357 -0.205 -0.82300001 16 0 0 0 0.05697
1.363 -0.204 -0.82300001 16 0 0 0 0.056979999
1.367 -0.20200001 -0.82300001 16 0 0 0 0.056990001
1.372 -0.20100001 -0.82200003 16 0 0 0 0.057
1.376 -0.199 -0.82200003 16 0 0 0 0.057009999
1.381 -0.198 -0.82200003 16 0 0 0 0.057020001
1.388 -0.19599999 -0.82200003 17 0 0 0 0.05703
1.397 -0.19499999 -0.82499999 16 0 0 0 0.057039998
1.402 -0.193 -0.824 16 0 0 0 0.057050001
1.406 -0.192 -0.82300001 16 0 0 0 0.05706
1.415 -0.191 -0.82499999 17 0 0 0 0.057069998
1.419 -0.189 -0.82300001 16 0 0 0 0.057080001
1.425 -0.18700001 -0.82300001 16 0 0 0 0.057089999
1.4299999 -0.186 -0.82300001 14 0 0 0 0.057100002
1.437 -0.184 -0.82300001 14 0 0 0 0.05711
1.443 -0.183 -0.82300001 14 0 0 0 0.057119999
1.454 -0.182 -0.82499999 13 0 0 0 0.057130001
1.4579999 -0.18000001 -0.824 13 0 0 0 0.05714
1.469 -0.17900001 -0.82599998 13 0 0 0 0.057149999
1.476 -0.177 -0.82599998 14 0 0 0 0.057160001
1.483 -0.176 -0.82599998 14 0 0 0 0.05717
1.4910001 -0.175 -0.82599998 13 0 0 0 0.057179999
1.498 -0.17299999 -0.82599998 14 0 0 0 0.057190001
1.5039999 -0.17200001 -0.82499999 14 0 0 0 0.0572
1.511 -0.17 -0.82499999 14 0 0 0 0.057209998
1.518 -0.169 -0.824 14 0 0 0 0.057220001
1.534 -0.168 -0.829 14 0 0 0 0.057229999
1.541 -0.167 -0.82800001 14 0 0 0 0.057240002
1.551 -0.16500001 -0.829 14 0 0 0 0.057250001
1.562 -0.164 -0.83099997 14 0 0 0 0.057259999
1.571 -0.163 -0.83099997 14 0 0 0 0.057270002
1.5779999 -0.161 -0.82999998 14 0 0 0 0.05728
1.587 -0.16 -0.82999998 14 0 0 0 0.057289999
1.599 -0.15899999 -0.83200002 15 0 0 0 0.057300001
1.597 -0.156 -0.82599998 62 0 0 0 0.05731
1.615 -0.156 -0.82999998 13 0 0 0 0.057319999
1.618 -0.154 -0.82700002 59 0 0 0 0.057330001
1.626 -0.153 -0.82599998 58 0 0 0 0.05734
1.646 -0.152 -0.83099997 14 0 0 0 0.057349999
1.652 -0.15099999 -0.829 13 0 0 0 0.057360001
1.661 -0.149 -0.829 14 0 0 0 0.05737
1.678 -0.148 -0.83200002 13 0 0 0 0.057379998
1.687 -0.147 -0.83099997 13 0 0 0 0.057390001
1.6950001 -0.145 -0.82999998 14 0 0 0 0.057399999
1.712 -0.145 -0.833 14 0 0 0 0.057410002
1.7180001 -0.14300001 -0.83099997 14 0 0 0 0.05742
1.728 -0.142 -0.82999998 14 0 0 0 0.057429999
1.744 -0.141 -0.833 14 0 0 0 0.057440002
1.756 -0.14 -0.833 14 0 0 0 0.05745
1.763 -0.138 -0.83099997 14 0 0 0 0.057459999
1.777 -0.13699999 -0.83200002 14 0 0 0 0.057470001
1.791 -0.13600001 -0.833 14 0 0 0 0.05748
1.804 -0.13500001 -0.833 14 0 0 0 0.057489999
1.8150001 -0.133 -0.833 46 0 0 0 0.057500001
1.829 -0.132 -0.833 46 0 0 0 0.05751
1.835 -0.131 -0.82999998 41 0 0 0 0.057519998
1.855 -0.13 -0.833 43 0 0 0 0.057530001
1.865 -0.12800001 -0.83200002 43 0 0 0 0.057539999
1.874 -0.127 -0.82999998 39 0 0 0 0.057549998
1.896 -0.126 -0.833 37 0 0 0 0.057560001
1.9069999 -0.125 -0.83200002 39 0 0 0 0.057569999
1.921 -0.124 -0.83200002 37 0 0 0 0.057580002
1.936 -0.123 -0.83200002 36 0 0 0 0.05759
1.947 -0.121 -0.83099997 36 0 0 0 0.057599999
1.964 -0.12 -0.83099997 35 0 0 0 0.057610001
1.983 -0.119 -0.833 35 0 0 0 0.05762
2.003 -0.118 -0.83499998 37 0 0 0 0.057629999
2.0150001 -0.117 -0.833 35 0 0 0 0.057640001
2.033 -0.116 -0.83399999 35 0 0 0 0.05765
2.049 -0.115 -0.83399999 36 0 0 0 0.057659999
2.0639999 -0.114 -0.833 35 0 0 0 0.057670001
2.086 -0.113 -0.83600003 34 0 0 0 0.05768
2.1029999 -0.112 -0.83499998 34 0 0 0 0.057689998
2.1159999 -0.11 -0.83399999 32 0 0 0 0.057700001
2.141 -0.11 -0.83600003 35 0 0 0 0.057709999
2.1589999 -0.109 -0.83700001 35 0 0 0 0.057720002
2.175 -0.107 -0.83499998 32 0 0 0 0.05773
2.1919999 -0.106 -0.83499998 33 0 0 0 0.057739999
2.2190001 -0.106 -0.838 35 0 0 0 0.057750002
2.24 -0.105 -0.838 36 0 0 0 0.05776
2.2609999 -0.104 -0.83899999 35 0 0 0 0.057769999
2.2809999 -0.102 -0.83899999 31 0 0 0 0.057780001
2.302 -0.101 -0.83899999 32 0 0 0 0.05779
2.325 -0.1 -0.83899999 31 0 0 0 0.057799999
2.346 -0.098999999 -0.83899999 29 0 0 0 0.057810001
2.3640001 -0.097999997 -0.838 28 0 0 0 0.05782
2.3829999 -0.097000003 -0.83700001 27 0 0 0 0.057829998
2.4089999 -0.096000001 -0.838 28 0 0 0 0.057840001
2.4389999 -0.094999999 -0.83999997 28 0 0 0 0.05785
2.4630001 -0.093999997 -0.83999997 27 0 0 0 0.057859998
2.487 -0.093000002 -0.83999997 27 0 0 0 0.057870001
2.5120001 -0.092 -0.83999997 29 0 0 0 0.057879999
2.5339999 -0.090999998 -0.83999997 28 0 0 0 0.057890002
2.5599999 -0.090000004 -0.83899999 28 0 0 0 0.0579
2.592 -0.090000004 -0.84100002 29 0 0 0 0.057909999
2.6199999 -0.089000002 -0.84200001 29 0 0 0 0.057920001
2.645 -0.088 -0.84100002 29 0 0 0 0.05793
2.678 -0.086999997 -0.84299999 29 0 0 0 0.057939999
2.7119999 -0.086000003 -0.84399998 30 0 0 0 0.057950001
2.7379999 -0.085000001 -0.84299999 30 0 0 0 0.05796
2.7709999 -0.083999999 -0.84399998 29 0 0 0 0.057969999
2.799 -0.082999997 -0.84399998 28 0 0 0 0.057980001
2.835 -0.082000002 -0.84500003 29 0 0 0 0.05799
2.868 -0.081 -0.84500003 30 0 0 0 0.057999998
2.9170001 -0.081 -0.85000002 28 0 0 0 0.058010001
2.9519999 -0.079999998 -0.85100001 28 0 0 0 0.058019999
2.9909999 -0.079000004 -0.852 29 0 0 0 0.058030002
3.033 -0.078000002 -0.85399997 29 0 0 0 0.05804
3.0769999 -0.077 -0.85600001 30 0 0 0 0.058049999
3.115 -0.077 -0.85600001 31 0 0 0 0.058060002
3.148 -0.075000003 -0.85500002 30 0 0 0 0.05807
3.181 -0.074000001 -0.85299999 29 0 0 0 0.058079999
3.2190001 -0.072999999 -0.85299999 30 0 0 0 0.058090001
3.2620001 -0.072999999 -0.85399997 30 0 0 0 0.0581
3.309 -0.071999997 -0.85500002 30 0 0 0 0.058109999
3.3410001 -0.071000002 -0.852 30 0 0 0 0.058120001
3.382 -0.07 -0.852 31 0 0 0 0.05813
3.418 -0.068999998 -0.84899998 56 0 0 0 0.058139998
3.415 -0.067000002 -0.83700001 150 0 0 0 0.058150001
3.414 -0.064999998 -0.82599998 151 0 0 0 0.05816
3.4130001 -0.063000001 -0.81400001 151 0 0 0 0.058169998
3.4089999 -0.061000001 -0.80199999 150 0 0 0 0.058180001
3.4130001 -0.059999999 -0.792 151 0 0 0 0.058189999
3.4130001 -0.057999998 -0.77999997 151 0 0 0 0.058200002
3.4130001 -0.057 -0.76899999 151 0 0 0 0.05821
3.418 -0.055 -0.759 151 0 0 0 0.058219999
3.414 -0.052999999 -0.74699998 151 0 0 0 0.058230001
3.4170001 -0.052000001 -0.736 151 0 0 0 0.05824
3.4130001 -0.050000001 -0.72399998 151 0 0 0 0.058249999
3.414 -0.048999999 -0.713 151 0 0 0 0.058260001
3.4170001 -0.046999998 -0.70200002 151 0 0 0 0.05827
3.4159999 -0.046 -0.69099998 151 0 0 0 0.058279999
3.418 -0.045000002 -0.68000001 151 0 0 0 0.058290001
3.4200001 -0.043000001 -0.67000002 151 0 0 0 0.0583
3.418 -0.041999999 -0.65799999 151 0 0 0 0.058309998
3.4159999 -0.039999999 -0.64600003 151 0 0 0 0.058320001
3.4159999 -0.039000001 -0.63499999 151 0 0 0 0.058329999
3.4170001 -0.037999999 -0.62400001 151 0 0 0 0.058340002
3.4189999 -0.037 -0.61299998 151 0 0 0 0.058350001
3.4170001 -0.035 -0.60100001 151 0 0 0 0.058359999
3.4170001 -0.034000002 -0.58999997 151 0 0 0 0.058370002
3.4189999 -0.033 -0.57999998 151 0 0 0 0.05838
3.4170001 -0.032000002 -0.56800002 151 0 0 0 0.058389999
3.4189999 -0.029999999 -0.55699998 151 0 0 0 0.058400001
3.415 -0.028999999 -0.54500002 151 0 0 0 0.05841
3.4170001 -0.028000001 -0.53399998 151 0 0 0 0.058419999
3.4159999 -0.027000001 -0.523 151 0 0 0 0.058430001
3.418 -0.026000001 -0.51200002 151 0 0 0 0.05844
3.4130001 -0.025 -0.5 151 0 0 0 0.058449998
3.421 -0.024 -0.49000001 151 0 0 0 0.058460001
3.418 -0.023 -0.479 151 0 0 0 0.05847
3.418 -0.022 -0.46700001 151 0 0 0 0.058479998
3.4170001 -0.021 -0.456 151 0 0 0 0.058490001
3.415 -0.02 -0.44499999 151 0 0 0 0.058499999
3.4170001 -0.018999999 -0.43399999 151 0 0 0 0.058510002
3.4189999 -0.017999999 -0.42300001 151 0 0 0 0.05852
3.415 -0.017000001 -0.41100001 151 0 0 0 0.058529999
3.4159999 -0.017000001 -0.40099999 151 0 0 0 0.058540002
3.4189999 -0.016000001 -0.38999999 151 0 0 0 0.05855
3.4189999 -0.015 -0.37900001 151 0 0 0 0.058559999
3.4200001 -0.014 -0.368 151 0 0 0 0.058570001
3.4159999 -0.013 -0.35600001 151 0 0 0 0.05858
3.4170001 -0.013 -0.345 151 0 0 0 0.058589999
3.418 -0.012 -0.33399999 151 0 0 0 0.058600001
3.4189999 -0.011 -0.32300001 151 0 0 0 0.05861
3.4200001 -0.0099999998 -0.31200001 151 0 0 0 0.058619998
3.4189999 -0.0099999998 -0.301 151 0 0 0 0.058630001
3.4170001 -0.0089999996 -0.28999999 151 0 0 0 0.058639999
3.415 -0.0080000004 -0.278 151 0 0 0 0.058649998
3.4189999 -0.0080000004 -0.26699999 151 0 0 0 0.058660001
3.418 -0.0070000002 -0.25600001 151 0 0 0 0.058669999
3.4189999 -0.0070000002 -0.245 151 0 0 0 0.058680002
3.4159999 -0.0060000001 -0.234 151 0 0 0 0.05869
3.418 -0.0060000001 -0.223 151 0 0 0 0.058699999
3.418 -0.0049999999 -0.212 152 0 0 0 0.058710001
3.4189999 -0.0049999999 -0.20100001 152 0 0 0 0.05872
3.418 -0.0040000002 -0.19 152 0 0 0 0.058729999
3.418 -0.0040000002 -0.17900001 151 0 0 0 0.058740001
3.418 -0.003 -0.168 151 0 0 0 0.05875
3.4200001 -0.003 -0.15700001 152 0 0 0 0.058759999
3.421 -0.0020000001 -0.146 152 0 0 0 0.058770001
3.424 -0.0020000001 -0.13500001 152 0 0 0 0.05878
3.4159999 -0.0020000001 -0.123 152 0 0 0 0.058789998
3.425 -0.001 -0.112 152 0 0 0 0.058800001
3.4219999 -0.001 -0.101 152 0 0 0 0.058809999
3.4219999 -0.001 -0.090000004 152 0 0 0 0.058820002
3.418 0 -0.079000004 152 0 0 0 0.05883
3.424 0 -0.068000004 152 0 0 0 0.058839999
3.4260001 0 -0.057 152 0 0 0 0.058850002
3.418 0 -0.046 152 0 0 0 0.05886
3.418 0 -0.035 152 0 0 0 0.058869999
3.418 0 -0.024 152 0 0 0 0.058880001
3.418 0 -0.013 152 0 0 0 0.05889
3.418 0 -0.0020000001 152 0 0 0 0.058899999
3.418 0 0.0080000004 152 0 0 0 0.058910001
3.418 0 0.02 152 0 0 0 0.05892
3.4230001 0 0.030999999 152 0 0 0 0.058929998
3.4230001 0 0.041999999 152 0 0 0 0.058940001
3.4230001 0 0.052999999 152 0 0 0 0.05895
3.418 0 0.064000003 152 0 0 0 0.058959998
3.4230001 0 0.075000003 152 0 0 0 0.058970001
3.4219999 0 0.086000003 152 0 0 0 0.058979999
3.425 0 0.097000003 152 0 0 0 0.058990002
3.4230001 0 0.108 152 0 0 0 0.059
3.4200001 0 0.119 152 0 0 0 0.059009999
3.4230001 0 0.13 151 0 0 0 0.059020001
3.4230001 0 0.141 152 0 0 0 0.05903
3.4189999 0 0.152 151 0 0 0 0.059039999
3.4219999 0 0.164 151 0 0 0 0.059050001
3.4200001 0 0.175 152 0 0 0 0.05906
3.4219999 0 0.186 151 0 0 0 0.059069999
3.4200001 0 0.197 151 0 0 0 0.059080001
3.424 0 0.208 151 0 0 0 0.05909
3.4200001 0 0.219 151 0 0 0 0.059099998
3.421 0 0.23 151 0 0 0 0.059110001
3.427 -0.001 0.242 151 0 0 0 0.059119999
3.425 -0.001 0.25299999 151 0 0 0 0.059130002
3.425 -0.001 0.264 151 0 0 0 0.05914
3.421 -0.0020000001 0.27500001 151 0 0 0 0.059149999
3.4230001 -0.0020000001 0.28600001 151 0 0 0 0.059160002
3.4289999 -0.0020000001 0.29800001 151 0 0 0 0.05917
3.421 -0.003 0.308 151 0 0 0 0.059179999
3.425 -0.003 0.31999999 151 0 0 0 0.059190001
3.4300001 -0.0040000002 0.331 151 0 0 0 0.0592
3.424 -0.0040000002 0.34200001 151 0 0 0 0.059209999
3.4260001 -0.0040000002 0.35299999 151 0 0 0 0.059220001
3.428 -0.0049999999 0.36500001 151 0 0 0 0.05923
3.424 -0.0049999999 0.375 151 0 0 0 0.059239998
3.4260001 -0.0060000001 0.38699999 151 0 0 0 0.059250001
3.424 -0.0070000002 0.398 151 0 0 0 0.05926
3.4230001 -0.0070000002 0.40900001 151 0 0 0 0.059269998
3.421 -0.0080000004 0.419 151 0 0 0 0.059280001
3.4219999 -0.0080000004 0.43099999 151 0 0 0 0.059289999
3.421 -0.0089999996 0.442 151 0 0 0 0.059300002
3.4219999 -0.0099999998 0.45300001 151 0 0 0 0.05931
3.421 -0.0099999998 0.46399999 151 0 0 0 0.059319999
3.4200001 -0.011 0.47499999 151 0 0 0 0.059330001
3.4230001 -0.012 0.48699999 151 0 0 0 0.05934
3.4230001 -0.013 0.498 151 0 0 0 0.059349999
3.4260001 -0.013 0.509 151 0 0 0 0.059360001
3.4230001 -0.014 0.51999998 151 0 0 0 0.05937
3.425 -0.015 0.53200001 151 0 0 0 0.059379999
3.425 -0.016000001 0.54299998 151 0 0 0 0.059390001
3.4289999 -0.017000001 0.55500001 151 0 0 0 0.0594
3.4300001 -0.017999999 0.56599998 151 0 0 0 0.059409998
3.428 -0.017999999 0.57700002 151 0 0 0 0.059420001
3.4330001 -0.018999999 0.58899999 151 0 0 0 0.059429999
3.425 -0.02 0.59899998 151 0 0 0 0.059440002
3.4319999 -0.021 0.61199999 151 0 0 0 0.059450001
3.4319999 -0.022 0.62300003 151 0 0 0 0.059459999
3.4360001 -0.023 0.63499999 151 0 0 0 0.059470002
3.4289999 -0.024 0.64499998 151 0 0 0 0.05948
3.434 -0.026000001 0.65700001 151 0 0 0 0.059489999
3.4319999 -0.027000001 0.66799998 151 0 0 0 0.059500001
3.4300001 -0.028000001 0.67900002 151 0 0 0 0.05951
3.4319999 -0.028999999 0.69099998 151 0 0 0 0.059519999
3.431 -0.029999999 0.70200002 151 0 0 0 0.059530001
3.431 -0.030999999 0.713 151 0 0 0 0.05954
3.4289999 -0.032000002 0.72399998 150 0 0 0 0.059549998
3.434 -0.034000002 0.73699999 151 0 0 0 0.059560001
3.4300001 -0.035 0.74699998 151 0 0 0 0.05957
3.4300001 -0.035999998 0.759 150 0 0 0 0.059579998
3.431 -0.037999999 0.76999998 150 0 0 0 0.059590001
3.4300001 -0.039000001 0.78100002 150 0 0 0 0.059599999
3.431 -0.039999999 0.79299998 150 0 0 0 0.059610002
3.4319999 -0.041999999 0.80400002 151 0 0 0 0.05962
3.4330001 -0.043000001 0.81599998 151 0 0 0 0.059629999
3.434 -0.045000002 0.82800001 150 0 0 0 0.059640002
3.4330001 -0.046 0.83899999 150 0 0 0 0.05965
3.434 -0.048 0.85000002 150 0 0 0 0.059659999
3.4319999 -0.048999999 0.861 150 0 0 0 0.059670001
3.4319999 -0.050999999 0.87300003 150 0 0 0 0.05968
3.434 -0.052000001 0.88499999 150 0 0 0 0.059689999
3.434 -0.054000001 0.89600003 150 0 0 0 0.059700001
3.431 -0.056000002 0.90700001 150 0 0 0 0.05971
3.4330001 -0.057 0.91799998 150 0 0 0 0.059719998
3.434 -0.059 0.93000001 150 0 0 0 0.059730001
3.4349999 -0.061000001 0.94199997 150 0 0 0 0.059739999
3.437 -0.063000001 0.954 150 0 0 0 0.059749998
3.434 -0.064000003 0.96399999 150 0 0 0 0.059760001
3.437 -0.066 0.97600001 150 0 0 0 0.059769999
3.434 -0.068000004 0.98699999 150 0 0 0 0.059780002
3.4330001 -0.07 0.99800003 150 0 0 0 0.05979
3.4360001 -0.071999997 1.011 150 0 0 0 0.059799999
3.438 -0.074000001 1.023 150 0 0 0 0.059810001
3.4360001 -0.075999998 1.034 150 0 0 0 0.05982
3.4400001 -0.078000002 1.046 150 0 0 0 0.059829999
3.437 -0.079999998 1.057 150 0 0 0 0.059840001
3.434 -0.082000002 1.067 150 0 0 0 0.05985
3.4330001 -0.083999999 1.0779999 150 0 0 0 0.059859999
3.4360001 -0.086000003 1.091 150 0 0 0 0.059870001
3.4349999 -0.089000002 1.102 150 0 0 0 0.05988
3.437 -0.090999998 1.114 150 0 0 0 0.059889998
3.438 -0.093000002 1.126 150 0 0 0 0.059900001
3.441 -0.096000001 1.138 150 0 0 0 0.059909999
3.4389999 -0.097999997 1.149 150 0 0 0 0.059920002
3.441 -0.1 1.161 150 0 0 0 0.05993
3.438 -0.103 1.171 150 0 0 0 0.059939999
3.437 -0.105 1.183 150 0 0 0 0.059950002
3.437 -0.107 1.194 150 0 0 0 0.05996
3.4400001 -0.11 1.207 150 0 0 0 0.059969999
3.4419999 -0.113 1.219 150 0 0 0 0.059980001
3.441 -0.115 1.23 150 0 0 0 0.05999
3.4419999 -0.118 1.242 150 0 0 0 0.059999999
3.4449999 -0.121 1.2539999 150 0 0 0 0.060010001
3.4360001 -0.123 1.262 150 0 0 0 0.06002
3.418 -0.125 1.267 88 0 0 0 0.060029998
3.3870001 -0.126 1.267 125 0 0 0 0.060040001
3.381 -0.12899999 1.276 150 0 0 0 0.06005
3.3759999 -0.132 1.285 150 0 0 0 0.060059998
3.3770001 -0.134 1.296 150 0 0 0 0.060070001
3.355 -0.13600001 1.299 150 0 0 0 0.060079999
3.3440001 -0.139 1.306 150 0 0 0 0.060090002
3.3510001 -0.142 1.3200001 150 0 0 0 0.0601
3.3499999 -0.145 1.331 150 0 0 0 0.060109999
3.348 -0.148 1.341 150 0 0 0 0.060120001
3.355 -0.15099999 1.355 150 0 0 0 0.06013
3.3510001 -0.154 1.364 150 0 0 0 0.060139999
3.3540001 -0.15700001 1.376 150 0 0 0 0.060150001
3.3510001 -0.16 1.386 150 0 0 0 0.06016
3.3469999 -0.163 1.396 150 0 0 0 0.060169999
3.3540001 -0.167 1.41 150 0 0 0 0.060180001
3.3529999 -0.17 1.42 150 0 0 0 0.06019
3.3540001 -0.17299999 1.431 150 0 0 0 0.060199998
3.3540001 -0.176 1.442 150 0 0 0 0.060210001
3.3529999 -0.18000001 1.4529999 150 0 0 0 0.060219999
3.3540001 -0.183 1.464 150 0 0 0 0.060230002
3.355 -0.18700001 1.476 150 0 0 0 0.06024
3.3570001 -0.19 1.487 150 0 0 0 0.060249999
3.3529999 -0.193 1.4960001 150 0 0 0 0.060260002
3.352 -0.197 1.507 150 0 0 0 0.06027
3.3529999 -0.20100001 1.518 150 0 0 0 0.060279999
3.355 -0.204 1.53 150 0 0 0 0.060290001
3.3499999 -0.208 1.538 150 0 0 0 0.0603
3.358 -0.212 1.552 150 0 0 0 0.060309999
3.3570001 -0.21600001 1.563 150 0 0 0 0.060320001
3.358 -0.22 1.574 150 0 0 0 0.06033
3.3570001 -0.223 1.584 150 0 0 0 0.060339998
3.3559999 -0.227 1.594 150 0 0 0 0.060350001
3.348 -0.23 1.601 150 0 0 0 0.06036
3.336 -0.234 1.6059999 150 0 0 0 0.060369998
3.3169999 -0.236 1.607 120 0 0 0 0.060380001
3.2939999 -0.23899999 1.6059999 123 0 0 0 0.060389999
3.273 -0.241 1.6059999 121 0 0 0 0.060400002
3.2579999 -0.244 1.609 129 0 0 0 0.06041
3.23 -0.24600001 1.605 130 0 0 0 0.060419999
3.211 -0.248 1.6059999 112 0 0 0 0.060430001
3.187 -0.25 1.603 100 0 0 0 0.06044
3.1719999 -0.25299999 1.6059999 87 0 0 0 0.060449999
3.154 -0.25600001 1.6059999 70 0 0 0 0.060460001
3.1300001 -0.25799999 1.603 57 0 0 0 0.06047
3.1110001 -0.25999999 1.603 46 0 0 0 0.060479999
3.0869999 -0.26199999 1.6 40 0 0 0 0.060490001
3.0669999 -0.26499999 1.599 31 0 0 0 0.0605
3.0369999 -0.266 1.592 21 0 0 0 0.060509998
3.0179999 -0.26899999 1.591 24 0 0 0 0.060520001
2.9909999 -0.27000001 1.586 21 0 0 0 0.060529999
2.9760001 -0.273 1.586 21 0 0 0 0.060540002
2.96 -0.27599999 1.587 19 0 0 0 0.060550001
2.934 -0.278 1.581 19 0 0 0 0.060559999
2.9130001 -0.28 1.5779999 19 0 0 0 0.060570002
2.885 -0.28099999 1.571 19 0 0 0 0.06058
2.859 -0.28299999 1.5650001 19 0 0 0 0.060589999
2.8340001 -0.28400001 1.5599999 20 0 0 0 0.060600001
2.813 -0.28600001 1.556 21 0 0 0 0.06061
2.7939999 -0.28799999 1.553 20 0 0 0 0.060619999
2.77 -0.28999999 1.548 20 0 0 0 0.060630001
2.7409999 -0.29100001 1.539 22 0 0 0 0.06064
2.707 -0.292 1.527 23 0 0 0 0.060649998
2.6830001 -0.29300001 1.521 23 0 0 0 0.060660001
2.6589999 -0.294 1.515 26 0 0 0 0.06067
2.6359999 -0.296 1.508 27 0 0 0 0.060679998
2.6110001 -0.29699999 1.501 28 0 0 0 0.060690001
2.585 -0.29800001 1.492 28 0 0 0 0.060699999
2.5610001 -0.29899999 1.485 28 0 0 0 0.060710002
2.553 -0.303 1.487 31 0 0 0 0.06072
2.5320001 -0.30399999 1.4809999 31 0 0 0 0.060729999
2.5109999 -0.30500001 1.475 31 0 0 0 0.060740001
2.4790001 -0.30500001 1.4630001 30 0 0 0 0.06075
2.4300001 -0.303 1.4400001 28 0 0 0 0.060759999
2.3929999 -0.30199999 1.423 25 0 0 0 0.060770001
2.3789999 -0.30500001 1.421 23 0 0 0 0.06078
2.3770001 -0.308 1.426 23 0 0 0 0.060789999
2.3740001 -0.31200001 1.429 24 0 0 0 0.060800001
2.3770001 -0.31600001 1.436 25 0 0 0 0.06081
2.3770001 -0.31999999 1.442 27 0 0 0 0.060819998
2.3740001 -0.32300001 1.4450001 26 0 0 0 0.060830001
2.3759999 -0.32800001 1.452 24 0 0 0 0.060839999
2.3759999 -0.331 1.457 22 0 0 0 0.060849998
2.378 -0.336 1.4630001 18 0 0 0 0.060860001
2.3789999 -0.34 1.469 19 0 0 0 0.060869999
2.3770001 -0.34400001 1.473 20 0 0 0 0.060880002
2.3770001 -0.34799999 1.477 22 0 0 0 0.06089
2.3759999 -0.35100001 1.482 22 0 0 0 0.060899999
2.382 -0.35600001 1.49 22 0 0 0 0.060910001
2.375 -0.359 1.49 20 0 0 0 0.06092
2.382 -0.36399999 1.499 20 0 0 0 0.060929999
2.3870001 -0.36899999 1.506 25 0 0 0 0.060940001
2.3840001 -0.373 1.5089999 25 0 0 0 0.06095
2.3770001 -0.37599999 1.5089999 22 0 0 0 0.060959999
2.3800001 -0.38 1.515 20 0 0 0 0.060970001
2.3789999 -0.384 1.518 23 0 0 0 0.06098
2.3859999 -0.38999999 1.527 23 0 0 0 0.060989998
2.385 -0.39300001 1.53 25 0 0 0 0.061000001
2.382 -0.39700001 1.531 29 0 0 0 0.061009999
2.381 -0.40099999 1.535 31 0 0 0 0.061020002
2.3829999 -0.40599999 1.54 31 0 0 0 0.06103
2.382 -0.40900001 1.5420001 23 0 0 0 0.061039999
2.3840001 -0.414 1.5470001 20 0 0 0 0.061050002
2.3829999 -0.41800001 1.55 20 0 0 0 0.06106
2.388 -0.42300001 1.556 19 0 0 0 0.061069999
2.3889999 -0.42699999 1.5599999 20 0 0 0 0.061080001
2.3840001 -0.43000001 1.559 17 0 0 0 0.06109
2.382 -0.43399999 1.5599999 13 0 0 0 0.061099999
2.3929999 -0.44 1.571 12 0 0 0 0.061110001
2.392 -0.44400001 1.572 13 0 0 0 0.06112
2.3859999 -0.447 1.571 13 0 0 0 0.061129998
2.3900001 -0.45100001 1.576 16 0 0 0 0.061140001
2.392 -0.456 1.579 17 0 0 0 0.061149999
2.391 -0.45899999 1.58 17 0 0 0 0.061159998
2.391 -0.463 1.582 17 0 0 0 0.061170001
2.385 -0.46599999 1.581 20 0 0 0 0.061179999
2.3900001 -0.47099999 1.585 26 0 0 0 0.061190002
2.3889999 -0.47499999 1.586 25 0 0 0 0.0612
2.391 -0.479 1.589 23 0 0 0 0.061209999
2.391 -0.48300001 1.591 23 0 0 0 0.061220001
2.388 -0.486 1.59 26 0 0 0 0.06123
2.3870001 -0.49000001 1.591 28 0 0 0 0.061239999
2.3859999 -0.493 1.59 25 0 0 0 0.061250001
2.3900001 -0.498 1.594 23 0 0 0 0.06126
2.392 -0.50199997 1.596 21 0 0 0 0.061269999
2.391 -0.50599998 1.596 20 0 0 0 0.061280001
2.3900001 -0.509 1.596 21 0 0 0 0.06129
2.3900001 -0.51300001 1.596 22 0 0 0 0.061299998
2.3889999 -0.51599997 1.596 23 0 0 0 0.061310001
2.3889999 -0.51999998 1.596 24 0 0 0 0.061319999
2.3929999 -0.52399999 1.599 29 0 0 0 0.061330002
2.385 -0.52600002 1.5930001 28 0 0 0 0.06134
2.3900001 -0.52999997 1.596 30 0 0 0 0.061349999
2.3929999 -0.53500003 1.598 28 0 0 0 0.061360002
2.391 -0.53799999 1.596 21 0 0 0 0.06137
2.3940001 -0.542 1.597 17 0 0 0 0.061379999
2.3959999 -0.54500002 1.598 14 0 0 0 0.061390001
2.392 -0.54799998 1.594 12 0 0 0 0.0614
2.3959999 -0.55199999 1.596 13 0 0 0 0.061409999
2.3959999 -0.55500001 1.595 15 0 0 0 0.061420001
2.3889999 -0.55699998 1.589 15 0 0 0 0.06143
2.3940001 -0.56099999 1.59 18 0 0 0 0.061439998
2.3929999 -0.56400001 1.5880001 21 0 0 0 0.061450001
2.3929999 -0.56699997 1.587 22 0 0 0 0.06146
2.391 -0.56900001 1.584 21 0 0 0 0.061469998
2.3940001 -0.57300001 1.584 19 0 0 0 0.061480001
2.3970001 -0.57700002 1.584 16 0 0 0 0.061489999
2.3940001 -0.579 1.58 13 0 0 0 0.061500002
2.3970001 -0.58200002 1.579 12 0 0 0 0.06151
2.3989999 -0.58499998 1.5779999 12 0 0 0 0.061519999
2.398 -0.588 1.575 13 0 0 0 0.061530001
2.398 -0.58999997 1.572 14 0 0 0 0.06154
2.3940001 -0.59200001 1.567 15 0 0 0 0.061549999
2.401 -0.59600002 1.569 17 0 0 0 0.061560001
2.3989999 -0.59799999 1.564 17 0 0 0 0.06157
2.3970001 -0.60000002 1.5599999 16 0 0 0 0.061579999
2.398 -0.60299999 1.557 16 0 0 0 0.061590001
2.3970001 -0.60500002 1.553 16 0 0 0 0.0616
2.3970001 -0.60699999 1.55 16 0 0 0 0.061609998
2.3929999 -0.60799998 1.544 14 0 0 0 0.061620001
2.3989999 -0.61199999 1.544 15 0 0 0 0.061629999
2.3929999 -0.61199999 1.536 14 0 0 0 0.061640002
2.3989999 -0.616 1.536 16 0 0 0 0.061650001
2.395 -0.61699998 1.53 16 0 0 0 0.061659999
2.3970001 -0.61900002 1.527 18 0 0 0 0.061670002
2.3970001 -0.62099999 1.523 19 0 0 0 0.06168
2.3959999 -0.62199998 1.517 20 0 0 0 0.061689999
2.3929999 -0.62300003 1.511 19 0 0 0 0.061700001
2.395 -0.625 1.508 19 0 0 0 0.06171
2.3989999 -0.62800002 1.506 19 0 0 0 0.061719999
2.3959999 -0.62800002 1.499 17 0 0 0 0.061730001
2.398 -0.63 1.4960001 16 0 0 0 0.06174
2.3970001 -0.63200003 1.49 15 0 0 0 0.061749998
2.3959999 -0.63300002 1.485 15 0 0 0 0.061760001
2.3970001 -0.634 1.4809999 15 0 0 0 0.06177
2.3970001 -0.63499999 1.475 15 0 0 0 0.061779998
2.3989999 -0.63700002 1.471 14 0 0 0 0.061790001
2.3929999 -0.63599998 1.4630001 14 0 0 0 0.061799999
2.3989999 -0.639 1.46 16 0 0 0 0.061810002
2.4000001 -0.63999999 1.456 16 0 0 0 0.06182
2.404 -0.64200002 1.4529999 17 0 0 0 0.061829999
2.395 -0.64099997 1.442 16 0 0 0 0.061840001
2.395 -0.64099997 1.436 15 0 0 0 0.06185
2.3900001 -0.64099997 1.427 14 0 0 0 0.061859999
2.398 -0.64300001 1.426 15 0 0 0 0.061870001
2.3940001 -0.64300001 1.4170001 14 0 0 0 0.06188
2.3940001 -0.64300001 1.411 13 0 0 0 0.061889999
2.395 -0.64399999 1.406 13 0 0 0 0.061900001
2.3940001 -0.64399999 1.399 12 0 0 0 0.06191
2.395 -0.64399999 1.3940001 13 0 0 0 0.061919998
2.3959999 -0.64499998 1.388 14 0 0 0 0.061930001
2.3929999 -0.64399999 1.38 14 0 0 0 0.061939999
2.395 -0.64499998 1.374 15 0 0 0 0.061949998
2.395 -0.64499998 1.369 15 0 0 0 0.061960001
2.395 -0.64499998 1.362 14 0 0 0 0.061969999
2.3959999 -0.64499998 1.3559999 14 0 0 0 0.061980002
2.392 -0.64399999 1.347 14 0 0 0 0.06199
2.398 -0.64499998 1.344 15 0 0 0 0.061999999
2.398 -0.64499998 1.337 17 0 0 0 0.062010001
2.3959999 -0.64399999 1.329 19 0 0 0 0.06202
2.395 -0.64300001 1.322 20 0 0 0 0.062029999
2.395 -0.64300001 1.3150001 21 0 0 0 0.062040001
2.3940001 -0.64200002 1.308 22 0 0 0 0.06205
2.3959999 -0.64200002 1.302 22 0 0 0 0.062059999
2.3940001 -0.64099997 1.293 22 0 0 0 0.062070001
2.3929999 -0.63999999 1.286 24 0 0 0 0.06208
2.3929999 -0.639 1.279 21 0 0 0 0.062089998
2.392 -0.63800001 1.272 18 0 0 0 0.062100001
2.3940001 -0.63800001 1.265 21 0 0 0 0.062109999
2.3889999 -0.63599998 1.255 21 0 0 0 0.062120002
2.3870001 -0.63499999 1.247 22 0 0 0 0.06213
2.392 -0.63499999 1.243 24 0 0 0 0.062139999
2.391 -0.63300002 1.235 24 0 0 0 0.062150002
2.3900001 -0.63200003 1.227 19 0 0 0 0.06216
2.3940001 -0.63200003 1.222 13 0 0 0 0.062169999
2.4289999 -0.63999999 1.233 41 0 0 0 0.062180001
3.1400001 -0.82599998 1.5829999 105 0 0 0 0.06219
3.2390001 -0.85000002 1.623 29 0 0 0 0.062199999
3.243 -0.84899998 1.615 37 0 0 0 0.062210001
3.263 -0.852 1.615 40 0 0 0 0.06222
3.2850001 -0.85600001 1.6160001 38 0 0 0 0.062229998
3.3069999 -0.86000001 1.6160001 39 0 0 0 0.062240001
3.325 -0.86299998 1.615 37 0 0 0 0.062249999
3.349 -0.86699998 1.6160001 37 0 0 0 0.062259998
3.3710001 -0.87 1.6160001 37 0 0 0 0.062270001
3.3889999 -0.87199998 1.614 37 0 0 0 0.062279999
3.4159999 -0.87699997 1.6160001 37 0 0 0 0.062290002
3.437 -0.88 1.615 36 0 0 0 0.0623
3.45 -0.88 1.6109999 35 0 0 0 0.062309999
3.4860001 -0.88700002 1.6160001 36 0 0 0 0.062320001
3.5120001 -0.88999999 1.617 37 0 0 0 0.06233
3.536 -0.89399999 1.617 36 0 0 0 0.062339999
3.562 -0.89700001 1.617 28 0 0 0 0.062350001
3.5810001 -0.89899999 1.615 26 0 0 0 0.06236
3.6110001 -0.903 1.617 29 0 0 0 0.062369999
3.635 -0.90600002 1.6160001 27 0 0 0 0.062380001
3.6530001 -0.90700001 1.612 26 0 0 0 0.06239
3.6889999 -0.91299999 1.6160001 28 0 0 0 0.062399998
3.71 -0.91500002 1.614 29 0 0 0 0.062410001
3.734 -0.917 1.612 28 0 0 0 0.062419999
3.7639999 -0.921 1.613 29 0 0 0 0.062430002
3.7920001 -0.92400002 1.613 28 0 0 0 0.06244
3.816 -0.926 1.6109999 27 0 0 0 0.062449999
3.8399999 -0.92799997 1.608 27 0 0 0 0.062460002
3.8729999 -0.93199998 1.61 27 0 0 0 0.06247
3.898 -0.93400002 1.608 26 0 0 0 0.062479999
3.9319999 -0.93699998 1.609 25 0 0 0 0.062490001
3.967 -0.94199997 1.6109999 27 0 0 0 0.0625
3.997 -0.94400001 1.61 25 0 0 0 0.062509999
4.027 -0.94700003 1.61 26 0 0 0 0.062519997
4.059 -0.94999999 1.609 27 0 0 0 0.062530003
4.0879998 -0.95200002 1.608 25 0 0 0 0.062540002
4.125 -0.95599997 1.609 26 0 0 0 0.062550001
4.1570001 -0.95899999 1.608 26 0 0 0 0.06256
4.1929998 -0.96200001 1.609 26 0 0 0 0.062569998
4.2280002 -0.96499997 1.609 26 0 0 0 0.062579997
4.2639999 -0.96799999 1.609 26 0 0 0 0.062590003
4.3010001 -0.97100002 1.609 24 0 0 0 0.062600002
0 0 0 0 0 0 0 0.06261
2.836 -0.63300002 1.043 0 0 0 0 0.062619999
0 0 0 0 0 0 0 0.062629998
0 0 0 0 0 0 0 0.062639996
0 0 0 0 0 0 0 0.062650003
0 0 0 0 0 0 0 0.062660001
2.9990001 -0.65100002 1.056 0 0 0 0 0.06267
2.497 -0.53799999 0.87099999 0 0 0 0 0.062679999
0 0 0 0 0 0 0 0.062689997
0 0 0 0 0 0 0 0.062700003
2.4070001 -0.509 0.81699997 0 0 0 0 0.062710002
0 0 0 0 0 0 0 0.062720001
0 0 0 0 0 0 0 0.062729999
0 0 0 0 0 0 0 0.062739998
0 0 0 0 0 0 0 0.062749997
0 0 0 0 0 0 0 0.062760003
0 0 0 0 0 0 0 0.062770002
0 0 0 0 0 0 0 0.06278
0 0 0 0 0 0 0 0.062789999
0 0 0 0 0 0 0 0.062799998
0 0 0 0 0 0 0 0.062809996
0 0 0 0 0 0 0 0.062820002
0 0 0 0 0 0 0 0.062830001
0 0 0 0 0 0 0 0.06284
0 0 0 0 0 0 0 0.062849998
0 0 0 0 0 0 0 0.062859997
0 0 0 0 0 0 0 0.062870003
0 0 0 0 0 0 0 0.062880002
0 0 0 0 0 0 0 0.062890001
0 0 0 0 0 0 0 0.062899999
0 0 0 0 0 0 0 0.062909998
0 0 0 0 0 0 0 0.062919997
0 0 0 0 0 0 0 0.062930003
0 0 0 0 0 0 0 0.062940001
0 0 0 0 0 0 0 0.06295
0 0 0 0 0 0 0 0.062959999
0 0 0 0 0 0 0 0.062969998
0 0 0 0 0 0 0 0.062980004
0 0 0 0 0 0 0 0.062990002
0 0 0 0 0 0 0 0.063000001
0 0 0 0 0 0 0 0.06301
0 0 0 0 0 0 0 0.063019998
0 0 0 0 0 0 0 0.063029997
0 0 0 0 0 0 0 0.063040003
0 0 0 0 0 0 0 0.063050002
0 0 0 0 0 0 0 0.063060001
0 0 0 0 0 0 0 0.063069999
0 0 0 0 0 0 0 0.063079998
0 0 0 0 0 0 0 0.063089997
0 0 0 0 0 0 0 0.063100003
0 0 0 0 0 0 0 0.063110001
0 0 0 0 0 0 0 0.06312
0 0 0 0 0 0 0 0.063129999
0 0 0 0 0 0 0 0.063139997
0 0 0 0 0 0 0 0.063150004
2.414 -0.34299999 0.49200001 0 0 0 0 0.063160002
2.378 -0.33399999 0.477 0 0 0 0 0.063170001
2.3789999 -0.33000001 0.47099999 13 0 0 0 0.06318
2.3789999 -0.32600001 0.46399999 22 0 0 0 0.063189998
2.3959999 -0.324 0.46000001 23 0 0 0 0.063199997
2.4230001 -0.324 0.45899999 14 0 0 0 0.063210003
2.4530001 -0.324 0.45699999 16 0 0 0 0.063220002
2.48 -0.32300001 0.45500001 17 0 0 0 0.06323
2.5090001 -0.322 0.454 18 0 0 0 0.063239999
2.533 -0.32100001 0.45100001 18 0 0 0 0.063249998
2.579 -0.322 0.45199999 19 0 0 0 0.063259996
2.845 -0.35100001 0.49000001 150 0 0 0 0.063270003
2.967 -0.36000001 0.50300002 150 0 0 0 0.063280001
3.2090001 -0.384 0.53500003 150 0 0 0 0.06329
3.2130001 -0.37900001 0.52600002 150 0 0 0 0.063299999
3.214 -0.373 0.51800001 150 0 0 0 0.063309997
3.2079999 -0.36700001 0.50800002 150 0 0 0 0.063320003
3.2090001 -0.361 0.49900001 150 0 0 0 0.063330002
3.2060001 -0.35499999 0.49000001 150 0 0 0 0.063340001
3.2079999 -0.34999999 0.48100001 150 0 0 0 0.063349999
3.2090001 -0.34400001 0.472 150 0 0 0 0.063359998
3.21 -0.338 0.46399999 150 0 0 0 0.063369997
3.227 -0.33399999 0.45699999 150 0 0 0 0.063380003
3.2420001 -0.33000001 0.44999999 150 0 0 0 0.063390002
3.24 -0.324 0.44100001 150 0 0 0 0.0634
3.237 -0.31799999 0.43200001 150 0 0 0 0.063409999
3.23 -0.31099999 0.42199999 150 0 0 0 0.063419998
3.2349999 -0.30599999 0.414 150 0 0 0 0.063429996
3.2279999 -0.29899999 0.40400001 150 0 0 0 0.063440003
3.2349999 -0.294 0.396 150 0 0 0 0.063450001
3.2320001 -0.28799999 0.38699999 150 0 0 0 0.06346
3.2360001 -0.28200001 0.37900001 123 0 0 0 0.063469999
3.293 -0.28099999 0.377 24 0 0 0 0.063479997
3.3369999 -0.27900001 0.373 91 0 0 0 0.063490003
3.3380001 -0.27200001 0.36399999 150 0 0 0 0.063500002
3.339 -0.266 0.35499999 150 0 0 0 0.063510001
3.3429999 -0.25999999 0.34599999 150 0 0 0 0.063519999
3.3380001 -0.25400001 0.33700001 150 0 0 0 0.063529998
3.3429999 -0.248 0.32800001 150 0 0 0 0.063539997
3.345 -0.242 0.31999999 150 0 0 0 0.063550003
3.346 -0.236 0.31099999 150 0 0 0 0.063560002
3.365 -0.23100001 0.30399999 150 0 0 0 0.06357
3.3729999 -0.22499999 0.29499999 151 0 0 0 0.063579999
3.3729999 -0.21799999 0.28600001 150 0 0 0 0.063589998
3.3740001 -0.212 0.278 150 0 0 0 0.063600004
3.3740001 -0.206 0.26899999 150 0 0 0 0.063610002
3.4189999 -0.20200001 0.26300001 150 0 0 0 0.063620001
3.4360001 -0.19599999 0.255 151 0 0 0 0.06363
3.437 -0.19 0.24699999 150 0 0 0 0.063639998
3.438 -0.183 0.23800001 150 0 0 0 0.063649997
3.434 -0.176 0.228 150 0 0 0 0.063660003
3.4349999 -0.17 0.219 150 0 0 0 0.063670002
3.4349999 -0.163 0.20999999 150 0 0 0 0.063680001
3.4360001 -0.15700001 0.20100001 150 0 0 0 0.063689999
3.4360001 -0.15000001 0.192 150 0 0 0 0.063699998
3.4289999 -0.14300001 0.183 150 0 0 0 0.063709997
3.4289999 -0.13600001 0.17399999 150 0 0 0 0.063720003
3.4319999 -0.13 0.16599999 150 0 0 0 0.063730001
3.431 -0.123 0.15700001 150 0 0 0 0.06374
3.428 -0.116 0.148 150 0 0 0 0.063749999
3.4300001 -0.109 0.139 150 0 0 0 0.063759997
3.4289999 -0.103 0.13 150 0 0 0 0.063770004
3.4289999 -0.096000001 0.121 150 0 0 0 0.063780002
3.421 -0.089000002 0.112 150 0 0 0 0.063790001
3.4219999 -0.082000002 0.103 150 0 0 0 0.0638
3.425 -0.075000003 0.094999999 150 0 0 0 0.063809998
3.428 -0.068000004 0.086000003 150 0 0 0 0.063819997
3.427 -0.061999999 0.077 150 0 0 0 0.063830003
3.4230001 -0.055 0.068000004 150 0 0 0 0.063840002
