# .PCD v0.7 - Point Cloud Data file format
VERSION 0.7
FIELDS x y z intensity normal_x normal_y normal_z curvature
SIZE 4 4 4 4 4 4 4 4
TYPE F F F F F F F F
COUNT 1 1 1 1 1 1 1 1
WIDTH 1039
HEIGHT 1
VIEWPOINT 0 0 0 1 0 0 0
POINTS 1039
DATA ascii
0 0 0 0 0 0 0 0.032260001
0 0 0 0 0 0 0 0.032269999
0 0 0 0 0 0 0 0.032280002
0 0 0 0 0 0 0 0.03229
0 0 0 0 0 0 0 0.032299999
0 0 0 0 0 0 0 0.032310002
0 0 0 0 0 0 0 0.03232
0 0 0 0 0 0 0 0.032329999
0 0 0 0 0 0 0 0.032340001
0 0 0 0 0 0 0 0.03235
0 0 0 0 0 0 0 0.032359999
0 0 0 0 0 0 0 0.032370001
2.4089999 -0.40000001 0.248 0 0 0 0 0.03238
2.4200001 -0.396 0.244 0 0 0 0 0.032389998
2.385 -0.384 0.236 0 0 0 0 0.032400001
2.385 -0.377 0.23199999 0 0 0 0 0.03241
2.3840001 -0.37 0.227 0 0 0 0 0.032419998
2.3670001 -0.361 0.221 0 0 0 0 0.032430001
2.382 -0.35699999 0.21799999 0 0 0 0 0.032439999
2.381 -0.35100001 0.213 0 0 0 0 0.032450002
2.3599999 -0.34099999 0.207 0 0 0 0 0.03246
2.372 -0.336 0.204 5 0 0 0 0.032469999
2.385 -0.33199999 0.20100001 18 0 0 0 0.032480001
2.4130001 -0.329 0.199 14 0 0 0 0.03249
2.4630001 -0.329 0.198 16 0 0 0 0.032499999
2.507 -0.32800001 0.197 19 0 0 0 0.032510001
2.556 -0.32699999 0.19599999 23 0 0 0 0.03252
2.855 -0.35800001 0.214 95 0 0 0 0.032529999
3.049 -0.37400001 0.223 150 0 0 0 0.032540001
3.2079999 -0.38499999 0.229 150 0 0 0 0.03255
3.207 -0.37599999 0.223 150 0 0 0 0.032559998
3.2019999 -0.366 0.21699999 150 0 0 0 0.032570001
3.2090001 -0.35800001 0.212 150 0 0 0 0.032579999
3.2090001 -0.34900001 0.206 150 0 0 0 0.032590002
3.211 -0.34099999 0.20100001 150 0 0 0 0.032600001
3.2390001 -0.33500001 0.197 150 0 0 0 0.032609999
3.234 -0.32600001 0.191 150 0 0 0 0.032620002
3.23 -0.31600001 0.185 150 0 0 0 0.03263
3.234 -0.308 0.18000001 150 0 0 0 0.032639999
3.2320001 -0.29899999 0.17399999 150 0 0 0 0.032650001
3.2320001 -0.28999999 0.169 150 0 0 0 0.03266
3.2460001 -0.28200001 0.164 76 0 0 0 0.032669999
3.336 -0.28 0.163 59 0 0 0 0.032680001
3.348 -0.27200001 0.15700001 151 0 0 0 0.03269
3.3399999 -0.26199999 0.15099999 150 0 0 0 0.032699998
3.3399999 -0.25299999 0.146 150 0 0 0 0.032710001
3.3410001 -0.244 0.14 150 0 0 0 0.03272
3.345 -0.235 0.13500001 150 0 0 0 0.032729998
3.3699999 -0.227 0.13 150 0 0 0 0.032740001
3.3710001 -0.21799999 0.124 151 0 0 0 0.032749999
3.3699999 -0.208 0.119 150 0 0 0 0.032760002
3.4130001 -0.20200001 0.114 150 0 0 0 0.03277
3.434 -0.193 0.11 152 0 0 0 0.032779999
3.4389999 -0.184 0.104 150 0 0 0 0.032790001
3.438 -0.17399999 0.097999997 150 0 0 0 0.0328
3.4349999 -0.164 0.093000002 150 0 0 0 0.032809999
3.4319999 -0.155 0.086999997 150 0 0 0 0.032820001
3.4319999 -0.145 0.081 150 0 0 0 0.03283
3.431 -0.13500001 0.075999998 150 0 0 0 0.032839999
3.4300001 -0.126 0.07 150 0 0 0 0.032850001
3.4319999 -0.116 0.064999998 150 0 0 0 0.03286
3.431 -0.107 0.059 150 0 0 0 0.032869998
3.4260001 -0.097000003 0.052999999 150 0 0 0 0.032880001
3.4289999 -0.086999997 0.048 150 0 0 0 0.032889999
3.4230001 -0.077 0.041999999 150 0 0 0 0.032900002
3.427 -0.068000004 0.037 150 0 0 0 0.032910001
3.424 -0.057999998 0.030999999 150 0 0 0 0.032919999
3.424 -0.048 0.026000001 150 0 0 0 0.032930002
3.4189999 -0.039000001 0.021 150 0 0 0 0.03294
3.4230001 -0.028999999 0.015 150 0 0 0 0.032949999
3.418 -0.018999999 0.0099999998 151 0 0 0 0.032960001
3.4159999 -0.0099999998 0.0049999999 151 0 0 0 0.03297
3.418 0 0 151 0 0 0 0.032979999
3.4230001 0.0089999996 -0.0049999999 151 0 0 0 0.032990001
3.421 0.018999999 -0.0099999998 152 0 0 0 0.033
3.4230001 0.028000001 -0.016000001 152 0 0 0 0.033009999
3.418 0.037999999 -0.021 152 0 0 0 0.033020001
3.4070001 0.048 -0.026000001 153 0 0 0 0.03303
3.402 0.057 -0.030999999 153 0 0 0 0.033039998
3.402 0.067000002 -0.035999998 153 0 0 0 0.033050001
3.398 0.077 -0.041999999 153 0 0 0 0.033059999
3.3829999 0.086000003 -0.046999998 154 0 0 0 0.033070002
3.3829999 0.096000001 -0.052000001 154 0 0 0 0.03308
3.382 0.105 -0.057 154 0 0 0 0.033089999
3.3800001 0.115 -0.061999999 155 0 0 0 0.033100002
3.3710001 0.124 -0.067000002 156 0 0 0 0.03311
3.3640001 0.134 -0.071999997 157 0 0 0 0.033119999
3.365 0.14300001 -0.077 157 0 0 0 0.033130001
3.3640001 0.153 -0.082000002 157 0 0 0 0.03314
3.365 0.163 -0.086999997 157 0 0 0 0.033149999
3.362 0.17200001 -0.090999998 158 0 0 0 0.033160001
3.359 0.182 -0.096000001 158 0 0 0 0.03317
3.3610001 0.192 -0.101 159 0 0 0 0.033179998
3.355 0.20100001 -0.106 160 0 0 0 0.033190001
3.355 0.211 -0.111 159 0 0 0 0.033199999
3.3559999 0.221 -0.116 158 0 0 0 0.033209998
3.358 0.23100001 -0.121 158 0 0 0 0.033220001
3.362 0.241 -0.126 158 0 0 0 0.033229999
3.3540001 0.25 -0.13 159 0 0 0 0.033240002
3.358 0.25999999 -0.13500001 158 0 0 0 0.03325
3.3610001 0.27000001 -0.14 157 0 0 0 0.033259999
3.3670001 0.28099999 -0.145 156 0 0 0 0.033270001
3.369 0.29100001 -0.15000001 155 0 0 0 0.03328
3.3729999 0.301 -0.155 154 0 0 0 0.033289999
3.3710001 0.31099999 -0.16 154 0 0 0 0.033300001
3.372 0.32100001 -0.164 154 0 0 0 0.03331
3.3789999 0.331 -0.169 154 0 0 0 0.033319999
3.3800001 0.34099999 -0.17399999 153 0 0 0 0.033330001
3.3889999 0.352 -0.17900001 153 0 0 0 0.03334
3.3929999 0.36300001 -0.184 152 0 0 0 0.033349998
3.3929999 0.373 -0.189 153 0 0 0 0.033360001
3.3940001 0.38299999 -0.19400001 152 0 0 0 0.033369999
3.3929999 0.39300001 -0.198 151 0 0 0 0.033380002
3.388 0.40200001 -0.20200001 151 0 0 0 0.03339
3.3870001 0.412 -0.207 151 0 0 0 0.033399999
3.3889999 0.42300001 -0.212 151 0 0 0 0.033410002
3.3840001 0.43200001 -0.21600001 151 0 0 0 0.03342
3.3840001 0.442 -0.22 151 0 0 0 0.033429999
3.3870001 0.45300001 -0.22499999 151 0 0 0 0.033440001
3.3840001 0.463 -0.23 150 0 0 0 0.03345
3.3859999 0.47299999 -0.234 151 0 0 0 0.033459999
3.369 0.48100001 -0.237 151 0 0 0 0.033470001
3.3169999 0.48300001 -0.23800001 150 0 0 0 0.03348
3.3169999 0.493 -0.243 151 0 0 0 0.033489998
3.313 0.50300002 -0.24699999 151 0 0 0 0.033500001
3.2869999 0.509 -0.249 151 0 0 0 0.03351
3.2869999 0.51899999 -0.25299999 152 0 0 0 0.033519998
3.283 0.528 -0.257 151 0 0 0 0.033530001
3.283 0.53799999 -0.26100001 152 0 0 0 0.033539999
3.2750001 0.54699999 -0.26499999 150 0 0 0 0.033550002
3.2520001 0.55299997 -0.26699999 24 0 0 0 0.03356
3.2090001 0.55500001 -0.26800001 24 0 0 0 0.033569999
3.1429999 0.55299997 -0.266 24 0 0 0 0.033580001
3.0780001 0.551 -0.264 24 0 0 0 0.03359
2.9790001 0.54299998 -0.25999999 24 0 0 0 0.033599999
2.9000001 0.537 -0.25600001 23 0 0 0 0.033610001
2.826 0.53200001 -0.25299999 23 0 0 0 0.03362
2.737 0.52399999 -0.249 21 0 0 0 0.033629999
2.6630001 0.51800001 -0.245 23 0 0 0 0.033640001
2.5999999 0.514 -0.243 22 0 0 0 0.03365
2.5380001 0.509 -0.23999999 21 0 0 0 0.033659998
2.4790001 0.505 -0.237 21 0 0 0 0.033670001
2.4230001 0.50099999 -0.235 20 0 0 0 0.033679999
2.3740001 0.49900001 -0.233 22 0 0 0 0.033690002
2.293 0.48899999 -0.228 29 0 0 0 0.0337
2.2590001 0.48800001 -0.227 150 0 0 0 0.033709999
2.2520001 0.49399999 -0.229 151 0 0 0 0.033720002
2.2520001 0.50099999 -0.23199999 151 0 0 0 0.03373
2.243 0.50599998 -0.233 150 0 0 0 0.033739999
2.23 0.50999999 -0.235 150 0 0 0 0.033750001
2.2260001 0.51599997 -0.237 150 0 0 0 0.03376
2.227 0.52399999 -0.23899999 151 0 0 0 0.033769999
2.227 0.53100002 -0.242 151 0 0 0 0.033780001
2.2249999 0.537 -0.244 151 0 0 0 0.03379
2.2260001 0.54400003 -0.24699999 151 0 0 0 0.033799998
2.223 0.551 -0.249 151 0 0 0 0.033810001
2.2219999 0.55699998 -0.25099999 151 0 0 0 0.03382
2.227 0.56599998 -0.25400001 151 0 0 0 0.033829998
2.233 0.574 -0.25799999 151 0 0 0 0.033840001
2.2309999 0.58099997 -0.25999999 151 0 0 0 0.033849999
2.23 0.588 -0.26199999 151 0 0 0 0.033860002
2.2279999 0.59500003 -0.264 151 0 0 0 0.03387
2.23 0.602 -0.26699999 151 0 0 0 0.033879999
2.24 0.61199999 -0.27000001 150 0 0 0 0.033890001
2.326 0.64300001 -0.28299999 150 0 0 0 0.0339
2.484 0.69499999 -0.30500001 150 0 0 0 0.033909999
2.4879999 0.704 -0.308 150 0 0 0 0.033920001
2.4849999 0.71100003 -0.31 150 0 0 0 0.03393
2.4860001 0.71899998 -0.31299999 150 0 0 0 0.033939999
2.4000001 0.70200002 -0.30500001 150 0 0 0 0.033950001
2.299 0.68000001 -0.294 150 0 0 0 0.03396
1.501 0.449 -0.193 15 0 0 0 0.033969998
1.477 0.44600001 -0.192 1 0 0 0 0.033980001
1.46 0.44600001 -0.191 1 0 0 0 0.033989999
1.434 0.44299999 -0.189 1 0 0 0 0.034000002
1.415 0.442 -0.18799999 1 0 0 0 0.034010001
1.405 0.44299999 -0.18799999 1 0 0 0 0.034019999
1.387 0.442 -0.18700001 3 0 0 0 0.034030002
1.348 0.43399999 -0.183 2 0 0 0 0.03404
1.347 0.43799999 -0.184 4 0 0 0 0.034049999
1.322 0.43399999 -0.182 12 0 0 0 0.034060001
1.3 0.43099999 -0.18000001 103 0 0 0 0.03407
1.288 0.43200001 -0.17900001 150 0 0 0 0.034079999
1.291 0.43700001 -0.18099999 150 0 0 0 0.034090001
1.288 0.44 -0.18099999 150 0 0 0 0.0341
1.29 0.44499999 -0.183 150 0 0 0 0.034109998
1.289 0.449 -0.184 150 0 0 0 0.034120001
1.29 0.454 -0.185 150 0 0 0 0.03413
1.288 0.45699999 -0.186 150 0 0 0 0.034139998
1.288 0.461 -0.18700001 150 0 0 0 0.034150001
1.285 0.46399999 -0.18700001 150 0 0 0 0.034159999
1.288 0.47 -0.189 150 0 0 0 0.034170002
1.291 0.47499999 -0.19 125 0 0 0 0.03418
1.2920001 0.47999999 -0.191 25 0 0 0 0.034189999
1.267 0.47499999 -0.189 6 0 0 0 0.034200002
1.244 0.47 -0.186 5 0 0 0 0.03421
1.217 0.46399999 -0.183 3 0 0 0 0.034219999
3.312 1.275 -0.50199997 5 0 0 0 0.034230001
1.193 0.463 -0.18099999 3 0 0 0 0.03424
3.313 1.2970001 -0.50599998 5 0 0 0 0.034249999
1.1720001 0.46200001 -0.18000001 0 0 0 0 0.034260001
1.161 0.46200001 -0.17900001 0 0 0 0 0.03427
1.145 0.45899999 -0.177 2 0 0 0 0.034279998
1.138 0.461 -0.177 0 0 0 0 0.034290001
1.1289999 0.461 -0.176 0 0 0 0 0.034299999
1.125 0.463 -0.176 0 0 0 0 0.034309998
1.105 0.458 -0.17399999 0 0 0 0 0.034320001
1.1 0.46000001 -0.17399999 0 0 0 0 0.034329999
1.087 0.458 -0.17200001 0 0 0 0 0.034340002
1.082 0.46000001 -0.17200001 0 0 0 0 0.03435
1.059 0.45300001 -0.169 0 0 0 0 0.034359999
1.051 0.454 -0.168 0 0 0 0 0.034370001
1.041 0.45300001 -0.167 0 0 0 0 0.03438
1.034 0.45300001 -0.167 0 0 0 0 0.034389999
1.029 0.454 -0.16599999 0 0 0 0 0.034400001
1.0140001 0.45100001 -0.16500001 2 0 0 0 0.03441
1.0089999 0.45199999 -0.164 0 0 0 0 0.034419999
1.001 0.45199999 -0.163 0 0 0 0 0.034430001
0.98699999 0.449 -0.161 0 0 0 0 0.03444
0.986 0.45199999 -0.162 0 0 0 0 0.034449998
0.97600001 0.45100001 -0.161 0 0 0 0 0.034460001
0.96700001 0.44999999 -0.15899999 0 0 0 0 0.034469999
3.089 1.447 -0.51099998 2 0 0 0 0.034480002
0.95099998 0.44800001 -0.15800001 0 0 0 0 0.03449
0.94599998 0.449 -0.15700001 0 0 0 0 0.034499999
0.93599999 0.44800001 -0.156 0 0 0 0 0.034510002
0.93400002 0.44999999 -0.156 0 0 0 0 0.03452
0.92199999 0.447 -0.154 0 0 0 0 0.034529999
0.917 0.44800001 -0.153 0 0 0 0 0.034540001
0.91799998 0.45100001 -0.154 5 0 0 0 0.03455
0.917 0.45300001 -0.154 7 0 0 0 0.034559999
0.917 0.45699999 -0.154 9 0 0 0 0.034570001
0.921 0.46200001 -0.155 9 0 0 0 0.03458
0.917 0.46200001 -0.154 8 0 0 0 0.034589998
0.91600001 0.465 -0.154 7 0 0 0 0.034600001
0.91600001 0.46799999 -0.155 8 0 0 0 0.03461
0.91500002 0.47 -0.155 8 0 0 0 0.034619998
0.91399997 0.47299999 -0.155 8 0 0 0 0.034630001
0.91600001 0.477 -0.155 8 0 0 0 0.034639999
0.917 0.47999999 -0.155 8 0 0 0 0.034650002
0.91500002 0.48199999 -0.155 8 0 0 0 0.03466
0.912 0.484 -0.155 8 0 0 0 0.034669999
0.91100001 0.486 -0.155 8 0 0 0 0.034680001
0.91000003 0.48800001 -0.154 8 0 0 0 0.03469
0.912 0.49200001 -0.155 8 0 0 0 0.034699999
0.90899998 0.49399999 -0.154 9 0 0 0 0.034710001
0.91100001 0.49700001 -0.154 10 0 0 0 0.03472
0.91000003 0.49900001 -0.154 9 0 0 0 0.034729999
0.90600002 0.5 -0.154 8 0 0 0 0.034740001
0.90700001 0.50400001 -0.154 8 0 0 0 0.03475
0.90600002 0.50599998 -0.153 9 0 0 0 0.034759998
0.91000003 0.51099998 -0.154 9 0 0 0 0.034770001
0.90700001 0.51200002 -0.153 8 0 0 0 0.034779999
0.90399998 0.51300001 -0.153 10 0 0 0 0.034790002
0.90399998 0.51599997 -0.153 9 0 0 0 0.0348
0.903 0.51800001 -0.152 10 0 0 0 0.034809999
0.90200001 0.51999998 -0.152 9 0 0 0 0.034820002
0.90100002 0.52200001 -0.15099999 9 0 0 0 0.03483
0.89999998 0.52399999 -0.15099999 10 0 0 0 0.034839999
0.91000003 0.53200001 -0.152 10 0 0 0 0.034850001
0.90100002 0.52999997 -0.15099999 11 0 0 0 0.03486
0.90200001 0.53299999 -0.15000001 10 0 0 0 0.034869999
0.89899999 0.53399998 -0.15000001 12 0 0 0 0.034880001
0.90399998 0.53899997 -0.15000001 8 0 0 0 0.03489
0.89999998 0.53899997 -0.149 8 0 0 0 0.034899998
0.90399998 0.54400003 -0.149 9 0 0 0 0.034910001
0.90100002 0.54500002 -0.148 8 0 0 0 0.03492
0.90799999 0.55199999 -0.149 7 0 0 0 0.034929998
0.91299999 0.55699998 -0.15000001 6 0 0 0 0.034940001
0.91399997 0.56 -0.149 5 0 0 0 0.034949999
0.91399997 0.56199998 -0.149 4 0 0 0 0.034960002
0.90200001 0.55699998 -0.146 4 0 0 0 0.03497
0.90799999 0.56300002 -0.147 3 0 0 0 0.034979999
0.90799999 0.56599998 -0.146 3 0 0 0 0.034990001
0.91500002 0.57200003 -0.147 2 0 0 0 0.035
0.94400001 0.59299999 -0.15099999 1 0 0 0 0.035009999
0.94800001 0.597 -0.15099999 1 0 0 0 0.035020001
0.963 0.60900003 -0.153 1 0 0 0 0.03503
0.99699998 0.63300002 -0.15800001 1 0 0 0 0.035039999
1.039 0.662 -0.164 1 0 0 0 0.035050001
1.114 0.713 -0.175 1 0 0 0 0.03506
1.159 0.74400002 -0.18099999 2 0 0 0 0.035069998
1.181 0.76099998 -0.183 3 0 0 0 0.035080001
1.184 0.76499999 -0.183 4 0 0 0 0.035089999
1.184 0.76700002 -0.182 3 0 0 0 0.035100002
1.1720001 0.76200002 -0.17900001 2 0 0 0 0.035110001
1.171 0.764 -0.178 1 0 0 0 0.035119999
1.132 0.741 -0.171 1 0 0 0 0.035130002
0 0 0 0 0 0 0 0.03514
1.084 0.71399999 -0.162 0 0 0 0 0.035149999
0 0 0 0 0 0 0 0.035160001
1.0829999 0.71799999 -0.16 0 0 0 0 0.03517
1.102 0.73199999 -0.162 0 0 0 0 0.035179999
1.102 0.73400003 -0.16 0 0 0 0 0.035190001
1.112 0.74299997 -0.161 0 0 0 0 0.0352
1.119 0.74900001 -0.161 0 0 0 0 0.035209998
1.1289999 0.75800002 -0.161 0 0 0 0 0.035220001
1.146 0.77100003 -0.162 1 0 0 0 0.03523
2.6800001 1.807 -0.377 11 0 0 0 0.035239998
2.688 1.816 -0.375 11 0 0 0 0.035250001
0 0 0 0 0 0 0 0.035259999
0 0 0 0 0 0 0 0.035270002
0 0 0 0 0 0 0 0.03528
0 0 0 0 0 0 0 0.035289999
0 0 0 0 0 0 0 0.035300002
0 0 0 0 0 0 0 0.03531
0 0 0 0 0 0 0 0.035319999
0 0 0 0 0 0 0 0.035330001
0 0 0 0 0 0 0 0.03534
0 0 0 0 0 0 0 0.035349999
1.217 0.838 -0.154 15 0 0 0 0.035360001
0 0 0 0 0 0 0 0.03537
0 0 0 0 0 0 0 0.035379998
0 0 0 0 0 0 0 0.035390001
1.1900001 0.82300001 -0.14399999 10 0 0 0 0.035399999
0 0 0 0 0 0 0 0.035409998
0 0 0 0 0 0 0 0.035420001
0 0 0 0 0 0 0 0.035429999
2.7019999 1.877 -0.31400001 12 0 0 0 0.035440002
2.6849999 1.8660001 -0.308 12 0 0 0 0.03545
2.668 1.855 -0.303 12 0 0 0 0.035459999
0 0 0 0 0 0 0 0.035470001
2.681 1.8660001 -0.29699999 13 0 0 0 0.03548
2.664 1.855 -0.29100001 12 0 0 0 0.035489999
2.671 1.8609999 -0.28799999 11 0 0 0 0.035500001
2.681 1.867 -0.285 13 0 0 0 0.03551
2.6849999 1.8710001 -0.28200001 12 0 0 0 0.035519999
2.6789999 1.867 -0.27700001 13 0 0 0 0.035530001
2.675 1.863 -0.273 12 0 0 0 0.03554
2.6919999 1.875 -0.271 11 0 0 0 0.035549998
2.704 1.883 -0.26800001 0 0 0 0 0.035560001
2.697 1.877 -0.26300001 14 0 0 0 0.035569999
2.694 1.875 -0.259 12 0 0 0 0.035580002
2.698 1.877 -0.255 14 0 0 0 0.03559
2.6930001 1.872 -0.25099999 13 0 0 0 0.035599999
2.6930001 1.872 -0.24699999 15 0 0 0 0.035610002
2.6819999 1.863 -0.242 12 0 0 0 0.03562
2.7119999 1.882 -0.241 12 0 0 0 0.035629999
2.704 1.875 -0.236 13 0 0 0 0.035640001
2.7090001 1.876 -0.23199999 12 0 0 0 0.03565
2.7149999 1.8789999 -0.229 11 0 0 0 0.035659999
2.7030001 1.868 -0.22400001 13 0 0 0 0.035670001
2.7290001 1.885 -0.222 13 0 0 0 0.03568
1.467 1.012 -0.117 13 0 0 0 0.035689998
1.402 0.96499997 -0.11 10 0 0 0 0.035700001
1.405 0.96600002 -0.108 10 0 0 0 0.03571
1.408 0.96700001 -0.106 10 0 0 0 0.035719998
0 0 0 0 0 0 0 0.035730001
0 0 0 0 0 0 0 0.035739999
0 0 0 0 0 0 0 0.035750002
0 0 0 0 0 0 0 0.03576
0 0 0 0 0 0 0 0.035769999
0 0 0 0 0 0 0 0.035780001
0 0 0 0 0 0 0 0.03579
1.429 0.96700001 -0.090999998 10 0 0 0 0.035799999
1.431 0.96700001 -0.089000002 10 0 0 0 0.035810001
1.4349999 0.96700001 -0.086999997 10 0 0 0 0.03582
1.441 0.96899998 -0.085000001 10 0 0 0 0.035829999
1.444 0.96799999 -0.082999997 9 0 0 0 0.035840001
1.431 0.95700002 -0.079999998 7 0 0 0 0.03585
1.426 0.95200002 -0.078000002 2 0 0 0 0.035859998
1.4960001 0.99599999 -0.079999998 0 0 0 0 0.035870001
1.551 1.03 -0.079999998 1 0 0 0 0.035879999
1.474 0.97600001 -0.074000001 2 0 0 0 0.035890002
1.475 0.97399998 -0.071999997 5 0 0 0 0.0359
1.476 0.972 -0.07 9 0 0 0 0.035909999
1.48 0.972 -0.068000004 10 0 0 0 0.035920002
0 0 0 0 0 0 0 0.03593
1.492 0.97399998 -0.064999998 9 0 0 0 0.035939999
1.5 0.97600001 -0.063000001 6 0 0 0 0.035950001
1.4910001 0.96700001 -0.061000001 3 0 0 0 0.03596
1.493 0.96499997 -0.059 2 0 0 0 0.035969999
1.404 0.90499997 -0.052999999 0 0 0 0 0.035980001
1.428 0.917 -0.052000001 0 0 0 0 0.03599
1.342 0.85799998 -0.046999998 0 0 0 0 0.035999998
1.332 0.84899998 -0.045000002 0 0 0 0 0.036010001
1.289 0.81900001 -0.041999999 0 0 0 0 0.03602
0 0 0 0 0 0 0 0.036029998
0 0 0 0 0 0 0 0.036040001
0 0 0 0 0 0 0 0.036049999
0 0 0 0 0 0 0 0.036060002
0 0 0 0 0 0 0 0.03607
0 0 0 0 0 0 0 0.036079999
0 0 0 0 0 0 0 0.036090001
0 0 0 0 0 0 0 0.0361
0 0 0 0 0 0 0 0.036109999
3.105 1.895 -0.064000003 1 0 0 0 0.036120001
3.1159999 1.8940001 -0.061000001 1 0 0 0 0.03613
0 0 0 0 0 0 0 0.036139999
0 0 0 0 0 0 0 0.036150001
0 0 0 0 0 0 0 0.03616
0 0 0 0 0 0 0 0.036169998
0 0 0 0 0 0 0 0.036180001
0 0 0 0 0 0 0 0.036189999
0 0 0 0 0 0 0 0.036200002
0 0 0 0 0 0 0 0.036210001
0 0 0 0 0 0 0 0.036219999
0 0 0 0 0 0 0 0.036230002
0 0 0 0 0 0 0 0.03624
0 0 0 0 0 0 0 0.036249999
3.1229999 1.784 -0.017000001 0 0 0 0 0.036260001
3.1719999 1.803 -0.014 0 0 0 0 0.03627
3.2290001 1.826 -0.011 1 0 0 0 0.036279999
3.237 1.8200001 -0.0080000004 0 0 0 0 0.036290001
3.263 1.825 -0.0049999999 0 0 0 0 0.0363
3.244 1.8049999 -0.0020000001 0 0 0 0 0.036309998
1.117 0.61799997 0 0 0 0 0 0.036320001
0 0 0 0 0 0 0 0.03633
0 0 0 0 0 0 0 0.036339998
0 0 0 0 0 0 0 0.036350001
0 0 0 0 0 0 0 0.036359999
0 0 0 0 0 0 0 0.036370002
0 0 0 0 0 0 0 0.03638
0 0 0 0 0 0 0 0.036389999
0 0 0 0 0 0 0 0.036400001
0 0 0 0 0 0 0 0.03641
0 0 0 0 0 0 0 0.036419999
1.153 0.59799999 0.0099999998 0 0 0 0 0.036430001
0 0 0 0 0 0 0 0.03644
0 0 0 0 0 0 0 0.036449999
0.91100001 0.46399999 0.0099999998 3 0 0 0 0.036460001
0.91900003 0.465 0.011 4 0 0 0 0.03647
0.91600001 0.46000001 0.011 4 0 0 0 0.036479998
0.917 0.458 0.012 4 0 0 0 0.036490001
0.90700001 0.44999999 0.012 3 0 0 0 0.036499999
0.917 0.45199999 0.013 0 0 0 0 0.036509998
0.90799999 0.44400001 0.013 0 0 0 0 0.036520001
3.0880001 1.501 0.048999999 1 0 0 0 0.036529999
3.082 1.488 0.050000001 2 0 0 0 0.036540002
3.086 1.479 0.052000001 2 0 0 0 0.03655
3.0899999 1.471 0.054000001 2 0 0 0 0.036559999
3.0799999 1.456 0.056000002 2 0 0 0 0.036570001
3.0829999 1.447 0.057999998 2 0 0 0 0.03658
3.0940001 1.442 0.059 2 0 0 0 0.036589999
3.1240001 1.446 0.061999999 2 0 0 0 0.036600001
3.1359999 1.441 0.063000001 3 0 0 0 0.03661
3.138 1.431 0.064999998 3 0 0 0 0.036619999
3.128 1.416 0.066 2 0 0 0 0.036630001
3.132 1.4069999 0.068000004 2 0 0 0 0.03664
3.1110001 1.388 0.068999998 2 0 0 0 0.036649998
3.135 1.388 0.071000002 1 0 0 0 0.036660001
3.1819999 1.398 0.072999999 1 0 0 0 0.036669999
3.1919999 1.391 0.075000003 1 0 0 0 0.036680002
3.233 1.398 0.077 2 0 0 0 0.03669
3.2260001 1.3839999 0.078000002 5 0 0 0 0.036699999
3.224 1.372 0.079000004 4 0 0 0 0.036710002
3.2279999 1.363 0.081 3 0 0 0 0.03672
3.26 1.3660001 0.082999997 3 0 0 0 0.036729999
3.257 1.353 0.083999999 3 0 0 0 0.036740001
3.2579999 1.342 0.085000001 4 0 0 0 0.03675
3.256 1.331 0.086000003 4 0 0 0 0.036759999
3.2880001 1.3329999 0.088 3 0 0 0 0.036770001
3.306 1.329 0.089000002 2 0 0 0 0.03678
3.3110001 1.319 0.090000004 5 0 0 0 0.036789998
3.323 1.313 0.090999998 6 0 0 0 0.036800001
3.3210001 1.3 0.092 5 0 0 0 0.036809999
3.3180001 1.288 0.093000002 5 0 0 0 0.036819998
1.227 0.472 0.034000002 3 0 0 0 0.036830001
1.255 0.47799999 0.035999998 0 0 0 0 0.036839999
1.279 0.48300001 0.035999998 6 0 0 0 0.036850002
1.2920001 0.484 0.037 20 0 0 0 0.03686
1.2869999 0.47799999 0.037 121 0 0 0 0.036869999
1.289 0.47400001 0.037999999 150 0 0 0 0.036880001
1.29 0.47 0.037999999 150 0 0 0 0.03689
1.29 0.46599999 0.037999999 150 0 0 0 0.036899999
1.2869999 0.46000001 0.037999999 150 0 0 0 0.036910001
1.291 0.45699999 0.037999999 150 0 0 0 0.03692
1.29 0.45199999 0.039000001 150 0 0 0 0.036929999
1.291 0.44800001 0.039000001 150 0 0 0 0.036940001
1.2920001 0.44400001 0.039000001 150 0 0 0 0.03695
1.283 0.43700001 0.039000001 150 0 0 0 0.036959998
1.2970001 0.43700001 0.039000001 150 0 0 0 0.036970001
1.307 0.43599999 0.039999999 27 0 0 0 0.036979999
1.335 0.44100001 0.041000001 5 0 0 0 0.036990002
1.355 0.44299999 0.041999999 1 0 0 0 0.037
1.377 0.44600001 0.041999999 1 0 0 0 0.037009999
1.393 0.44600001 0.043000001 2 0 0 0 0.037020002
1.4119999 0.447 0.043000001 3 0 0 0 0.03703
1.428 0.447 0.044 2 0 0 0 0.037039999
1.449 0.449 0.045000002 2 0 0 0 0.037050001
1.465 0.449 0.045000002 2 0 0 0 0.03706
1.488 0.45100001 0.046 6 0 0 0 0.037069999
2.2609999 0.67799997 0.07 150 0 0 0 0.037080001
2.3740001 0.704 0.074000001 150 0 0 0 0.03709
2.4890001 0.72899997 0.077 150 0 0 0 0.037099998
2.4909999 0.722 0.077 150 0 0 0 0.037110001
2.493 0.71399999 0.077 150 0 0 0 0.03712
2.4890001 0.704 0.077 150 0 0 0 0.037129998
2.3199999 0.64899999 0.071000002 150 0 0 0 0.037140001
2.24 0.61900002 0.068999998 151 0 0 0 0.037149999
2.2290001 0.60799998 0.068000004 151 0 0 0 0.037160002
2.2309999 0.60100001 0.068000004 151 0 0 0 0.03717
2.233 0.59399998 0.068000004 151 0 0 0 0.037179999
2.23 0.58600003 0.068000004 151 0 0 0 0.037190001
2.2309999 0.579 0.067000002 151 0 0 0 0.0372
2.2249999 0.56999999 0.067000002 151 0 0 0 0.037209999
2.2249999 0.56199998 0.067000002 151 0 0 0 0.037220001
2.2279999 0.55599999 0.066 151 0 0 0 0.03723
2.23 0.54900002 0.066 151 0 0 0 0.037239999
2.2290001 0.54100001 0.066 151 0 0 0 0.037250001
2.2290001 0.53399998 0.064999998 151 0 0 0 0.03726
2.2279999 0.52600002 0.064999998 151 0 0 0 0.037269998
2.234 0.51999998 0.064999998 151 0 0 0 0.037280001
2.237 0.51300001 0.064999998 150 0 0 0 0.037289999
2.2409999 0.50599998 0.064000003 151 0 0 0 0.037300002
2.243 0.49900001 0.064000003 151 0 0 0 0.037310001
2.2520001 0.49399999 0.064000003 151 0 0 0 0.037319999
2.2809999 0.493 0.064000003 149 0 0 0 0.037330002
2.3640001 0.50300002 0.066 19 0 0 0 0.03734
2.4289999 0.509 0.067000002 20 0 0 0 0.037349999
2.49 0.51300001 0.068000004 20 0 0 0 0.037360001
2.5469999 0.51700002 0.068999998 21 0 0 0 0.03737
2.632 0.52499998 0.071000002 24 0 0 0 0.037379999
2.7390001 0.53799999 0.072999999 28 0 0 0 0.037390001
2.845 0.54900002 0.075000003 29 0 0 0 0.0374
2.902 0.55000001 0.075999998 27 0 0 0 0.037409998
2.954 0.55000001 0.075999998 26 0 0 0 0.037420001
3.026 0.55400002 0.077 25 0 0 0 0.03743
3.092 0.55599999 0.078000002 25 0 0 0 0.037439998
3.1619999 0.55800003 0.079000004 24 0 0 0 0.037450001
3.2360001 0.56 0.079999998 25 0 0 0 0.037459999
3.2780001 0.55699998 0.079999998 150 0 0 0 0.037470002
3.2820001 0.54699999 0.079000004 153 0 0 0 0.03748
3.2809999 0.53600001 0.078000002 153 0 0 0 0.037489999
3.28 0.52499998 0.077 153 0 0 0 0.037500001
3.2809999 0.51499999 0.075999998 153 0 0 0 0.03751
3.3210001 0.50999999 0.075999998 151 0 0 0 0.037519999
3.329 0.5 0.075000003 152 0 0 0 0.037530001
3.3269999 0.48899999 0.074000001 151 0 0 0 0.03754
3.381 0.486 0.074000001 153 0 0 0 0.037549999
3.3889999 0.47600001 0.072999999 152 0 0 0 0.037560001
3.3900001 0.465 0.071000002 152 0 0 0 0.03757
3.391 0.454 0.07 152 0 0 0 0.037579998
3.3929999 0.44400001 0.068999998 152 0 0 0 0.037590001
3.3900001 0.43200001 0.067000002 152 0 0 0 0.037599999
3.3940001 0.42199999 0.066 152 0 0 0 0.037610002
3.392 0.41 0.064999998 152 0 0 0 0.037620001
3.388 0.39899999 0.063000001 153 0 0 0 0.037629999
3.385 0.38800001 0.061999999 153 0 0 0 0.037640002
3.378 0.37599999 0.059999999 154 0 0 0 0.03765
3.369 0.36399999 0.059 154 0 0 0 0.037659999
3.368 0.35299999 0.057 155 0 0 0 0.037670001
3.3670001 0.34200001 0.056000002 155 0 0 0 0.03768
3.355 0.33000001 0.054000001 157 0 0 0 0.037689999
3.359 0.31900001 0.052999999 157 0 0 0 0.037700001
3.368 0.30899999 0.050999999 155 0 0 0 0.03771
3.3659999 0.29800001 0.050000001 155 0 0 0 0.037719999
3.359 0.287 0.048 157 0 0 0 0.037730001
3.3540001 0.27599999 0.046999998 158 0 0 0 0.03774
3.3559999 0.26499999 0.045000002 159 0 0 0 0.037749998
3.3570001 0.25400001 0.043000001 160 0 0 0 0.037760001
3.358 0.244 0.041999999 159 0 0 0 0.037769999
3.3540001 0.233 0.039999999 159 0 0 0 0.037780002
3.359 0.222 0.039000001 159 0 0 0 0.03779
3.3610001 0.212 0.037 160 0 0 0 0.037799999
3.359 0.20100001 0.035 160 0 0 0 0.037810002
3.3610001 0.19 0.034000002 160 0 0 0 0.03782
3.362 0.17900001 0.032000002 160 0 0 0 0.037829999
3.362 0.169 0.029999999 159 0 0 0 0.037840001
3.3640001 0.15800001 0.028000001 159 0 0 0 0.03785
3.365 0.147 0.027000001 159 0 0 0 0.037859999
3.3659999 0.13699999 0.025 159 0 0 0 0.037870001
3.3710001 0.126 0.023 157 0 0 0 0.03788
3.3699999 0.115 0.021 157 0 0 0 0.037889998
3.3829999 0.105 0.018999999 155 0 0 0 0.037900001
3.3829999 0.093999997 0.017000001 155 0 0 0 0.037909999
3.385 0.082999997 0.015 155 0 0 0 0.037919998
3.3900001 0.071999997 0.014 154 0 0 0 0.037930001
3.3989999 0.061999999 0.012 154 0 0 0 0.037939999
3.404 0.050999999 0.0099999998 154 0 0 0 0.037950002
3.4070001 0.039999999 0.0080000004 153 0 0 0 0.03796
3.4059999 0.028999999 0.0060000001 153 0 0 0 0.037969999
3.418 0.018999999 0.0040000002 153 0 0 0 0.037980001
3.4200001 0.0080000004 0.0020000001 152 0 0 0 0.03799
3.418 -0.0020000001 0 151 0 0 0 0.037999999
3.418 -0.013 -0.0020000001 152 0 0 0 0.038010001
3.418 -0.024 -0.0040000002 151 0 0 0 0.03802
3.4200001 -0.035 -0.0060000001 151 0 0 0 0.038029999
3.418 -0.046 -0.0080000004 151 0 0 0 0.038040001
3.4230001 -0.056000002 -0.0099999998 151 0 0 0 0.03805
3.424 -0.067000002 -0.012 151 0 0 0 0.038059998
3.424 -0.078000002 -0.015 151 0 0 0 0.038070001
3.427 -0.089000002 -0.017000001 151 0 0 0 0.038079999
3.4319999 -0.1 -0.018999999 151 0 0 0 0.038090002
3.4230001 -0.111 -0.021 151 0 0 0 0.0381
3.431 -0.122 -0.024 151 0 0 0 0.038109999
3.4360001 -0.133 -0.026000001 151 0 0 0 0.038120002
3.424 -0.14300001 -0.028000001 151 0 0 0 0.03813
3.4300001 -0.154 -0.030999999 151 0 0 0 0.038139999
3.431 -0.16500001 -0.033 151 0 0 0 0.038150001
3.4319999 -0.176 -0.035 151 0 0 0 0.03816
3.428 -0.18700001 -0.037999999 151 0 0 0 0.038169999
3.405 -0.19599999 -0.039999999 155 0 0 0 0.038180001
3.3759999 -0.206 -0.041999999 150 0 0 0 0.03819
3.369 -0.21600001 -0.044 152 0 0 0 0.038199998
3.3729999 -0.227 -0.046999998 153 0 0 0 0.038210001
3.362 -0.237 -0.048999999 152 0 0 0 0.03822
3.3440001 -0.24600001 -0.050999999 152 0 0 0 0.038229998
3.346 -0.257 -0.054000001 152 0 0 0 0.038240001
3.342 -0.26699999 -0.056000002 152 0 0 0 0.038249999
3.3329999 -0.27700001 -0.059 153 0 0 0 0.038260002
3.299 -0.28400001 -0.061000001 80 0 0 0 0.03827
3.234 -0.289 -0.061999999 152 0 0 0 0.038279999
3.234 -0.29899999 -0.064000003 152 0 0 0 0.038290001
3.2360001 -0.31 -0.067000002 152 0 0 0 0.0383
3.2320001 -0.31900001 -0.068999998 152 0 0 0 0.038309999
3.2379999 -0.33000001 -0.071999997 152 0 0 0 0.038320001
3.2379999 -0.34099999 -0.075000003 152 0 0 0 0.03833
3.2119999 -0.34799999 -0.077 150 0 0 0 0.038339999
3.204 -0.35699999 -0.079000004 151 0 0 0 0.038350001
3.204 -0.36700001 -0.082000002 151 0 0 0 0.03836
3.2079999 -0.37799999 -0.083999999 151 0 0 0 0.038369998
3.2079999 -0.38800001 -0.086999997 151 0 0 0 0.038380001
3.1849999 -0.39500001 -0.089000002 151 0 0 0 0.038389999
2.3970001 -1.023 -0.35100001 22 0 0 0 0.039360002
2.3970001 -1.03 -0.35499999 22 0 0 0 0.03937
2.3989999 -1.038 -0.36000001 21 0 0 0 0.039379999
2.3959999 -1.044 -0.36300001 20 0 0 0 0.039390001
2.398 -1.052 -0.368 24 0 0 0 0.0394
2.3940001 -1.057 -0.37099999 21 0 0 0 0.039409999
2.3989999 -1.066 -0.37599999 25 0 0 0 0.039420001
2.401 -1.074 -0.38100001 28 0 0 0 0.03943
2.4000001 -1.081 -0.38499999 27 0 0 0 0.039439999
2.4000001 -1.087 -0.389 23 0 0 0 0.039450001
2.401 -1.095 -0.39399999 21 0 0 0 0.03946
2.404 -1.103 -0.398 21 0 0 0 0.039469998
2.4000001 -1.108 -0.40200001 18 0 0 0 0.039480001
2.402 -1.115 -0.40700001 19 0 0 0 0.039489999
2.402 -1.122 -0.41100001 21 0 0 0 0.039500002
2.391 -1.124 -0.41299999 43 0 0 0 0.03951
2.2590001 -1.068 -0.39500001 150 0 0 0 0.039519999
2.273 -1.081 -0.40200001 150 0 0 0 0.039530002
1.131 -0.54100001 -0.20200001 12 0 0 0 0.03954
1.126 -0.542 -0.20299999 5 0 0 0 0.039549999
1.122 -0.54299998 -0.204 5 0 0 0 0.039560001
1.125 -0.54699999 -0.207 3 0 0 0 0.03957
1.124 -0.55000001 -0.20900001 1 0 0 0 0.039579999
1.1289999 -0.55500001 -0.212 1 0 0 0 0.039590001
1.13 -0.55900002 -0.214 1 0 0 0 0.0396
1.132 -0.56199998 -0.21699999 1 0 0 0 0.039609998
1.128 -0.56400001 -0.21799999 1 0 0 0 0.039620001
1.135 -0.56999999 -0.222 1 0 0 0 0.03963
1.133 -0.57200003 -0.22400001 1 0 0 0 0.039639998
1.142 -0.579 -0.227 1 0 0 0 0.039650001
1.137 -0.57999998 -0.229 1 0 0 0 0.039659999
1.1390001 -0.58399999 -0.23100001 1 0 0 0 0.039670002
1.138 -0.58600003 -0.233 1 0 0 0 0.03968
1.133 -0.58600003 -0.235 1 0 0 0 0.039689999
1.14 -0.59299999 -0.23800001 2 0 0 0 0.039700001
1.138 -0.59500003 -0.23999999 2 0 0 0 0.03971
1.137 -0.597 -0.242 2 0 0 0 0.039719999
1.136 -0.59899998 -0.244 1 0 0 0 0.039730001
1.138 -0.60299999 -0.24699999 1 0 0 0 0.03974
1.138 -0.60600001 -0.249 2 0 0 0 0.039749999
1.138 -0.60799998 -0.252 2 0 0 0 0.039760001
1.1390001 -0.611 -0.25400001 1 0 0 0 0.03977
1.132 -0.61000001 -0.255 2 0 0 0 0.039779998
1.135 -0.61400002 -0.25799999 2 0 0 0 0.039790001
1.136 -0.61799997 -0.26100001 1 0 0 0 0.039799999
1.141 -0.62199998 -0.264 2 0 0 0 0.039810002
1.135 -0.62199998 -0.26499999 2 0 0 0 0.039820001
1.142 -0.62800002 -0.26899999 2 0 0 0 0.039829999
1.14 -0.62900001 -0.271 2 0 0 0 0.039840002
1.136 -0.63 -0.27200001 2 0 0 0 0.03985
1.1390001 -0.634 -0.27500001 2 0 0 0 0.039859999
1.136 -0.634 -0.27700001 2 0 0 0 0.039870001
1.137 -0.63700002 -0.28 2 0 0 0 0.03988
1.137 -0.639 -0.28200001 2 0 0 0 0.039889999
1.135 -0.64099997 -0.28400001 2 0 0 0 0.039900001
1.138 -0.64399999 -0.287 2 0 0 0 0.03991
1.14 -0.648 -0.28999999 2 0 0 0 0.039919998
1.137 -0.648 -0.29100001 2 0 0 0 0.039930001
1.1390001 -0.65100002 -0.294 2 0 0 0 0.03994
1.14 -0.65399998 -0.29699999 2 0 0 0 0.039949998
1.138 -0.65499997 -0.29800001 2 0 0 0 0.039960001
1.137 -0.65600002 -0.30000001 2 0 0 0 0.039969999
1.137 -0.65799999 -0.303 2 0 0 0 0.039980002
1.136 -0.65899998 -0.30500001 2 0 0 0 0.03999
1.136 -0.66100001 -0.30700001 2 0 0 0 0.039999999
1.138 -0.66399997 -0.31 3 0 0 0 0.040010002
1.137 -0.66500002 -0.31200001 2 0 0 0 0.04002
1.135 -0.66500002 -0.31400001 2 0 0 0 0.040029999
1.138 -0.66900003 -0.317 3 0 0 0 0.040040001
1.1339999 -0.66799998 -0.31799999 3 0 0 0 0.04005
1.133 -0.66900003 -0.31999999 3 0 0 0 0.040059999
1.14 -0.67500001 -0.32499999 3 0 0 0 0.040070001
1.141 -0.67699999 -0.32699999 3 0 0 0 0.04008
1.138 -0.67699999 -0.329 3 0 0 0 0.040089998
1.135 -0.676 -0.33000001 3 0 0 0 0.040100001
1.136 -0.67799997 -0.333 3 0 0 0 0.040109999
1.136 -0.67900002 -0.33500001 3 0 0 0 0.040119998
1.137 -0.68099999 -0.33700001 4 0 0 0 0.040130001
1.136 -0.68199998 -0.33899999 3 0 0 0 0.040139999
1.135 -0.68300003 -0.34099999 3 0 0 0 0.040150002
1.136 -0.68400002 -0.34400001 4 0 0 0 0.04016
1.135 -0.68400002 -0.345 4 0 0 0 0.040169999
1.1339999 -0.685 -0.347 4 0 0 0 0.040180001
1.137 -0.68800002 -0.35100001 3 0 0 0 0.04019
1.135 -0.68800002 -0.352 3 0 0 0 0.040199999
1.131 -0.68599999 -0.35299999 4 0 0 0 0.040210001
1.133 -0.68800002 -0.35600001 4 0 0 0 0.04022
1.133 -0.68800002 -0.35800001 4 0 0 0 0.040229999
1.131 -0.68800002 -0.359 3 0 0 0 0.040240001
1.131 -0.68800002 -0.361 3 0 0 0 0.04025
1.128 -0.68699998 -0.36199999 3 0 0 0 0.040259998
1.127 -0.68699998 -0.36399999 3 0 0 0 0.040270001
1.13 -0.69 -0.36700001 2 0 0 0 0.040279999
1.123 -0.68599999 -0.36700001 2 0 0 0 0.040290002
1.1160001 -0.68199998 -0.366 2 0 0 0 0.0403
1.118 -0.68300003 -0.36899999 2 0 0 0 0.040309999
1.119 -0.68400002 -0.37099999 1 0 0 0 0.040320002
1.119 -0.68400002 -0.373 1 0 0 0 0.04033
1.113 -0.68099999 -0.373 1 0 0 0 0.040339999
1.11 -0.67900002 -0.37400001 1 0 0 0 0.040350001
1.108 -0.67799997 -0.375 1 0 0 0 0.04036
1.095 -0.67000002 -0.37200001 1 0 0 0 0.040369999
1.076 -0.65799999 -0.36700001 1 0 0 0 0.040380001
1.079 -0.66000003 -0.37 1 0 0 0 0.04039
1.072 -0.65499997 -0.36899999 1 0 0 0 0.040399998
1.061 -0.648 -0.36700001 1 0 0 0 0.040410001
1.067 -0.65200001 -0.37099999 1 0 0 0 0.04042
1.0420001 -0.63599998 -0.36399999 1 0 0 0 0.040429998
1.051 -0.64099997 -0.368 1 0 0 0 0.040440001
1.053 -0.64200002 -0.37 1 0 0 0 0.040449999
1.035 -0.63099998 -0.36500001 1 0 0 0 0.040460002
1.025 -0.62400001 -0.36300001 0 0 0 0 0.04047
1.024 -0.62199998 -0.36399999 1 0 0 0 0.040479999
1.013 -0.61500001 -0.36199999 0 0 0 0 0.040490001
1.006 -0.611 -0.36000001 0 0 0 0 0.0405
1.006 -0.61000001 -0.36199999 0 0 0 0 0.040509999
1.0039999 -0.60799998 -0.36199999 0 0 0 0 0.040520001
1.002 -0.60500002 -0.36199999 0 0 0 0 0.04053
0.98500001 -0.59500003 -0.35800001 0 0 0 0 0.040539999
0.98299998 -0.59200001 -0.35800001 0 0 0 0 0.040550001
0.98100001 -0.59100002 -0.35800001 0 0 0 0 0.04056
0.98199999 -0.58999997 -0.359 0 0 0 0 0.040569998
0.97399998 -0.58399999 -0.35800001 0 0 0 0 0.040580001
0.97500002 -0.583 -0.359 0 0 0 0 0.040589999
0.96200001 -0.574 -0.35499999 0 0 0 0 0.040600002
0.972 -0.579 -0.36000001 0 0 0 0 0.04061
0.972 -0.57800001 -0.361 0 0 0 0 0.040619999
0.97500002 -0.579 -0.36300001 1 0 0 0 0.040630002
0.98199999 -0.58200002 -0.366 1 0 0 0 0.04064
0.98500001 -0.58200002 -0.368 1 0 0 0 0.040649999
0.97600001 -0.57499999 -0.36500001 1 0 0 0 0.040660001
0.98100001 -0.57700002 -0.368 1 0 0 0 0.04067
0.98400003 -0.57700002 -0.37 1 0 0 0 0.040679999
0.98199999 -0.57499999 -0.37 0 0 0 0 0.040690001
0.98299998 -0.574 -0.37099999 0 0 0 0 0.0407
0.98400003 -0.57200003 -0.37099999 0 0 0 0 0.040709998
0.98000002 -0.56900001 -0.37099999 0 0 0 0 0.040720001
0.98900002 -0.57200003 -0.37400001 0 0 0 0 0.04073
0.986 -0.56900001 -0.37400001 0 0 0 0 0.040739998
1.001 -0.57599998 -0.38 0 0 0 0 0.040750001
0.99800003 -0.57200003 -0.37900001 0 0 0 0 0.040759999
1.002 -0.57200003 -0.38100001 1 0 0 0 0.040770002
0.99800003 -0.56800002 -0.38 0 0 0 0 0.04078
1.01 -0.57300001 -0.38499999 1 0 0 0 0.040789999
1.006 -0.56900001 -0.384 1 0 0 0 0.040800001
1.007 -0.56800002 -0.384 1 0 0 0 0.04081
1.017 -0.57099998 -0.38800001 1 0 0 0 0.040819999
1.015 -0.56800002 -0.38800001 1 0 0 0 0.040830001
1.027 -0.57300001 -0.39300001 1 0 0 0 0.04084
1.038 -0.57700002 -0.39700001 1 0 0 0 0.040849999
1.031 -0.56999999 -0.39399999 1 0 0 0 0.040860001
1.056 -0.58200002 -0.40400001 1 0 0 0 0.04087
1.0599999 -0.58200002 -0.40599999 1 0 0 0 0.040879998
1.068 -0.58399999 -0.40900001 1 0 0 0 0.040890001
1.068 -0.58099997 -0.40900001 1 0 0 0 0.040899999
1.0700001 -0.57999998 -0.40900001 1 0 0 0 0.040910002
1.073 -0.579 -0.41 2 0 0 0 0.040920001
1.076 -0.57800001 -0.412 2 0 0 0 0.040929999
1.081 -0.57800001 -0.41299999 3 0 0 0 0.040940002
1.0829999 -0.57700002 -0.414 3 0 0 0 0.04095
1.086 -0.57599998 -0.41499999 5 0 0 0 0.040959999
1.086 -0.57300001 -0.41499999 7 0 0 0 0.040970001
1.087 -0.57099998 -0.41499999 13 0 0 0 0.04098
1.094 -0.57200003 -0.417 14 0 0 0 0.040989999
1.095 -0.56999999 -0.417 14 0 0 0 0.041000001
1.101 -0.56999999 -0.419 7 0 0 0 0.04101
1.099 -0.56599998 -0.417 6 0 0 0 0.041019998
1.102 -0.565 -0.41800001 7 0 0 0 0.041030001
1.101 -0.56099999 -0.417 7 0 0 0 0.04104
1.105 -0.56 -0.41800001 7 0 0 0 0.041049998
1.104 -0.55699998 -0.417 6 0 0 0 0.041060001
1.1 -0.55199999 -0.41499999 5 0 0 0 0.041069999
1.104 -0.551 -0.41600001 5 0 0 0 0.041080002
1.101 -0.54699999 -0.414 6 0 0 0 0.04109
1.104 -0.54500002 -0.41499999 6 0 0 0 0.041099999
1.104 -0.542 -0.414 6 0 0 0 0.041110002
1.11 -0.542 -0.41499999 6 0 0 0 0.04112
1.112 -0.54000002 -0.41499999 118 0 0 0 0.041129999
2.177 -1.051 -0.81099999 150 0 0 0 0.041140001
2.1129999 -1.0140001 -0.78600001 150 0 0 0 0.04115
2.175 -1.038 -0.80699998 25 0 0 0 0.041159999
2.194 -1.041 -0.81199998 30 0 0 0 0.041170001
2.1919999 -1.034 -0.81 29 0 0 0 0.04118
2.2060001 -1.034 -0.81300002 30 0 0 0 0.041189998
2.2060001 -1.028 -0.81099999 31 0 0 0 0.041200001
2.2119999 -1.025 -0.81099999 31 0 0 0 0.041209999
2.2179999 -1.021 -0.81099999 31 0 0 0 0.041219998
2.2249999 -1.018 -0.81099999 30 0 0 0 0.041230001
2.2320001 -1.015 -0.81099999 30 0 0 0 0.041239999
2.237 -1.01 -0.81099999 28 0 0 0 0.041250002
2.2479999 -1.0089999 -0.81300002 28 0 0 0 0.04126
2.253 -1.005 -0.81199998 28 0 0 0 0.041269999
2.26 -1.001 -0.81199998 29 0 0 0 0.041280001
2.2709999 -1 -0.81300002 29 0 0 0 0.04129
2.2780001 -0.99599999 -0.81300002 29 0 0 0 0.041299999
2.2809999 -0.991 -0.81199998 29 0 0 0 0.041310001
2.2909999 -0.98799998 -0.81300002 29 0 0 0 0.04132
2.2980001 -0.98400003 -0.81199998 29 0 0 0 0.041329999
2.3039999 -0.98000002 -0.81099999 29 0 0 0 0.041340001
2.3180001 -0.97899997 -0.81300002 29 0 0 0 0.04135
2.3269999 -0.97600001 -0.81300002 29 0 0 0 0.041359998
2.335 -0.97299999 -0.81300002 29 0 0 0 0.041370001
2.3429999 -0.96899998 -0.81300002 29 0 0 0 0.041379999
2.352 -0.96600002 -0.81300002 30 0 0 0 0.041390002
2.359 -0.96200001 -0.81199998 31 0 0 0 0.0414
2.3699999 -0.95999998 -0.81300002 28 0 0 0 0.041409999
2.3789999 -0.95599997 -0.81199998 27 0 0 0 0.041420002
2.382 -0.94999999 -0.81 25 0 0 0 0.04143
2.3870001 -0.94499999 -0.80800003 23 0 0 0 0.041439999
2.385 -0.93699998 -0.80400002 21 0 0 0 0.041450001
2.3829999 -0.93000001 -0.80000001 21 0 0 0 0.04146
2.382 -0.92199999 -0.796 22 0 0 0 0.041469999
2.385 -0.91600001 -0.79299998 22 0 0 0 0.041480001
2.378 -0.90700001 -0.787 24 0 0 0 0.04149
2.3800001 -0.89999998 -0.78399998 25 0 0 0 0.041499998
2.3829999 -0.89399999 -0.78100002 24 0 0 0 0.041510001
2.382 -0.88700002 -0.77700001 25 0 0 0 0.04152
2.3800001 -0.87900001 -0.773 25 0 0 0 0.041529998
2.3829999 -0.87300003 -0.76999998 25 0 0 0 0.041540001
2.382 -0.866 -0.76599997 23 0 0 0 0.041549999
2.378 -0.85799998 -0.76099998 22 0 0 0 0.041560002
2.378 -0.85100001 -0.75700003 23 0 0 0 0.04157
2.3759999 -0.84299999 -0.75199997 26 0 0 0 0.041579999
2.381 -0.838 -0.75 27 0 0 0 0.041590001
2.3800001 -0.82999998 -0.745 26 0 0 0 0.0416
2.3759999 -0.82200003 -0.74000001 24 0 0 0 0.041609999
2.375 -0.815 -0.73500001 23 0 0 0 0.041620001
2.3789999 -0.80900002 -0.73199999 22 0 0 0 0.04163
2.3800001 -0.80299997 -0.72899997 20 0 0 0 0.041639999
2.3770001 -0.79500002 -0.72399998 20 0 0 0 0.041650001
2.3770001 -0.78799999 -0.71899998 21 0 0 0 0.04166
2.378 -0.78200001 -0.71499997 23 0 0 0 0.041669998
2.3759999 -0.77399999 -0.70999998 23 0 0 0 0.041680001
2.3770001 -0.76800001 -0.70599997 22 0 0 0 0.041689999
2.3729999 -0.759 -0.70099998 19 0 0 0 0.041700002
2.3789999 -0.75400001 -0.69800001 20 0 0 0 0.04171
2.3710001 -0.745 -0.69199997 24 0 0 0 0.041719999
2.3759999 -0.74000001 -0.68800002 26 0 0 0 0.041730002
2.3759999 -0.73299998 -0.68400002 24 0 0 0 0.04174
2.369 -0.72399998 -0.67699999 22 0 0 0 0.041749999
2.3729999 -0.71899998 -0.67400002 24 0 0 0 0.041760001
2.3699999 -0.71100003 -0.66900003 28 0 0 0 0.04177
2.368 -0.704 -0.66399997 31 0 0 0 0.041779999
2.365 -0.69599998 -0.65799999 26 0 0 0 0.041790001
2.375 -0.69199997 -0.65600002 24 0 0 0 0.0418
2.3699999 -0.68400002 -0.64999998 26 0 0 0 0.041809998
2.372 -0.67799997 -0.64600003 25 0 0 0 0.041820001
2.3699999 -0.671 -0.64099997 25 0 0 0 0.04183
2.369 -0.66399997 -0.63599998 27 0 0 0 0.041839998
2.368 -0.65700001 -0.63099998 30 0 0 0 0.041850001
2.3740001 -0.653 -0.62800002 28 0 0 0 0.041859999
2.3659999 -0.64399999 -0.62099999 20 0 0 0 0.041870002
2.372 -0.639 -0.61799997 18 0 0 0 0.04188
2.3740001 -0.63300002 -0.61400002 16 0 0 0 0.041889999
2.368 -0.625 -0.60699999 20 0 0 0 0.041900001
2.3659999 -0.61799997 -0.602 23 0 0 0 0.04191
2.3670001 -0.61199999 -0.597 21 0 0 0 0.041919999
2.368 -0.60500002 -0.59299999 18 0 0 0 0.041930001
2.362 -0.59799999 -0.58600003 17 0 0 0 0.04194
2.365 -0.59200001 -0.58200002 16 0 0 0 0.041949999
2.365 -0.58600003 -0.57700002 20 0 0 0 0.041960001
2.3629999 -0.579 -0.57200003 23 0 0 0 0.04197
2.368 -0.57300001 -0.56800002 23 0 0 0 0.041979998
2.365 -0.56599998 -0.56300002 21 0 0 0 0.041990001
2.365 -0.56 -0.55800003 19 0 0 0 0.041999999
2.3610001 -0.55299997 -0.55199999 17 0 0 0 0.042010002
2.3610001 -0.546 -0.54699999 18 0 0 0 0.042020001
2.362 -0.54100001 -0.542 21 0 0 0 0.042029999
2.365 -0.53500003 -0.537 21 0 0 0 0.042040002
2.3629999 -0.528 -0.53200001 21 0 0 0 0.04205
2.3610001 -0.52200001 -0.52600002 20 0 0 0 0.042059999
2.368 -0.51700002 -0.523 16 0 0 0 0.042070001
2.375 -0.51200002 -0.51999998 15 0 0 0 0.04208
2.3789999 -0.50700003 -0.51499999 15 0 0 0 0.042089999
2.3759999 -0.5 -0.50999999 15 0 0 0 0.042100001
2.3710001 -0.493 -0.50300002 16 0 0 0 0.04211
2.3610001 -0.48500001 -0.49599999 15 0 0 0 0.042119998
2.362 -0.479 -0.491 16 0 0 0 0.042130001
2.3610001 -0.47299999 -0.486 18 0 0 0 0.04214
2.3659999 -0.46700001 -0.48199999 17 0 0 0 0.042149998
2.3599999 -0.46000001 -0.47499999 18 0 0 0 0.042160001
2.3640001 -0.45500001 -0.47099999 21 0 0 0 0.042169999
2.3570001 -0.44800001 -0.46399999 23 0 0 0 0.042180002
2.3629999 -0.44299999 -0.46000001 25 0 0 0 0.04219
2.362 -0.43700001 -0.45500001 25 0 0 0 0.042199999
2.3570001 -0.43000001 -0.44800001 25 0 0 0 0.042210001
2.3640001 -0.42500001 -0.44499999 25 0 0 0 0.04222
2.359 -0.41800001 -0.43799999 23 0 0 0 0.042229999
2.358 -0.412 -0.433 22 0 0 0 0.042240001
2.3570001 -0.40599999 -0.42699999 23 0 0 0 0.04225
2.3610001 -0.40099999 -0.42300001 22 0 0 0 0.042259999
2.3610001 -0.39500001 -0.41800001 20 0 0 0 0.042270001
2.358 -0.389 -0.412 20 0 0 0 0.04228
2.3640001 -0.384 -0.40700001 17 0 0 0 0.042289998
2.3610001 -0.37799999 -0.40200001 15 0 0 0 0.042300001
2.359 -0.37200001 -0.396 16 0 0 0 0.042309999
2.359 -0.366 -0.391 16 0 0 0 0.042319998
2.358 -0.36000001 -0.38499999 19 0 0 0 0.042330001
2.358 -0.354 -0.38 19 0 0 0 0.042339999
2.3599999 -0.34900001 -0.375 17 0 0 0 0.042350002
2.381 -0.34599999 -0.373 15 0 0 0 0.04236
2.421 -0.34599999 -0.373 20 0 0 0 0.042369999
2.45 -0.345 -0.37200001 23 0 0 0 0.042380001
2.487 -0.34400001 -0.37200001 22 0 0 0 0.04239
2.517 -0.34200001 -0.37099999 21 0 0 0 0.042399999
2.5409999 -0.33899999 -0.36899999 21 0 0 0 0.042410001
2.6359999 -0.34599999 -0.37599999 32 0 0 0 0.04242
2.878 -0.37 -0.40400001 150 0 0 0 0.042429999
3.1500001 -0.398 -0.435 150 0 0 0 0.042440001
3.204 -0.39700001 -0.435 150 0 0 0 0.04245
3.207 -0.38999999 -0.428 150 0 0 0 0.042459998
3.207 -0.38299999 -0.421 150 0 0 0 0.042470001
3.2030001 -0.375 -0.41299999 150 0 0 0 0.042479999
3.2049999 -0.36700001 -0.405 150 0 0 0 0.042490002
3.2019999 -0.359 -0.398 150 0 0 0 0.0425
3.211 -0.35299999 -0.391 150 0 0 0 0.042509999
3.23 -0.34799999 -0.38600001 151 0 0 0 0.042520002
3.2320001 -0.34 -0.37900001 151 0 0 0 0.04253
3.2349999 -0.333 -0.37200001 151 0 0 0 0.042539999
3.2290001 -0.32499999 -0.36300001 151 0 0 0 0.042550001
3.2279999 -0.31799999 -0.35600001 151 0 0 0 0.04256
3.2309999 -0.31099999 -0.34799999 151 0 0 0 0.042569999
3.2349999 -0.30399999 -0.34099999 151 0 0 0 0.042580001
3.23 -0.296 -0.333 150 0 0 0 0.04259
3.263 -0.29100001 -0.329 84 0 0 0 0.042599998
3.329 -0.28999999 -0.32699999 150 0 0 0 0.042610001
3.335 -0.28299999 -0.31999999 151 0 0 0 0.042619999
3.3399999 -0.27599999 -0.31299999 151 0 0 0 0.042629998
3.339 -0.26800001 -0.30500001 151 0 0 0 0.042640001
3.335 -0.25999999 -0.296 151 0 0 0 0.042649999
3.336 -0.25299999 -0.289 151 0 0 0 0.042660002
3.3399999 -0.24600001 -0.28099999 150 0 0 0 0.04267
3.3659999 -0.23999999 -0.27500001 151 0 0 0 0.042679999
3.3670001 -0.233 -0.26699999 151 0 0 0 0.042690001
3.365 -0.22499999 -0.259 151 0 0 0 0.0427
3.3640001 -0.21799999 -0.25099999 151 0 0 0 0.042709999
3.369 -0.211 -0.243 150 0 0 0 0.042720001
3.425 -0.207 -0.23899999 151 0 0 0 0.04273
3.4319999 -0.2 -0.23100001 152 0 0 0 0.042739999
3.434 -0.192 -0.223 151 0 0 0 0.042750001
3.4319999 -0.185 -0.215 151 0 0 0 0.04276
3.4330001 -0.177 -0.206 151 0 0 0 0.042769998
3.4289999 -0.17 -0.198 151 0 0 0 0.042780001
3.4319999 -0.162 -0.19 150 0 0 0 0.042789999
3.4330001 -0.155 -0.18099999 151 0 0 0 0.042800002
3.4289999 -0.147 -0.17299999 151 0 0 0 0.04281
3.4300001 -0.14 -0.16500001 151 0 0 0 0.042819999
3.427 -0.133 -0.156 151 0 0 0 0.042830002
3.428 -0.125 -0.148 151 0 0 0 0.04284
3.4289999 -0.118 -0.139 151 0 0 0 0.042849999
3.4230001 -0.11 -0.131 151 0 0 0 0.042860001
3.425 -0.103 -0.123 151 0 0 0 0.04287
3.425 -0.096000001 -0.114 151 0 0 0 0.042879999
3.431 -0.089000002 -0.106 151 0 0 0 0.042890001
3.425 -0.081 -0.097000003 151 0 0 0 0.0429
3.427 -0.074000001 -0.089000002 151 0 0 0 0.042909998
3.4170001 -0.067000002 -0.079999998 151 0 0 0 0.042920001
3.4200001 -0.059999999 -0.071999997 151 0 0 0 0.04293
3.4200001 -0.052000001 -0.064000003 151 0 0 0 0.042939998
3.4200001 -0.045000002 -0.055 151 0 0 0 0.042950001
3.4200001 -0.037999999 -0.046999998 151 0 0 0 0.042959999
3.421 -0.030999999 -0.037999999 151 0 0 0 0.042970002
3.4230001 -0.024 -0.029999999 151 0 0 0 0.04298
3.4159999 -0.017000001 -0.021 151 0 0 0 0.042989999
3.418 -0.0099999998 -0.013 151 0 0 0 0.043000001
3.4230001 -0.003 -0.0040000002 151 0 0 0 0.04301
3.4219999 0.003 0.003 152 0 0 0 0.043019999
3.418 0.0099999998 0.012 152 0 0 0 0.043030001
3.418 0.017000001 0.021 152 0 0 0 0.04304
3.418 0.024 0.028999999 152 0 0 0 0.043049999
3.418 0.030999999 0.037999999 153 0 0 0 0.043060001
3.424 0.037999999 0.046 152 0 0 0 0.04307
3.415 0.045000002 0.055 153 0 0 0 0.043079998
3.414 0.052000001 0.063000001 153 0 0 0 0.043090001
3.4059999 0.059 0.071999997 153 0 0 0 0.043099999
3.4059999 0.066 0.079999998 153 0 0 0 0.043110002
3.414 0.072999999 0.089000002 152 0 0 0 0.043120001
3.4130001 0.079999998 0.097999997 153 0 0 0 0.043129999
3.4130001 0.086999997 0.107 153 0 0 0 0.043140002
3.4200001 0.093999997 0.116 152 0 0 0 0.04315
3.4200001 0.101 0.124 152 0 0 0 0.043159999
3.414 0.107 0.133 152 0 0 0 0.043170001
3.414 0.114 0.142 153 0 0 0 0.04318
3.4130001 0.121 0.15000001 153 0 0 0 0.043189999
3.4170001 0.12800001 0.15899999 152 0 0 0 0.043200001
3.4119999 0.134 0.168 151 0 0 0 0.04321
3.4130001 0.141 0.177 151 0 0 0 0.043219998
3.4100001 0.148 0.185 151 0 0 0 0.043230001
3.415 0.155 0.19400001 151 0 0 0 0.04324
3.414 0.161 0.20299999 152 0 0 0 0.043249998
3.4100001 0.168 0.212 151 0 0 0 0.043260001
3.415 0.175 0.221 151 0 0 0 0.043269999
3.408 0.18099999 0.229 151 0 0 0 0.043280002
3.4070001 0.18799999 0.23800001 151 0 0 0 0.04329
3.4070001 0.19499999 0.24699999 151 0 0 0 0.043299999
3.4130001 0.20100001 0.25600001 151 0 0 0 0.043310001
3.411 0.208 0.26499999 151 0 0 0 0.04332
3.411 0.215 0.27399999 151 0 0 0 0.043329999
3.4100001 0.221 0.28299999 151 0 0 0 0.043340001
3.408 0.228 0.292 151 0 0 0 0.04335
3.4070001 0.234 0.30000001 151 0 0 0 0.043359999
3.4100001 0.241 0.31 151 0 0 0 0.043370001
3.4089999 0.24699999 0.31900001 151 0 0 0 0.04338
3.411 0.25400001 0.32800001 151 0 0 0 0.043389998
3.4119999 0.25999999 0.33700001 151 0 0 0 0.043400001
3.4089999 0.26699999 0.34599999 151 0 0 0 0.043409999
3.4089999 0.273 0.35499999 151 0 0 0 0.043419998
3.411 0.28 0.36399999 151 0 0 0 0.043430001
3.411 0.28600001 0.373 151 0 0 0 0.043439999
3.4100001 0.292 0.382 151 0 0 0 0.043450002
3.4100001 0.29899999 0.391 151 0 0 0 0.04346
3.4089999 0.30500001 0.40099999 151 0 0 0 0.043469999
3.4070001 0.31099999 0.40900001 151 0 0 0 0.043480001
3.405 0.31799999 0.41800001 151 0 0 0 0.04349
3.4089999 0.324 0.428 151 0 0 0 0.043499999
3.4100001 0.331 0.43700001 151 0 0 0 0.043510001
3.4089999 0.33700001 0.447 151 0 0 0 0.04352
3.4070001 0.34299999 0.456 151 0 0 0 0.043529999
3.404 0.34900001 0.465 151 0 0 0 0.043540001
3.408 0.35600001 0.47400001 151 0 0 0 0.04355
3.4030001 0.36199999 0.48300001 151 0 0 0 0.043559998
3.404 0.368 0.49200001 151 0 0 0 0.043570001
3.4059999 0.375 0.50199997 151 0 0 0 0.043579999
3.4000001 0.38 0.51099998 151 0 0 0 0.043590002
3.4059999 0.38699999 0.52100003 151 0 0 0 0.0436
