# .PCD v0.7 - Point Cloud Data file format
VERSION 0.7
FIELDS x y z intensity normal_x normal_y normal_z curvature
SIZE 4 4 4 4 4 4 4 4
TYPE F F F F F F F F
COUNT 1 1 1 1 1 1 1 1
WIDTH 1009
HEIGHT 1
VIEWPOINT 0 0 0 1 0 0 0
POINTS 1009
DATA ascii
1.046 -0.639 -0.366 0 0 0 0 0.031319998
1.043 -0.63599998 -0.366 0 0 0 0 0.031330001
1.0470001 -0.63800001 -0.36899999 0 0 0 0 0.031339999
1.049 -0.63800001 -0.37099999 0 0 0 0 0.031350002
1.043 -0.634 -0.37 0 0 0 0 0.03136
1.035 -0.62800002 -0.368 0 0 0 0 0.031369999
1.027 -0.62199998 -0.366 0 0 0 0 0.031380001
1.018 -0.61500001 -0.36399999 0 0 0 0 0.03139
1.01 -0.60900003 -0.36199999 0 0 0 0 0.031399999
1.011 -0.60799998 -0.36300001 0 0 0 0 0.031410001
1.001 -0.60100001 -0.361 0 0 0 0 0.03142
1.011 -0.60600001 -0.36500001 0 0 0 0 0.031429999
0.99900001 -0.597 -0.36199999 0 0 0 0 0.031440001
1.001 -0.597 -0.36300001 0 0 0 0 0.03145
0.99199998 -0.58999997 -0.361 0 0 0 0 0.031459998
0.99000001 -0.58700001 -0.361 0 0 0 0 0.031470001
0.99000001 -0.58600003 -0.36199999 0 0 0 0 0.031479999
0.97799999 -0.57800001 -0.35800001 0 0 0 0 0.031490002
0.99000001 -0.583 -0.36300001 0 0 0 0 0.031500001
0.98799998 -0.57999998 -0.36300001 0 0 0 0 0.031509999
0.98000002 -0.574 -0.36000001 0 0 0 0 0.031520002
0.97600001 -0.56999999 -0.359 0 0 0 0 0.03153
0.97799999 -0.56900001 -0.36000001 0 0 0 0 0.031539999
0.98100001 -0.56900001 -0.36199999 0 0 0 0 0.031550001
0.986 -0.56999999 -0.36399999 0 0 0 0 0.03156
0.98100001 -0.565 -0.36300001 1 0 0 0 0.031569999
0.99000001 -0.56900001 -0.366 1 0 0 0 0.031580001
0.99400002 -0.56900001 -0.368 1 0 0 0 0.03159
0.99599999 -0.56800002 -0.36899999 1 0 0 0 0.031599998
1 -0.56900001 -0.37099999 1 0 0 0 0.031610001
1.005 -0.56900001 -0.373 1 0 0 0 0.03162
0.99699998 -0.56300002 -0.37 1 0 0 0 0.031629998
0.99599999 -0.56 -0.37 1 0 0 0 0.031640001
1.0089999 -0.565 -0.375 1 0 0 0 0.031649999
1.0140001 -0.565 -0.377 1 0 0 0 0.031660002
1.005 -0.55800003 -0.37400001 1 0 0 0 0.03167
1.011 -0.55900002 -0.37599999 1 0 0 0 0.031679999
1.017 -0.56 -0.37799999 1 0 0 0 0.031690001
1.022 -0.56099999 -0.38 1 0 0 0 0.0317
1.0319999 -0.56400001 -0.384 1 0 0 0 0.031709999
1.036 -0.56400001 -0.38499999 1 0 0 0 0.031720001
1.054 -0.57099998 -0.39199999 1 0 0 0 0.03173
1.064 -0.574 -0.39500001 1 0 0 0 0.031739999
1.066 -0.57200003 -0.396 1 0 0 0 0.031750001
1.068 -0.57099998 -0.396 1 0 0 0 0.03176
1.073 -0.57099998 -0.398 1 0 0 0 0.031769998
1.0779999 -0.56999999 -0.39899999 1 0 0 0 0.031780001
1.079 -0.56800002 -0.39899999 2 0 0 0 0.031789999
1.0829999 -0.56800002 -0.40099999 2 0 0 0 0.031800002
1.089 -0.56800002 -0.40200001 2 0 0 0 0.031810001
1.0880001 -0.565 -0.40200001 3 0 0 0 0.031819999
1.095 -0.56599998 -0.40400001 4 0 0 0 0.031830002
1.097 -0.56400001 -0.40400001 5 0 0 0 0.03184
1.1 -0.56199998 -0.405 5 0 0 0 0.031849999
1.104 -0.56099999 -0.405 5 0 0 0 0.031860001
1.103 -0.55800003 -0.40400001 6 0 0 0 0.03187
1.104 -0.55500001 -0.40400001 6 0 0 0 0.031879999
1.103 -0.55199999 -0.403 6 0 0 0 0.031890001
1.1059999 -0.55000001 -0.403 6 0 0 0 0.0319
1.109 -0.54799998 -0.40400001 6 0 0 0 0.031909999
1.107 -0.54400003 -0.40200001 6 0 0 0 0.031920001
1.108 -0.542 -0.40200001 5 0 0 0 0.03193
1.107 -0.53799999 -0.40099999 6 0 0 0 0.031939998
1.105 -0.53399998 -0.39899999 6 0 0 0 0.031950001
1.109 -0.53299999 -0.40000001 6 0 0 0 0.031959999
1.108 -0.52999997 -0.39899999 6 0 0 0 0.031970002
1.109 -0.52700001 -0.398 142 0 0 0 0.03198
2.2750001 -1.074 -0.815 150 0 0 0 0.031989999
2.221 -1.0420001 -0.79299998 150 0 0 0 0.032000002
2.2750001 -1.061 -0.81099999 5 0 0 0 0.03201
2.2869999 -1.0599999 -0.81300002 28 0 0 0 0.032019999
2.296 -1.058 -0.81400001 28 0 0 0 0.032030001
2.3050001 -1.0549999 -0.81400001 28 0 0 0 0.03204
2.3110001 -1.051 -0.81400001 29 0 0 0 0.032049999
2.316 -1.0470001 -0.81400001 29 0 0 0 0.032060001
2.319 -1.0420001 -0.81199998 29 0 0 0 0.03207
2.3310001 -1.04 -0.81400001 29 0 0 0 0.032079998
2.3399999 -1.0369999 -0.81400001 29 0 0 0 0.032090001
2.3469999 -1.033 -0.81400001 29 0 0 0 0.032099999
2.352 -1.029 -0.81300002 29 0 0 0 0.032109998
2.3659999 -1.028 -0.815 29 0 0 0 0.032120001
2.372 -1.023 -0.81400001 30 0 0 0 0.032129999
2.382 -1.02 -0.815 31 0 0 0 0.032140002
2.385 -1.015 -0.81300002 31 0 0 0 0.03215
2.3870001 -1.0089999 -0.81099999 32 0 0 0 0.032159999
2.3929999 -1.0039999 -0.81 34 0 0 0 0.032170001
2.398 -0.99900001 -0.80800003 34 0 0 0 0.03218
2.3940001 -0.99000001 -0.80400002 30 0 0 0 0.032189999
2.391 -0.98199999 -0.79900002 25 0 0 0 0.032200001
2.395 -0.97600001 -0.79799998 24 0 0 0 0.03221
2.3959999 -0.97000003 -0.79500002 25 0 0 0 0.032219999
2.398 -0.963 -0.792 25 0 0 0 0.032230001
2.3929999 -0.954 -0.787 25 0 0 0 0.03224
2.3940001 -0.94700003 -0.78399998 24 0 0 0 0.032249998
2.4000001 -0.94199997 -0.78200001 21 0 0 0 0.032260001
2.398 -0.93400002 -0.778 21 0 0 0 0.032269999
2.391 -0.92500001 -0.77200001 21 0 0 0 0.032280002
2.391 -0.91799998 -0.76899999 21 0 0 0 0.03229
2.391 -0.91000003 -0.76499999 21 0 0 0 0.032299999
2.391 -0.903 -0.76200002 23 0 0 0 0.032310002
2.391 -0.89600003 -0.75800002 23 0 0 0 0.03232
2.391 -0.889 -0.75400001 22 0 0 0 0.032329999
2.3900001 -0.88200003 -0.75 24 0 0 0 0.032340001
2.3940001 -0.87599999 -0.74699998 25 0 0 0 0.03235
2.388 -0.86699998 -0.74199998 26 0 0 0 0.032359999
2.3859999 -0.85900003 -0.73699999 26 0 0 0 0.032370001
2.388 -0.852 -0.73400003 28 0 0 0 0.03238
2.3900001 -0.84600002 -0.73000002 26 0 0 0 0.032389998
2.388 -0.83899999 -0.72600001 24 0 0 0 0.032400001
2.388 -0.83099997 -0.722 23 0 0 0 0.03241
2.385 -0.824 -0.71700001 24 0 0 0 0.032419998
2.385 -0.81699997 -0.713 27 0 0 0 0.032430001
2.385 -0.80900002 -0.70899999 26 0 0 0 0.032439999
2.385 -0.80299997 -0.70499998 24 0 0 0 0.032450002
2.3829999 -0.79500002 -0.69999999 22 0 0 0 0.03246
2.3859999 -0.78899997 -0.69700003 19 0 0 0 0.032469999
2.3800001 -0.77999997 -0.69099998 17 0 0 0 0.032480001
2.3829999 -0.77399999 -0.68699998 19 0 0 0 0.03249
2.3829999 -0.76700002 -0.68300003 20 0 0 0 0.032499999
2.3829999 -0.75999999 -0.67900002 21 0 0 0 0.032510001
2.3800001 -0.75199997 -0.67400002 23 0 0 0 0.03252
2.3800001 -0.74599999 -0.66900003 21 0 0 0 0.032529999
2.3800001 -0.73900002 -0.66500002 19 0 0 0 0.032540001
2.381 -0.73199999 -0.66100001 19 0 0 0 0.03255
2.382 -0.72600001 -0.65700001 23 0 0 0 0.032559998
2.3789999 -0.71799999 -0.65200001 26 0 0 0 0.032570001
2.378 -0.71100003 -0.64700001 26 0 0 0 0.032579999
2.381 -0.70499998 -0.64300001 25 0 0 0 0.032590002
2.375 -0.69599998 -0.63700002 25 0 0 0 0.032600001
2.3759999 -0.69 -0.63300002 29 0 0 0 0.032609999
2.375 -0.68300003 -0.62800002 31 0 0 0 0.032620002
2.378 -0.67699999 -0.62400001 26 0 0 0 0.03263
2.3759999 -0.67000002 -0.61900002 23 0 0 0 0.032639999
2.375 -0.66299999 -0.61400002 26 0 0 0 0.032650001
2.3729999 -0.65600002 -0.60900003 25 0 0 0 0.03266
2.372 -0.64899999 -0.60399997 26 0 0 0 0.032669999
2.3729999 -0.64300001 -0.60000002 24 0 0 0 0.032680001
2.3729999 -0.63599998 -0.59500003 25 0 0 0 0.03269
2.3759999 -0.63 -0.59100002 23 0 0 0 0.032699998
2.375 -0.62300003 -0.58600003 19 0 0 0 0.032710001
2.3759999 -0.61699998 -0.58099997 16 0 0 0 0.03272
2.3729999 -0.61000001 -0.57599998 15 0 0 0 0.032729998
2.3710001 -0.60299999 -0.57099998 17 0 0 0 0.032740001
2.3740001 -0.597 -0.56599998 18 0 0 0 0.032749999
2.375 -0.59100002 -0.56199998 18 0 0 0 0.032760002
2.3710001 -0.583 -0.55599999 18 0 0 0 0.03277
2.375 -0.57800001 -0.55199999 18 0 0 0 0.032779999
2.368 -0.56999999 -0.546 18 0 0 0 0.032790001
2.3699999 -0.56400001 -0.54100001 21 0 0 0 0.0328
2.3699999 -0.55699998 -0.537 23 0 0 0 0.032809999
2.3729999 -0.55199999 -0.53200001 23 0 0 0 0.032820001
2.3670001 -0.54400003 -0.52600002 20 0 0 0 0.03283
2.372 -0.53899997 -0.52200001 15 0 0 0 0.032839999
2.3800001 -0.53399998 -0.51899999 13 0 0 0 0.032850001
2.3800001 -0.528 -0.514 13 0 0 0 0.03286
2.3800001 -0.52200001 -0.509 16 0 0 0 0.032869998
2.3670001 -0.51200002 -0.50099999 18 0 0 0 0.032880001
2.369 -0.50700003 -0.49700001 21 0 0 0 0.032889999
2.372 -0.50099999 -0.49200001 20 0 0 0 0.032900002
2.3699999 -0.49399999 -0.48699999 19 0 0 0 0.032910001
2.3699999 -0.48800001 -0.48199999 18 0 0 0 0.032919999
2.372 -0.48199999 -0.477 18 0 0 0 0.032930002
2.3699999 -0.47600001 -0.472 18 0 0 0 0.03294
2.3670001 -0.46900001 -0.46599999 16 0 0 0 0.032949999
2.369 -0.463 -0.461 16 0 0 0 0.032960001
2.3640001 -0.456 -0.45500001 18 0 0 0 0.03297
2.365 -0.44999999 -0.44999999 17 0 0 0 0.032979999
2.3670001 -0.44499999 -0.44499999 18 0 0 0 0.032990001
2.3640001 -0.43799999 -0.44 20 0 0 0 0.033
2.3670001 -0.43200001 -0.435 23 0 0 0 0.033009999
2.368 -0.42699999 -0.43000001 24 0 0 0 0.033020001
2.3599999 -0.419 -0.42399999 23 0 0 0 0.03303
2.3599999 -0.41299999 -0.41800001 22 0 0 0 0.033039998
2.3599999 -0.40700001 -0.41299999 24 0 0 0 0.033050001
2.3610001 -0.40099999 -0.40799999 23 0 0 0 0.033059999
2.3640001 -0.396 -0.403 21 0 0 0 0.033070002
2.3670001 -0.391 -0.39899999 20 0 0 0 0.03308
2.362 -0.384 -0.39300001 19 0 0 0 0.033089999
2.362 -0.37799999 -0.38699999 19 0 0 0 0.033100002
2.3629999 -0.37200001 -0.382 20 0 0 0 0.03311
2.362 -0.366 -0.377 21 0 0 0 0.033119999
2.359 -0.36000001 -0.37099999 17 0 0 0 0.033130001
2.3610001 -0.354 -0.366 15 0 0 0 0.03314
2.3629999 -0.34900001 -0.361 15 0 0 0 0.033149999
2.3640001 -0.34299999 -0.35600001 16 0 0 0 0.033160001
2.3629999 -0.33700001 -0.35100001 17 0 0 0 0.03317
2.358 -0.331 -0.345 19 0 0 0 0.033179998
2.375 -0.32699999 -0.34200001 18 0 0 0 0.033190001
2.4089999 -0.32600001 -0.34099999 20 0 0 0 0.033199999
2.437 -0.324 -0.34 22 0 0 0 0.033209998
2.4760001 -0.324 -0.34 22 0 0 0 0.033220001
2.5079999 -0.322 -0.338 22 0 0 0 0.033229999
2.536 -0.31900001 -0.336 21 0 0 0 0.033240002
2.566 -0.317 -0.33500001 21 0 0 0 0.03325
2.8340001 -0.34299999 -0.36300001 150 0 0 0 0.033259999
3.0420001 -0.361 -0.38299999 150 0 0 0 0.033270001
3.2060001 -0.373 -0.396 150 0 0 0 0.03328
3.207 -0.366 -0.389 150 0 0 0 0.033289999
3.2090001 -0.35800001 -0.382 150 0 0 0 0.033300001
3.2079999 -0.35100001 -0.37400001 150 0 0 0 0.03331
3.21 -0.34299999 -0.36700001 150 0 0 0 0.033319999
3.2079999 -0.33500001 -0.36000001 150 0 0 0 0.033330001
3.2060001 -0.32800001 -0.352 150 0 0 0 0.03334
3.2290001 -0.32300001 -0.347 151 0 0 0 0.033349998
3.2349999 -0.31600001 -0.34 151 0 0 0 0.033360001
3.2320001 -0.308 -0.333 151 0 0 0 0.033369999
3.23 -0.30000001 -0.32499999 151 0 0 0 0.033380002
3.2320001 -0.29300001 -0.31799999 151 0 0 0 0.03339
3.2279999 -0.285 -0.31 151 0 0 0 0.033399999
3.2320001 -0.278 -0.303 151 0 0 0 0.033410002
3.233 -0.27000001 -0.29499999 150 0 0 0 0.03342
3.2590001 -0.26499999 -0.28999999 105 0 0 0 0.033429999
3.3380001 -0.264 -0.289 150 0 0 0 0.033440001
3.342 -0.257 -0.28200001 151 0 0 0 0.03345
3.3410001 -0.249 -0.27399999 151 0 0 0 0.033459999
3.3410001 -0.242 -0.266 151 0 0 0 0.033470001
3.3410001 -0.234 -0.25799999 152 0 0 0 0.03348
3.339 -0.226 -0.25 151 0 0 0 0.033489998
3.345 -0.219 -0.243 150 0 0 0 0.033500001
3.3670001 -0.213 -0.236 151 0 0 0 0.03351
3.3659999 -0.205 -0.228 151 0 0 0 0.033519998
3.3729999 -0.198 -0.221 151 0 0 0 0.033530001
3.3710001 -0.191 -0.213 151 0 0 0 0.033539999
3.378 -0.184 -0.205 150 0 0 0 0.033550002
3.4360001 -0.17900001 -0.20100001 152 0 0 0 0.03356
3.4319999 -0.171 -0.192 152 0 0 0 0.033569999
3.4349999 -0.164 -0.184 151 0 0 0 0.033580001
3.4300001 -0.156 -0.176 151 0 0 0 0.03359
3.4360001 -0.149 -0.168 151 0 0 0 0.033599999
3.437 -0.141 -0.16 151 0 0 0 0.033610001
3.4360001 -0.134 -0.15099999 151 0 0 0 0.03362
3.431 -0.126 -0.14300001 151 0 0 0 0.033629999
3.434 -0.118 -0.13500001 151 0 0 0 0.033640001
3.4289999 -0.111 -0.126 151 0 0 0 0.03365
3.4289999 -0.103 -0.118 151 0 0 0 0.033659998
3.4300001 -0.096000001 -0.11 151 0 0 0 0.033670001
3.431 -0.089000002 -0.102 151 0 0 0 0.033679999
3.4260001 -0.081 -0.093000002 151 0 0 0 0.033690002
3.427 -0.074000001 -0.085000001 151 0 0 0 0.0337
3.427 -0.066 -0.077 151 0 0 0 0.033709999
3.427 -0.059 -0.068000004 151 0 0 0 0.033720002
3.418 -0.050999999 -0.059999999 151 0 0 0 0.03373
3.418 -0.044 -0.052000001 151 0 0 0 0.033739999
3.425 -0.037 -0.043000001 151 0 0 0 0.033750001
3.4260001 -0.029999999 -0.035 151 0 0 0 0.03376
3.421 -0.022 -0.027000001 151 0 0 0 0.033769999
3.421 -0.015 -0.017999999 151 0 0 0 0.033780001
3.421 -0.0080000004 -0.0099999998 151 0 0 0 0.03379
3.4200001 0 -0.001 151 0 0 0 0.033799998
3.418 0.0060000001 0.0060000001 151 0 0 0 0.033810001
3.4219999 0.013 0.014 152 0 0 0 0.03382
3.4159999 0.02 0.023 152 0 0 0 0.033829998
3.4219999 0.027000001 0.030999999 152 0 0 0 0.033840001
3.4230001 0.034000002 0.039999999 152 0 0 0 0.033849999
3.4230001 0.041999999 0.048 152 0 0 0 0.033860002
3.4230001 0.048999999 0.057 152 0 0 0 0.03387
3.4170001 0.056000002 0.064999998 152 0 0 0 0.033879999
3.4170001 0.063000001 0.074000001 153 0 0 0 0.033890001
3.4170001 0.07 0.082000002 153 0 0 0 0.0339
3.4159999 0.077 0.090999998 153 0 0 0 0.033909999
3.4159999 0.083999999 0.098999999 152 0 0 0 0.033920001
3.4159999 0.090999998 0.108 152 0 0 0 0.03393
3.415 0.097999997 0.116 152 0 0 0 0.033939999
3.418 0.105 0.125 152 0 0 0 0.033950001
3.418 0.112 0.133 152 0 0 0 0.03396
3.4159999 0.119 0.142 151 0 0 0 0.033969998
3.4170001 0.126 0.15099999 152 0 0 0 0.033980001
3.415 0.133 0.15899999 152 0 0 0 0.033989999
3.4159999 0.14 0.168 152 0 0 0 0.034000002
3.414 0.147 0.176 152 0 0 0 0.034010001
3.4100001 0.153 0.185 151 0 0 0 0.034019999
3.415 0.161 0.19400001 151 0 0 0 0.034030002
3.411 0.167 0.20200001 151 0 0 0 0.03404
3.4100001 0.17399999 0.211 151 0 0 0 0.034049999
3.4100001 0.18099999 0.22 151 0 0 0 0.034060001
3.408 0.18799999 0.228 151 0 0 0 0.03407
3.4100001 0.19499999 0.237 151 0 0 0 0.034079999
3.4059999 0.20100001 0.245 151 0 0 0 0.034090001
3.4130001 0.208 0.255 151 0 0 0 0.0341
3.4119999 0.215 0.264 151 0 0 0 0.034109998
3.4089999 0.222 0.27200001 151 0 0 0 0.034120001
3.4089999 0.228 0.28099999 151 0 0 0 0.03413
3.408 0.235 0.28999999 151 0 0 0 0.034139998
3.4059999 0.242 0.29800001 151 0 0 0 0.034150001
3.411 0.249 0.308 151 0 0 0 0.034159999
3.408 0.255 0.31600001 151 0 0 0 0.034170002
3.402 0.26199999 0.32499999 151 0 0 0 0.03418
3.4070001 0.26899999 0.33399999 151 0 0 0 0.034189999
3.408 0.27500001 0.34299999 151 0 0 0 0.034200002
3.4059999 0.28200001 0.352 151 0 0 0 0.03421
3.4119999 0.289 0.36199999 151 0 0 0 0.034219999
3.404 0.29499999 0.37 151 0 0 0 0.034230001
3.402 0.301 0.37799999 151 0 0 0 0.03424
3.4030001 0.308 0.38800001 151 0 0 0 0.034249999
3.408 0.315 0.39700001 151 0 0 0 0.034260001
3.3989999 0.32100001 0.405 151 0 0 0 0.03427
3.405 0.32800001 0.41499999 151 0 0 0 0.034279998
3.4030001 0.33399999 0.42399999 151 0 0 0 0.034290001
3.402 0.34099999 0.433 151 0 0 0 0.034299999
3.405 0.347 0.442 151 0 0 0 0.034309998
3.405 0.354 0.45100001 151 0 0 0 0.034320001
3.404 0.36000001 0.46000001 151 0 0 0 0.034329999
3.405 0.36700001 0.47 151 0 0 0 0.034340002
3.404 0.373 0.479 151 0 0 0 0.03435
3.401 0.37900001 0.48699999 151 0 0 0 0.034359999
3.402 0.38600001 0.49700001 151 0 0 0 0.034370001
3.401 0.39199999 0.50599998 151 0 0 0 0.03438
3.3989999 0.398 0.51499999 151 0 0 0 0.034389999
3.3989999 0.405 0.52399999 150 0 0 0 0.034400001
3.3989999 0.41100001 0.53399998 151 0 0 0 0.03441
3.401 0.417 0.54299998 151 0 0 0 0.034419999
3.3989999 0.42399999 0.55199999 151 0 0 0 0.034430001
3.3989999 0.43000001 0.56099999 151 0 0 0 0.03444
3.4000001 0.43599999 0.57099998 151 0 0 0 0.034449998
3.4000001 0.44299999 0.57999998 150 0 0 0 0.034460001
3.398 0.44800001 0.58899999 150 0 0 0 0.034469999
3.3989999 0.45500001 0.59899998 150 0 0 0 0.034480002
3.4000001 0.461 0.60900003 150 0 0 0 0.03449
3.3970001 0.46700001 0.61799997 150 0 0 0 0.034499999
3.3959999 0.47299999 0.62699997 151 0 0 0 0.034510002
3.395 0.479 0.63599998 150 0 0 0 0.03452
3.3929999 0.48500001 0.64499998 150 0 0 0 0.034529999
3.3959999 0.491 0.65600002 150 0 0 0 0.034540001
3.3929999 0.49700001 0.66500002 150 0 0 0 0.03455
3.3929999 0.50300002 0.67400002 150 0 0 0 0.034559999
3.392 0.509 0.68300003 150 0 0 0 0.034570001
3.395 0.51599997 0.69400001 150 0 0 0 0.03458
3.391 0.52100003 0.70300001 151 0 0 0 0.034589998
3.391 0.52700001 0.71200001 151 0 0 0 0.034600001
3.362 0.528 0.71600002 150 0 0 0 0.03461
3.3329999 0.52999997 0.71899998 150 0 0 0 0.034619998
3.3310001 0.53500003 0.72799999 150 0 0 0 0.034630001
3.3280001 0.54000002 0.73699999 150 0 0 0 0.034639999
3.332 0.54699999 0.74800003 150 0 0 0 0.034650002
3.322 0.551 0.755 150 0 0 0 0.03466
3.3069999 0.55400002 0.76099998 150 0 0 0 0.034669999
3.296 0.55800003 0.76800001 150 0 0 0 0.034680001
3.2920001 0.56300002 0.77700001 150 0 0 0 0.03469
3.29 0.56800002 0.78600001 150 0 0 0 0.034699999
3.2969999 0.57499999 0.79699999 150 0 0 0 0.034710001
3.296 0.58099997 0.80699998 150 0 0 0 0.03472
3.2969999 0.58600003 0.81599998 150 0 0 0 0.034729999
3.2909999 0.59100002 0.82499999 151 0 0 0 0.034740001
3.2909999 0.59600002 0.83399999 150 0 0 0 0.03475
3.279 0.60000002 0.84100002 59 0 0 0 0.034759998
3.2720001 0.60399997 0.84899998 32 0 0 0 0.034770001
3.253 0.60600001 0.85399997 32 0 0 0 0.034779999
3.22 0.60500002 0.85399997 31 0 0 0 0.034790002
3.1849999 0.60299999 0.85399997 30 0 0 0 0.0348
3.1370001 0.60000002 0.85100001 30 0 0 0 0.034809999
3.105 0.59799999 0.85100001 30 0 0 0 0.034820002
3.062 0.59500003 0.84899998 30 0 0 0 0.03483
3.023 0.59200001 0.847 30 0 0 0 0.034839999
2.993 0.59100002 0.84799999 33 0 0 0 0.034850001
2.951 0.588 0.84500003 32 0 0 0 0.03486
2.908 0.58399999 0.84100002 32 0 0 0 0.034869999
2.8540001 0.57700002 0.83399999 31 0 0 0 0.034880001
2.799 0.57099998 0.82700002 28 0 0 0 0.03489
2.7709999 0.56900001 0.82700002 28 0 0 0 0.034899998
2.7390001 0.56699997 0.82599998 27 0 0 0 0.034910001
2.7049999 0.56400001 0.824 27 0 0 0 0.03492
2.6700001 0.56099999 0.82099998 27 0 0 0 0.034929998
2.6370001 0.55800003 0.81900001 27 0 0 0 0.034940001
2.605 0.55500001 0.81699997 26 0 0 0 0.034949999
2.573 0.55199999 0.815 29 0 0 0 0.034960002
2.5469999 0.55000001 0.815 28 0 0 0 0.03497
2.52 0.54799998 0.81400001 27 0 0 0 0.034979999
2.4979999 0.54699999 0.81400001 26 0 0 0 0.034990001
2.467 0.54400003 0.81199998 24 0 0 0 0.035
2.4419999 0.542 0.81099999 23 0 0 0 0.035009999
2.4170001 0.54000002 0.81 20 0 0 0 0.035020001
2.391 0.537 0.80900002 20 0 0 0 0.03503
2.3729999 0.537 0.81 19 0 0 0 0.035039999
2.3529999 0.53600001 0.81099999 22 0 0 0 0.035050001
2.3199999 0.53100002 0.80699998 23 0 0 0 0.03506
2.2869999 0.52700001 0.80199999 49 0 0 0 0.035069998
2.273 0.52700001 0.80400002 150 0 0 0 0.035080001
2.267 0.52899998 0.80900002 150 0 0 0 0.035089999
2.2679999 0.53200001 0.81699997 151 0 0 0 0.035100002
2.2679999 0.53500003 0.824 151 0 0 0 0.035110001
2.2650001 0.537 0.82999998 151 0 0 0 0.035119999
2.266 0.54000002 0.83700001 151 0 0 0 0.035130002
2.2639999 0.54299998 0.84399998 151 0 0 0 0.03514
2.2679999 0.54699999 0.85299999 151 0 0 0 0.035149999
2.2609999 0.54799998 0.85699999 150 0 0 0 0.035160001
2.2550001 0.54900002 0.86199999 150 0 0 0 0.03517
2.244 0.54900002 0.86400002 150 0 0 0 0.035179999
2.237 0.551 0.86900002 150 0 0 0 0.035190001
2.2349999 0.55299997 0.875 150 0 0 0 0.0352
2.233 0.55500001 0.88200003 151 0 0 0 0.035209998
2.234 0.55800003 0.889 150 0 0 0 0.035220001
2.2360001 0.56099999 0.89700001 150 0 0 0 0.03523
2.234 0.56300002 0.903 150 0 0 0 0.035239998
2.2349999 0.56599998 0.91100001 150 0 0 0 0.035250001
2.2360001 0.56900001 0.91799998 151 0 0 0 0.035259999
2.233 0.57099998 0.92400002 150 0 0 0 0.035270002
2.2320001 0.57300001 0.93099999 150 0 0 0 0.03528
2.237 0.57599998 0.94 150 0 0 0 0.035289999
2.2379999 0.579 0.94700003 150 0 0 0 0.035300002
2.2349999 0.58099997 0.95300001 150 0 0 0 0.03531
2.234 0.583 0.95999998 150 0 0 0 0.035319999
2.2349999 0.58499998 0.96700001 150 0 0 0 0.035330001
2.233 0.58700001 0.97399998 150 0 0 0 0.03534
2.2309999 0.58899999 0.98000002 150 0 0 0 0.035349999
2.2309999 0.59100002 0.98699999 150 0 0 0 0.035360001
2.233 0.59299999 0.995 150 0 0 0 0.03537
2.233 0.59600002 1.002 150 0 0 0 0.035379998
2.2290001 0.59600002 1.007 150 0 0 0 0.035390001
2.2349999 0.60000002 1.017 150 0 0 0 0.035399999
2.233 0.60100001 1.023 150 0 0 0 0.035409998
2.237 0.60500002 1.0319999 150 0 0 0 0.035420001
2.2349999 0.60600001 1.038 150 0 0 0 0.035429999
2.234 0.60799998 1.044 150 0 0 0 0.035440002
2.2349999 0.61000001 1.052 150 0 0 0 0.03545
2.234 0.611 1.058 150 0 0 0 0.035459999
2.2390001 0.61400002 1.068 150 0 0 0 0.035470001
2.2379999 0.616 1.074 150 0 0 0 0.03548
2.2390001 0.61799997 1.082 150 0 0 0 0.035489999
2.2409999 0.62 1.09 150 0 0 0 0.035500001
2.2409999 0.62099999 1.096 150 0 0 0 0.03551
2.2420001 0.62300003 1.104 150 0 0 0 0.035519999
2.243 0.625 1.1109999 150 0 0 0 0.035530001
2.24 0.625 1.117 150 0 0 0 0.03554
2.2449999 0.62800002 1.126 150 0 0 0 0.035549998
2.2449999 0.62900001 1.133 150 0 0 0 0.035560001
2.244 0.63 1.1390001 150 0 0 0 0.035569999
2.2409999 0.63099998 1.1440001 150 0 0 0 0.035580002
2.24 0.63200003 1.15 150 0 0 0 0.03559
2.24 0.63300002 1.1569999 150 0 0 0 0.035599999
2.237 0.63300002 1.1619999 150 0 0 0 0.035610002
2.2390001 0.63499999 1.17 150 0 0 0 0.03562
2.2420001 0.63599998 1.178 150 0 0 0 0.035629999
2.243 0.63700002 1.1849999 150 0 0 0 0.035640001
2.2409999 0.63800001 1.1900001 150 0 0 0 0.03565
2.2420001 0.639 1.198 150 0 0 0 0.035659999
2.2409999 0.639 1.204 150 0 0 0 0.035670001
2.2449999 0.64099997 1.212 150 0 0 0 0.03568
2.2390001 0.63999999 1.215 150 0 0 0 0.035689998
2.2390001 0.64099997 1.222 150 0 0 0 0.035700001
2.2420001 0.64200002 1.23 150 0 0 0 0.03571
2.2420001 0.64200002 1.2359999 150 0 0 0 0.035719998
2.2409999 0.64200002 1.242 150 0 0 0 0.035730001
2.2449999 0.64399999 1.25 150 0 0 0 0.035739999
2.2409999 0.64300001 1.2539999 150 0 0 0 0.035750002
2.2379999 0.64300001 1.2589999 150 0 0 0 0.03576
2.2409999 0.64300001 1.266 150 0 0 0 0.035769999
2.2349999 0.64200002 1.2690001 150 0 0 0 0.035780001
2.2309999 0.64099997 1.272 150 0 0 0 0.03579
2.2219999 0.63800001 1.273 145 0 0 0 0.035799999
2.211 0.63499999 1.272 119 0 0 0 0.035810001
2.2030001 0.63200003 1.274 119 0 0 0 0.03582
2.1930001 0.62900001 1.273 125 0 0 0 0.035829999
2.1830001 0.62599999 1.273 114 0 0 0 0.035840001
2.171 0.62199998 1.271 111 0 0 0 0.03585
2.158 0.61799997 1.2690001 109 0 0 0 0.035859998
2.1459999 0.61400002 1.267 100 0 0 0 0.035870001
2.1329999 0.61000001 1.2640001 92 0 0 0 0.035879999
2.1259999 0.60799998 1.265 91 0 0 0 0.035890002
2.118 0.60500002 1.266 96 0 0 0 0.0359
2.108 0.60100001 1.265 97 0 0 0 0.035909999
2.099 0.59799999 1.2640001 103 0 0 0 0.035920002
2.0899999 0.59500003 1.263 108 0 0 0 0.03593
2.085 0.59200001 1.265 107 0 0 0 0.035939999
2.0780001 0.58999997 1.265 98 0 0 0 0.035950001
2.0710001 0.58700001 1.265 95 0 0 0 0.03596
2.059 0.58200002 1.262 107 0 0 0 0.035969999
2.0569999 0.58099997 1.265 107 0 0 0 0.035980001
2.0480001 0.57700002 1.263 112 0 0 0 0.03599
2.0439999 0.57499999 1.265 114 0 0 0 0.035999998
2.0369999 0.57200003 1.265 113 0 0 0 0.036010001
2.029 0.56800002 1.2640001 113 0 0 0 0.03602
2.0239999 0.565 1.2640001 119 0 0 0 0.036029998
2.0220001 0.56400001 1.267 114 0 0 0 0.036040001
2.013 0.56 1.265 115 0 0 0 0.036049999
2.007 0.55699998 1.2640001 116 0 0 0 0.036060002
2.006 0.55500001 1.267 125 0 0 0 0.03607
1.997 0.551 1.265 119 0 0 0 0.036079999
1.993 0.54799998 1.265 114 0 0 0 0.036090001
1.987 0.54500002 1.265 85 0 0 0 0.0361
1.985 0.54299998 1.267 48 0 0 0 0.036109999
1.992 0.54299998 1.274 38 0 0 0 0.036120001
2.0039999 0.54400003 1.285 38 0 0 0 0.03613
2.016 0.546 1.295 57 0 0 0 0.036139999
2.0150001 0.54299998 1.2970001 131 0 0 0 0.036150001
2.0079999 0.53899997 1.295 150 0 0 0 0.03616
2.0009999 0.53600001 1.293 150 0 0 0 0.036169998
2.0009999 0.53399998 1.295 150 0 0 0 0.036180001
2 0.53100002 1.2970001 137 0 0 0 0.036189999
1.994 0.528 1.296 136 0 0 0 0.036200002
1.993 0.52499998 1.2970001 125 0 0 0 0.036210001
1.99 0.52200001 1.2970001 108 0 0 0 0.036219999
1.9859999 0.51899999 1.296 61 0 0 0 0.036230002
1.993 0.51800001 1.303 40 0 0 0 0.03624
2.0079999 0.51999998 1.314 26 0 0 0 0.036249999
2.039 0.52499998 1.336 24 0 0 0 0.036260001
2.1010001 0.53899997 1.378 23 0 0 0 0.03627
2.1270001 0.54299998 1.396 22 0 0 0 0.036279999
2.148 0.54500002 1.4119999 22 0 0 0 0.036290001
2.1559999 0.54400003 1.418 22 0 0 0 0.0363
2.1659999 0.54400003 1.426 20 0 0 0 0.036309998
2.187 0.54699999 1.441 18 0 0 0 0.036320001
2.2079999 0.54900002 1.456 16 0 0 0 0.03633
2.23 0.551 1.471 14 0 0 0 0.036339998
2.2449999 0.55199999 1.482 14 0 0 0 0.036350001
2.263 0.55299997 1.495 12 0 0 0 0.036359999
2.279 0.55400002 1.506 12 0 0 0 0.036370002
2.2939999 0.55400002 1.515 11 0 0 0 0.03638
2.3139999 0.55500001 1.529 11 0 0 0 0.036389999
2.339 0.55800003 1.546 11 0 0 0 0.036400001
2.3540001 0.55800003 1.556 11 0 0 0 0.03641
2.368 0.55800003 1.5650001 11 0 0 0 0.036419999
2.382 0.55699998 1.574 13 0 0 0 0.036430001
2.398 0.55800003 1.585 16 0 0 0 0.03644
2.4070001 0.55599999 1.589 27 0 0 0 0.036449999
2.415 0.55400002 1.594 48 0 0 0 0.036460001
2.4130001 0.54900002 1.592 92 0 0 0 0.03647
2.4159999 0.546 1.5930001 132 0 0 0 0.036479998
2.4170001 0.54299998 1.5930001 132 0 0 0 0.036490001
2.421 0.53899997 1.594 118 0 0 0 0.036499999
2.4219999 0.53600001 1.594 115 0 0 0 0.036509998
2.4230001 0.53200001 1.5930001 111 0 0 0 0.036520001
2.4260001 0.52899998 1.594 106 0 0 0 0.036529999
2.428 0.52499998 1.594 107 0 0 0 0.036540002
2.4289999 0.52100003 1.5930001 118 0 0 0 0.03655
2.4319999 0.51800001 1.592 109 0 0 0 0.036559999
2.4330001 0.514 1.591 120 0 0 0 0.036570001
2.4349999 0.50999999 1.59 114 0 0 0 0.03658
2.4430001 0.50800002 1.594 114 0 0 0 0.036589999
2.4449999 0.50400001 1.5930001 111 0 0 0 0.036600001
2.4489999 0.50099999 1.5930001 122 0 0 0 0.03661
2.451 0.49700001 1.591 102 0 0 0 0.036619999
2.4590001 0.49399999 1.594 104 0 0 0 0.036630001
2.4619999 0.491 1.5930001 110 0 0 0 0.03664
2.4619999 0.486 1.59 104 0 0 0 0.036649998
2.4719999 0.484 1.5930001 112 0 0 0 0.036660001
2.4760001 0.47999999 1.5930001 104 0 0 0 0.036669999
2.4849999 0.47799999 1.595 109 0 0 0 0.036680002
2.4879999 0.47400001 1.594 102 0 0 0 0.03669
2.4909999 0.47 1.592 109 0 0 0 0.036699999
2.497 0.46700001 1.592 99 0 0 0 0.036710002
2.5039999 0.46399999 1.5930001 98 0 0 0 0.03672
2.513 0.461 1.594 106 0 0 0 0.036729999
2.516 0.45699999 1.592 101 0 0 0 0.036740001
2.526 0.454 1.595 100 0 0 0 0.03675
2.5309999 0.45100001 1.594 96 0 0 0 0.036759999
2.5369999 0.44800001 1.5930001 99 0 0 0 0.036770001
2.546 0.44499999 1.594 101 0 0 0 0.03678
2.556 0.442 1.596 102 0 0 0 0.036789998
2.5569999 0.43799999 1.592 104 0 0 0 0.036800001
2.569 0.435 1.595 102 0 0 0 0.036809999
2.573 0.43099999 1.592 103 0 0 0 0.036819998
2.5840001 0.42899999 1.594 96 0 0 0 0.036830001
2.592 0.42500001 1.594 97 0 0 0 0.036839999
2.596 0.421 1.591 102 0 0 0 0.036850002
2.609 0.419 1.5930001 104 0 0 0 0.03686
2.6140001 0.41499999 1.591 106 0 0 0 0.036869999
2.622 0.412 1.591 99 0 0 0 0.036880001
2.635 0.40900001 1.5930001 98 0 0 0 0.03689
2.6459999 0.40700001 1.594 94 0 0 0 0.036899999
2.6559999 0.40400001 1.594 99 0 0 0 0.036910001
2.6619999 0.40000001 1.592 97 0 0 0 0.03692
2.675 0.39700001 1.5930001 87 0 0 0 0.036929999
2.6830001 0.39399999 1.592 88 0 0 0 0.036940001
2.6949999 0.391 1.5930001 91 0 0 0 0.03695
2.7049999 0.38800001 1.592 87 0 0 0 0.036959998
2.7160001 0.38499999 1.592 91 0 0 0 0.036970001
2.727 0.382 1.592 90 0 0 0 0.036979999
2.74 0.38 1.5930001 91 0 0 0 0.036990002
2.7550001 0.377 1.595 80 0 0 0 0.037
2.7639999 0.37400001 1.5930001 82 0 0 0 0.037009999
2.779 0.37099999 1.595 83 0 0 0 0.037020002
2.7869999 0.368 1.592 79 0 0 0 0.03703
2.8050001 0.36500001 1.595 82 0 0 0 0.037039999
2.8139999 0.36199999 1.5930001 80 0 0 0 0.037050001
2.826 0.359 1.592 82 0 0 0 0.03706
2.8429999 0.35699999 1.595 83 0 0 0 0.037069999
2.8510001 0.35299999 1.591 80 0 0 0 0.037080001
2.8699999 0.35100001 1.594 84 0 0 0 0.03709
2.882 0.34799999 1.5930001 82 0 0 0 0.037099998
2.8970001 0.345 1.5930001 84 0 0 0 0.037110001
2.9130001 0.34299999 1.594 84 0 0 0 0.03712
2.9260001 0.34 1.5930001 81 0 0 0 0.037129998
2.9430001 0.33700001 1.594 80 0 0 0 0.037140001
2.9579999 0.33500001 1.594 83 0 0 0 0.037149999
2.97 0.33199999 1.592 80 0 0 0 0.037160002
2.993 0.33000001 1.596 83 0 0 0 0.03717
3.003 0.32600001 1.5930001 81 0 0 0 0.037179999
3.0179999 0.32300001 1.592 82 0 0 0 0.037190001
3.036 0.32100001 1.592 81 0 0 0 0.0372
3.0550001 0.31799999 1.594 82 0 0 0 0.037209999
3.0710001 0.31600001 1.5930001 80 0 0 0 0.037220001
3.0929999 0.31400001 1.595 80 0 0 0 0.03723
3.1099999 0.31099999 1.594 80 0 0 0 0.037239999
3.131 0.30899999 1.596 77 0 0 0 0.037250001
3.1400001 0.30500001 1.591 73 0 0 0 0.03726
3.1619999 0.303 1.5930001 77 0 0 0 0.037269998
3.184 0.301 1.594 78 0 0 0 0.037280001
3.197 0.29800001 1.591 77 0 0 0 0.037289999
3.2149999 0.29499999 1.591 79 0 0 0 0.037300002
3.237 0.29300001 1.592 75 0 0 0 0.037310001
3.256 0.28999999 1.591 77 0 0 0 0.037319999
3.2739999 0.287 1.589 77 0 0 0 0.037330002
3.2980001 0.285 1.591 86 0 0 0 0.03734
3.3150001 0.28200001 1.589 150 0 0 0 0.037349999
3.322 0.27900001 1.582 150 0 0 0 0.037360001
3.322 0.27500001 1.572 150 0 0 0 0.03737
3.326 0.271 1.563 150 0 0 0 0.037379999
3.3280001 0.26699999 1.554 150 0 0 0 0.037390001
3.3280001 0.26300001 1.543 150 0 0 0 0.0374
3.3280001 0.259 1.533 150 0 0 0 0.037409998
3.3269999 0.25400001 1.522 150 0 0 0 0.037420001
3.3310001 0.25099999 1.513 150 0 0 0 0.03743
3.329 0.24699999 1.501 150 0 0 0 0.037439998
3.329 0.243 1.4910001 150 0 0 0 0.037450001
3.332 0.23899999 1.4809999 150 0 0 0 0.037459999
3.3310001 0.235 1.47 150 0 0 0 0.037470002
3.3280001 0.23100001 1.459 150 0 0 0 0.03748
3.3310001 0.228 1.449 150 0 0 0 0.037489999
3.3340001 0.22400001 1.439 150 0 0 0 0.037500001
3.3310001 0.22 1.427 150 0 0 0 0.03751
3.326 0.21600001 1.414 150 0 0 0 0.037519999
3.329 0.213 1.405 150 0 0 0 0.037530001
3.3310001 0.20999999 1.395 150 0 0 0 0.03754
3.3310001 0.206 1.3839999 150 0 0 0 0.037549999
3.3269999 0.20200001 1.372 150 0 0 0 0.037560001
3.3269999 0.199 1.3609999 150 0 0 0 0.03757
3.326 0.19499999 1.35 150 0 0 0 0.037579998
3.322 0.192 1.337 150 0 0 0 0.037590001
3.325 0.189 1.3279999 150 0 0 0 0.037599999
3.325 0.185 1.317 150 0 0 0 0.037610002
3.3269999 0.182 1.307 150 0 0 0 0.037620001
3.3340001 0.17900001 1.298 150 0 0 0 0.037629999
3.3429999 0.177 1.291 150 0 0 0 0.037640002
3.358 0.17399999 1.286 150 0 0 0 0.03765
3.355 0.171 1.274 150 0 0 0 0.037659999
3.3599999 0.168 1.265 150 0 0 0 0.037670001
3.3740001 0.16599999 1.2589999 80 0 0 0 0.03768
3.4089999 0.164 1.26 95 0 0 0 0.037689999
3.418 0.162 1.252 150 0 0 0 0.037700001
3.4230001 0.15899999 1.243 150 0 0 0 0.03771
3.427 0.156 1.233 150 0 0 0 0.037719999
3.4260001 0.153 1.221 150 0 0 0 0.037730001
3.4289999 0.15000001 1.211 150 0 0 0 0.03774
3.425 0.147 1.199 150 0 0 0 0.037749998
3.4219999 0.14399999 1.186 150 0 0 0 0.037760001
3.4219999 0.142 1.175 150 0 0 0 0.037769999
3.4260001 0.139 1.165 150 0 0 0 0.037780002
3.4260001 0.13600001 1.154 150 0 0 0 0.03779
3.421 0.133 1.141 150 0 0 0 0.037799999
3.4230001 0.131 1.13 150 0 0 0 0.037810002
3.424 0.12800001 1.119 150 0 0 0 0.03782
3.425 0.126 1.108 150 0 0 0 0.037829999
3.4189999 0.123 1.095 150 0 0 0 0.037840001
3.4170001 0.12 1.0829999 150 0 0 0 0.03785
3.4170001 0.118 1.072 150 0 0 0 0.037859999
3.4219999 0.115 1.062 150 0 0 0 0.037870001
3.4230001 0.113 1.051 150 0 0 0 0.03788
3.4230001 0.111 1.04 150 0 0 0 0.037889998
3.424 0.108 1.028 150 0 0 0 0.037900001
3.427 0.106 1.018 150 0 0 0 0.037909999
3.427 0.104 1.007 150 0 0 0 0.037919998
3.4230001 0.101 0.99400002 150 0 0 0 0.037930001
3.425 0.098999999 0.98299998 150 0 0 0 0.037939999
3.425 0.097000003 0.972 150 0 0 0 0.037950002
3.427 0.094999999 0.96100003 150 0 0 0 0.03796
3.424 0.092 0.949 150 0 0 0 0.037969999
3.424 0.090000004 0.93800002 150 0 0 0 0.037980001
3.4189999 0.088 0.92500001 150 0 0 0 0.03799
3.427 0.086000003 0.91600001 150 0 0 0 0.037999999
3.421 0.083999999 0.903 150 0 0 0 0.038010001
3.424 0.082000002 0.89300001 150 0 0 0 0.03802
3.4200001 0.079999998 0.88 150 0 0 0 0.038029999
3.4260001 0.078000002 0.87 150 0 0 0 0.038040001
3.4230001 0.075999998 0.85799998 150 0 0 0 0.03805
3.425 0.074000001 0.84799999 150 0 0 0 0.038059998
3.4200001 0.071999997 0.83499998 150 0 0 0 0.038070001
3.4230001 0.071000002 0.824 150 0 0 0 0.038079999
3.425 0.068999998 0.81400001 150 0 0 0 0.038090002
3.427 0.067000002 0.80299997 150 0 0 0 0.0381
3.425 0.064999998 0.79100001 150 0 0 0 0.038109999
3.427 0.064000003 0.77999997 150 0 0 0 0.038120002
3.4300001 0.061999999 0.76999998 150 0 0 0 0.03813
3.421 0.059999999 0.75599998 150 0 0 0 0.038139999
3.424 0.057999998 0.74599999 150 0 0 0 0.038150001
3.4260001 0.057 0.73500001 150 0 0 0 0.03816
3.428 0.055 0.72399998 150 0 0 0 0.038169999
3.4219999 0.054000001 0.71100003 150 0 0 0 0.038180001
3.4260001 0.052000001 0.70099998 150 0 0 0 0.03819
3.427 0.050999999 0.69 150 0 0 0 0.038199998
3.428 0.048999999 0.67900002 150 0 0 0 0.038210001
3.4260001 0.048 0.667 150 0 0 0 0.03822
3.425 0.046 0.65600002 150 0 0 0 0.038229998
3.424 0.045000002 0.64499998 150 0 0 0 0.038240001
3.425 0.043000001 0.63300002 150 0 0 0 0.038249999
3.427 0.041999999 0.62300003 150 0 0 0 0.038260002
3.427 0.041000001 0.611 150 0 0 0 0.03827
3.425 0.039000001 0.60000002 150 0 0 0 0.038279999
3.427 0.037999999 0.58899999 150 0 0 0 0.038290001
3.4260001 0.037 0.57800001 150 0 0 0 0.0383
3.4230001 0.035 0.56599998 150 0 0 0 0.038309999
3.4230001 0.034000002 0.55400002 150 0 0 0 0.038320001
3.4230001 0.033 0.54299998 150 0 0 0 0.03833
3.4189999 0.032000002 0.53200001 150 0 0 0 0.038339999
3.424 0.030999999 0.52100003 150 0 0 0 0.038350001
3.4219999 0.028999999 0.50999999 150 0 0 0 0.03836
3.4230001 0.028000001 0.49900001 150 0 0 0 0.038369998
3.4189999 0.027000001 0.48699999 150 0 0 0 0.038380001
3.4219999 0.026000001 0.47600001 150 0 0 0 0.038389999
3.415 0.016000001 -0.60100001 150 0 0 0 0.039360002
3.4159999 0.017000001 -0.61199999 150 0 0 0 0.03937
3.414 0.017999999 -0.62300003 150 0 0 0 0.039379999
3.415 0.018999999 -0.634 150 0 0 0 0.039390001
3.415 0.02 -0.64600003 150 0 0 0 0.0394
3.4170001 0.021 -0.65700001 150 0 0 0 0.039409999
3.415 0.022 -0.66799998 150 0 0 0 0.039420001
3.4119999 0.023 -0.67900002 150 0 0 0 0.03943
3.415 0.024 -0.69099998 150 0 0 0 0.039439999
3.4089999 0.025 -0.70099998 150 0 0 0 0.039450001
3.4100001 0.026000001 -0.71200001 150 0 0 0 0.03946
3.411 0.027000001 -0.72399998 150 0 0 0 0.039469998
3.408 0.028999999 -0.73400003 150 0 0 0 0.039480001
3.4100001 0.029999999 -0.74599999 150 0 0 0 0.039489999
3.4089999 0.030999999 -0.75700003 150 0 0 0 0.039500002
3.4100001 0.032000002 -0.76800001 150 0 0 0 0.03951
3.408 0.033 -0.77899998 150 0 0 0 0.039519999
3.4119999 0.035 -0.79100001 150 0 0 0 0.039530002
3.4089999 0.035999998 -0.80199999 150 0 0 0 0.03954
3.4089999 0.037 -0.81300002 150 0 0 0 0.039549999
3.411 0.039000001 -0.82499999 150 0 0 0 0.039560001
3.411 0.039999999 -0.83700001 150 0 0 0 0.03957
3.4159999 0.041999999 -0.84899998 36 0 0 0 0.039579999
3.3770001 0.043000001 -0.85000002 24 0 0 0 0.039590001
3.3369999 0.044 -0.852 27 0 0 0 0.0396
3.3039999 0.045000002 -0.85399997 27 0 0 0 0.039609998
3.263 0.046 -0.85399997 27 0 0 0 0.039620001
3.214 0.046 -0.852 27 0 0 0 0.03963
3.1789999 0.046999998 -0.85399997 26 0 0 0 0.039639998
3.1470001 0.048 -0.85500002 27 0 0 0 0.039650001
3.109 0.048999999 -0.85600001 27 0 0 0 0.039659999
3.0710001 0.050000001 -0.85500002 27 0 0 0 0.039670002
3.0250001 0.050999999 -0.852 26 0 0 0 0.03968
2.9920001 0.052000001 -0.85299999 26 0 0 0 0.039689999
2.947 0.052999999 -0.85000002 26 0 0 0 0.039700001
2.9119999 0.054000001 -0.84899998 25 0 0 0 0.03971
2.8699999 0.054000001 -0.847 24 0 0 0 0.039719999
2.8329999 0.055 -0.84500003 24 0 0 0 0.039730001
2.803 0.056000002 -0.84600002 23 0 0 0 0.03974
2.773 0.057 -0.84600002 23 0 0 0 0.039749999
2.7409999 0.057999998 -0.84500003 23 0 0 0 0.039760001
2.7119999 0.059 -0.84500003 24 0 0 0 0.03977
2.684 0.059999999 -0.84600002 24 0 0 0 0.039779998
2.6530001 0.061000001 -0.84500003 23 0 0 0 0.039790001
2.6210001 0.061999999 -0.84299999 24 0 0 0 0.039799999
2.595 0.063000001 -0.84399998 24 0 0 0 0.039810002
2.5639999 0.064000003 -0.84200001 24 0 0 0 0.039820001
2.5380001 0.064999998 -0.84200001 23 0 0 0 0.039829999
2.5090001 0.066 -0.84100002 24 0 0 0 0.039840002
2.4809999 0.067000002 -0.83999997 23 0 0 0 0.03985
2.461 0.068000004 -0.84100002 24 0 0 0 0.039859999
2.434 0.068999998 -0.83999997 24 0 0 0 0.039870001
2.404 0.068999998 -0.838 24 0 0 0 0.03988
2.3870001 0.071000002 -0.83999997 25 0 0 0 0.039889999
2.3610001 0.071999997 -0.838 25 0 0 0 0.039900001
2.346 0.072999999 -0.84100002 25 0 0 0 0.03991
2.319 0.074000001 -0.83899999 26 0 0 0 0.039919998
2.296 0.075000003 -0.838 25 0 0 0 0.039930001
2.277 0.075999998 -0.83899999 25 0 0 0 0.03994
2.2550001 0.077 -0.838 24 0 0 0 0.039949998
2.237 0.078000002 -0.83899999 25 0 0 0 0.039960001
2.2160001 0.079000004 -0.838 24 0 0 0 0.039969999
2.1900001 0.079999998 -0.83600003 24 0 0 0 0.039980002
2.1760001 0.081 -0.838 29 0 0 0 0.03999
2.1570001 0.082000002 -0.838 29 0 0 0 0.039999999
2.1370001 0.082999997 -0.83700001 26 0 0 0 0.040010002
2.119 0.083999999 -0.83700001 27 0 0 0 0.04002
2.098 0.085000001 -0.83499998 29 0 0 0 0.040029999
2.0780001 0.086000003 -0.83499998 29 0 0 0 0.040040001
2.062 0.086999997 -0.83499998 29 0 0 0 0.04005
2.0480001 0.088 -0.83600003 29 0 0 0 0.040059999
2.0309999 0.089000002 -0.83600003 29 0 0 0 0.040070001
2.0109999 0.090000004 -0.83399999 29 0 0 0 0.04008
1.994 0.090999998 -0.83399999 29 0 0 0 0.040089998
1.9809999 0.093000002 -0.83399999 29 0 0 0 0.040100001
1.9630001 0.093999997 -0.833 30 0 0 0 0.040109999
1.951 0.094999999 -0.83499998 29 0 0 0 0.040119998
1.9349999 0.096000001 -0.83399999 30 0 0 0 0.040130001
1.918 0.097000003 -0.833 29 0 0 0 0.040139999
1.906 0.097999997 -0.83399999 30 0 0 0 0.040150002
1.895 0.1 -0.83499998 31 0 0 0 0.04016
1.878 0.101 -0.83399999 31 0 0 0 0.040169999
1.86 0.102 -0.83200002 31 0 0 0 0.040180001
1.85 0.103 -0.83399999 32 0 0 0 0.04019
1.8380001 0.104 -0.83399999 34 0 0 0 0.040199999
1.822 0.105 -0.833 32 0 0 0 0.040210001
1.808 0.106 -0.83200002 35 0 0 0 0.04022
1.7970001 0.108 -0.833 31 0 0 0 0.040229999
1.791 0.109 -0.83600003 12 0 0 0 0.040240001
1.778 0.111 -0.83499998 12 0 0 0 0.04025
1.767 0.112 -0.83600003 12 0 0 0 0.040259998
1.751 0.113 -0.83399999 12 0 0 0 0.040270001
1.743 0.114 -0.83600003 12 0 0 0 0.040279999
1.7309999 0.115 -0.83499998 12 0 0 0 0.040290002
1.715 0.116 -0.833 12 0 0 0 0.0403
1.712 0.118 -0.83700001 11 0 0 0 0.040309999
1.697 0.119 -0.83499998 10 0 0 0 0.040320002
1.691 0.121 -0.83700001 6 0 0 0 0.04033
1.676 0.122 -0.83499998 3 0 0 0 0.040339999
1.6670001 0.123 -0.83499998 3 0 0 0 0.040350001
1.652 0.124 -0.833 16 0 0 0 0.04036
1.646 0.126 -0.83499998 7 0 0 0 0.040369999
1.64 0.127 -0.83700001 11 0 0 0 0.040380001
1.626 0.12800001 -0.83499998 11 0 0 0 0.04039
1.618 0.13 -0.83600003 12 0 0 0 0.040399998
1.6109999 0.131 -0.83700001 12 0 0 0 0.040410001
1.601 0.133 -0.83700001 12 0 0 0 0.04042
1.59 0.134 -0.83600003 12 0 0 0 0.040429998
1.5779999 0.13500001 -0.83399999 12 0 0 0 0.040440001
1.571 0.13600001 -0.83499998 13 0 0 0 0.040449999
1.5650001 0.138 -0.83700001 12 0 0 0 0.040460002
1.554 0.139 -0.83499998 12 0 0 0 0.04047
1.5420001 0.14 -0.833 13 0 0 0 0.040479999
1.534 0.142 -0.833 13 0 0 0 0.040490001
1.52 0.14300001 -0.82999998 12 0 0 0 0.0405
1.5140001 0.14399999 -0.83099997 12 0 0 0 0.040509999
1.507 0.146 -0.83099997 13 0 0 0 0.040520001
1.499 0.147 -0.83099997 12 0 0 0 0.04053
1.493 0.149 -0.83200002 12 0 0 0 0.040539999
1.4859999 0.15000001 -0.83200002 12 0 0 0 0.040550001
1.48 0.152 -0.833 12 0 0 0 0.04056
1.472 0.153 -0.833 13 0 0 0 0.040569998
1.4630001 0.154 -0.83200002 13 0 0 0 0.040580001
1.456 0.156 -0.83099997 12 0 0 0 0.040589999
1.451 0.15700001 -0.83200002 11 0 0 0 0.040600002
1.4450001 0.15899999 -0.833 11 0 0 0 0.04061
1.437 0.16 -0.83200002 11 0 0 0 0.040619999
1.431 0.162 -0.83200002 12 0 0 0 0.040630002
1.424 0.163 -0.83200002 13 0 0 0 0.04064
1.414 0.164 -0.829 13 0 0 0 0.040649999
1.41 0.16599999 -0.83099997 13 0 0 0 0.040660001
1.405 0.168 -0.83099997 13 0 0 0 0.04067
1.395 0.169 -0.829 13 0 0 0 0.040679999
1.393 0.171 -0.83099997 13 0 0 0 0.040690001
1.387 0.17200001 -0.82999998 14 0 0 0 0.0407
1.3789999 0.17299999 -0.829 13 0 0 0 0.040709998
1.375 0.175 -0.82999998 14 0 0 0 0.040720001
1.368 0.176 -0.829 13 0 0 0 0.04073
1.367 0.178 -0.83099997 13 0 0 0 0.040739998
1.36 0.18000001 -0.82999998 13 0 0 0 0.040750001
1.358 0.182 -0.83099997 14 0 0 0 0.040759999
1.35 0.183 -0.82999998 14 0 0 0 0.040770002
1.347 0.185 -0.83099997 13 0 0 0 0.04078
1.345 0.18700001 -0.83200002 14 0 0 0 0.040789999
1.336 0.18799999 -0.82999998 13 0 0 0 0.040800001
1.335 0.19 -0.83200002 13 0 0 0 0.04081
1.325 0.19 -0.82800001 14 0 0 0 0.040819999
1.324 0.193 -0.82999998 14 0 0 0 0.040830001
1.3200001 0.19400001 -0.82999998 14 0 0 0 0.04084
1.314 0.19599999 -0.829 13 0 0 0 0.040849999
1.313 0.198 -0.83099997 14 0 0 0 0.040860001
1.3099999 0.199 -0.83099997 14 0 0 0 0.04087
1.3049999 0.20100001 -0.82999998 14 0 0 0 0.040879998
1.298 0.20200001 -0.82800001 13 0 0 0 0.040890001
1.293 0.20299999 -0.82700002 14 0 0 0 0.040899999
1.291 0.205 -0.82800001 15 0 0 0 0.040910002
1.29 0.207 -0.829 14 0 0 0 0.040920001
1.288 0.20900001 -0.82999998 14 0 0 0 0.040929999
1.285 0.211 -0.82999998 14 0 0 0 0.040940002
1.284 0.213 -0.83099997 15 0 0 0 0.04095
1.279 0.214 -0.82999998 14 0 0 0 0.040959999
1.277 0.21600001 -0.82999998 14 0 0 0 0.040970001
1.277 0.21799999 -0.83200002 14 0 0 0 0.04098
1.27 0.219 -0.829 14 0 0 0 0.040989999
1.27 0.221 -0.83099997 15 0 0 0 0.041000001
1.266 0.223 -0.82999998 14 0 0 0 0.04101
1.265 0.22499999 -0.83099997 14 0 0 0 0.041019998
1.2640001 0.227 -0.83200002 14 0 0 0 0.041030001
1.262 0.228 -0.83099997 14 0 0 0 0.04104
1.2589999 0.23 -0.82999998 14 0 0 0 0.041049998
1.258 0.23199999 -0.83099997 14 0 0 0 0.041060001
1.257 0.234 -0.83200002 14 0 0 0 0.041069999
1.2539999 0.235 -0.83099997 14 0 0 0 0.041080002
1.252 0.237 -0.83099997 65 0 0 0 0.04109
1.252 0.23899999 -0.83200002 66 0 0 0 0.041099999
1.248 0.23999999 -0.82999998 64 0 0 0 0.041110002
1.248 0.242 -0.82999998 66 0 0 0 0.04112
1.247 0.244 -0.83099997 45 0 0 0 0.041129999
1.2460001 0.24600001 -0.83099997 43 0 0 0 0.041140001
1.244 0.248 -0.82999998 42 0 0 0 0.04115
1.245 0.25 -0.83200002 43 0 0 0 0.041159999
1.243 0.252 -0.83099997 43 0 0 0 0.041170001
1.232 0.25099999 -0.824 86 0 0 0 0.04118
1.244 0.25600001 -0.83200002 38 0 0 0 0.041189998
1.242 0.257 -0.83099997 39 0 0 0 0.041200001
1.233 0.257 -0.82499999 89 0 0 0 0.041209999
1.2309999 0.25799999 -0.824 86 0 0 0 0.041219998
1.245 0.26300001 -0.83399999 36 0 0 0 0.041230001
1.242 0.26499999 -0.83200002 36 0 0 0 0.041239999
1.229 0.264 -0.82300001 87 0 0 0 0.041250002
1.2309999 0.266 -0.824 85 0 0 0 0.04126
1.2309999 0.26800001 -0.824 87 0 0 0 0.041269999
1.2309999 0.26899999 -0.824 82 0 0 0 0.041280001
1.2309999 0.271 -0.82300001 98 0 0 0 0.04129
1.2410001 0.27500001 -0.82999998 36 0 0 0 0.041299999
1.23 0.27399999 -0.82200003 96 0 0 0 0.041310001
1.23 0.27599999 -0.82200003 94 0 0 0 0.04132
1.247 0.28200001 -0.83200002 30 0 0 0 0.041329999
1.2359999 0.28099999 -0.82499999 96 0 0 0 0.041340001
1.234 0.28200001 -0.82200003 89 0 0 0 0.04135
1.2359999 0.28400001 -0.82300001 92 0 0 0 0.041359998
1.239 0.28600001 -0.824 88 0 0 0 0.041370001
1.25 0.29100001 -0.83099997 35 0 0 0 0.041379999
1.2410001 0.28999999 -0.824 89 0 0 0 0.041390002
1.242 0.292 -0.82300001 90 0 0 0 0.0414
1.256 0.296 -0.83200002 29 0 0 0 0.041409999
1.256 0.29800001 -0.83099997 29 0 0 0 0.041420002
1.247 0.29699999 -0.82300001 93 0 0 0 0.04143
1.263 0.30199999 -0.83200002 33 0 0 0 0.041439999
1.25 0.301 -0.82300001 92 0 0 0 0.041450001
1.258 0.30399999 -0.82700002 91 0 0 0 0.04146
1.268 0.308 -0.83200002 36 0 0 0 0.041469999
1.2690001 0.30899999 -0.83099997 39 0 0 0 0.041480001
1.275 0.31200001 -0.833 33 0 0 0 0.04149
1.275 0.31299999 -0.83200002 42 0 0 0 0.041499998
1.281 0.31600001 -0.83399999 41 0 0 0 0.041510001
1.284 0.31799999 -0.83399999 43 0 0 0 0.04152
1.284 0.31900001 -0.83200002 42 0 0 0 0.041529998
1.278 0.31900001 -0.82599998 86 0 0 0 0.041540001
1.29 0.32300001 -0.83200002 46 0 0 0 0.041549999
1.295 0.32600001 -0.833 47 0 0 0 0.041560002
1.299 0.32699999 -0.833 15 0 0 0 0.04157
1.3 0.329 -0.83200002 15 0 0 0 0.041579999
1.306 0.331 -0.833 15 0 0 0 0.041590001
1.312 0.33399999 -0.83499998 15 0 0 0 0.0416
1.314 0.33500001 -0.83399999 15 0 0 0 0.041609999
1.317 0.33700001 -0.833 15 0 0 0 0.041620001
1.323 0.33899999 -0.83499998 15 0 0 0 0.04163
1.326 0.34099999 -0.83399999 15 0 0 0 0.041639999
1.33 0.34299999 -0.83399999 15 0 0 0 0.041650001
1.336 0.345 -0.83499998 15 0 0 0 0.04166
1.337 0.34599999 -0.833 15 0 0 0 0.041669998
1.342 0.34799999 -0.833 15 0 0 0 0.041680001
1.347 0.34999999 -0.83399999 15 0 0 0 0.041689999
1.357 0.354 -0.83700001 15 0 0 0 0.041700002
1.358 0.35499999 -0.83499998 15 0 0 0 0.04171
1.369 0.35800001 -0.838 15 0 0 0 0.041719999
1.37 0.359 -0.83600003 15 0 0 0 0.041730002
1.375 0.361 -0.83600003 15 0 0 0 0.04174
1.381 0.36300001 -0.83600003 15 0 0 0 0.041749999
1.3890001 0.36500001 -0.83700001 14 0 0 0 0.041760001
1.391 0.366 -0.83499998 15 0 0 0 0.04177
1.399 0.36899999 -0.83700001 15 0 0 0 0.041779999
1.4 0.37 -0.83399999 14 0 0 0 0.041790001
1.41 0.373 -0.83700001 14 0 0 0 0.0418
1.419 0.375 -0.838 13 0 0 0 0.041809998
1.427 0.37799999 -0.83999997 13 0 0 0 0.041820001
1.432 0.37900001 -0.83899999 13 0 0 0 0.04183
1.437 0.38100001 -0.838 14 0 0 0 0.041839998
1.443 0.382 -0.838 14 0 0 0 0.041850001
1.452 0.38499999 -0.83899999 14 0 0 0 0.041859999
1.459 0.38699999 -0.83899999 14 0 0 0 0.041870002
1.4630001 0.38800001 -0.838 14 0 0 0 0.04188
1.469 0.38999999 -0.83700001 14 0 0 0 0.041889999
1.476 0.391 -0.83700001 14 0 0 0 0.041900001
1.478 0.39199999 -0.83399999 14 0 0 0 0.04191
1.501 0.398 -0.84299999 14 0 0 0 0.041919999
1.507 0.39899999 -0.84200001 14 0 0 0 0.041930001
1.511 0.40000001 -0.83999997 14 0 0 0 0.04194
1.524 0.403 -0.84299999 14 0 0 0 0.041949999
1.53 0.405 -0.84200001 14 0 0 0 0.041960001
1.54 0.40700001 -0.84299999 14 0 0 0 0.04197
1.549 0.40900001 -0.84299999 14 0 0 0 0.041979998
1.559 0.41100001 -0.84399998 14 0 0 0 0.041990001
1.564 0.412 -0.84200001 14 0 0 0 0.041999999
1.572 0.414 -0.84200001 14 0 0 0 0.042010002
1.574 0.414 -0.838 57 0 0 0 0.042020001
1.591 0.41800001 -0.84299999 14 0 0 0 0.042029999
1.5930001 0.41800001 -0.83899999 53 0 0 0 0.042040002
1.599 0.419 -0.83700001 51 0 0 0 0.04205
1.613 0.42199999 -0.83899999 51 0 0 0 0.042059999
1.6289999 0.42500001 -0.84299999 14 0 0 0 0.042070001
1.641 0.428 -0.84399998 14 0 0 0 0.04208
1.648 0.42899999 -0.84299999 14 0 0 0 0.042089999
1.661 0.43099999 -0.84399998 15 0 0 0 0.042100001
1.671 0.433 -0.84500003 15 0 0 0 0.04211
1.6799999 0.43399999 -0.84399998 15 0 0 0 0.042119998
1.691 0.43700001 -0.84399998 15 0 0 0 0.042130001
1.6950001 0.43700001 -0.84100002 50 0 0 0 0.04214
1.712 0.44 -0.84399998 53 0 0 0 0.042149998
1.721 0.44100001 -0.84299999 49 0 0 0 0.042160001
1.727 0.442 -0.83999997 52 0 0 0 0.042169999
1.74 0.44400001 -0.84100002 49 0 0 0 0.042180002
1.7539999 0.44600001 -0.84200001 37 0 0 0 0.04219
1.768 0.44800001 -0.84299999 33 0 0 0 0.042199999
1.781 0.45100001 -0.84399998 36 0 0 0 0.042210001
1.793 0.45199999 -0.84399998 39 0 0 0 0.04222
1.802 0.45300001 -0.84299999 43 0 0 0 0.042229999
1.8099999 0.454 -0.84100002 38 0 0 0 0.042240001
1.834 0.45899999 -0.84600002 40 0 0 0 0.04225
1.84 0.45899999 -0.84299999 38 0 0 0 0.042259999
1.852 0.46000001 -0.84299999 38 0 0 0 0.042270001
1.864 0.46200001 -0.84200001 34 0 0 0 0.04228
1.882 0.46399999 -0.84399998 34 0 0 0 0.042289998
1.896 0.46599999 -0.84399998 35 0 0 0 0.042300001
1.9069999 0.46700001 -0.84299999 34 0 0 0 0.042309999
1.923 0.46900001 -0.84399998 34 0 0 0 0.042319998
1.936 0.47099999 -0.84299999 34 0 0 0 0.042330001
1.956 0.47400001 -0.84600002 35 0 0 0 0.042339999
1.97 0.47499999 -0.84600002 35 0 0 0 0.042350002
1.985 0.477 -0.84600002 34 0 0 0 0.04236
