# .PCD v0.7 - Point Cloud Data file format
VERSION 0.7
FIELDS x y z intensity normal_x normal_y normal_z curvature
SIZE 4 4 4 4 4 4 4 4
TYPE F F F F F F F F
COUNT 1 1 1 1 1 1 1 1
WIDTH 1125
HEIGHT 1
VIEWPOINT 0 0 0 1 0 0 0
POINTS 1125
DATA ascii
2.3610001 -0.34200001 0.25999999 0 0 0 0 0.0096500004
2.368 -0.34999999 0.26499999 0 0 0 0 0.00966
2.4159999 -0.36399999 0.27500001 0 0 0 0 0.0096699996
2.4260001 -0.37200001 0.28 0 0 0 0 0.0096800001
2.3889999 -0.373 0.28 0 0 0 0 0.0096899997
2.4119999 -0.38299999 0.28799999 0 0 0 0 0.0097000003
0 0 0 0 0 0 0 0.0097099999
0 0 0 0 0 0 0 0.0097200004
0 0 0 0 0 0 0 0.00973
0 0 0 0 0 0 0 0.0097399997
0 0 0 0 0 0 0 0.0097500002
0 0 0 0 0 0 0 0.0097599998
0 0 0 0 0 0 0 0.0097700004
0 0 0 0 0 0 0 0.00978
0 0 0 0 0 0 0 0.0097899996
0 0 0 0 0 0 0 0.0098000001
0 0 0 0 0 0 0 0.0098099997
0 0 0 0 0 0 0 0.0098200003
0 0 0 0 0 0 0 0.0098299999
0 0 0 0 0 0 0 0.0098400004
0 0 0 0 0 0 0 0.00985
0 0 0 0 0 0 0 0.0098599996
0 0 0 0 0 0 0 0.0098700002
0 0 0 0 0 0 0 0.0098799998
0 0 0 0 0 0 0 0.0098900003
0 0 0 0 0 0 0 0.0098999999
0 0 0 0 0 0 0 0.0099099996
0 0 0 0 0 0 0 0.0099200001
0 0 0 0 0 0 0 0.0099299997
0 0 0 0 0 0 0 0.0099400003
0 0 0 0 0 0 0 0.0099499999
0 0 0 0 0 0 0 0.0099600004
0 0 0 0 0 0 0 0.00997
0 0 0 0 0 0 0 0.0099799996
0 0 0 0 0 0 0 0.0099900002
0 0 0 0 0 0 0 0.0099999998
0 0 0 0 0 0 0 0.01001
0 0 0 0 0 0 0 0.01002
0 0 0 0 0 0 0 0.01003
0 0 0 0 0 0 0 0.01004
0 0 0 0 0 0 0 0.01005
0 0 0 0 0 0 0 0.01006
0 0 0 0 0 0 0 0.01007
0 0 0 0 0 0 0 0.01008
0 0 0 0 0 0 0 0.01009
0 0 0 0 0 0 0 0.0101
0 0 0 0 0 0 0 0.01011
0 0 0 0 0 0 0 0.01012
0 0 0 0 0 0 0 0.01013
0 0 0 0 0 0 0 0.01014
0 0 0 0 0 0 0 0.01015
0 0 0 0 0 0 0 0.01016
0 0 0 0 0 0 0 0.01017
0 0 0 0 0 0 0 0.01018
0 0 0 0 0 0 0 0.01019
0 0 0 0 0 0 0 0.0102
0 0 0 0 0 0 0 0.01021
0 0 0 0 0 0 0 0.01022
0 0 0 0 0 0 0 0.01023
0 0 0 0 0 0 0 0.01024
0 0 0 0 0 0 0 0.01025
0 0 0 0 0 0 0 0.01026
0 0 0 0 0 0 0 0.01027
0 0 0 0 0 0 0 0.01028
0 0 0 0 0 0 0 0.01029
0 0 0 0 0 0 0 0.0103
0 0 0 0 0 0 0 0.01031
0 0 0 0 0 0 0 0.01032
0 0 0 0 0 0 0 0.01033
0 0 0 0 0 0 0 0.01034
0 0 0 0 0 0 0 0.01035
0 0 0 0 0 0 0 0.01036
4.151 -1.482 0.94599998 9 0 0 0 0.01037
0 0 0 0 0 0 0 0.01038
4.0929999 -1.488 0.94300002 7 0 0 0 0.01039
4.0640001 -1.49 0.94199997 8 0 0 0 0.0104
4.0159998 -1.485 0.93599999 17 0 0 0 0.01041
3.9849999 -1.4859999 0.93400002 52 0 0 0 0.01042
3.9879999 -1.5 0.94 51 0 0 0 0.01043
3.97 -1.506 0.94 24 0 0 0 0.01044
3.947 -1.5089999 0.94 20 0 0 0 0.01045
3.9119999 -1.508 0.93599999 19 0 0 0 0.01046
3.885 -1.51 0.93400002 22 0 0 0 0.01047
3.8529999 -1.51 0.93099999 22 0 0 0 0.01048
3.829 -1.513 0.93000001 22 0 0 0 0.01049
3.79 -1.5089999 0.92500001 29 0 0 0 0.0105
3.6689999 -1.473 0.89999998 43 0 0 0 0.01051
3.648 -1.476 0.89899999 72 0 0 0 0.01052
3.6489999 -1.488 0.903 72 0 0 0 0.01053
3.6470001 -1.499 0.90700001 71 0 0 0 0.01054
3.651 -1.512 0.912 71 0 0 0 0.01055
3.654 -1.525 0.91600001 71 0 0 0 0.01056
3.655 -1.5369999 0.92000002 69 0 0 0 0.01057
3.658 -1.55 0.92500001 69 0 0 0 0.01058
3.6559999 -1.561 0.92799997 68 0 0 0 0.01059
3.6589999 -1.574 0.93300003 70 0 0 0 0.0106
3.6570001 -1.584 0.93599999 69 0 0 0 0.01061
3.6589999 -1.597 0.94 69 0 0 0 0.01062
3.658 -1.608 0.94400001 68 0 0 0 0.01063
3.658 -1.62 0.94700003 68 0 0 0 0.01064
3.6600001 -1.632 0.95099998 68 0 0 0 0.01065
3.661 -1.6440001 0.95499998 67 0 0 0 0.01066
3.6670001 -1.659 0.95899999 68 0 0 0 0.01067
3.6630001 -1.668 0.96100003 67 0 0 0 0.01068
3.664 -1.6799999 0.96499997 67 0 0 0 0.01069
3.661 -1.691 0.96700001 66 0 0 0 0.0107
3.668 -1.705 0.972 66 0 0 0 0.01071
3.668 -1.717 0.97500002 66 0 0 0 0.01072
3.6700001 -1.729 0.97799999 66 0 0 0 0.01073
3.668 -1.74 0.98100001 68 0 0 0 0.01074
3.671 -1.753 0.98400003 67 0 0 0 0.01075
3.6689999 -1.763 0.986 64 0 0 0 0.01076
3.6670001 -1.773 0.98799998 65 0 0 0 0.01077
3.675 -1.789 0.99299997 65 0 0 0 0.01078
3.675 -1.8 0.995 64 0 0 0 0.01079
3.6730001 -1.8099999 0.99699998 63 0 0 0 0.0108
3.8640001 -1.9170001 1.052 151 0 0 0 0.01081
4.6539998 -2.323 1.27 144 0 0 0 0.01082
2.437 -1.224 0.66600001 0 0 0 0 0.01083
2.457 -1.2410001 0.67299998 0 0 0 0 0.01084
2.398 -1.219 0.65799999 0 0 0 0 0.01085
2.497 -1.277 0.68599999 0 0 0 0 0.01086
4.6960001 -2.4159999 1.294 37 0 0 0 0.01087
2.4820001 -1.284 0.685 0 0 0 0 0.01088
2.523 -1.313 0.69700003 0 0 0 0 0.01089
4.6880002 -2.454 1.298 34 0 0 0 0.0109
4.6989999 -2.473 1.303 35 0 0 0 0.01091
4.6939998 -2.484 1.303 34 0 0 0 0.01092
4.697 -2.5 1.306 36 0 0 0 0.01093
2.447 -1.309 0.68099999 0 0 0 0 0.01094
2.405 -1.294 0.67000002 0 0 0 0 0.01095
4.7030001 -2.5439999 1.312 36 0 0 0 0.01096
4.6999998 -2.556 1.312 37 0 0 0 0.01097
4.698 -2.569 1.313 37 0 0 0 0.01098
4.7030001 -2.5840001 1.3150001 37 0 0 0 0.01099
4.7020001 -2.5969999 1.316 36 0 0 0 0.011
4.6989999 -2.609 1.316 37 0 0 0 0.01101
2.404 -1.341 0.67299998 0 0 0 0 0.01102
4.7010002 -2.6359999 1.318 36 0 0 0 0.01103
4.7059999 -2.651 1.319 37 0 0 0 0.01104
2.5150001 -1.423 0.70499998 0 0 0 0 0.01105
2.471 -1.406 0.69300002 0 0 0 0 0.01106
4.7010002 -2.687 1.318 35 0 0 0 0.01107
4.7069998 -2.7019999 1.3200001 36 0 0 0 0.01108
4.7069998 -2.714 1.3200001 35 0 0 0 0.01109
4.7010002 -2.723 1.318 34 0 0 0 0.0111
4.7030001 -2.7360001 1.318 34 0 0 0 0.01111
4.7059999 -2.75 1.318 35 0 0 0 0.01112
4.704 -2.7609999 1.317 36 0 0 0 0.01113
4.7059999 -2.7739999 1.317 37 0 0 0 0.01114
4.7090001 -2.7869999 1.317 41 0 0 0 0.01115
2.5020001 -1.487 0.699 0 0 0 0 0.01116
2.4760001 -1.477 0.69099998 0 0 0 0 0.01117
2.451 -1.4680001 0.68300003 0 0 0 0 0.01118
4.6469998 -2.7939999 1.294 27 0 0 0 0.01119
4.631 -2.7950001 1.288 27 0 0 0 0.0112
4.6129999 -2.7950001 1.2819999 27 0 0 0 0.01121
4.6020002 -2.7980001 1.277 26 0 0 0 0.01122
4.5879998 -2.8 1.271 25 0 0 0 0.01123
4.5679998 -2.7969999 1.263 26 0 0 0 0.01124
4.5549998 -2.799 1.257 25 0 0 0 0.01125
4.5450001 -2.802 1.252 25 0 0 0 0.01126
4.5250001 -2.8 1.244 26 0 0 0 0.01127
4.5149999 -2.803 1.239 28 0 0 0 0.01128
4.4970002 -2.8 1.232 28 0 0 0 0.01129
4.4879999 -2.8039999 1.226 28 0 0 0 0.0113
4.4759998 -2.8039999 1.22 27 0 0 0 0.01131
4.46 -2.802 1.2130001 25 0 0 0 0.01132
4.4460001 -2.8010001 1.206 22 0 0 0 0.01133
4.4250002 -2.7969999 1.197 19 0 0 0 0.01134
4.4120002 -2.796 1.1900001 17 0 0 0 0.01135
2.4400001 -1.55 0.65600002 0 0 0 0 0.01136
2.4400001 -1.554 0.65399998 0 0 0 0 0.01137
4.1890001 -2.675 1.12 9 0 0 0 0.01138
4.0949998 -2.6210001 1.092 9 0 0 0 0.01139
4.3189998 -2.7709999 1.148 19 0 0 0 0.0114
4.2909999 -2.76 1.136 44 0 0 0 0.01141
4.2670002 -2.75 1.126 53 0 0 0 0.01142
4.2329998 -2.734 1.113 30 0 0 0 0.01143
4.1939998 -2.714 1.099 22 0 0 0 0.01144
4.177 -2.7079999 1.09 16 0 0 0 0.01145
4.1750002 -2.7119999 1.085 11 0 0 0 0.01146
4.164 -2.71 1.0779999 8 0 0 0 0.01147
4.164 -2.7149999 1.073 8 0 0 0 0.01148
4.1570001 -2.7149999 1.067 8 0 0 0 0.01149
4.1630001 -2.723 1.064 8 0 0 0 0.0115
4.1490002 -2.7179999 1.056 8 0 0 0 0.01151
4.1389999 -2.7149999 1.048 9 0 0 0 0.01152
4.151 -2.7260001 1.046 9 0 0 0 0.01153
4.1350002 -2.7190001 1.038 9 0 0 0 0.01154
4.1420002 -2.727 1.034 9 0 0 0 0.01155
4.1430001 -2.7309999 1.029 12 0 0 0 0.01156
4.131 -2.7260001 1.021 14 0 0 0 0.01157
4.125 -2.724 1.0140001 15 0 0 0 0.01158
4.1230001 -2.7249999 1.0089999 13 0 0 0 0.01159
4.0879998 -2.704 0.99400002 9 0 0 0 0.0116
4.0700002 -2.694 0.98500001 8 0 0 0 0.01161
4.0510001 -2.684 0.97399998 8 0 0 0 0.01162
4.0320001 -2.6719999 0.96399999 8 0 0 0 0.01163
4.0089998 -2.658 0.95300001 8 0 0 0 0.01164
3.974 -2.6359999 0.93900001 7 0 0 0 0.01165
3.974 -2.6370001 0.93300003 6 0 0 0 0.01166
3.9790001 -2.641 0.92900002 6 0 0 0 0.01167
3.974 -2.638 0.92199999 7 0 0 0 0.01168
3.9679999 -2.6340001 0.91399997 7 0 0 0 0.01169
3.984 -2.645 0.912 6 0 0 0 0.0117
3.9119999 -2.596 0.88999999 6 0 0 0 0.01171
2.4089999 -1.598 0.54400003 0 0 0 0 0.01172
3.9630001 -2.6289999 0.889 7 0 0 0 0.01173
3.9809999 -2.6400001 0.88700002 7 0 0 0 0.01174
3.9719999 -2.6329999 0.87900001 7 0 0 0 0.01175
3.9779999 -2.6359999 0.87400001 7 0 0 0 0.01176
3.9070001 -2.5869999 0.852 7 0 0 0 0.01177
3.8340001 -2.5369999 0.82999998 6 0 0 0 0.01178
3.8469999 -2.5439999 0.82599998 6 0 0 0 0.01179
3.0380001 -2.007 0.648 0 0 0 0 0.0118
3.8410001 -2.5350001 0.81199998 6 0 0 0 0.01181
3.8540001 -2.5420001 0.80900002 6 0 0 0 0.01182
3.9219999 -2.5840001 0.81699997 6 0 0 0 0.01183
3.9619999 -2.6070001 0.81800002 6 0 0 0 0.01184
3.98 -2.6159999 0.81599998 6 0 0 0 0.01185
3.9779999 -2.6110001 0.80800003 6 0 0 0 0.01186
3.927 -2.5739999 0.79100001 6 0 0 0 0.01187
3.921 -2.5669999 0.78299999 6 0 0 0 0.01188
2.9130001 -1.904 0.57700002 0 0 0 0 0.01189
3.9630001 -2.586 0.77899998 7 0 0 0 0.0119
3.9790001 -2.592 0.77499998 6 0 0 0 0.01191
3.9430001 -2.5639999 0.76099998 6 0 0 0 0.01192
3.9630001 -2.573 0.75800002 6 0 0 0 0.01193
3.9200001 -2.54 0.74299997 6 0 0 0 0.01194
3.8670001 -2.5009999 0.72600001 6 0 0 0 0.01195
3.8940001 -2.513 0.72500002 6 0 0 0 0.01196
3.947 -2.5420001 0.727 6 0 0 0 0.01197
2.878 -1.849 0.52499998 0 0 0 0 0.01198
3.908 -2.506 0.70700002 6 0 0 0 0.01199
3.964 -2.5350001 0.70999998 6 0 0 0 0.012
3.98 -2.54 0.70599997 6 0 0 0 0.01201
3.9360001 -2.5050001 0.69099998 6 0 0 0 0.01202
3.8440001 -2.441 0.66799998 6 0 0 0 0.01203
3.9809999 -2.5209999 0.685 10 0 0 0 0.01204
3.862 -2.4389999 0.65799999 6 0 0 0 0.01205
3.9300001 -2.4749999 0.66299999 3 0 0 0 0.01206
3.9200001 -2.4619999 0.65399998 2 0 0 0 0.01207
2.977 -1.864 0.49200001 0 0 0 0 0.01208
3.8789999 -2.4219999 0.634 5 0 0 0 0.01209
3.9189999 -2.4389999 0.634 5 0 0 0 0.0121
3.974 -2.4660001 0.63599998 3 0 0 0 0.01211
3.9719999 -2.457 0.62800002 3 0 0 0 0.01212
3.8629999 -2.382 0.60399997 3 0 0 0 0.01213
3.789 -2.3280001 0.58600003 2 0 0 0 0.01214
3.8699999 -2.3699999 0.59200001 2 0 0 0 0.01215
3.951 -2.411 0.59799999 2 0 0 0 0.01216
4.04 -2.457 0.60500002 2 0 0 0 0.01217
4.0539999 -2.457 0.60000002 2 0 0 0 0.01218
2.415 -1.4579999 0.35299999 0 0 0 0 0.01219
4.0809999 -2.4549999 0.58999997 2 0 0 0 0.0122
4.1170001 -2.467 0.588 2 0 0 0 0.01221
4.1129999 -2.4549999 0.58099997 2 0 0 0 0.01222
4.1259999 -2.454 0.57599998 5 0 0 0 0.01223
2.4089999 -1.427 0.33199999 0 0 0 0 0.01224
3.0639999 -1.807 0.417 0 0 0 0 0.01225
2.9820001 -1.752 0.40099999 0 0 0 0 0.01226
4.1570001 -2.4319999 0.55299997 7 0 0 0 0.01227
4.23 -2.4649999 0.55599999 2 0 0 0 0.01228
2.553 -1.4809999 0.331 0 0 0 0 0.01229
2.4389999 -1.408 0.31200001 0 0 0 0 0.0123
2.3989999 -1.38 0.303 0 0 0 0 0.01231
2.5079999 -1.4349999 0.31299999 0 0 0 0 0.01232
2.457 -1.4 0.303 0 0 0 0 0.01233
2.891 -1.64 0.352 0 0 0 0 0.01234
2.4430001 -1.3789999 0.29300001 0 0 0 0 0.01235
2.4319999 -1.3660001 0.28799999 0 0 0 0 0.01236
2.372 -1.326 0.27700001 0 0 0 0 0.01237
2.9170001 -1.623 0.33700001 0 0 0 0 0.01238
2.4400001 -1.351 0.278 0 0 0 0 0.01239
2.45 -1.35 0.27500001 0 0 0 0 0.0124
2.4790001 -1.359 0.27500001 0 0 0 0 0.01241
2.424 -1.322 0.26499999 0 0 0 0 0.01242
4.5089998 -2.447 0.48699999 2 0 0 0 0.01243
4.5549998 -2.4590001 0.48500001 2 0 0 0 0.01244
4.651 -2.497 0.48800001 9 0 0 0 0.01245
4.6810002 -2.5 0.48500001 36 0 0 0 0.01246
2.4749999 -1.3150001 0.252 0 0 0 0 0.01247
2.4630001 -1.301 0.248 0 0 0 0 0.01248
2.54 -1.334 0.252 0 0 0 0 0.01249
4.678 -2.4430001 0.458 42 0 0 0 0.0125
2.506 -1.302 0.241 0 0 0 0 0.01251
2.345 -1.211 0.223 0 0 0 0 0.01252
2.454 -1.26 0.23 0 0 0 0 0.01253
2.4319999 -1.2410001 0.22400001 0 0 0 0 0.01254
2.467 -1.252 0.22400001 0 0 0 0 0.01255
2.497 -1.2589999 0.22400001 0 0 0 0 0.01256
2.4489999 -1.228 0.21600001 0 0 0 0 0.01257
2.444 -1.2180001 0.212 0 0 0 0 0.01258
2.4119999 -1.194 0.206 0 0 0 0 0.01259
2.414 -1.188 0.20299999 0 0 0 0 0.0126
2.536 -1.2410001 0.20999999 0 0 0 0 0.01261
2.4749999 -1.2029999 0.20200001 0 0 0 0 0.01262
2.427 -1.1720001 0.19499999 0 0 0 0 0.01263
0 0 0 0 0 0 0 0.01264
2.3740001 -1.132 0.185 0 0 0 0 0.01265
2.3959999 -1.1339999 0.184 0 0 0 0 0.01266
2.4400001 -1.147 0.184 0 0 0 0 0.01267
2.45 -1.145 0.182 0 0 0 0 0.01268
2.4649999 -1.1440001 0.18000001 0 0 0 0 0.01269
2.5090001 -1.156 0.18000001 0 0 0 0 0.0127
2.474 -1.132 0.175 0 0 0 0 0.01271
4.6560001 -2.1159999 0.32499999 43 0 0 0 0.01272
4.6370001 -2.0929999 0.31799999 79 0 0 0 0.01273
4.618 -2.0699999 0.31099999 101 0 0 0 0.01274
4.5599999 -2.029 0.30199999 88 0 0 0 0.01275
4.5900002 -2.027 0.29899999 28 0 0 0 0.01276
3.668 -1.609 0.235 1 0 0 0 0.01277
0 0 0 0 0 0 0 0.01278
0 0 0 0 0 0 0 0.01279
3.678 -1.577 0.22400001 1 0 0 0 0.0128
4.007 -1.705 0.23999999 8 0 0 0 0.01281
3.6500001 -1.541 0.214 14 0 0 0 0.01282
0 0 0 0 0 0 0 0.01283
2.4100001 -1.002 0.13600001 5 0 0 0 0.01284
2.408 -0.99299997 0.134 8 0 0 0 0.01285
2.405 -0.98400003 0.131 11 0 0 0 0.01286
2.402 -0.97500002 0.12899999 14 0 0 0 0.01287
2.4000001 -0.96600002 0.126 18 0 0 0 0.01288
2.3940001 -0.95599997 0.124 18 0 0 0 0.01289
2.4000001 -0.95099998 0.122 16 0 0 0 0.0129
2.3929999 -0.94 0.119 19 0 0 0 0.01291
2.395 -0.93300003 0.117 21 0 0 0 0.01292
2.3929999 -0.92400002 0.115 21 0 0 0 0.01293
2.395 -0.917 0.113 21 0 0 0 0.01294
2.3929999 -0.90899998 0.111 24 0 0 0 0.01295
2.3889999 -0.89899999 0.108 24 0 0 0 0.01296
2.3970001 -0.89399999 0.106 20 0 0 0 0.01297
2.395 -0.88499999 0.104 20 0 0 0 0.01298
2.395 -0.87800002 0.102 21 0 0 0 0.01299
2.395 -0.87 0.1 22 0 0 0 0.013
2.3889999 -0.86000001 0.097999997 24 0 0 0 0.01301
2.3870001 -0.85100001 0.096000001 23 0 0 0 0.01302
2.388 -0.84299999 0.093999997 23 0 0 0 0.01303
2.3859999 -0.83499998 0.092 22 0 0 0 0.01304
2.3870001 -0.82700002 0.090000004 22 0 0 0 0.01305
2.388 -0.81999999 0.088 23 0 0 0 0.01306
2.388 -0.81199998 0.086999997 23 0 0 0 0.01307
2.388 -0.80400002 0.085000001 23 0 0 0 0.01308
2.3889999 -0.796 0.082999997 24 0 0 0 0.01309
2.3900001 -0.78899997 0.081 22 0 0 0 0.0131
2.3870001 -0.77999997 0.079999998 20 0 0 0 0.01311
2.385 -0.77100003 0.078000002 17 0 0 0 0.01312
2.3840001 -0.76300001 0.075999998 17 0 0 0 0.01313
2.382 -0.75400001 0.074000001 20 0 0 0 0.01314
2.3840001 -0.74699998 0.072999999 20 0 0 0 0.01315
2.3829999 -0.73900002 0.071000002 22 0 0 0 0.01316
2.3770001 -0.72899997 0.068999998 20 0 0 0 0.01317
2.378 -0.722 0.068000004 22 0 0 0 0.01318
2.3829999 -0.71499997 0.066 25 0 0 0 0.01319
2.378 -0.70599997 0.064999998 25 0 0 0 0.0132
2.3800001 -0.69800001 0.063000001 22 0 0 0 0.01321
2.3789999 -0.69 0.061999999 21 0 0 0 0.01322
2.3800001 -0.68300003 0.059999999 19 0 0 0 0.01323
2.381 -0.67500001 0.059 17 0 0 0 0.01324
2.3789999 -0.667 0.057 21 0 0 0 0.01325
2.3770001 -0.65799999 0.056000002 21 0 0 0 0.01326
2.3789999 -0.65100002 0.054000001 23 0 0 0 0.01327
2.378 -0.64300001 0.052999999 23 0 0 0 0.01328
2.3759999 -0.634 0.052000001 19 0 0 0 0.01329
2.3770001 -0.62699997 0.050000001 19 0 0 0 0.0133
2.378 -0.61900002 0.048999999 17 0 0 0 0.01331
2.378 -0.611 0.048 18 0 0 0 0.01332
2.3800001 -0.60399997 0.046999998 17 0 0 0 0.01333
2.3759999 -0.59500003 0.045000002 14 0 0 0 0.01334
2.3770001 -0.58700001 0.044 19 0 0 0 0.01335
2.3740001 -0.579 0.043000001 22 0 0 0 0.01336
2.3710001 -0.56999999 0.041999999 23 0 0 0 0.01337
2.375 -0.56300002 0.041000001 19 0 0 0 0.01338
2.378 -0.55599999 0.039999999 18 0 0 0 0.01339
2.3770001 -0.54799998 0.037999999 15 0 0 0 0.0134
2.3740001 -0.53899997 0.037 16 0 0 0 0.01341
2.368 -0.53100002 0.035999998 20 0 0 0 0.01342
2.3759999 -0.52399999 0.035 22 0 0 0 0.01343
2.3699999 -0.51499999 0.034000002 22 0 0 0 0.01344
2.3699999 -0.50700003 0.033 20 0 0 0 0.01345
2.3740001 -0.5 0.032000002 19 0 0 0 0.01346
2.375 -0.493 0.030999999 15 0 0 0 0.01347
2.3729999 -0.48500001 0.029999999 13 0 0 0 0.01348
2.368 -0.47600001 0.028999999 14 0 0 0 0.01349
2.369 -0.46799999 0.028000001 16 0 0 0 0.0135
2.369 -0.46000001 0.027000001 18 0 0 0 0.01351
2.3729999 -0.45300001 0.026000001 17 0 0 0 0.01352
2.3699999 -0.44499999 0.025 18 0 0 0 0.01353
2.3659999 -0.43599999 0.024 23 0 0 0 0.01354
2.369 -0.42899999 0.024 23 0 0 0 0.01355
2.3670001 -0.421 0.023 21 0 0 0 0.01356
2.368 -0.414 0.022 22 0 0 0 0.01357
2.3629999 -0.405 0.021 22 0 0 0 0.01358
2.359 -0.39700001 0.02 19 0 0 0 0.01359
2.3699999 -0.391 0.018999999 16 0 0 0 0.0136
2.3659999 -0.382 0.018999999 14 0 0 0 0.01361
2.3659999 -0.37400001 0.017999999 17 0 0 0 0.01362
2.3640001 -0.366 0.017000001 20 0 0 0 0.01363
2.358 -0.35800001 0.016000001 18 0 0 0 0.01364
2.3599999 -0.34999999 0.016000001 20 0 0 0 0.01365
2.3640001 -0.34299999 0.015 22 0 0 0 0.01366
2.3900001 -0.33899999 0.015 24 0 0 0 0.01367
2.4260001 -0.336 0.014 20 0 0 0 0.01368
2.4960001 -0.338 0.014 27 0 0 0 0.01369
2.556 -0.338 0.014 30 0 0 0 0.0137
2.6199999 -0.338 0.013 29 0 0 0 0.01371
2.994 -0.37599999 0.014 150 0 0 0 0.01372
3.2079999 -0.39300001 0.015 150 0 0 0 0.01373
3.2079999 -0.382 0.014 150 0 0 0 0.01374
3.2019999 -0.37099999 0.013 150 0 0 0 0.01375
3.2030001 -0.361 0.013 150 0 0 0 0.01376
3.204 -0.35100001 0.012 150 0 0 0 0.01377
3.2309999 -0.34299999 0.011 152 0 0 0 0.01378
3.2349999 -0.333 0.011 151 0 0 0 0.01379
3.237 -0.32300001 0.0099999998 151 0 0 0 0.0138
3.2360001 -0.31200001 0.0089999996 152 0 0 0 0.01381
3.2309999 -0.301 0.0089999996 152 0 0 0 0.01382
3.234 -0.29100001 0.0080000004 152 0 0 0 0.01383
3.3010001 -0.28600001 0.0080000004 51 0 0 0 0.01384
3.342 -0.27900001 0.0070000002 152 0 0 0 0.01385
3.3440001 -0.26800001 0.0070000002 151 0 0 0 0.01386
3.345 -0.257 0.0060000001 151 0 0 0 0.01387
3.3399999 -0.24600001 0.0060000001 151 0 0 0 0.01388
3.358 -0.236 0.0049999999 151 0 0 0 0.01389
3.368 -0.226 0.0049999999 151 0 0 0 0.0139
3.3710001 -0.215 0.0040000002 151 0 0 0 0.01391
3.402 -0.206 0.0040000002 151 0 0 0 0.01392
3.4200001 -0.19599999 0.003 154 0 0 0 0.01393
3.4389999 -0.186 0.003 150 0 0 0 0.01394
3.4319999 -0.175 0.003 150 0 0 0 0.01395
3.431 -0.164 0.0020000001 150 0 0 0 0.01396
3.431 -0.152 0.0020000001 150 0 0 0 0.01397
3.4319999 -0.141 0.0020000001 150 0 0 0 0.01398
3.4319999 -0.13 0.001 150 0 0 0 0.01399
3.4289999 -0.119 0.001 150 0 0 0 0.014
3.4260001 -0.108 0.001 150 0 0 0 0.01401
3.4230001 -0.097000003 0 150 0 0 0 0.01402
3.4230001 -0.086000003 0 150 0 0 0 0.01403
3.424 -0.074000001 0 150 0 0 0 0.01404
3.424 -0.063000001 0 150 0 0 0 0.01405
3.4289999 -0.052000001 0 151 0 0 0 0.01406
3.4230001 -0.041000001 0 150 0 0 0 0.01407
3.4189999 -0.029999999 0 150 0 0 0 0.01408
3.424 -0.018999999 0 151 0 0 0 0.01409
3.4130001 -0.0080000004 0 151 0 0 0 0.0141
3.418 0.0020000001 0 151 0 0 0 0.01411
3.4219999 0.013 0 152 0 0 0 0.01412
3.4230001 0.024 0 152 0 0 0 0.01413
3.418 0.035 0 152 0 0 0 0.01414
3.4119999 0.046 0 153 0 0 0 0.01415
3.4070001 0.057 0 153 0 0 0 0.01416
3.404 0.068000004 0 153 0 0 0 0.01417
3.3859999 0.079000004 0 154 0 0 0 0.01418
3.382 0.090000004 0 154 0 0 0 0.01419
3.381 0.101 0 155 0 0 0 0.0142
3.378 0.112 0 155 0 0 0 0.01421
3.3710001 0.122 0 157 0 0 0 0.01422
3.3629999 0.133 0 158 0 0 0 0.01423
3.3629999 0.14399999 0 158 0 0 0 0.01424
3.362 0.155 0 158 0 0 0 0.01425
3.3640001 0.16599999 0 159 0 0 0 0.01426
3.3659999 0.177 0 159 0 0 0 0.01427
3.3599999 0.18700001 0 160 0 0 0 0.01428
3.362 0.198 0.001 160 0 0 0 0.01429
3.3610001 0.20900001 0.001 159 0 0 0 0.0143
3.3610001 0.22 0.001 161 0 0 0 0.01431
3.3559999 0.23100001 0.0020000001 160 0 0 0 0.01432
3.355 0.242 0.0020000001 160 0 0 0 0.01433
3.358 0.25299999 0.0020000001 161 0 0 0 0.01434
3.3529999 0.26300001 0.003 160 0 0 0 0.01435
3.355 0.27399999 0.003 159 0 0 0 0.01436
3.3559999 0.285 0.003 159 0 0 0 0.01437
3.358 0.296 0.0040000002 157 0 0 0 0.01438
3.359 0.30700001 0.0040000002 157 0 0 0 0.01439
3.352 0.317 0.0049999999 158 0 0 0 0.0144
3.358 0.329 0.0049999999 159 0 0 0 0.01441
3.3629999 0.34 0.0060000001 156 0 0 0 0.01442
3.3670001 0.352 0.0060000001 156 0 0 0 0.01443
3.3699999 0.36300001 0.0070000002 154 0 0 0 0.01444
3.3800001 0.375 0.0070000002 154 0 0 0 0.01445
3.3770001 0.38600001 0.0080000004 154 0 0 0 0.01446
3.3840001 0.398 0.0089999996 153 0 0 0 0.01447
3.3940001 0.41 0.0089999996 152 0 0 0 0.01448
3.392 0.421 0.0099999998 152 0 0 0 0.01449
3.3989999 0.433 0.011 152 0 0 0 0.0145
3.3900001 0.442 0.011 151 0 0 0 0.01451
3.392 0.454 0.012 152 0 0 0 0.01452
3.391 0.465 0.013 152 0 0 0 0.01453
3.3870001 0.47499999 0.014 151 0 0 0 0.01454
3.368 0.484 0.014 154 0 0 0 0.01455
3.3299999 0.48899999 0.015 152 0 0 0 0.01456
3.3269999 0.49900001 0.016000001 152 0 0 0 0.01457
3.3150001 0.50800002 0.016000001 151 0 0 0 0.01458
3.2850001 0.51499999 0.017000001 153 0 0 0 0.01459
3.263 0.52200001 0.017999999 154 0 0 0 0.0146
3.2709999 0.53399998 0.018999999 154 0 0 0 0.01461
3.2690001 0.54400003 0.02 154 0 0 0 0.01462
3.2780001 0.55699998 0.021 92 0 0 0 0.01463
3.237 0.56 0.021 25 0 0 0 0.01464
3.1789999 0.56099999 0.022 25 0 0 0 0.01465
3.1159999 0.56 0.022 26 0 0 0 0.01466
3.027 0.55400002 0.023 26 0 0 0 0.01467
2.9460001 0.54900002 0.023 25 0 0 0 0.01468
2.9189999 0.55299997 0.024 27 0 0 0 0.01469
2.8329999 0.546 0.024 27 0 0 0 0.0147
2.7179999 0.53299999 0.024 25 0 0 0 0.01471
2.6240001 0.523 0.024 23 0 0 0 0.01472
2.5510001 0.51700002 0.024 20 0 0 0 0.01473
2.4909999 0.51300001 0.025 21 0 0 0 0.01474
2.4330001 0.509 0.025 21 0 0 0 0.01475
2.3710001 0.50400001 0.025 20 0 0 0 0.01476
2.28 0.49200001 0.025 145 0 0 0 0.01477
2.2579999 0.495 0.026000001 151 0 0 0 0.01478
2.243 0.49900001 0.026000001 152 0 0 0 0.01479
2.2420001 0.50599998 0.027000001 151 0 0 0 0.0148
2.2360001 0.51200002 0.028000001 150 0 0 0 0.01481
2.2309999 0.51800001 0.028999999 151 0 0 0 0.01482
2.23 0.52600002 0.029999999 151 0 0 0 0.01483
2.234 0.53399998 0.030999999 151 0 0 0 0.01484
2.227 0.54000002 0.032000002 151 0 0 0 0.01485
2.233 0.54799998 0.033 151 0 0 0 0.01486
2.23 0.55500001 0.034000002 151 0 0 0 0.01487
2.227 0.56199998 0.035 151 0 0 0 0.01488
2.2260001 0.56900001 0.035999998 150 0 0 0 0.01489
2.2309999 0.57700002 0.037 151 0 0 0 0.0149
2.2409999 0.588 0.037999999 151 0 0 0 0.01491
2.2349999 0.59299999 0.039000001 151 0 0 0 0.01492
2.237 0.60100001 0.041000001 151 0 0 0 0.01493
2.2360001 0.60799998 0.041999999 151 0 0 0 0.01494
2.2360001 0.616 0.043000001 150 0 0 0 0.01495
2.3069999 0.64300001 0.046 150 0 0 0 0.01496
2.4879999 0.70200002 0.050999999 150 0 0 0 0.01497
2.4909999 0.71100003 0.052000001 150 0 0 0 0.01498
2.4890001 0.71899998 0.052999999 150 0 0 0 0.01499
2.487 0.72600001 0.055 150 0 0 0 0.015
2.46 0.727 0.056000002 150 0 0 0 0.01501
2.3280001 0.69599998 0.054000001 150 0 0 0 0.01502
2.487 0.75099999 0.059 65 0 0 0 0.01503
1.469 0.449 0.035999998 1 0 0 0 0.01504
1.4579999 0.44999999 0.035999998 1 0 0 0 0.01505
1.4220001 0.44400001 0.035999998 1 0 0 0 0.01506
1.404 0.44299999 0.037 1 0 0 0 0.01507
1.404 0.447 0.037999999 1 0 0 0 0.01508
1.36 0.43799999 0.037 0 0 0 0 0.01509
1.364 0.44299999 0.037999999 0 0 0 0 0.0151
1.337 0.43900001 0.037999999 0 0 0 0 0.01511
1.3279999 0.44100001 0.039000001 5 0 0 0 0.01512
1.311 0.44 0.039999999 22 0 0 0 0.01513
1.3 0.44 0.039999999 89 0 0 0 0.01514
1.299 0.44400001 0.041000001 99 0 0 0 0.01515
1.296 0.447 0.041999999 101 0 0 0 0.01516
1.296 0.45199999 0.043000001 150 0 0 0 0.01517
1.3 0.458 0.044 150 0 0 0 0.01518
1.3 0.46200001 0.045000002 150 0 0 0 0.01519
1.299 0.46599999 0.046 150 0 0 0 0.0152
1.2970001 0.46900001 0.046999998 150 0 0 0 0.01521
1.296 0.47299999 0.048 150 0 0 0 0.01522
1.298 0.47799999 0.048999999 150 0 0 0 0.01523
1.3 0.48300001 0.050000001 88 0 0 0 0.01524
1.3049999 0.48899999 0.050999999 19 0 0 0 0.01525
1.284 0.486 0.052000001 6 0 0 0 0.01526
1.252 0.47799999 0.050999999 0 0 0 0 0.01527
3.325 1.281 0.14 2 0 0 0 0.01528
3.3269999 1.293 0.14300001 4 0 0 0 0.01529
3.326 1.303 0.146 5 0 0 0 0.0153
3.322 1.313 0.148 5 0 0 0 0.01531
3.3340001 1.3279999 0.152 3 0 0 0 0.01532
3.323 1.335 0.154 2 0 0 0 0.01533
3.277 1.327 0.155 2 0 0 0 0.01534
3.2850001 1.341 0.15899999 3 0 0 0 0.01535
3.2809999 1.35 0.162 3 0 0 0 0.01536
3.257 1.351 0.163 2 0 0 0 0.01537
3.2539999 1.3609999 0.167 2 0 0 0 0.01538
3.2390001 1.365 0.169 2 0 0 0 0.01539
3.263 1.386 0.17299999 3 0 0 0 0.0154
3.2420001 1.387 0.175 3 0 0 0 0.01541
3.2360001 1.395 0.178 3 0 0 0 0.01542
3.2119999 1.395 0.18000001 1 0 0 0 0.01543
3.1860001 1.3940001 0.182 0 0 0 0 0.01544
3.154 1.39 0.184 0 0 0 0 0.01545
3.1099999 1.381 0.184 1 0 0 0 0.01546
3.1059999 1.3890001 0.18700001 2 0 0 0 0.01547
3.1210001 1.406 0.192 2 0 0 0 0.01548
3.128 1.419 0.19599999 3 0 0 0 0.01549
3.119 1.426 0.198 2 0 0 0 0.0155
3.115 1.434 0.20200001 2 0 0 0 0.01551
3.102 1.438 0.204 2 0 0 0 0.01552
3.0969999 1.4450001 0.207 1 0 0 0 0.01553
3.1029999 1.4579999 0.212 1 0 0 0 0.01554
3.072 1.4529999 0.213 1 0 0 0 0.01555
3.0769999 1.465 0.21699999 2 0 0 0 0.01556
3.0799999 1.476 0.221 2 0 0 0 0.01557
3.0929999 1.492 0.22499999 2 0 0 0 0.01558
3.096 1.503 0.229 1 0 0 0 0.01559
3.2690001 1.597 0.24600001 0 0 0 0 0.0156
0 0 0 0 0 0 0 0.01561
0.92000002 0.45500001 0.071000002 3 0 0 0 0.01562
0.91299999 0.454 0.071999997 3 0 0 0 0.015629999
0.92199999 0.46200001 0.074000001 4 0 0 0 0.01564
0.92400002 0.46599999 0.075000003 4 0 0 0 0.01565
0.91900003 0.46599999 0.075999998 4 0 0 0 0.015659999
0.91100001 0.46399999 0.075999998 0 0 0 0 0.01567
3.6849999 1.891 0.315 3 0 0 0 0.01568
3.7090001 1.914 0.322 8 0 0 0 0.015690001
3.7079999 1.925 0.32699999 14 0 0 0 0.015699999
3.704 1.934 0.33199999 18 0 0 0 0.01571
3.7019999 1.944 0.336 19 0 0 0 0.01572
3.7049999 1.956 0.34200001 20 0 0 0 0.015729999
3.7 1.964 0.347 20 0 0 0 0.01574
3.6960001 1.973 0.35100001 22 0 0 0 0.01575
0 0 0 0 0 0 0 0.015760001
0 0 0 0 0 0 0 0.015769999
0 0 0 0 0 0 0 0.01578
3.6949999 2.0150001 0.373 23 0 0 0 0.015790001
3.694 2.0250001 0.37799999 23 0 0 0 0.015799999
3.6949999 2.036 0.38299999 25 0 0 0 0.01581
3.698 2.0480001 0.389 26 0 0 0 0.01582
3.6930001 2.056 0.39399999 25 0 0 0 0.015830001
3.6930001 2.066 0.40000001 28 0 0 0 0.01584
3.6949999 2.0769999 0.405 27 0 0 0 0.01585
3.6919999 2.085 0.41100001 26 0 0 0 0.015860001
3.6949999 2.096 0.41600001 25 0 0 0 0.015869999
3.6930001 2.1059999 0.42199999 26 0 0 0 0.01588
3.6889999 2.1129999 0.42699999 26 0 0 0 0.01589
3.6930001 2.125 0.433 25 0 0 0 0.015900001
3.688 2.132 0.43900001 22 0 0 0 0.01591
3.6900001 2.142 0.44400001 18 0 0 0 0.01592
3.6789999 2.145 0.449 15 0 0 0 0.015930001
3.654 2.1400001 0.45199999 10 0 0 0 0.015939999
3.661 2.1530001 0.45899999 9 0 0 0 0.01595
3.6140001 2.1340001 0.458 7 0 0 0 0.01596
3.533 2.095 0.454 6 0 0 0 0.015969999
3.5109999 2.0899999 0.45699999 6 0 0 0 0.01598
3.5190001 2.1040001 0.46399999 6 0 0 0 0.01599
3.5150001 2.109 0.46900001 6 0 0 0 0.016000001
3.5220001 2.122 0.47499999 5 0 0 0 0.016009999
3.5250001 2.131 0.48199999 6 0 0 0 0.01602
3.5250001 2.1389999 0.48800001 6 0 0 0 0.016030001
3.5409999 2.1570001 0.49599999 6 0 0 0 0.016039999
3.494 2.1359999 0.495 5 0 0 0 0.01605
3.4300001 2.1040001 0.49200001 4 0 0 0 0.01606
3.3050001 2.0339999 0.479 2 0 0 0 0.016070001
3.2509999 2.0079999 0.477 1 0 0 0 0.01608
3.2349999 2.0050001 0.47999999 1 0 0 0 0.01609
3.2279999 2.007 0.484 1 0 0 0 0.016100001
3.247 2.0250001 0.493 1 0 0 0 0.016109999
3.2850001 2.0550001 0.50400001 1 0 0 0 0.01612
3.401 2.135 0.528 1 0 0 0 0.01613
3.6340001 2.2869999 0.56999999 1 0 0 0 0.016140001
3.635 2.2950001 0.57700002 2 0 0 0 0.01615
3.5810001 2.267 0.574 1 0 0 0 0.01616
3.372 2.1400001 0.546 1 0 0 0 0.016170001
3.3369999 2.1240001 0.546 1 0 0 0 0.016179999
3.2550001 2.0769999 0.53899997 1 0 0 0 0.01619
3.2219999 2.062 0.53899997 1 0 0 0 0.0162
0 0 0 0 0 0 0 0.016209999
1.557 1.001 0.266 0 0 0 0 0.01622
1.512 0.97399998 0.25999999 0 0 0 0 0.01623
1.5 0.96799999 0.26100001 0 0 0 0 0.016240001
1.499 0.97000003 0.26300001 0 0 0 0 0.016249999
1.501 0.97399998 0.266 0 0 0 0 0.01626
1.5 0.97500002 0.26899999 0 0 0 0 0.01627
1.487 0.96899998 0.26899999 0 0 0 0 0.016279999
1.488 0.97100002 0.27200001 0 0 0 0 0.01629
1.483 0.96899998 0.273 0 0 0 0 0.0163
1.4680001 0.96100003 0.273 0 0 0 0 0.016310001
1.472 0.96499997 0.27599999 0 0 0 0 0.016319999
1.459 0.958 0.27599999 0 0 0 0 0.01633
1.475 0.97000003 0.28200001 0 0 0 0 0.016340001
1.485 0.97799999 0.28600001 0 0 0 0 0.016349999
1.47 0.97000003 0.28600001 0 0 0 0 0.01636
1.487 0.98199999 0.29100001 0 0 0 0 0.01637
1.473 0.97399998 0.29100001 0 0 0 0 0.016380001
1.497 0.991 0.29800001 0 0 0 0 0.01639
1.469 0.97399998 0.29499999 0 0 0 0 0.0164
1.483 0.98299998 0.30000001 0 0 0 0 0.016410001
1.47 0.97600001 0.30000001 0 0 0 0 0.016419999
1.464 0.97299999 0.301 0 0 0 0 0.01643
1.469 0.977 0.30500001 0 0 0 0 0.01644
1.462 0.97299999 0.30599999 0 0 0 0 0.016450001
1.469 0.97799999 0.31 0 0 0 0 0.01646
1.4529999 0.96700001 0.308 0 0 0 0 0.01647
1.4630001 0.97500002 0.31299999 0 0 0 0 0.016480001
1.425 0.94999999 0.30700001 0 0 0 0 0.016489999
1.526 1.017 0.331 0 0 0 0 0.0165
1.497 0.99800003 0.32699999 0 0 0 0 0.01651
1.4859999 0.991 0.32699999 0 0 0 0 0.016519999
1.4630001 0.97600001 0.324 0 0 0 0 0.01653
1.476 0.98400003 0.329 0 0 0 0 0.01654
1.419 0.94599998 0.31799999 0 0 0 0 0.016550001
1.433 0.95499998 0.324 0 0 0 0 0.016559999
1.438 0.958 0.32699999 0 0 0 0 0.01657
1.442 0.95999998 0.33000001 0 0 0 0 0.016580001
1.455 0.96899998 0.33500001 0 0 0 0 0.016589999
1.45 0.96499997 0.33500001 0 0 0 0 0.0166
1.45 0.96499997 0.338 0 0 0 0 0.01661
1.4630001 0.972 0.34200001 0 0 0 0 0.016620001
1.444 0.95899999 0.34 0 0 0 0 0.01663
1.506 0.99900001 0.35699999 0 0 0 0 0.01664
1.316 0.87300003 0.31299999 0 0 0 0 0.016650001
1.249 0.82700002 0.29899999 1 0 0 0 0.016659999
1.296 0.85799998 0.31200001 1 0 0 0 0.01667
1.349 0.89099997 0.32600001 1 0 0 0 0.01668
1.357 0.89600003 0.33000001 1 0 0 0 0.016690001
1.364 0.89899999 0.333 1 0 0 0 0.0167
1.4579999 0.95999998 0.35800001 0 0 0 0 0.01671
1.479 0.972 0.36500001 0 0 0 0 0.016720001
1.467 0.963 0.36300001 0 0 0 0 0.016729999
1.4680001 0.96100003 0.36500001 0 0 0 0 0.01674
1.473 0.963 0.368 0 0 0 0 0.01675
1.476 0.96399999 0.37 1 0 0 0 0.016759999
1.448 0.94300002 0.36500001 1 0 0 0 0.01677
1.442 0.93800002 0.36500001 2 0 0 0 0.01678
1.439 0.93400002 0.36500001 1 0 0 0 0.016790001
1.439 0.93199998 0.36700001 1 0 0 0 0.016799999
1.4170001 0.91500002 0.36199999 0 0 0 0 0.01681
1.38 0.889 0.354 0 0 0 0 0.01682
0 0 0 0 0 0 0 0.016829999
0 0 0 0 0 0 0 0.01684
0 0 0 0 0 0 0 0.01685
0 0 0 0 0 0 0 0.016860001
0 0 0 0 0 0 0 0.016869999
0 0 0 0 0 0 0 0.01688
0 0 0 0 0 0 0 0.016890001
0 0 0 0 0 0 0 0.016899999
0 0 0 0 0 0 0 0.01691
0 0 0 0 0 0 0 0.01692
0 0 0 0 0 0 0 0.016930001
0 0 0 0 0 0 0 0.01694
0 0 0 0 0 0 0 0.01695
0 0 0 0 0 0 0 0.016960001
0 0 0 0 0 0 0 0.016969999
0 0 0 0 0 0 0 0.01698
3.75 2.299 1.006 1 0 0 0 0.01699
3.717 2.2709999 0.99900001 2 0 0 0 0.017000001
3.733 2.273 1.005 2 0 0 0 0.01701
3.744 2.2709999 1.0089999 1 0 0 0 0.01702
0 0 0 0 0 0 0 0.017030001
0 0 0 0 0 0 0 0.017039999
0 0 0 0 0 0 0 0.01705
0 0 0 0 0 0 0 0.01706
0 0 0 0 0 0 0 0.017069999
1.243 0.736 0.33700001 0 0 0 0 0.01708
0 0 0 0 0 0 0 0.01709
1.131 0.66399997 0.30700001 0 0 0 0 0.017100001
1.124 0.65700001 0.30500001 0 0 0 0 0.017109999
0 0 0 0 0 0 0 0.01712
0 0 0 0 0 0 0 0.017130001
0 0 0 0 0 0 0 0.017139999
0 0 0 0 0 0 0 0.01715
0 0 0 0 0 0 0 0.01716
1.21 0.68800002 0.329 1 0 0 0 0.017170001
1.211 0.68599999 0.329 2 0 0 0 0.01718
1.2180001 0.68599999 0.331 1 0 0 0 0.01719
1.223 0.68599999 0.33199999 1 0 0 0 0.017200001
3.6989999 2.0639999 1.006 6 0 0 0 0.017209999
3.6949999 2.0510001 1.0039999 5 0 0 0 0.01722
3.684 2.0339999 1 2 0 0 0 0.01723
0 0 0 0 0 0 0 0.017240001
0 0 0 0 0 0 0 0.01725
1.1440001 0.62199998 0.31 0 0 0 0 0.01726
1.164 0.62900001 0.315 0 0 0 0 0.017270001
0 0 0 0 0 0 0 0.017279999
0 0 0 0 0 0 0 0.01729
0 0 0 0 0 0 0 0.0173
0 0 0 0 0 0 0 0.017309999
0 0 0 0 0 0 0 0.01732
0 0 0 0 0 0 0 0.01733
0 0 0 0 0 0 0 0.017340001
0.90700001 0.46900001 0.243 0 0 0 0 0.017349999
0.90799999 0.46599999 0.242 0 0 0 0 0.01736
0.903 0.461 0.241 12 0 0 0 0.01737
0.90100002 0.45699999 0.23999999 16 0 0 0 0.017379999
0.89899999 0.454 0.23899999 16 0 0 0 0.01739
0.90899998 0.456 0.241 10 0 0 0 0.0174
0.91900003 0.458 0.243 6 0 0 0 0.017410001
0.92199999 0.45699999 0.243 0 0 0 0 0.017419999
0.91900003 0.45199999 0.242 0 0 0 0 0.01743
0.92900002 0.454 0.244 0 0 0 0 0.017440001
0.93300003 0.454 0.245 0 0 0 0 0.017449999
0.93900001 0.45300001 0.245 0 0 0 0 0.01746
0.949 0.45500001 0.24699999 0 0 0 0 0.01747
0.95599997 0.45500001 0.248 0 0 0 0 0.017480001
0.96100003 0.45500001 0.249 0 0 0 0 0.01749
0.96700001 0.45500001 0.25 0 0 0 0 0.0175
0.98400003 0.46000001 0.25400001 0 0 0 0 0.017510001
0.99599999 0.46200001 0.25600001 0 0 0 0 0.017519999
0.99800003 0.46000001 0.25600001 0 0 0 0 0.01753
1.01 0.46200001 0.25799999 0 0 0 0 0.01754
1.0190001 0.463 0.259 0 0 0 0 0.017550001
1.028 0.46399999 0.26100001 0 0 0 0 0.01756
1.034 0.463 0.26100001 0 0 0 0 0.01757
1.043 0.46399999 0.26300001 0 0 0 0 0.017580001
1.05 0.46399999 0.26300001 0 0 0 0 0.017589999
1.061 0.465 0.26499999 0 0 0 0 0.0176
1.067 0.46399999 0.266 0 0 0 0 0.01761
1.0779999 0.46599999 0.26699999 0 0 0 0 0.017619999
1.085 0.465 0.26800001 0 0 0 0 0.01763
1.095 0.46599999 0.26899999 0 0 0 0 0.01764
1.105 0.46700001 0.271 0 0 0 0 0.017650001
1.1160001 0.46799999 0.27200001 0 0 0 0 0.017659999
1.1210001 0.46599999 0.27200001 0 0 0 0 0.01767
1.133 0.46799999 0.27399999 0 0 0 0 0.017680001
1.141 0.46700001 0.27500001 0 0 0 0 0.017689999
1.153 0.46900001 0.27599999 0 0 0 0 0.0177
1.163 0.46900001 0.278 0 0 0 0 0.01771
1.178 0.47099999 0.28 0 0 0 0 0.017720001
1.187 0.47099999 0.28099999 0 0 0 0 0.017729999
1.197 0.47099999 0.28200001 5 0 0 0 0.01774
1.212 0.47400001 0.28400001 5 0 0 0 0.017750001
1.24 0.47999999 0.289 7 0 0 0 0.017759999
1.2589999 0.484 0.292 0 0 0 0 0.01777
1.28 0.48800001 0.29499999 16 0 0 0 0.01778
1.283 0.48500001 0.294 81 0 0 0 0.017790001
1.279 0.479 0.292 150 0 0 0 0.0178
1.278 0.47499999 0.28999999 150 0 0 0 0.01781
1.278 0.47099999 0.28799999 150 0 0 0 0.017820001
1.2819999 0.46799999 0.28799999 150 0 0 0 0.017829999
1.281 0.46399999 0.28600001 150 0 0 0 0.01784
1.279 0.45899999 0.28400001 150 0 0 0 0.01785
1.281 0.456 0.28200001 150 0 0 0 0.017859999
1.281 0.45199999 0.28099999 150 0 0 0 0.01787
1.28 0.447 0.27900001 150 0 0 0 0.01788
1.28 0.44299999 0.27700001 150 0 0 0 0.017890001
1.284 0.44100001 0.27599999 150 0 0 0 0.017899999
1.285 0.43700001 0.27500001 150 0 0 0 0.01791
1.304 0.43900001 0.27700001 64 0 0 0 0.01792
1.331 0.44400001 0.28099999 12 0 0 0 0.017929999
1.35 0.44600001 0.28299999 7 0 0 0 0.01794
1.363 0.44600001 0.28400001 7 0 0 0 0.01795
1.381 0.44800001 0.28600001 8 0 0 0 0.017960001
1.398 0.449 0.287 8 0 0 0 0.017969999
1.411 0.449 0.28799999 8 0 0 0 0.01798
1.432 0.45100001 0.28999999 9 0 0 0 0.017990001
1.447 0.45100001 0.29100001 9 0 0 0 0.017999999
1.447 0.447 0.289 9 0 0 0 0.01801
1.473 0.44999999 0.292 9 0 0 0 0.01802
1.489 0.45100001 0.29300001 7 0 0 0 0.018030001
1.495 0.44800001 0.292 2 0 0 0 0.01804
1.527 0.45300001 0.296 0 0 0 0 0.01805
4.0219998 1.181 0.77499998 60 0 0 0 0.018060001
4.02 1.168 0.76800001 66 0 0 0 0.018069999
3.951 1.136 0.74900001 151 0 0 0 0.01808
2.7550001 0.78399998 0.51800001 150 0 0 0 0.01809
2.332 0.65600002 0.435 150 0 0 0 0.018100001
2.253 0.62699997 0.417 150 0 0 0 0.01811
2.2349999 0.61500001 0.41 151 0 0 0 0.01812
2.2409999 0.61000001 0.40799999 151 0 0 0 0.018130001
2.2349999 0.602 0.403 151 0 0 0 0.018139999
2.237 0.59600002 0.40000001 151 0 0 0 0.01815
2.2390001 0.58999997 0.39700001 151 0 0 0 0.01816
2.23 0.57999998 0.391 151 0 0 0 0.018169999
2.2290001 0.574 0.38800001 151 0 0 0 0.01818
2.2279999 0.56599998 0.384 151 0 0 0 0.01819
2.23 0.56 0.38100001 151 0 0 0 0.018200001
2.227 0.55299997 0.377 151 0 0 0 0.018209999
2.2320001 0.54799998 0.37400001 151 0 0 0 0.01822
2.2260001 0.54000002 0.36899999 151 0 0 0 0.018230001
2.2290001 0.53399998 0.366 151 0 0 0 0.018239999
2.23 0.528 0.36300001 151 0 0 0 0.01825
2.233 0.52200001 0.359 150 0 0 0 0.01826
2.2449999 0.51800001 0.35800001 150 0 0 0 0.018270001
2.2579999 0.514 0.35600001 151 0 0 0 0.018279999
2.26 0.50800002 0.35299999 151 0 0 0 0.01829
2.2620001 0.50199997 0.34900001 151 0 0 0 0.018300001
2.267 0.49599999 0.34599999 150 0 0 0 0.018309999
2.3150001 0.5 0.34900001 19 0 0 0 0.01832
2.3859999 0.509 0.35600001 17 0 0 0 0.01833
2.437 0.51300001 0.36000001 18 0 0 0 0.018340001
2.4949999 0.51800001 0.36399999 20 0 0 0 0.01835
2.559 0.52399999 0.36899999 22 0 0 0 0.01836
2.6099999 0.52600002 0.37200001 21 0 0 0 0.018370001
2.6630001 0.52899998 0.375 21 0 0 0 0.018379999
2.723 0.53399998 0.37900001 21 0 0 0 0.01839
2.789 0.53899997 0.38299999 22 0 0 0 0.0184
2.852 0.54299998 0.38699999 22 0 0 0 0.018409999
2.944 0.55199999 0.39399999 23 0 0 0 0.01842
3.016 0.55699998 0.398 23 0 0 0 0.01843
3.0910001 0.56199998 0.403 24 0 0 0 0.018440001
3.161 0.56599998 0.40700001 24 0 0 0 0.018449999
3.2149999 0.56599998 0.40799999 24 0 0 0 0.01846
3.2550001 0.56400001 0.40700001 25 0 0 0 0.01847
3.286 0.56 0.405 150 0 0 0 0.018479999
3.289 0.551 0.40000001 151 0 0 0 0.01849
3.289 0.542 0.39399999 150 0 0 0 0.0185
3.289 0.53299999 0.38800001 150 0 0 0 0.018510001
3.2909999 0.52399999 0.382 151 0 0 0 0.018519999
3.302 0.51700002 0.37799999 150 0 0 0 0.01853
3.323 0.51099998 0.37400001 150 0 0 0 0.018540001
3.323 0.50199997 0.368 150 0 0 0 0.018549999
3.3269999 0.493 0.36300001 150 0 0 0 0.01856
3.381 0.49200001 0.36199999 150 0 0 0 0.01857
3.3900001 0.484 0.35699999 151 0 0 0 0.018580001
3.3889999 0.47400001 0.35100001 150 0 0 0 0.01859
3.391 0.465 0.345 150 0 0 0 0.0186
3.391 0.456 0.33899999 150 0 0 0 0.018610001
3.395 0.447 0.333 150 0 0 0 0.018619999
3.3929999 0.43799999 0.32600001 150 0 0 0 0.01863
3.3940001 0.42899999 0.31999999 151 0 0 0 0.01864
3.398 0.41999999 0.31400001 151 0 0 0 0.018650001
3.3970001 0.41100001 0.308 151 0 0 0 0.01866
3.3929999 0.40099999 0.301 151 0 0 0 0.01867
3.3970001 0.39199999 0.29499999 151 0 0 0 0.018680001
3.391 0.382 0.289 151 0 0 0 0.018689999
3.392 0.373 0.28200001 151 0 0 0 0.0187
3.3970001 0.36500001 0.27599999 151 0 0 0 0.01871
3.395 0.35600001 0.27000001 151 0 0 0 0.018719999
3.401 0.347 0.264 151 0 0 0 0.01873
3.3929999 0.33700001 0.257 151 0 0 0 0.01874
3.398 0.329 0.25099999 151 0 0 0 0.018750001
3.395 0.31900001 0.244 151 0 0 0 0.018759999
3.3959999 0.31 0.23800001 151 0 0 0 0.01877
3.3970001 0.301 0.23100001 151 0 0 0 0.018780001
3.4000001 0.29300001 0.22499999 151 0 0 0 0.018789999
3.402 0.28400001 0.219 151 0 0 0 0.0188
3.4030001 0.27500001 0.212 151 0 0 0 0.01881
3.405 0.266 0.206 151 0 0 0 0.018820001
3.4070001 0.257 0.199 151 0 0 0 0.018829999
3.4070001 0.248 0.193 151 0 0 0 0.01884
3.4089999 0.23999999 0.186 152 0 0 0 0.018850001
3.4089999 0.23100001 0.18000001 152 0 0 0 0.018859999
3.4119999 0.222 0.17299999 152 0 0 0 0.01887
3.4070001 0.213 0.16599999 152 0 0 0 0.01888
3.4089999 0.204 0.16 152 0 0 0 0.018890001
3.408 0.19499999 0.153 152 0 0 0 0.0189
3.3989999 0.186 0.146 153 0 0 0 0.01891
3.4000001 0.177 0.14 153 0 0 0 0.018920001
3.4059999 0.168 0.133 152 0 0 0 0.018929999
3.401 0.16 0.126 153 0 0 0 0.01894
3.3989999 0.15099999 0.119 153 0 0 0 0.01895
3.4030001 0.142 0.113 153 0 0 0 0.018959999
3.398 0.133 0.106 153 0 0 0 0.01897
3.3989999 0.124 0.098999999 153 0 0 0 0.01898
3.398 0.116 0.093000002 153 0 0 0 0.018990001
3.4000001 0.107 0.086000003 153 0 0 0 0.018999999
3.3989999 0.097999997 0.079000004 153 0 0 0 0.01901
3.401 0.090000004 0.071999997 153 0 0 0 0.01902
3.401 0.081 0.064999998 153 0 0 0 0.019029999
3.4059999 0.071999997 0.059 153 0 0 0 0.01904
3.4059999 0.064000003 0.052000001 153 0 0 0 0.01905
3.404 0.055 0.045000002 153 0 0 0 0.019060001
3.404 0.046999998 0.037999999 153 0 0 0 0.019069999
3.415 0.037999999 0.030999999 152 0 0 0 0.01908
3.418 0.029999999 0.025 152 0 0 0 0.019090001
3.4170001 0.021 0.017999999 152 0 0 0 0.019099999
3.4170001 0.012 0.011 152 0 0 0 0.01911
3.4200001 0.0040000002 0.0040000002 152 0 0 0 0.01912
3.414 -0.0040000002 -0.0020000001 151 0 0 0 0.019130001
3.4159999 -0.012 -0.0089999996 151 0 0 0 0.01914
3.4159999 -0.021 -0.016000001 151 0 0 0 0.01915
3.418 -0.028999999 -0.023 151 0 0 0 0.019160001
3.418 -0.037999999 -0.029999999 151 0 0 0 0.019169999
3.4219999 -0.046999998 -0.037999999 151 0 0 0 0.01918
3.418 -0.055 -0.045000002 151 0 0 0 0.01919
3.418 -0.064000003 -0.052000001 151 0 0 0 0.019200001
3.418 -0.071999997 -0.059 151 0 0 0 0.01921
3.4230001 -0.081 -0.066 151 0 0 0 0.01922
3.4260001 -0.089000002 -0.072999999 151 0 0 0 0.019230001
3.4219999 -0.097999997 -0.079999998 151 0 0 0 0.019239999
3.4219999 -0.106 -0.088 151 0 0 0 0.01925
3.4260001 -0.115 -0.094999999 150 0 0 0 0.01926
3.4289999 -0.123 -0.102 151 0 0 0 0.019269999
3.425 -0.131 -0.109 150 0 0 0 0.01928
3.425 -0.14 -0.117 150 0 0 0 0.01929
3.428 -0.148 -0.124 151 0 0 0 0.019300001
3.4260001 -0.15700001 -0.131 150 0 0 0 0.019309999
3.4300001 -0.16500001 -0.139 150 0 0 0 0.01932
3.431 -0.17399999 -0.146 150 0 0 0 0.019330001
3.428 -0.182 -0.153 150 0 0 0 0.019339999
3.434 -0.191 -0.161 150 0 0 0 0.01935
3.421 -0.198 -0.168 152 0 0 0 0.01936
3.4230001 -0.207 -0.175 152 0 0 0 0.019370001
3.3710001 -0.212 -0.18000001 150 0 0 0 0.019379999
3.3699999 -0.22 -0.18700001 151 0 0 0 0.01939
3.3629999 -0.228 -0.19400001 151 0 0 0 0.019400001
3.3710001 -0.236 -0.20200001 151 0 0 0 0.019409999
3.349 -0.243 -0.208 150 0 0 0 0.01942
3.3399999 -0.25 -0.214 152 0 0 0 0.01943
3.339 -0.25799999 -0.222 152 0 0 0 0.019440001
3.3410001 -0.266 -0.229 152 0 0 0 0.01945
3.3429999 -0.27500001 -0.237 151 0 0 0 0.01946
3.346 -0.28299999 -0.244 152 0 0 0 0.019470001
3.3329999 -0.28999999 -0.25099999 150 0 0 0 0.019479999
3.26 -0.29100001 -0.252 81 0 0 0 0.01949
3.234 -0.29699999 -0.257 150 0 0 0 0.0195
3.234 -0.30399999 -0.26499999 151 0 0 0 0.019509999
3.2320001 -0.31200001 -0.27200001 151 0 0 0 0.01952
3.2309999 -0.31900001 -0.27900001 150 0 0 0 0.01953
3.2279999 -0.32699999 -0.28600001 150 0 0 0 0.019540001
3.2320001 -0.33500001 -0.29300001 150 0 0 0 0.019549999
3.2349999 -0.34299999 -0.301 151 0 0 0 0.01956
3.2290001 -0.34999999 -0.308 151 0 0 0 0.01957
3.207 -0.35499999 -0.31299999 150 0 0 0 0.019579999
3.2019999 -0.36199999 -0.31999999 150 0 0 0 0.01959
3.207 -0.37 -0.32800001 150 0 0 0 0.0196
3.2049999 -0.37799999 -0.33500001 150 0 0 0 0.019610001
3.2030001 -0.38499999 -0.34200001 150 0 0 0 0.019619999
3.2030001 -0.39300001 -0.34900001 150 0 0 0 0.01963
3.201 -0.40000001 -0.35699999 150 0 0 0 0.019640001
3.0150001 -0.384 -0.34299999 150 0 0 0 0.019649999
2.823 -0.366 -0.32699999 150 0 0 0 0.01966
2.5599999 -0.338 -0.303 19 0 0 0 0.01967
2.53 -0.34 -0.30500001 19 0 0 0 0.019680001
2.5009999 -0.34200001 -0.308 19 0 0 0 0.01969
2.471 -0.34299999 -0.31 20 0 0 0 0.0197
2.4330001 -0.34400001 -0.31 17 0 0 0 0.019710001
2.4119999 -0.34599999 -0.31299999 18 0 0 0 0.019719999
2.3759999 -0.347 -0.31400001 17 0 0 0 0.01973
2.3559999 -0.34900001 -0.317 18 0 0 0 0.01974
2.3559999 -0.35499999 -0.32300001 16 0 0 0 0.019750001
2.3529999 -0.359 -0.32800001 17 0 0 0 0.01976
2.3559999 -0.36500001 -0.33399999 16 0 0 0 0.01977
2.359 -0.37099999 -0.34 15 0 0 0 0.019780001
2.359 -0.377 -0.34599999 15 0 0 0 0.019789999
2.3559999 -0.382 -0.35100001 16 0 0 0 0.0198
2.3559999 -0.38699999 -0.35699999 18 0 0 0 0.01981
2.359 -0.39300001 -0.36300001 20 0 0 0 0.019819999
2.3559999 -0.398 -0.368 19 0 0 0 0.01983
2.359 -0.40400001 -0.37400001 19 0 0 0 0.01984
2.3599999 -0.40900001 -0.38 19 0 0 0 0.019850001
2.359 -0.414 -0.38600001 17 0 0 0 0.019859999
2.3570001 -0.419 -0.391 18 0 0 0 0.01987
2.355 -0.42399999 -0.39700001 20 0 0 0 0.019880001
2.3599999 -0.43099999 -0.403 21 0 0 0 0.019889999
2.3610001 -0.43599999 -0.41 20 0 0 0 0.0199
2.3610001 -0.44100001 -0.41499999 21 0 0 0 0.01991
2.3629999 -0.447 -0.42199999 22 0 0 0 0.019920001
2.362 -0.45199999 -0.42699999 21 0 0 0 0.019929999
2.3599999 -0.45699999 -0.433 19 0 0 0 0.01994
2.362 -0.463 -0.43900001 16 0 0 0 0.019950001
2.362 -0.46799999 -0.44499999 16 0 0 0 0.019959999
2.362 -0.47299999 -0.45100001 17 0 0 0 0.01997
2.359 -0.47799999 -0.456 16 0 0 0 0.01998
2.3610001 -0.484 -0.463 15 0 0 0 0.019990001
2.362 -0.48899999 -0.46900001 15 0 0 0 0.02
2.3610001 -0.49399999 -0.47499999 15 0 0 0 0.02001
2.359 -0.49900001 -0.48100001 15 0 0 0 0.020020001
2.362 -0.505 -0.48699999 16 0 0 0 0.020029999
2.362 -0.50999999 -0.493 17 0 0 0 0.02004
2.369 -0.51599997 -0.50099999 15 0 0 0 0.02005
2.3800001 -0.52399999 -0.509 15 0 0 0 0.020059999
2.3759999 -0.528 -0.51499999 14 0 0 0 0.02007
2.3599999 -0.52999997 -0.51700002 18 0 0 0 0.02008
2.3629999 -0.53600001 -0.52399999 21 0 0 0 0.020090001
2.3610001 -0.54000002 -0.52999997 20 0 0 0 0.020099999
2.3610001 -0.54500002 -0.53600001 17 0 0 0 0.02011
2.362 -0.551 -0.54299998 15 0 0 0 0.02012
2.362 -0.55500001 -0.54900002 17 0 0 0 0.020129999
2.362 -0.56099999 -0.55500001 19 0 0 0 0.02014
2.3640001 -0.56599998 -0.56199998 20 0 0 0 0.02015
2.362 -0.57099998 -0.56800002 22 0 0 0 0.020160001
2.3640001 -0.57599998 -0.57499999 23 0 0 0 0.020169999
2.368 -0.58200002 -0.58200002 23 0 0 0 0.02018
2.368 -0.58700001 -0.588 19 0 0 0 0.020190001
2.3640001 -0.59100002 -0.59399998 16 0 0 0 0.020199999
2.369 -0.597 -0.60100001 17 0 0 0 0.02021
2.365 -0.60100001 -0.60699999 19 0 0 0 0.02022
2.369 -0.60699999 -0.61400002 19 0 0 0 0.020230001
2.369 -0.61199999 -0.62099999 20 0 0 0 0.02024
2.369 -0.61699998 -0.62699997 22 0 0 0 0.02025
2.369 -0.62099999 -0.63300002 21 0 0 0 0.020260001
2.368 -0.62599999 -0.63999999 18 0 0 0 0.020269999
2.365 -0.63 -0.64600003 16 0 0 0 0.02028
2.3699999 -0.63599998 -0.653 13 0 0 0 0.02029
2.3699999 -0.64099997 -0.66000003 13 0 0 0 0.020300001
2.368 -0.64499998 -0.66600001 17 0 0 0 0.02031
2.368 -0.64999998 -0.67299998 21 0 0 0 0.02032
2.369 -0.65499997 -0.68000001 23 0 0 0 0.020330001
2.3629999 -0.65799999 -0.68400002 23 0 0 0 0.020339999
2.365 -0.66299999 -0.69099998 23 0 0 0 0.02035
2.3670001 -0.66799998 -0.699 21 0 0 0 0.02036
2.3699999 -0.67299998 -0.70599997 20 0 0 0 0.020369999
2.3759999 -0.68000001 -0.71499997 19 0 0 0 0.02038
2.369 -0.68199998 -0.71899998 19 0 0 0 0.02039
2.375 -0.68800002 -0.72799999 20 0 0 0 0.020400001
2.3740001 -0.69300002 -0.73400003 19 0 0 0 0.020409999
2.372 -0.69599998 -0.74000001 18 0 0 0 0.02042
2.372 -0.70099998 -0.74699998 20 0 0 0 0.02043
2.3699999 -0.70499998 -0.75300002 21 0 0 0 0.020439999
2.3729999 -0.70999998 -0.76099998 22 0 0 0 0.02045
2.369 -0.713 -0.76700002 21 0 0 0 0.02046
2.3729999 -0.71899998 -0.77499998 19 0 0 0 0.020470001
2.3710001 -0.72299999 -0.78100002 19 0 0 0 0.020479999
2.3699999 -0.727 -0.787 19 0 0 0 0.02049
2.3729999 -0.73199999 -0.79500002 19 0 0 0 0.020500001
2.372 -0.736 -0.80199999 19 0 0 0 0.020509999
2.3710001 -0.74000001 -0.80800003 23 0 0 0 0.02052
2.3710001 -0.74400002 -0.815 30 0 0 0 0.02053
2.3559999 -0.74299997 -0.81699997 30 0 0 0 0.020540001
2.3399999 -0.74199998 -0.81800002 30 0 0 0 0.02055
2.3199999 -0.74000001 -0.81800002 29 0 0 0 0.02056
2.3010001 -0.73799998 -0.81800002 29 0 0 0 0.020570001
2.2809999 -0.73500001 -0.81699997 30 0 0 0 0.020579999
2.266 -0.73400003 -0.81800002 30 0 0 0 0.02059
2.243 -0.73000002 -0.81699997 30 0 0 0 0.0206
2.2279999 -0.72899997 -0.81800002 29 0 0 0 0.020609999
2.2090001 -0.72600001 -0.81699997 29 0 0 0 0.02062
2.1960001 -0.72500002 -0.81900001 29 0 0 0 0.02063
2.175 -0.722 -0.81800002 28 0 0 0 0.020640001
2.158 -0.72000003 -0.81699997 29 0 0 0 0.020649999
2.142 -0.71799999 -0.81800002 29 0 0 0 0.02066
2.122 -0.71399999 -0.81599998 29 0 0 0 0.02067
2.1040001 -0.71200001 -0.81599998 28 0 0 0 0.020679999
2.086 -0.70899999 -0.815 29 0 0 0 0.02069
2.075 -0.708 -0.81599998 28 0 0 0 0.0207
2.0569999 -0.70499998 -0.815 28 0 0 0 0.020710001
2.0439999 -0.70300001 -0.81599998 28 0 0 0 0.020719999
2.0220001 -0.69800001 -0.81300002 29 0 0 0 0.02073
2.0090001 -0.69700003 -0.81400001 29 0 0 0 0.020740001
1.997 -0.69599998 -0.815 28 0 0 0 0.020749999
1.982 -0.69300002 -0.815 29 0 0 0 0.02076
1.97 -0.69099998 -0.81599998 29 0 0 0 0.02077
1.952 -0.68800002 -0.81400001 29 0 0 0 0.020780001
1.944 -0.68800002 -0.81699997 29 0 0 0 0.02079
1.924 -0.68300003 -0.81400001 29 0 0 0 0.0208
1.911 -0.68099999 -0.81400001 29 0 0 0 0.020810001
1.898 -0.67900002 -0.81400001 29 0 0 0 0.020819999
1.89 -0.67799997 -0.81599998 30 0 0 0 0.02083
1.872 -0.67400002 -0.81300002 29 0 0 0 0.02084
1.857 -0.671 -0.81199998 30 0 0 0 0.020850001
1.849 -0.67000002 -0.81400001 31 0 0 0 0.02086
1.839 -0.66799998 -0.815 28 0 0 0 0.02087
1.825 -0.66500002 -0.81400001 27 0 0 0 0.020880001
1.811 -0.662 -0.81300002 29 0 0 0 0.020889999
