# .PCD v0.7 - Point Cloud Data file format
VERSION 0.7
FIELDS x y z intensity normal_x normal_y normal_z curvature
SIZE 4 4 4 4 4 4 4 4
TYPE F F F F F F F F
COUNT 1 1 1 1 1 1 1 1
WIDTH 1062
HEIGHT 1
VIEWPOINT 0 0 0 1 0 0 0
POINTS 1062
DATA ascii
3.4170001 -0.001 -0.034000002 152 0 0 0 0.01348
3.4230001 -0.001 -0.023 152 0 0 0 0.01349
3.424 0 -0.011 152 0 0 0 0.0135
3.4170001 0 0 152 0 0 0 0.01351
3.4230001 0.001 0.0099999998 152 0 0 0 0.01352
3.4170001 0.001 0.021 152 0 0 0 0.01353
3.418 0.0020000001 0.032000002 152 0 0 0 0.01354
3.4230001 0.003 0.043000001 152 0 0 0 0.01355
3.424 0.003 0.054000001 152 0 0 0 0.01356
3.4230001 0.0040000002 0.064999998 152 0 0 0 0.01357
3.4230001 0.0040000002 0.075999998 152 0 0 0 0.01358
3.4219999 0.0049999999 0.086999997 152 0 0 0 0.01359
3.428 0.0060000001 0.097999997 152 0 0 0 0.0136
3.4230001 0.0060000001 0.109 152 0 0 0 0.01361
3.4219999 0.0070000002 0.12 152 0 0 0 0.01362
3.4219999 0.0070000002 0.131 152 0 0 0 0.01363
3.4260001 0.0080000004 0.14300001 152 0 0 0 0.01364
3.4200001 0.0080000004 0.154 151 0 0 0 0.01365
3.4219999 0.0089999996 0.16500001 151 0 0 0 0.01366
3.4230001 0.0089999996 0.176 152 0 0 0 0.01367
3.4219999 0.0089999996 0.18700001 151 0 0 0 0.01368
3.4230001 0.0099999998 0.198 152 0 0 0 0.01369
3.421 0.0099999998 0.20900001 151 0 0 0 0.0137
3.4200001 0.011 0.22 151 0 0 0 0.01371
3.421 0.011 0.23100001 151 0 0 0 0.01372
3.424 0.011 0.243 151 0 0 0 0.01373
3.4260001 0.011 0.25400001 151 0 0 0 0.01374
3.424 0.012 0.26499999 151 0 0 0 0.01375
3.4230001 0.012 0.27599999 151 0 0 0 0.01376
3.4219999 0.012 0.287 151 0 0 0 0.01377
3.4260001 0.012 0.29899999 151 0 0 0 0.01378
3.425 0.013 0.31 151 0 0 0 0.01379
3.424 0.013 0.32100001 151 0 0 0 0.0138
3.4260001 0.013 0.33199999 151 0 0 0 0.01381
3.4219999 0.013 0.34299999 151 0 0 0 0.01382
3.424 0.013 0.354 151 0 0 0 0.01383
3.424 0.013 0.36500001 151 0 0 0 0.01384
3.4230001 0.013 0.37599999 151 0 0 0 0.01385
3.4230001 0.013 0.38699999 151 0 0 0 0.01386
3.424 0.013 0.39899999 151 0 0 0 0.01387
3.4230001 0.013 0.41 151 0 0 0 0.01388
3.4219999 0.013 0.421 151 0 0 0 0.01389
3.4200001 0.013 0.43200001 151 0 0 0 0.0139
3.4230001 0.013 0.44299999 151 0 0 0 0.01391
3.4189999 0.013 0.454 151 0 0 0 0.01392
3.421 0.013 0.465 151 0 0 0 0.01393
3.4159999 0.013 0.47600001 151 0 0 0 0.01394
3.418 0.013 0.48699999 151 0 0 0 0.01395
3.421 0.013 0.49900001 151 0 0 0 0.01396
3.425 0.012 0.51099998 151 0 0 0 0.01397
3.424 0.012 0.52200001 151 0 0 0 0.01398
3.425 0.012 0.53299999 151 0 0 0 0.01399
3.4230001 0.012 0.54400003 151 0 0 0 0.014
3.424 0.012 0.55599999 151 0 0 0 0.01401
3.4260001 0.011 0.56699997 151 0 0 0 0.01402
3.428 0.011 0.579 151 0 0 0 0.01403
3.4260001 0.011 0.58999997 151 0 0 0 0.01404
3.431 0.0099999998 0.602 151 0 0 0 0.01405
3.4319999 0.0099999998 0.61299998 151 0 0 0 0.01406
3.4260001 0.0089999996 0.62400001 151 0 0 0 0.01407
3.4300001 0.0089999996 0.63599998 151 0 0 0 0.01408
3.4349999 0.0089999996 0.648 151 0 0 0 0.01409
3.4330001 0.0080000004 0.65899998 151 0 0 0 0.0141
3.425 0.0080000004 0.66900003 151 0 0 0 0.01411
3.4289999 0.0070000002 0.68099999 151 0 0 0 0.01412
3.4319999 0.0060000001 0.69300002 150 0 0 0 0.01413
3.4330001 0.0060000001 0.704 150 0 0 0 0.01414
3.431 0.0049999999 0.71499997 151 0 0 0 0.01415
3.4330001 0.0049999999 0.727 150 0 0 0 0.01416
3.4260001 0.0040000002 0.73699999 150 0 0 0 0.01417
3.4300001 0.003 0.74900001 150 0 0 0 0.01418
3.427 0.003 0.75999999 150 0 0 0 0.01419
3.428 0.0020000001 0.77200001 150 0 0 0 0.0142
3.4300001 0.001 0.78399998 150 0 0 0 0.01421
3.4300001 0 0.79500002 150 0 0 0 0.01422
3.428 0 0.80599999 150 0 0 0 0.01423
3.4289999 0 0.81800002 150 0 0 0 0.01424
3.4289999 -0.001 0.829 150 0 0 0 0.01425
3.4330001 -0.0020000001 0.84100002 150 0 0 0 0.01426
3.4330001 -0.003 0.85299999 150 0 0 0 0.01427
3.428 -0.0040000002 0.86299998 150 0 0 0 0.01428
3.431 -0.0049999999 0.875 150 0 0 0 0.01429
3.4260001 -0.0060000001 0.88499999 150 0 0 0 0.0143
3.4300001 -0.0070000002 0.898 150 0 0 0 0.01431
3.4289999 -0.0080000004 0.90899998 150 0 0 0 0.01432
3.428 -0.0089999996 0.92000002 150 0 0 0 0.01433
3.434 -0.0099999998 0.93300003 150 0 0 0 0.01434
3.431 -0.011 0.94400001 150 0 0 0 0.01435
3.434 -0.012 0.95599997 150 0 0 0 0.01436
3.431 -0.014 0.96700001 150 0 0 0 0.01437
3.431 -0.015 0.97799999 150 0 0 0 0.01438
3.431 -0.016000001 0.99000001 150 0 0 0 0.01439
3.431 -0.017999999 1.001 150 0 0 0 0.0144
3.4300001 -0.018999999 1.012 150 0 0 0 0.01441
3.4330001 -0.02 1.025 150 0 0 0 0.01442
3.434 -0.022 1.0369999 150 0 0 0 0.01443
3.438 -0.023 1.049 150 0 0 0 0.01444
3.4360001 -0.025 1.061 150 0 0 0 0.01445
3.4330001 -0.026000001 1.071 150 0 0 0 0.01446
3.431 -0.028000001 1.082 150 0 0 0 0.01447
3.4289999 -0.028999999 1.0930001 150 0 0 0 0.01448
3.438 -0.030999999 1.107 150 0 0 0 0.01449
3.437 -0.032000002 1.119 150 0 0 0 0.0145
3.4330001 -0.034000002 1.1289999 150 0 0 0 0.01451
3.4400001 -0.035999998 1.143 150 0 0 0 0.01452
3.4419999 -0.037 1.155 150 0 0 0 0.01453
3.441 -0.039000001 1.166 150 0 0 0 0.01454
3.4349999 -0.041000001 1.176 150 0 0 0 0.01455
3.4389999 -0.043000001 1.189 150 0 0 0 0.01456
3.4400001 -0.045000002 1.2 150 0 0 0 0.01457
3.4400001 -0.046999998 1.212 150 0 0 0 0.01458
3.438 -0.048 1.223 150 0 0 0 0.01459
3.437 -0.050000001 1.234 150 0 0 0 0.0146
3.4360001 -0.052000001 1.245 150 0 0 0 0.01461
3.438 -0.054000001 1.258 150 0 0 0 0.01462
3.428 -0.056000002 1.265 116 0 0 0 0.01463
3.3889999 -0.057999998 1.263 99 0 0 0 0.01464
3.382 -0.059999999 1.271 150 0 0 0 0.01465
3.3770001 -0.061999999 1.281 150 0 0 0 0.01466
3.378 -0.064000003 1.2920001 150 0 0 0 0.01467
3.3559999 -0.066 1.295 150 0 0 0 0.01468
3.3429999 -0.068000004 1.301 150 0 0 0 0.01469
3.3429999 -0.07 1.313 150 0 0 0 0.0147
3.345 -0.071999997 1.324 150 0 0 0 0.01471
3.3469999 -0.075000003 1.336 150 0 0 0 0.01472
3.346 -0.077 1.347 150 0 0 0 0.01473
3.3540001 -0.079999998 1.362 150 0 0 0 0.01474
3.3510001 -0.082000002 1.3710001 150 0 0 0 0.01475
3.3510001 -0.085000001 1.383 150 0 0 0 0.01476
3.3510001 -0.086999997 1.3940001 150 0 0 0 0.01477
3.355 -0.090000004 1.4069999 150 0 0 0 0.01478
3.352 -0.092 1.4170001 150 0 0 0 0.01479
3.3529999 -0.094999999 1.428 150 0 0 0 0.0148
3.3529999 -0.097999997 1.439 150 0 0 0 0.01481
3.3510001 -0.1 1.45 150 0 0 0 0.01482
3.3529999 -0.103 1.462 150 0 0 0 0.01483
3.3510001 -0.106 1.472 150 0 0 0 0.01484
3.3529999 -0.109 1.484 150 0 0 0 0.01485
3.3540001 -0.112 1.495 150 0 0 0 0.01486
3.352 -0.115 1.505 150 0 0 0 0.01487
3.355 -0.118 1.518 150 0 0 0 0.01488
3.3559999 -0.121 1.529 150 0 0 0 0.01489
3.352 -0.124 1.538 150 0 0 0 0.0149
3.352 -0.127 1.549 150 0 0 0 0.01491
3.3540001 -0.13 1.561 150 0 0 0 0.01492
3.3499999 -0.133 1.5700001 150 0 0 0 0.01493
3.3540001 -0.13699999 1.5829999 150 0 0 0 0.01494
3.355 -0.14 1.594 150 0 0 0 0.01495
3.3429999 -0.14300001 1.599 150 0 0 0 0.01496
3.329 -0.145 1.603 109 0 0 0 0.01497
3.3010001 -0.148 1.6 101 0 0 0 0.01498
3.2809999 -0.15000001 1.601 99 0 0 0 0.01499
3.257 -0.152 1.6 100 0 0 0 0.015
3.24 -0.155 1.602 102 0 0 0 0.01501
3.217 -0.15700001 1.6 104 0 0 0 0.01502
3.197 -0.16 1.601 104 0 0 0 0.01503
3.187 -0.163 1.6059999 107 0 0 0 0.01504
3.1600001 -0.16500001 1.602 110 0 0 0 0.01505
3.148 -0.168 1.6059999 108 0 0 0 0.01506
3.1289999 -0.17 1.6059999 110 0 0 0 0.01507
3.109 -0.17299999 1.605 108 0 0 0 0.01508
3.0899999 -0.175 1.605 120 0 0 0 0.01509
3.0739999 -0.178 1.6059999 108 0 0 0 0.0151
3.056 -0.18000001 1.6059999 111 0 0 0 0.01511
3.0350001 -0.183 1.604 105 0 0 0 0.01512
3.0220001 -0.186 1.6059999 107 0 0 0 0.01513
3.0039999 -0.18799999 1.6059999 105 0 0 0 0.01514
2.9879999 -0.191 1.6059999 119 0 0 0 0.01515
2.974 -0.193 1.608 120 0 0 0 0.01516
2.9549999 -0.19599999 1.6059999 120 0 0 0 0.01517
2.938 -0.198 1.6059999 127 0 0 0 0.01518
2.925 -0.20100001 1.607 132 0 0 0 0.01519
2.905 -0.204 1.605 145 0 0 0 0.0152
2.8929999 -0.207 1.6059999 144 0 0 0 0.01521
2.8789999 -0.20900001 1.6059999 144 0 0 0 0.01522
2.8610001 -0.212 1.605 138 0 0 0 0.01523
2.8540001 -0.215 1.609 150 0 0 0 0.01524
2.8369999 -0.21799999 1.608 150 0 0 0 0.01525
2.8210001 -0.22 1.6059999 138 0 0 0 0.01526
2.8080001 -0.223 1.607 145 0 0 0 0.01527
2.7950001 -0.226 1.607 150 0 0 0 0.01528
2.7820001 -0.229 1.607 150 0 0 0 0.01529
2.77 -0.23199999 1.608 150 0 0 0 0.0153
2.7550001 -0.234 1.6059999 150 0 0 0 0.01531
2.744 -0.237 1.607 144 0 0 0 0.01532
2.7320001 -0.23999999 1.608 150 0 0 0 0.01533
2.7179999 -0.243 1.6059999 150 0 0 0 0.01534
2.704 -0.245 1.605 150 0 0 0 0.01535
2.6949999 -0.249 1.6059999 150 0 0 0 0.01536
2.6819999 -0.25099999 1.605 149 0 0 0 0.01537
2.674 -0.255 1.607 150 0 0 0 0.01538
2.6659999 -0.25799999 1.609 150 0 0 0 0.01539
2.6530001 -0.25999999 1.608 150 0 0 0 0.0154
2.641 -0.26300001 1.607 150 0 0 0 0.01541
2.632 -0.266 1.607 150 0 0 0 0.01542
2.6240001 -0.26899999 1.609 150 0 0 0 0.01543
2.6159999 -0.273 1.61 150 0 0 0 0.01544
2.602 -0.27500001 1.608 150 0 0 0 0.01545
2.5940001 -0.278 1.608 150 0 0 0 0.01546
2.5829999 -0.28099999 1.607 98 0 0 0 0.01547
2.572 -0.28400001 1.6059999 60 0 0 0 0.01548
2.5610001 -0.287 1.604 38 0 0 0 0.01549
2.549 -0.289 1.603 30 0 0 0 0.0155
2.533 -0.292 1.598 23 0 0 0 0.01551
2.513 -0.29300001 1.59 22 0 0 0 0.01552
2.4949999 -0.29499999 1.584 21 0 0 0 0.01553
2.4779999 -0.29699999 1.5779999 19 0 0 0 0.01554
2.451 -0.29800001 1.5650001 20 0 0 0 0.01555
2.4089999 -0.29699999 1.543 18 0 0 0 0.01556
2.3889999 -0.29800001 1.535 21 0 0 0 0.01557
2.3800001 -0.301 1.533 23 0 0 0 0.01558
2.378 -0.30399999 1.536 23 0 0 0 0.01559
2.3800001 -0.308 1.5420001 23 0 0 0 0.0156
2.3800001 -0.31200001 1.546 20 0 0 0 0.01561
2.381 -0.31600001 1.55 20 0 0 0 0.01562
2.3840001 -0.32100001 1.556 17 0 0 0 0.015629999
2.3859999 -0.32499999 1.561 16 0 0 0 0.01564
2.3759999 -0.32699999 1.558 12 0 0 0 0.01565
2.381 -0.33199999 1.5650001 12 0 0 0 0.015659999
2.3840001 -0.336 1.5700001 13 0 0 0 0.01567
2.3800001 -0.34 1.571 15 0 0 0 0.01568
2.382 -0.34400001 1.575 21 0 0 0 0.015690001
2.382 -0.34799999 1.579 24 0 0 0 0.015699999
2.382 -0.352 1.582 24 0 0 0 0.01571
2.3840001 -0.35600001 1.586 25 0 0 0 0.01572
2.381 -0.359 1.586 25 0 0 0 0.015729999
2.382 -0.36300001 1.59 27 0 0 0 0.01574
2.3829999 -0.36700001 1.5930001 26 0 0 0 0.01575
2.381 -0.37099999 1.594 27 0 0 0 0.015760001
2.3870001 -0.37599999 1.6 30 0 0 0 0.015769999
2.3829999 -0.37900001 1.6 33 0 0 0 0.01578
2.3829999 -0.38299999 1.602 34 0 0 0 0.015790001
2.381 -0.38600001 1.602 38 0 0 0 0.015799999
2.381 -0.38999999 1.604 43 0 0 0 0.01581
2.381 -0.39399999 1.605 49 0 0 0 0.01582
2.3789999 -0.39700001 1.6059999 54 0 0 0 0.015830001
2.3770001 -0.40099999 1.6059999 59 0 0 0 0.01584
2.3759999 -0.40400001 1.6059999 62 0 0 0 0.01585
2.3729999 -0.40700001 1.6059999 63 0 0 0 0.015860001
2.3729999 -0.41100001 1.607 69 0 0 0 0.015869999
2.372 -0.41499999 1.607 66 0 0 0 0.01588
2.3759999 -0.419 1.61 71 0 0 0 0.01589
2.3759999 -0.42300001 1.6109999 75 0 0 0 0.015900001
2.3729999 -0.426 1.61 76 0 0 0 0.01591
2.3729999 -0.42899999 1.61 75 0 0 0 0.01592
2.375 -0.433 1.6109999 77 0 0 0 0.015930001
2.375 -0.43700001 1.612 77 0 0 0 0.015939999
2.3740001 -0.44 1.6109999 77 0 0 0 0.01595
2.3759999 -0.44400001 1.612 78 0 0 0 0.01596
2.375 -0.447 1.612 75 0 0 0 0.015969999
2.3740001 -0.44999999 1.61 74 0 0 0 0.01598
2.375 -0.454 1.6109999 75 0 0 0 0.01599
2.378 -0.458 1.612 73 0 0 0 0.016000001
2.378 -0.461 1.6109999 70 0 0 0 0.016009999
2.378 -0.46399999 1.61 68 0 0 0 0.01602
2.378 -0.46799999 1.609 64 0 0 0 0.016030001
2.381 -0.47099999 1.61 62 0 0 0 0.016039999
2.3829999 -0.47499999 1.61 58 0 0 0 0.01605
2.3840001 -0.47799999 1.61 54 0 0 0 0.01606
2.3889999 -0.48199999 1.6109999 51 0 0 0 0.016070001
2.3800001 -0.48300001 1.604 46 0 0 0 0.01608
2.388 -0.48800001 1.607 42 0 0 0 0.01609
2.388 -0.491 1.605 36 0 0 0 0.016100001
2.3870001 -0.49399999 1.603 33 0 0 0 0.016109999
2.391 -0.49700001 1.603 27 0 0 0 0.01612
2.391 -0.5 1.601 19 0 0 0 0.01613
2.3940001 -0.50400001 1.6 19 0 0 0 0.016140001
2.3929999 -0.50599998 1.597 19 0 0 0 0.01615
2.3929999 -0.509 1.595 19 0 0 0 0.01616
2.391 -0.51099998 1.591 21 0 0 0 0.016170001
2.392 -0.514 1.589 21 0 0 0 0.016179999
2.3889999 -0.51599997 1.5829999 23 0 0 0 0.01619
2.3929999 -0.51899999 1.5829999 21 0 0 0 0.0162
2.392 -0.52100003 1.579 24 0 0 0 0.016209999
2.391 -0.52399999 1.575 26 0 0 0 0.01622
2.3900001 -0.52600002 1.571 28 0 0 0 0.01623
2.391 -0.528 1.568 27 0 0 0 0.016240001
2.3889999 -0.52999997 1.563 27 0 0 0 0.016249999
2.392 -0.53299999 1.562 27 0 0 0 0.01626
2.395 -0.53600001 1.5599999 25 0 0 0 0.01627
2.395 -0.53799999 1.556 25 0 0 0 0.016279999
2.3929999 -0.53899997 1.55 22 0 0 0 0.01629
2.395 -0.542 1.5470001 20 0 0 0 0.0163
2.3959999 -0.54400003 1.543 16 0 0 0 0.016310001
2.395 -0.54500002 1.538 18 0 0 0 0.016319999
2.3970001 -0.54699999 1.535 18 0 0 0 0.01633
2.3929999 -0.54799998 1.528 17 0 0 0 0.016340001
2.3940001 -0.55000001 1.524 17 0 0 0 0.016349999
2.395 -0.55199999 1.5190001 17 0 0 0 0.01636
2.392 -0.55299997 1.513 16 0 0 0 0.01637
2.3940001 -0.55500001 1.5089999 17 0 0 0 0.016380001
2.395 -0.55699998 1.505 17 0 0 0 0.01639
2.3940001 -0.55800003 1.499 17 0 0 0 0.0164
2.3940001 -0.55900002 1.493 17 0 0 0 0.016410001
2.3940001 -0.56 1.488 18 0 0 0 0.016419999
2.392 -0.56099999 1.482 18 0 0 0 0.01643
2.3929999 -0.56199998 1.476 19 0 0 0 0.01644
2.395 -0.56400001 1.472 19 0 0 0 0.016450001
2.395 -0.565 1.466 20 0 0 0 0.01646
2.3970001 -0.56599998 1.462 21 0 0 0 0.01647
2.3959999 -0.56699997 1.456 22 0 0 0 0.016480001
2.3940001 -0.56800002 1.449 23 0 0 0 0.016489999
2.3959999 -0.56900001 1.444 23 0 0 0 0.0165
2.395 -0.56900001 1.437 25 0 0 0 0.01651
2.3889999 -0.56800002 1.427 24 0 0 0 0.016519999
2.3900001 -0.56900001 1.4220001 25 0 0 0 0.01653
2.3970001 -0.57200003 1.42 28 0 0 0 0.01654
2.392 -0.57099998 1.411 27 0 0 0 0.016550001
2.3959999 -0.57200003 1.406 26 0 0 0 0.016559999
2.3959999 -0.57300001 1.4 27 0 0 0 0.01657
2.3970001 -0.57300001 1.3940001 26 0 0 0 0.016580001
2.3900001 -0.57200003 1.3839999 22 0 0 0 0.016589999
2.392 -0.57200003 1.378 21 0 0 0 0.0166
2.3889999 -0.57200003 1.37 20 0 0 0 0.01661
2.3940001 -0.57300001 1.3660001 23 0 0 0 0.016620001
2.3940001 -0.57300001 1.359 23 0 0 0 0.01663
2.3929999 -0.57300001 1.352 24 0 0 0 0.01664
2.391 -0.57200003 1.3430001 24 0 0 0 0.016650001
2.391 -0.57200003 1.337 21 0 0 0 0.016659999
2.395 -0.57300001 1.332 21 0 0 0 0.01667
2.3929999 -0.57200003 1.324 19 0 0 0 0.01668
2.392 -0.57200003 1.316 18 0 0 0 0.016690001
2.3929999 -0.57099998 1.3099999 19 0 0 0 0.0167
2.3900001 -0.56999999 1.301 19 0 0 0 0.01671
2.3889999 -0.56999999 1.293 19 0 0 0 0.016720001
2.392 -0.56999999 1.288 19 0 0 0 0.016729999
2.388 -0.56800002 1.279 15 0 0 0 0.01674
2.391 -0.56800002 1.273 17 0 0 0 0.01675
2.3889999 -0.56699997 1.265 20 0 0 0 0.016759999
2.3900001 -0.56699997 1.258 21 0 0 0 0.01677
2.3870001 -0.565 1.249 24 0 0 0 0.01678
2.3859999 -0.56400001 1.2410001 22 0 0 0 0.016790001
2.3870001 -0.56400001 1.234 22 0 0 0 0.016799999
2.391 -0.56400001 1.228 23 0 0 0 0.01681
2.388 -0.56199998 1.219 16 0 0 0 0.01682
2.3989999 -0.56300002 1.217 41 0 0 0 0.016829999
2.9200001 -0.685 1.473 150 0 0 0 0.01684
3.2260001 -0.755 1.617 46 0 0 0 0.01685
3.24 -0.75700003 1.614 38 0 0 0 0.016860001
3.2550001 -0.75800002 1.6109999 40 0 0 0 0.016869999
3.2750001 -0.76099998 1.6109999 42 0 0 0 0.01688
3.296 -0.76499999 1.61 41 0 0 0 0.016890001
3.3139999 -0.76700002 1.609 40 0 0 0 0.016899999
3.336 -0.76999998 1.609 43 0 0 0 0.01691
3.346 -0.76999998 1.603 50 0 0 0 0.01692
3.3729999 -0.77499998 1.605 49 0 0 0 0.016930001
3.405 -0.77999997 1.609 39 0 0 0 0.01694
3.4289999 -0.78299999 1.61 36 0 0 0 0.01695
3.4519999 -0.78600001 1.609 37 0 0 0 0.016960001
3.471 -0.78799999 1.607 36 0 0 0 0.016969999
3.5009999 -0.792 1.61 38 0 0 0 0.01698
3.529 -0.796 1.6109999 38 0 0 0 0.01699
3.5450001 -0.79699999 1.607 36 0 0 0 0.017000001
3.5710001 -0.80000001 1.607 34 0 0 0 0.01701
3.5999999 -0.80400002 1.609 31 0 0 0 0.01702
3.622 -0.80599999 1.6059999 27 0 0 0 0.017030001
3.651 -0.80900002 1.607 28 0 0 0 0.017039999
3.6819999 -0.81300002 1.609 28 0 0 0 0.01705
3.704 -0.815 1.607 29 0 0 0 0.01706
3.733 -0.81800002 1.607 29 0 0 0 0.017069999
3.753 -0.81900001 1.603 29 0 0 0 0.01708
3.7820001 -0.82200003 1.604 27 0 0 0 0.01709
3.813 -0.82599998 1.604 28 0 0 0 0.017100001
3.839 -0.82800001 1.603 27 0 0 0 0.017109999
3.8670001 -0.82999998 1.602 26 0 0 0 0.01712
3.8959999 -0.833 1.601 27 0 0 0 0.017130001
3.934 -0.83700001 1.604 27 0 0 0 0.017139999
3.9619999 -0.83899999 1.603 27 0 0 0 0.01715
3.994 -0.84200001 1.603 35 0 0 0 0.01716
4.0019999 -0.83999997 1.5930001 39 0 0 0 0.017170001
3.9990001 -0.83499998 1.579 37 0 0 0 0.01718
4.013 -0.83399999 1.571 24 0 0 0 0.01719
4.0419998 -0.83600003 1.569 13 0 0 0 0.017200001
4.0819998 -0.83999997 1.572 10 0 0 0 0.017209999
4.125 -0.84399998 1.575 10 0 0 0 0.01722
4.158 -0.847 1.574 10 0 0 0 0.01723
4.191 -0.84899998 1.573 12 0 0 0 0.017240001
0 0 0 0 0 0 0 0.01725
0 0 0 0 0 0 0 0.01726
0 0 0 0 0 0 0 0.017270001
0 0 0 0 0 0 0 0.017279999
0 0 0 0 0 0 0 0.01729
0 0 0 0 0 0 0 0.0173
0 0 0 0 0 0 0 0.017309999
0 0 0 0 0 0 0 0.01732
0 0 0 0 0 0 0 0.01733
0 0 0 0 0 0 0 0.017340001
0 0 0 0 0 0 0 0.017349999
0 0 0 0 0 0 0 0.01736
0 0 0 0 0 0 0 0.01737
0 0 0 0 0 0 0 0.017379999
0 0 0 0 0 0 0 0.01739
0 0 0 0 0 0 0 0.0174
0 0 0 0 0 0 0 0.017410001
0 0 0 0 0 0 0 0.017419999
0 0 0 0 0 0 0 0.01743
0 0 0 0 0 0 0 0.017440001
0 0 0 0 0 0 0 0.017449999
0 0 0 0 0 0 0 0.01746
0 0 0 0 0 0 0 0.01747
0 0 0 0 0 0 0 0.017480001
0 0 0 0 0 0 0 0.01749
0 0 0 0 0 0 0 0.0175
0 0 0 0 0 0 0 0.017510001
0 0 0 0 0 0 0 0.017519999
0 0 0 0 0 0 0 0.01753
0 0 0 0 0 0 0 0.01754
0 0 0 0 0 0 0 0.017550001
0 0 0 0 0 0 0 0.01756
0 0 0 0 0 0 0 0.01757
0 0 0 0 0 0 0 0.017580001
0 0 0 0 0 0 0 0.017589999
0 0 0 0 0 0 0 0.0176
0 0 0 0 0 0 0 0.01761
0 0 0 0 0 0 0 0.017619999
0 0 0 0 0 0 0 0.01763
0 0 0 0 0 0 0 0.01764
0 0 0 0 0 0 0 0.017650001
0 0 0 0 0 0 0 0.017659999
0 0 0 0 0 0 0 0.01767
0 0 0 0 0 0 0 0.017680001
0 0 0 0 0 0 0 0.017689999
0 0 0 0 0 0 0 0.0177
2.428 -0.34 0.55400002 0 0 0 0 0.01771
2.3889999 -0.33199999 0.53799999 1 0 0 0 0.017720001
2.3800001 -0.32699999 0.52899998 14 0 0 0 0.017729999
2.3789999 -0.32300001 0.52200001 23 0 0 0 0.01774
2.388 -0.31999999 0.51700002 24 0 0 0 0.017750001
2.4159999 -0.32100001 0.51499999 15 0 0 0 0.017759999
2.444 -0.31999999 0.514 16 0 0 0 0.01777
2.4690001 -0.31999999 0.51200002 17 0 0 0 0.01778
2.4949999 -0.31900001 0.50999999 19 0 0 0 0.017790001
2.523 -0.31900001 0.50800002 19 0 0 0 0.0178
2.549 -0.31799999 0.50599998 21 0 0 0 0.01781
2.5880001 -0.31900001 0.50599998 24 0 0 0 0.017820001
2.8800001 -0.35100001 0.55500001 150 0 0 0 0.017829999
2.9949999 -0.36000001 0.56800002 150 0 0 0 0.01784
3.1989999 -0.37900001 0.59799999 150 0 0 0 0.01785
3.2119999 -0.37599999 0.59100002 150 0 0 0 0.017859999
3.214 -0.37099999 0.58200002 150 0 0 0 0.01787
3.2130001 -0.366 0.57200003 150 0 0 0 0.01788
3.217 -0.361 0.56400001 150 0 0 0 0.017890001
3.211 -0.35499999 0.55299997 150 0 0 0 0.017899999
3.2130001 -0.34999999 0.54400003 150 0 0 0 0.01791
3.2179999 -0.345 0.53600001 150 0 0 0 0.01792
3.2079999 -0.33899999 0.52499998 150 0 0 0 0.017929999
3.2090001 -0.33399999 0.51599997 150 0 0 0 0.01794
3.224 -0.33000001 0.509 150 0 0 0 0.01795
3.24 -0.32699999 0.50199997 150 0 0 0 0.017960001
3.2409999 -0.32100001 0.493 150 0 0 0 0.017969999
3.2390001 -0.31600001 0.484 150 0 0 0 0.01798
3.237 -0.31 0.47400001 150 0 0 0 0.017990001
3.237 -0.30500001 0.465 150 0 0 0 0.017999999
3.2349999 -0.29899999 0.45500001 150 0 0 0 0.01801
3.237 -0.294 0.44600001 150 0 0 0 0.01802
3.2290001 -0.28799999 0.43599999 150 0 0 0 0.018030001
3.234 -0.28299999 0.428 150 0 0 0 0.01804
3.24 -0.278 0.419 56 0 0 0 0.01805
3.302 -0.278 0.41800001 21 0 0 0 0.018060001
3.3440001 -0.27500001 0.414 55 0 0 0 0.018069999
3.3410001 -0.26899999 0.40400001 150 0 0 0 0.01808
3.3429999 -0.264 0.39500001 150 0 0 0 0.01809
3.3410001 -0.25799999 0.38600001 150 0 0 0 0.018100001
3.3429999 -0.252 0.377 150 0 0 0 0.01811
3.3440001 -0.24699999 0.36700001 150 0 0 0 0.01812
3.3380001 -0.241 0.35699999 150 0 0 0 0.018130001
3.3410001 -0.235 0.34900001 150 0 0 0 0.018139999
3.348 -0.23 0.34 150 0 0 0 0.01815
3.3710001 -0.22499999 0.333 150 0 0 0 0.01816
3.3729999 -0.22 0.324 151 0 0 0 0.018169999
3.3759999 -0.214 0.315 150 0 0 0 0.01818
3.372 -0.208 0.30500001 150 0 0 0 0.01819
3.3710001 -0.20200001 0.296 150 0 0 0 0.018200001
3.4119999 -0.198 0.28999999 150 0 0 0 0.018209999
3.438 -0.19400001 0.28299999 151 0 0 0 0.01822
3.438 -0.18799999 0.273 150 0 0 0 0.018230001
3.437 -0.18099999 0.264 150 0 0 0 0.018239999
3.438 -0.175 0.255 150 0 0 0 0.01825
3.4360001 -0.169 0.245 150 0 0 0 0.01826
3.434 -0.163 0.236 150 0 0 0 0.018270001
3.4349999 -0.15700001 0.226 150 0 0 0 0.018279999
3.4349999 -0.15099999 0.21699999 150 0 0 0 0.01829
3.4360001 -0.145 0.208 150 0 0 0 0.018300001
3.4319999 -0.138 0.198 150 0 0 0 0.018309999
3.431 -0.132 0.189 150 0 0 0 0.01832
3.4330001 -0.126 0.18000001 150 0 0 0 0.01833
3.431 -0.12 0.17 150 0 0 0 0.018340001
3.4289999 -0.113 0.161 150 0 0 0 0.01835
3.427 -0.107 0.152 150 0 0 0 0.01836
3.428 -0.101 0.14300001 150 0 0 0 0.018370001
3.431 -0.094999999 0.134 150 0 0 0 0.018379999
3.428 -0.088 0.124 150 0 0 0 0.01839
3.4289999 -0.082000002 0.115 150 0 0 0 0.0184
3.4260001 -0.075999998 0.106 150 0 0 0 0.018409999
3.4219999 -0.068999998 0.097000003 150 0 0 0 0.01842
3.428 -0.063000001 0.088 150 0 0 0 0.01843
3.4230001 -0.057 0.079000004 150 0 0 0 0.018440001
3.4170001 -0.050000001 0.07 150 0 0 0 0.018449999
3.4230001 -0.044 0.061000001 150 0 0 0 0.01846
3.424 -0.037 0.050999999 150 0 0 0 0.01847
3.424 -0.030999999 0.043000001 150 0 0 0 0.018479999
3.4189999 -0.024 0.033 151 0 0 0 0.01849
3.4200001 -0.017999999 0.024 151 0 0 0 0.0185
3.4200001 -0.012 0.015 151 0 0 0 0.018510001
3.4200001 -0.0049999999 0.0060000001 151 0 0 0 0.018519999
3.415 0 -0.0020000001 151 0 0 0 0.01853
3.4219999 0.0070000002 -0.011 151 0 0 0 0.018540001
3.4260001 0.013 -0.02 152 0 0 0 0.018549999
3.421 0.02 -0.028000001 152 0 0 0 0.01856
3.418 0.026000001 -0.037 152 0 0 0 0.01857
3.418 0.033 -0.046 152 0 0 0 0.018580001
3.4119999 0.039000001 -0.055 153 0 0 0 0.01859
3.4070001 0.046 -0.064000003 153 0 0 0 0.0186
3.4030001 0.052999999 -0.072999999 153 0 0 0 0.018610001
3.4059999 0.059 -0.082000002 153 0 0 0 0.018619999
3.4059999 0.066 -0.090000004 153 0 0 0 0.01863
3.3970001 0.071999997 -0.098999999 153 0 0 0 0.01864
3.4000001 0.079000004 -0.108 153 0 0 0 0.018650001
3.3959999 0.086000003 -0.116 153 0 0 0 0.01866
3.3929999 0.092 -0.125 153 0 0 0 0.01867
3.395 0.098999999 -0.134 153 0 0 0 0.018680001
3.398 0.106 -0.14300001 153 0 0 0 0.018689999
3.3970001 0.112 -0.152 153 0 0 0 0.0187
3.3959999 0.119 -0.16 153 0 0 0 0.01871
3.395 0.126 -0.169 153 0 0 0 0.018719999
3.405 0.133 -0.178 152 0 0 0 0.01873
3.404 0.14 -0.18700001 152 0 0 0 0.01874
3.404 0.147 -0.19599999 152 0 0 0 0.018750001
3.4089999 0.154 -0.204 152 0 0 0 0.018759999
3.405 0.16 -0.213 152 0 0 0 0.01877
3.4059999 0.167 -0.222 152 0 0 0 0.018780001
3.405 0.17399999 -0.23 152 0 0 0 0.018789999
3.4030001 0.18099999 -0.23899999 151 0 0 0 0.0188
3.404 0.18799999 -0.248 151 0 0 0 0.01881
3.4030001 0.19499999 -0.25600001 151 0 0 0 0.018820001
3.4000001 0.20100001 -0.26499999 151 0 0 0 0.018829999
3.3989999 0.208 -0.273 151 0 0 0 0.01884
3.398 0.215 -0.28200001 151 0 0 0 0.018850001
3.405 0.223 -0.29100001 151 0 0 0 0.018859999
3.398 0.229 -0.29899999 151 0 0 0 0.01887
3.3970001 0.236 -0.30700001 151 0 0 0 0.01888
3.4000001 0.243 -0.31600001 151 0 0 0 0.018890001
3.395 0.25 -0.324 150 0 0 0 0.0189
3.398 0.257 -0.333 150 0 0 0 0.01891
3.401 0.26499999 -0.34200001 150 0 0 0 0.018920001
3.3959999 0.27200001 -0.34999999 150 0 0 0 0.018929999
3.398 0.27900001 -0.359 150 0 0 0 0.01894
3.3959999 0.28600001 -0.36700001 150 0 0 0 0.01895
3.398 0.29300001 -0.37599999 150 0 0 0 0.018959999
3.3929999 0.30000001 -0.384 150 0 0 0 0.01897
3.3929999 0.30700001 -0.39199999 150 0 0 0 0.01898
3.395 0.315 -0.40099999 150 0 0 0 0.018990001
3.3900001 0.32100001 -0.40900001 150 0 0 0 0.018999999
3.3889999 0.329 -0.417 150 0 0 0 0.01901
3.391 0.336 -0.426 150 0 0 0 0.01902
3.392 0.34299999 -0.43399999 150 0 0 0 0.019029999
3.388 0.34999999 -0.442 150 0 0 0 0.01904
3.3859999 0.35800001 -0.44999999 150 0 0 0 0.01905
3.3900001 0.36500001 -0.45899999 150 0 0 0 0.019060001
3.3900001 0.373 -0.46700001 150 0 0 0 0.019069999
3.388 0.38 -0.47499999 150 0 0 0 0.01908
3.3889999 0.38800001 -0.484 150 0 0 0 0.019090001
3.3840001 0.39399999 -0.491 150 0 0 0 0.019099999
3.3859999 0.40200001 -0.5 150 0 0 0 0.01911
3.3870001 0.41 -0.509 150 0 0 0 0.01912
3.385 0.417 -0.51700002 150 0 0 0 0.019130001
3.388 0.42500001 -0.52499998 150 0 0 0 0.01914
3.3829999 0.43200001 -0.53299999 150 0 0 0 0.01915
3.388 0.44 -0.542 150 0 0 0 0.019160001
3.3900001 0.44800001 -0.55000001 150 0 0 0 0.019169999
3.3859999 0.45500001 -0.55800003 150 0 0 0 0.01918
3.3829999 0.46200001 -0.56599998 150 0 0 0 0.01919
3.3789999 0.47 -0.57300001 150 0 0 0 0.019200001
3.332 0.47099999 -0.57300001 150 0 0 0 0.01921
3.3099999 0.47499999 -0.57800001 150 0 0 0 0.01922
3.309 0.48300001 -0.58600003 150 0 0 0 0.019230001
3.3099999 0.49000001 -0.59399998 150 0 0 0 0.019239999
3.29 0.495 -0.59799999 150 0 0 0 0.01925
3.2809999 0.50099999 -0.60399997 150 0 0 0 0.01926
3.276 0.50800002 -0.611 150 0 0 0 0.019269999
3.28 0.51599997 -0.62 150 0 0 0 0.01928
3.2780001 0.523 -0.62699997 150 0 0 0 0.01929
3.2750001 0.53100002 -0.634 150 0 0 0 0.019300001
3.263 0.53600001 -0.63999999 42 0 0 0 0.019309999
3.221 0.537 -0.63999999 25 0 0 0 0.01932
3.1719999 0.53600001 -0.63700002 24 0 0 0 0.019330001
3.1099999 0.53299999 -0.63200003 25 0 0 0 0.019339999
3.0650001 0.53299999 -0.63 25 0 0 0 0.01935
3.053 0.53799999 -0.63499999 27 0 0 0 0.01936
3.0239999 0.54000002 -0.63599998 28 0 0 0 0.019370001
2.9630001 0.53600001 -0.63 28 0 0 0 0.019379999
2.901 0.53200001 -0.62400001 28 0 0 0 0.01939
2.813 0.523 -0.61199999 27 0 0 0 0.019400001
2.7260001 0.51300001 -0.59899998 25 0 0 0 0.019409999
2.6600001 0.50700003 -0.59100002 24 0 0 0 0.01942
2.609 0.50400001 -0.58600003 23 0 0 0 0.01943
2.5599999 0.50099999 -0.58099997 23 0 0 0 0.019440001
2.5090001 0.49700001 -0.57499999 21 0 0 0 0.01945
2.4649999 0.49399999 -0.57099998 22 0 0 0 0.01946
2.415 0.49000001 -0.565 22 0 0 0 0.019470001
2.3789999 0.48899999 -0.56199998 24 0 0 0 0.019479999
2.313 0.48100001 -0.551 27 0 0 0 0.01949
2.263 0.47600001 -0.54500002 150 0 0 0 0.0195
2.253 0.479 -0.54699999 151 0 0 0 0.019509999
2.2520001 0.48500001 -0.55199999 151 0 0 0 0.01952
2.256 0.49200001 -0.55800003 151 0 0 0 0.01953
2.2420001 0.49399999 -0.56 150 0 0 0 0.019540001
2.2260001 0.49599999 -0.56099999 150 0 0 0 0.019549999
2.223 0.50099999 -0.56599998 150 0 0 0 0.01956
2.2219999 0.50700003 -0.56999999 151 0 0 0 0.01957
2.22 0.51200002 -0.57499999 150 0 0 0 0.019579999
2.2190001 0.51700002 -0.579 151 0 0 0 0.01959
2.224 0.52399999 -0.58600003 151 0 0 0 0.0196
2.223 0.52999997 -0.58999997 151 0 0 0 0.019610001
2.2219999 0.53500003 -0.59500003 151 0 0 0 0.019619999
2.2190001 0.54000002 -0.59899998 151 0 0 0 0.01963
2.2160001 0.54500002 -0.60299999 151 0 0 0 0.019640001
2.2179999 0.55199999 -0.60900003 151 0 0 0 0.019649999
2.223 0.55900002 -0.61500001 151 0 0 0 0.01966
2.2309999 0.56599998 -0.62199998 151 0 0 0 0.01967
2.2279999 0.57200003 -0.62599999 151 0 0 0 0.019680001
2.2279999 0.57700002 -0.63099998 151 0 0 0 0.01969
2.2260001 0.583 -0.63499999 151 0 0 0 0.0197
2.227 0.58899999 -0.63999999 150 0 0 0 0.019710001
2.2290001 0.59500003 -0.64600003 151 0 0 0 0.019719999
2.2579999 0.60900003 -0.65899998 150 0 0 0 0.01973
2.348 0.63999999 -0.69 150 0 0 0 0.01974
2.4879999 0.68400002 -0.736 150 0 0 0 0.019750001
2.48 0.68900001 -0.73900002 150 0 0 0 0.01976
2.487 0.69800001 -0.74699998 150 0 0 0 0.01977
2.4860001 0.704 -0.75199997 150 0 0 0 0.019780001
2.483 0.70999998 -0.75599998 150 0 0 0 0.019789999
2.4030001 0.69400001 -0.73699999 150 0 0 0 0.0198
1.7640001 0.514 -0.54400003 150 0 0 0 0.01981
1.6619999 0.48899999 -0.51599997 150 0 0 0 0.019819999
1.479 0.43900001 -0.46200001 2 0 0 0 0.01983
1.461 0.43799999 -0.46000001 2 0 0 0 0.01984
1.448 0.43799999 -0.458 3 0 0 0 0.019850001
1.426 0.435 -0.454 3 0 0 0 0.019859999
1.409 0.43399999 -0.45199999 3 0 0 0 0.01987
1.393 0.433 -0.449 2 0 0 0 0.019880001
1.3839999 0.43399999 -0.449 3 0 0 0 0.019889999
1.355 0.428 -0.442 8 0 0 0 0.0199
1.355 0.43200001 -0.44499999 2 0 0 0 0.01991
1.3150001 0.42300001 -0.43399999 11 0 0 0 0.019920001
1.312 0.42500001 -0.43599999 15 0 0 0 0.019929999
1.2869999 0.421 -0.43000001 150 0 0 0 0.01994
1.283 0.42300001 -0.43099999 150 0 0 0 0.019950001
1.28 0.426 -0.43200001 150 0 0 0 0.019959999
1.278 0.42899999 -0.43399999 150 0 0 0 0.01997
1.281 0.433 -0.43799999 150 0 0 0 0.01998
1.276 0.435 -0.43799999 150 0 0 0 0.019990001
1.279 0.44 -0.442 150 0 0 0 0.02
1.278 0.44299999 -0.44299999 150 0 0 0 0.02001
1.276 0.44600001 -0.44499999 150 0 0 0 0.020020001
1.278 0.45100001 -0.44800001 150 0 0 0 0.020029999
1.278 0.454 -0.44999999 150 0 0 0 0.02004
1.276 0.45699999 -0.45199999 150 0 0 0 0.02005
1.28 0.46200001 -0.456 150 0 0 0 0.020059999
1.28 0.46599999 -0.458 150 0 0 0 0.02007
1.285 0.47099999 -0.46200001 33 0 0 0 0.02008
1.2690001 0.46900001 -0.458 10 0 0 0 0.020090001
1.235 0.46000001 -0.44800001 52 0 0 0 0.020099999
1.2130001 0.45500001 -0.442 51 0 0 0 0.02011
1.205 0.456 -0.44100001 57 0 0 0 0.02012
1.1849999 0.45199999 -0.43599999 57 0 0 0 0.020129999
1.181 0.45300001 -0.43599999 61 0 0 0 0.02014
1.173 0.454 -0.435 63 0 0 0 0.02015
1.163 0.45300001 -0.433 60 0 0 0 0.020160001
1.159 0.45500001 -0.433 65 0 0 0 0.020169999
1.15 0.454 -0.43099999 66 0 0 0 0.02018
1.135 0.45199999 -0.428 64 0 0 0 0.020190001
1.1289999 0.45300001 -0.42699999 65 0 0 0 0.020199999
1.114 0.44999999 -0.42300001 67 0 0 0 0.02021
1.109 0.45100001 -0.42199999 72 0 0 0 0.02022
1.101 0.45100001 -0.421 70 0 0 0 0.020230001
1.0930001 0.45100001 -0.419 67 0 0 0 0.02024
1.084 0.44999999 -0.417 70 0 0 0 0.02025
1.073 0.44800001 -0.414 70 0 0 0 0.020260001
1.066 0.449 -0.41299999 66 0 0 0 0.020269999
1.059 0.449 -0.412 69 0 0 0 0.02028
1.051 0.44800001 -0.41 66 0 0 0 0.02029
1.045 0.449 -0.40900001 68 0 0 0 0.020300001
1.0420001 0.44999999 -0.40900001 67 0 0 0 0.02031
1.033 0.44999999 -0.40700001 67 0 0 0 0.02032
1.021 0.447 -0.403 71 0 0 0 0.020330001
1.0140001 0.447 -0.40200001 71 0 0 0 0.020339999
1.006 0.44600001 -0.40000001 73 0 0 0 0.02035
1 0.44600001 -0.398 70 0 0 0 0.02036
0.99199998 0.44499999 -0.396 69 0 0 0 0.020369999
0.991 0.447 -0.39700001 68 0 0 0 0.02038
0.98299998 0.44600001 -0.39500001 67 0 0 0 0.02039
0.97299999 0.44499999 -0.39199999 67 0 0 0 0.020400001
0.96799999 0.44499999 -0.391 66 0 0 0 0.020409999
0.96100003 0.44499999 -0.389 69 0 0 0 0.02042
0.95599997 0.44499999 -0.38699999 68 0 0 0 0.02043
0.949 0.44400001 -0.38499999 69 0 0 0 0.020439999
0.95200002 0.44800001 -0.38699999 68 0 0 0 0.02045
0.93900001 0.44400001 -0.38299999 62 0 0 0 0.02046
0.92900002 0.442 -0.37900001 56 0 0 0 0.020470001
0.92699999 0.44299999 -0.37900001 2 0 0 0 0.020479999
0.92199999 0.44299999 -0.37799999 58 0 0 0 0.02049
0.91100001 0.44100001 -0.37400001 56 0 0 0 0.020500001
0.90600002 0.44100001 -0.373 47 0 0 0 0.020509999
0.89700001 0.43799999 -0.36899999 66 0 0 0 0.02052
0.89700001 0.44100001 -0.37 78 0 0 0 0.02053
0.89700001 0.44299999 -0.37099999 76 0 0 0 0.020540001
0.89999998 0.447 -0.37200001 61 0 0 0 0.02055
0.90399998 0.45100001 -0.37400001 49 0 0 0 0.02056
0.90100002 0.45199999 -0.37400001 38 0 0 0 0.020570001
0.90200001 0.454 -0.37400001 31 0 0 0 0.020579999
0.90200001 0.45699999 -0.375 27 0 0 0 0.02059
0.89899999 0.45699999 -0.37400001 26 0 0 0 0.0206
0.89999998 0.46000001 -0.375 24 0 0 0 0.020609999
0.90899998 0.46599999 -0.37799999 24 0 0 0 0.02062
0.91100001 0.47 -0.38 22 0 0 0 0.02063
0.917 0.47499999 -0.382 14 0 0 0 0.020640001
0.92500001 0.48100001 -0.38600001 13 0 0 0 0.020649999
0.935 0.48899999 -0.38999999 10 0 0 0 0.02066
0.93300003 0.49000001 -0.389 12 0 0 0 0.02067
0.93599999 0.493 -0.38999999 10 0 0 0 0.020679999
0.93099999 0.493 -0.389 14 0 0 0 0.02069
0.92699999 0.49200001 -0.38699999 12 0 0 0 0.0207
0.92299998 0.49200001 -0.38499999 11 0 0 0 0.020710001
0.91799998 0.491 -0.38299999 11 0 0 0 0.020719999
0.91500002 0.491 -0.382 9 0 0 0 0.02073
0.91399997 0.493 -0.38100001 9 0 0 0 0.020740001
0.90899998 0.49200001 -0.37900001 8 0 0 0 0.020749999
0.90899998 0.49399999 -0.37900001 9 0 0 0 0.02076
0.90100002 0.491 -0.375 8 0 0 0 0.02077
0.898 0.491 -0.37400001 8 0 0 0 0.020780001
0.89499998 0.491 -0.37200001 8 0 0 0 0.02079
0.89300001 0.49200001 -0.37099999 7 0 0 0 0.0208
0.889 0.491 -0.36899999 8 0 0 0 0.020810001
0.88700002 0.491 -0.368 7 0 0 0 0.020819999
0.88499999 0.49200001 -0.36700001 7 0 0 0 0.02083
0.88200003 0.49200001 -0.36500001 7 0 0 0 0.02084
0.87900001 0.491 -0.36300001 7 0 0 0 0.020850001
0.87400001 0.49000001 -0.361 7 0 0 0 0.02086
0.87699997 0.493 -0.361 7 0 0 0 0.02087
0.86799997 0.48899999 -0.35699999 9 0 0 0 0.020880001
0.86199999 0.48800001 -0.354 12 0 0 0 0.020889999
0.86000001 0.48699999 -0.35299999 18 0 0 0 0.0209
0.85900003 0.48800001 -0.352 25 0 0 0 0.02091
0.85299999 0.486 -0.34799999 32 0 0 0 0.020919999
0.847 0.484 -0.34599999 43 0 0 0 0.02093
0.84799999 0.48500001 -0.345 54 0 0 0 0.02094
0.84500003 0.484 -0.34299999 51 0 0 0 0.020950001
0.847 0.486 -0.34299999 52 0 0 0 0.020959999
0.84399998 0.486 -0.34099999 58 0 0 0 0.02097
0.847 0.48899999 -0.34200001 49 0 0 0 0.02098
0.84299999 0.48699999 -0.33899999 47 0 0 0 0.020989999
0.84299999 0.48800001 -0.338 50 0 0 0 0.021
0.84500003 0.49000001 -0.338 41 0 0 0 0.02101
0.84200001 0.48899999 -0.336 43 0 0 0 0.021020001
0.84500003 0.49200001 -0.336 43 0 0 0 0.021029999
0.84500003 0.49200001 -0.33500001 44 0 0 0 0.02104
0.84799999 0.49399999 -0.33500001 43 0 0 0 0.021050001
0.84600002 0.49399999 -0.33399999 41 0 0 0 0.021059999
0.84200001 0.49200001 -0.331 39 0 0 0 0.02107
0.84399998 0.49399999 -0.331 39 0 0 0 0.02108
0.84399998 0.49399999 -0.329 36 0 0 0 0.021090001
0.84399998 0.495 -0.32800001 39 0 0 0 0.0211
0.84399998 0.495 -0.32699999 38 0 0 0 0.02111
0.84500003 0.49599999 -0.32600001 40 0 0 0 0.021120001
0.84500003 0.49599999 -0.32499999 41 0 0 0 0.021129999
0.84500003 0.49700001 -0.324 37 0 0 0 0.02114
0.84899998 0.49900001 -0.324 33 0 0 0 0.02115
0.85000002 0.5 -0.32300001 33 0 0 0 0.021159999
0.84799999 0.49900001 -0.32100001 32 0 0 0 0.02117
0.85000002 0.5 -0.32100001 30 0 0 0 0.02118
0.84899998 0.5 -0.31900001 31 0 0 0 0.021190001
0.85100001 0.50099999 -0.31799999 31 0 0 0 0.021199999
0.85399997 0.50199997 -0.31799999 29 0 0 0 0.02121
0.85100001 0.50099999 -0.31600001 32 0 0 0 0.02122
0.852 0.50099999 -0.31400001 30 0 0 0 0.021229999
0.852 0.50199997 -0.31299999 31 0 0 0 0.02124
0.85500002 0.50300002 -0.31299999 26 0 0 0 0.02125
0.85500002 0.50300002 -0.31099999 22 0 0 0 0.021260001
0.86199999 0.50700003 -0.31200001 13 0 0 0 0.021269999
0.86799997 0.50999999 -0.31299999 6 0 0 0 0.02128
0.875 0.514 -0.31400001 5 0 0 0 0.021290001
0.87099999 0.51099998 -0.31 4 0 0 0 0.021299999
0.875 0.51300001 -0.31 3 0 0 0 0.02131
0.88099998 0.51599997 -0.31099999 3 0 0 0 0.02132
0.889 0.51999998 -0.31200001 3 0 0 0 0.021330001
0.89300001 0.52200001 -0.31200001 3 0 0 0 0.02134
0.89700001 0.52399999 -0.31099999 3 0 0 0 0.02135
0.90200001 0.52600002 -0.31099999 3 0 0 0 0.021360001
0.91299999 0.53200001 -0.31299999 3 0 0 0 0.021369999
0.92199999 0.53600001 -0.31400001 3 0 0 0 0.02138
0.92900002 0.54000002 -0.315 4 0 0 0 0.02139
0.926 0.537 -0.31200001 4 0 0 0 0.021400001
0.94800001 0.54900002 -0.31799999 5 0 0 0 0.02141
0.954 0.55199999 -0.31799999 5 0 0 0 0.02142
0.963 0.55599999 -0.31900001 5 0 0 0 0.021430001
0.96799999 0.55800003 -0.31900001 5 0 0 0 0.021439999
0.97399998 0.56 -0.31799999 5 0 0 0 0.02145
0.97899997 0.56199998 -0.31799999 5 0 0 0 0.02146
0.98000002 0.56199998 -0.31600001 5 0 0 0 0.021469999
0.94599998 0.54100001 -0.303 5 0 0 0 0.02148
0.92400002 0.52700001 -0.294 6 0 0 0 0.02149
0.92199999 0.52499998 -0.292 7 0 0 0 0.021500001
0.90899998 0.51599997 -0.28600001 6 0 0 0 0.021509999
0.91100001 0.51599997 -0.28400001 7 0 0 0 0.02152
0.91399997 0.51599997 -0.28299999 7 0 0 0 0.02153
0.91399997 0.51499999 -0.28099999 7 0 0 0 0.021539999
0.912 0.51200002 -0.27900001 6 0 0 0 0.02155
0.91500002 0.51300001 -0.278 5 0 0 0 0.02156
0.912 0.50999999 -0.27500001 3 0 0 0 0.021570001
0.917 0.51099998 -0.27399999 2 0 0 0 0.021579999
0.92699999 0.51599997 -0.27500001 1 0 0 0 0.02159
0.92799997 0.51499999 -0.27399999 1 0 0 0 0.021600001
0.94 0.51899999 -0.27500001 1 0 0 0 0.021609999
0.95300001 0.52499998 -0.27700001 1 0 0 0 0.02162
0.97600001 0.53600001 -0.28099999 1 0 0 0 0.02163
0.96100003 0.52600002 -0.27500001 1 0 0 0 0.021640001
0.995 0.54299998 -0.28299999 1 0 0 0 0.02165
0.99400002 0.54000002 -0.28 1 0 0 0 0.02166
1.001 0.542 -0.28 2 0 0 0 0.021670001
1.005 0.54299998 -0.27900001 1 0 0 0 0.021679999
1.0140001 0.546 -0.27900001 1 0 0 0 0.02169
1.03 0.55199999 -0.28099999 2 0 0 0 0.0217
1.021 0.546 -0.27700001 2 0 0 0 0.021709999
1.049 0.55800003 -0.28200001 4 0 0 0 0.02172
1.045 0.55400002 -0.278 2 0 0 0 0.02173
1.049 0.55400002 -0.27700001 1 0 0 0 0.021740001
1.035 0.54400003 -0.271 1 0 0 0 0.021749999
0.97600001 0.51200002 -0.25400001 1 0 0 0 0.02176
0.92900002 0.48500001 -0.23899999 1 0 0 0 0.02177
0.91100001 0.47400001 -0.233 3 0 0 0 0.021779999
0.90899998 0.47 -0.23 4 0 0 0 0.02179
0.92299998 0.47600001 -0.23199999 5 0 0 0 0.0218
0.921 0.472 -0.229 5 0 0 0 0.021810001
0.921 0.47099999 -0.227 5 0 0 0 0.021819999
0.92000002 0.46799999 -0.22499999 5 0 0 0 0.02183
0.92199999 0.46700001 -0.22400001 6 0 0 0 0.021840001
0.917 0.46200001 -0.221 6 0 0 0 0.021849999
0.92400002 0.463 -0.22 7 0 0 0 0.02186
0.91900003 0.458 -0.21699999 8 0 0 0 0.02187
0.91799998 0.456 -0.215 7 0 0 0 0.021880001
0.92000002 0.45500001 -0.213 7 0 0 0 0.02189
0.92199999 0.45300001 -0.212 6 0 0 0 0.0219
0.912 0.44600001 -0.208 0 0 0 0 0.021910001
0.917 0.44600001 -0.207 0 0 0 0 0.021919999
3.0929999 1.499 -0.69199997 1 0 0 0 0.02193
3.0680001 1.479 -0.68000001 2 0 0 0 0.02194
3.0680001 1.472 -0.67400002 2 0 0 0 0.021950001
3.0650001 1.462 -0.667 3 0 0 0 0.02196
3.085 1.464 -0.66500002 3 0 0 0 0.02197
3.0999999 1.4630001 -0.662 3 0 0 0 0.021980001
3.0929999 1.451 -0.65399998 3 0 0 0 0.021989999
3.0780001 1.436 -0.64499998 3 0 0 0 0.022
3.0929999 1.4349999 -0.64099997 3 0 0 0 0.02201
3.1210001 1.4400001 -0.64099997 3 0 0 0 0.022019999
3.119 1.431 -0.634 3 0 0 0 0.02203
3.1199999 1.423 -0.62800002 3 0 0 0 0.02204
3.132 1.42 -0.62400001 3 0 0 0 0.022050001
3.1170001 1.405 -0.61500001 4 0 0 0 0.022059999
3.125 1.4 -0.611 4 0 0 0 0.02207
3.1329999 1.395 -0.60600001 3 0 0 0 0.02208
3.1329999 1.387 -0.60000002 3 0 0 0 0.022089999
3.118 1.3710001 -0.59100002 3 0 0 0 0.0221
3.115 1.3609999 -0.58399999 2 0 0 0 0.02211
3.1440001 1.365 -0.583 1 0 0 0 0.022120001
3.175 1.37 -0.583 1 0 0 0 0.022129999
3.2079999 1.376 -0.583 2 0 0 0 0.02214
3.2260001 1.374 -0.57999998 3 0 0 0 0.022150001
3.2149999 1.36 -0.57200003 5 0 0 0 0.022159999
3.2190001 1.353 -0.56699997 5 0 0 0 0.02217
3.2190001 1.344 -0.56099999 5 0 0 0 0.02218
3.2249999 1.337 -0.55599999 4 0 0 0 0.022190001
3.247 1.337 -0.55299997 3 0 0 0 0.0222
3.2479999 1.3279999 -0.54799998 4 0 0 0 0.02221
3.2449999 1.318 -0.54100001 5 0 0 0 0.022220001
3.2409999 1.307 -0.53500003 5 0 0 0 0.022229999
3.2750001 1.311 -0.53399998 3 0 0 0 0.02224
3.2809999 1.304 -0.52899998 2 0 0 0 0.02225
3.3080001 1.3049999 -0.528 3 0 0 0 0.022260001
3.316 1.298 -0.523 6 0 0 0 0.02227
3.326 1.293 -0.51899999 7 0 0 0 0.02228
3.3169999 1.28 -0.51200002 6 0 0 0 0.022290001
3.3180001 1.27 -0.50599998 6 0 0 0 0.022299999
3.332 1.266 -0.50199997 3 0 0 0 0.02231
1.252 0.472 -0.186 0 0 0 0 0.02232
1.286 0.48100001 -0.189 6 0 0 0 0.022329999
1.301 0.48199999 -0.189 13 0 0 0 0.02234
1.299 0.47799999 -0.18700001 82 0 0 0 0.02235
1.296 0.47299999 -0.184 150 0 0 0 0.022360001
1.2970001 0.47 -0.182 150 0 0 0 0.022369999
1.296 0.465 -0.18000001 150 0 0 0 0.02238
1.293 0.46000001 -0.177 150 0 0 0 0.022390001
1.296 0.45699999 -0.175 150 0 0 0 0.022399999
1.2920001 0.45199999 -0.17299999 150 0 0 0 0.02241
1.293 0.449 -0.171 150 0 0 0 0.02242
1.294 0.44499999 -0.169 150 0 0 0 0.022430001
1.296 0.442 -0.167 150 0 0 0 0.02244
1.296 0.43799999 -0.16500001 150 0 0 0 0.02245
1.2970001 0.43399999 -0.163 145 0 0 0 0.022460001
1.309 0.43399999 -0.162 34 0 0 0 0.022469999
1.326 0.43599999 -0.162 7 0 0 0 0.02248
1.337 0.43599999 -0.161 1 0 0 0 0.02249
1.354 0.43700001 -0.161 1 0 0 0 0.022500001
1.373 0.43900001 -0.162 0 0 0 0 0.02251
1.392 0.44100001 -0.162 1 0 0 0 0.02252
1.416 0.44499999 -0.162 1 0 0 0 0.022530001
1.437 0.447 -0.162 1 0 0 0 0.022539999
1.454 0.44800001 -0.162 1 0 0 0 0.02255
1.462 0.44499999 -0.161 1 0 0 0 0.02256
1.483 0.447 -0.161 1 0 0 0 0.022569999
2.526 0.755 -0.271 137 0 0 0 0.02258
2.306 0.68199998 -0.244 150 0 0 0 0.02259
2.4460001 0.71600002 -0.255 150 0 0 0 0.022600001
2.4890001 0.72100002 -0.25600001 150 0 0 0 0.022609999
2.487 0.713 -0.252 150 0 0 0 0.02262
2.4879999 0.70499998 -0.249 150 0 0 0 0.02263
2.4890001 0.69800001 -0.245 150 0 0 0 0.022639999
2.3180001 0.64300001 -0.22499999 150 0 0 0 0.02265
2.243 0.61500001 -0.214 151 0 0 0 0.02266
2.227 0.60399997 -0.20999999 151 0 0 0 0.022670001
2.2260001 0.597 -0.207 151 0 0 0 0.022679999
2.2290001 0.59100002 -0.204 151 0 0 0 0.02269
2.2279999 0.58399999 -0.20100001 151 0 0 0 0.022700001
2.2249999 0.57599998 -0.197 151 0 0 0 0.022709999
2.2260001 0.56999999 -0.19400001 151 0 0 0 0.02272
2.22 0.56099999 -0.191 151 0 0 0 0.02273
2.221 0.55500001 -0.18799999 151 0 0 0 0.022740001
2.223 0.54799998 -0.185 151 0 0 0 0.02275
2.2249999 0.542 -0.182 151 0 0 0 0.02276
2.227 0.53600001 -0.18000001 151 0 0 0 0.022770001
2.2290001 0.52899998 -0.177 151 0 0 0 0.022779999
2.227 0.52200001 -0.17399999 151 0 0 0 0.02279
2.2260001 0.51499999 -0.171 151 0 0 0 0.0228
2.234 0.50999999 -0.169 151 0 0 0 0.022810001
2.244 0.505 -0.16599999 151 0 0 0 0.02282
2.233 0.49599999 -0.163 152 0 0 0 0.02283
2.24 0.49000001 -0.16 152 0 0 0 0.022840001
2.27 0.49000001 -0.16 150 0 0 0 0.022849999
2.3380001 0.49700001 -0.162 23 0 0 0 0.02286
2.3900001 0.50099999 -0.162 22 0 0 0 0.02287
2.4430001 0.505 -0.163 22 0 0 0 0.022879999
2.4990001 0.50800002 -0.164 23 0 0 0 0.02289
2.5550001 0.51200002 -0.164 24 0 0 0 0.0229
2.6240001 0.51800001 -0.16500001 26 0 0 0 0.022910001
2.721 0.52899998 -0.168 29 0 0 0 0.022919999
2.832 0.54100001 -0.17200001 32 0 0 0 0.02293
2.898 0.54500002 -0.17200001 30 0 0 0 0.022940001
2.9389999 0.54299998 -0.171 30 0 0 0 0.022949999
3.0190001 0.54900002 -0.17200001 29 0 0 0 0.02296
3.0810001 0.551 -0.17200001 26 0 0 0 0.02297
3.151 0.55400002 -0.17299999 25 0 0 0 0.022980001
3.221 0.55599999 -0.17299999 25 0 0 0 0.02299
3.2650001 0.55299997 -0.171 35 0 0 0 0.023
3.283 0.546 -0.169 151 0 0 0 0.023010001
3.283 0.53600001 -0.16500001 153 0 0 0 0.023019999
3.277 0.52499998 -0.161 153 0 0 0 0.02303
3.2709999 0.514 -0.15700001 154 0 0 0 0.02304
3.299 0.50800002 -0.155 151 0 0 0 0.023050001
3.3180001 0.50099999 -0.152 152 0 0 0 0.02306
3.326 0.49200001 -0.149 152 0 0 0 0.02307
3.3410001 0.484 -0.146 152 0 0 0 0.023080001
3.369 0.477 -0.14300001 154 0 0 0 0.023089999
3.388 0.46900001 -0.141 152 0 0 0 0.0231
3.3900001 0.45899999 -0.13699999 152 0 0 0 0.02311
3.391 0.449 -0.133 152 0 0 0 0.023119999
3.388 0.43799999 -0.13 153 0 0 0 0.02313
3.3889999 0.42699999 -0.126 152 0 0 0 0.02314
3.388 0.417 -0.123 153 0 0 0 0.023150001
3.381 0.40599999 -0.119 154 0 0 0 0.023159999
3.378 0.39500001 -0.115 154 0 0 0 0.02317
3.3629999 0.382 -0.111 155 0 0 0 0.02318
3.362 0.37200001 -0.108 155 0 0 0 0.023189999
3.3629999 0.36199999 -0.105 155 0 0 0 0.0232
3.3540001 0.34999999 -0.101 158 0 0 0 0.02321
3.3469999 0.33899999 -0.097000003 159 0 0 0 0.023220001
3.352 0.329 -0.093999997 159 0 0 0 0.023229999
3.3510001 0.31900001 -0.090999998 160 0 0 0 0.02324
3.3540001 0.308 -0.088 160 0 0 0 0.023250001
3.3540001 0.29800001 -0.083999999 162 0 0 0 0.023259999
3.3559999 0.28799999 -0.081 163 0 0 0 0.02327
3.3559999 0.27700001 -0.078000002 164 0 0 0 0.02328
3.352 0.26699999 -0.075000003 164 0 0 0 0.023290001
3.3559999 0.25600001 -0.071000002 166 0 0 0 0.0233
3.3570001 0.24600001 -0.068000004 167 0 0 0 0.02331
3.3570001 0.236 -0.064999998 168 0 0 0 0.023320001
3.3570001 0.22499999 -0.061999999 167 0 0 0 0.023329999
3.3570001 0.215 -0.059 166 0 0 0 0.02334
3.358 0.204 -0.056000002 165 0 0 0 0.02335
3.3559999 0.19400001 -0.052999999 165 0 0 0 0.023360001
3.359 0.184 -0.050000001 166 0 0 0 0.02337
3.3559999 0.17299999 -0.046999998 164 0 0 0 0.02338
3.3640001 0.163 -0.044 163 0 0 0 0.023390001
3.3670001 0.153 -0.041000001 164 0 0 0 0.023399999
3.362 0.142 -0.037999999 163 0 0 0 0.02341
3.3640001 0.131 -0.035 162 0 0 0 0.02342
3.369 0.121 -0.032000002 159 0 0 0 0.023429999
3.372 0.111 -0.028999999 158 0 0 0 0.02344
3.372 0.1 -0.026000001 158 0 0 0 0.02345
3.3789999 0.090000004 -0.023 157 0 0 0 0.023460001
3.3829999 0.079000004 -0.02 156 0 0 0 0.023469999
3.388 0.068999998 -0.017000001 154 0 0 0 0.02348
3.391 0.059 -0.015 154 0 0 0 0.023490001
3.404 0.048 -0.012 154 0 0 0 0.023499999
3.4119999 0.037 -0.0089999996 153 0 0 0 0.02351
3.4119999 0.027000001 -0.0060000001 153 0 0 0 0.02352
3.4230001 0.016000001 -0.003 153 0 0 0 0.023530001
3.4170001 0.0049999999 -0.001 152 0 0 0 0.023539999
3.4230001 -0.0040000002 0.001 152 0 0 0 0.02355
3.424 -0.015 0.0040000002 152 0 0 0 0.023560001
3.418 -0.026000001 0.0070000002 151 0 0 0 0.023569999
3.4200001 -0.035999998 0.0089999996 151 0 0 0 0.02358
3.421 -0.046999998 0.012 151 0 0 0 0.02359
3.425 -0.057999998 0.015 151 0 0 0 0.023600001
3.424 -0.068999998 0.017999999 151 0 0 0 0.02361
3.424 -0.079999998 0.02 151 0 0 0 0.02362
3.4260001 -0.090999998 0.023 151 0 0 0 0.023630001
3.431 -0.102 0.026000001 151 0 0 0 0.023639999
3.427 -0.112 0.028000001 151 0 0 0 0.02365
3.4260001 -0.123 0.030999999 151 0 0 0 0.02366
3.431 -0.134 0.033 151 0 0 0 0.023669999
3.4300001 -0.145 0.035999998 151 0 0 0 0.02368
3.4349999 -0.156 0.037999999 151 0 0 0 0.02369
3.4319999 -0.16599999 0.041000001 151 0 0 0 0.023700001
3.437 -0.178 0.043000001 151 0 0 0 0.023709999
3.4389999 -0.189 0.046 151 0 0 0 0.02372
3.414 -0.198 0.048 154 0 0 0 0.02373
3.382 -0.207 0.050000001 150 0 0 0 0.023739999
3.3699999 -0.21699999 0.052000001 152 0 0 0 0.02375
3.3740001 -0.228 0.055 152 0 0 0 0.02376
3.3570001 -0.237 0.057 152 0 0 0 0.023770001
3.3440001 -0.24699999 0.059 152 0 0 0 0.023779999
3.342 -0.257 0.061000001 152 0 0 0 0.02379
3.342 -0.26800001 0.063000001 152 0 0 0 0.023800001
3.342 -0.27900001 0.066 153 0 0 0 0.023809999
3.283 -0.28400001 0.067000002 96 0 0 0 0.02382
3.2320001 -0.28999999 0.068000004 152 0 0 0 0.02383
3.2320001 -0.30000001 0.07 152 0 0 0 0.023840001
3.233 -0.31099999 0.071999997 151 0 0 0 0.02385
3.2379999 -0.322 0.074000001 152 0 0 0 0.02386
3.2360001 -0.33199999 0.075999998 151 0 0 0 0.023870001
3.23 -0.34099999 0.078000002 151 0 0 0 0.023879999
3.2060001 -0.34900001 0.079999998 151 0 0 0 0.02389
3.2079999 -0.36000001 0.082000002 151 0 0 0 0.0239
3.21 -0.37 0.083999999 151 0 0 0 0.023910001
3.2090001 -0.38 0.086000003 151 0 0 0 0.02392
3.2079999 -0.38999999 0.086999997 151 0 0 0 0.02393
2.9679999 -0.37099999 0.082999997 150 0 0 0 0.023940001
2.6140001 -0.33500001 0.074000001 32 0 0 0 0.023949999
2.546 -0.33399999 0.074000001 30 0 0 0 0.02396
2.4849999 -0.33399999 0.074000001 28 0 0 0 0.02397
2.4330001 -0.33500001 0.072999999 21 0 0 0 0.023979999
2.3840001 -0.336 0.072999999 18 0 0 0 0.02399
2.362 -0.34099999 0.074000001 24 0 0 0 0.024
2.3640001 -0.34900001 0.075000003 22 0 0 0 0.024010001
2.3610001 -0.35600001 0.077 20 0 0 0 0.024019999
2.358 -0.36300001 0.078000002 18 0 0 0 0.02403
2.365 -0.37200001 0.079000004 16 0 0 0 0.024040001
2.3629999 -0.37900001 0.079999998 22 0 0 0 0.024049999
2.365 -0.38699999 0.082000002 23 0 0 0 0.02406
2.3659999 -0.39500001 0.082999997 24 0 0 0 0.02407
2.3629999 -0.40200001 0.083999999 25 0 0 0 0.024080001
2.3640001 -0.41 0.085000001 27 0 0 0 0.024089999
