# .PCD v0.7 - Point Cloud Data file format
VERSION 0.7
FIELDS x y z intensity normal_x normal_y normal_z curvature
SIZE 4 4 4 4 4 4 4 4
TYPE F F F F F F F F
COUNT 1 1 1 1 1 1 1 1
WIDTH 1008
HEIGHT 1
VIEWPOINT 0 0 0 1 0 0 0
POINTS 1008
DATA ascii
2.7850001 0.54900002 0.27500001 22 0 0 0 0.04067
2.8659999 0.55599999 0.28 22 0 0 0 0.040679999
2.9579999 0.565 0.285 23 0 0 0 0.040690001
3.0469999 0.57300001 0.28999999 24 0 0 0 0.0407
3.1199999 0.57700002 0.292 24 0 0 0 0.040709998
3.197 0.58200002 0.29499999 24 0 0 0 0.040720001
3.2390001 0.579 0.29499999 24 0 0 0 0.04073
3.276 0.57599998 0.294 55 0 0 0 0.040739998
3.2880001 0.56800002 0.29100001 151 0 0 0 0.040750001
3.289 0.55800003 0.28600001 151 0 0 0 0.040759999
3.289 0.54900002 0.28200001 151 0 0 0 0.040770002
3.2909999 0.53899997 0.278 151 0 0 0 0.04078
3.3 0.52999997 0.27399999 151 0 0 0 0.040789999
3.3210001 0.52399999 0.271 151 0 0 0 0.040800001
3.3180001 0.51300001 0.266 151 0 0 0 0.04081
3.3310001 0.50599998 0.26300001 150 0 0 0 0.040819999
3.3870001 0.50400001 0.26300001 151 0 0 0 0.040830001
3.388 0.49399999 0.25799999 151 0 0 0 0.04084
3.3900001 0.484 0.25299999 151 0 0 0 0.040849999
3.381 0.47299999 0.248 150 0 0 0 0.040860001
3.391 0.46399999 0.244 131 0 0 0 0.04087
3.3940001 0.454 0.23999999 109 0 0 0 0.040879998
3.3789999 0.442 0.234 41 0 0 0 0.040890001
3.3369999 0.42699999 0.226 150 0 0 0 0.040899999
3.329 0.41600001 0.221 155 0 0 0 0.040910002
3.3829999 0.41299999 0.22 150 0 0 0 0.040920001
3.3929999 0.40400001 0.21600001 150 0 0 0 0.040929999
3.3900001 0.39399999 0.211 151 0 0 0 0.040940002
3.3940001 0.384 0.206 151 0 0 0 0.04095
3.395 0.375 0.20100001 151 0 0 0 0.040959999
3.395 0.36500001 0.19599999 151 0 0 0 0.040970001
3.395 0.35499999 0.191 151 0 0 0 0.04098
3.398 0.345 0.186 152 0 0 0 0.040989999
3.4000001 0.33500001 0.182 152 0 0 0 0.041000001
3.3959999 0.32499999 0.176 151 0 0 0 0.04101
3.398 0.315 0.171 151 0 0 0 0.041019998
3.3970001 0.30500001 0.16599999 151 0 0 0 0.041030001
3.4070001 0.296 0.162 152 0 0 0 0.04104
3.402 0.28600001 0.15700001 152 0 0 0 0.041049998
3.398 0.27599999 0.15099999 153 0 0 0 0.041060001
3.3940001 0.266 0.146 153 0 0 0 0.041069999
3.395 0.25600001 0.141 153 0 0 0 0.041080002
3.3929999 0.24600001 0.13600001 153 0 0 0 0.04109
3.3889999 0.236 0.131 153 0 0 0 0.041099999
3.392 0.226 0.126 153 0 0 0 0.041110002
3.3789999 0.21600001 0.12 154 0 0 0 0.04112
3.391 0.207 0.115 154 0 0 0 0.041129999
3.381 0.19599999 0.11 154 0 0 0 0.041140001
3.3929999 0.18799999 0.105 154 0 0 0 0.04115
3.382 0.177 0.098999999 154 0 0 0 0.041159999
3.385 0.168 0.093999997 154 0 0 0 0.041170001
3.3840001 0.15800001 0.089000002 154 0 0 0 0.04118
3.3859999 0.149 0.083999999 154 0 0 0 0.041189998
3.388 0.139 0.079000004 154 0 0 0 0.041200001
3.3959999 0.13 0.072999999 154 0 0 0 0.041209999
3.3970001 0.12 0.068000004 154 0 0 0 0.041219998
3.3970001 0.11 0.063000001 153 0 0 0 0.041230001
3.3970001 0.101 0.057999998 154 0 0 0 0.041239999
3.4030001 0.090999998 0.052000001 153 0 0 0 0.041250002
3.4059999 0.082000002 0.046999998 153 0 0 0 0.04126
3.4059999 0.071999997 0.041999999 153 0 0 0 0.041269999
3.4070001 0.063000001 0.035999998 153 0 0 0 0.041280001
3.4170001 0.052999999 0.030999999 152 0 0 0 0.04129
3.418 0.044 0.025 152 0 0 0 0.041299999
3.4230001 0.034000002 0.02 152 0 0 0 0.041310001
3.4230001 0.024 0.014 152 0 0 0 0.04132
3.4159999 0.015 0.0089999996 151 0 0 0 0.041329999
3.418 0.0049999999 0.003 151 0 0 0 0.041340001
3.421 -0.003 -0.001 151 0 0 0 0.04135
3.418 -0.013 -0.0070000002 151 0 0 0 0.041359998
3.418 -0.023 -0.012 151 0 0 0 0.041370001
3.418 -0.032000002 -0.017999999 151 0 0 0 0.041379999
3.424 -0.041999999 -0.024 151 0 0 0 0.041390002
3.424 -0.050999999 -0.028999999 151 0 0 0 0.0414
3.4189999 -0.061000001 -0.035 151 0 0 0 0.041409999
3.424 -0.07 -0.041000001 151 0 0 0 0.041420002
3.4230001 -0.079999998 -0.046 151 0 0 0 0.04143
3.4230001 -0.089000002 -0.052000001 151 0 0 0 0.041439999
3.431 -0.098999999 -0.057999998 151 0 0 0 0.041450001
3.4300001 -0.109 -0.064000003 151 0 0 0 0.04146
3.431 -0.118 -0.068999998 151 0 0 0 0.041469999
3.4300001 -0.127 -0.075000003 150 0 0 0 0.041480001
3.4300001 -0.13699999 -0.081 151 0 0 0 0.04149
3.4319999 -0.147 -0.086999997 150 0 0 0 0.041499998
3.4319999 -0.156 -0.093000002 150 0 0 0 0.041510001
3.4330001 -0.16599999 -0.098999999 151 0 0 0 0.04152
3.4349999 -0.175 -0.105 151 0 0 0 0.041529998
3.404 -0.183 -0.109 154 0 0 0 0.041540001
3.392 -0.192 -0.115 150 0 0 0 0.041549999
3.3670001 -0.199 -0.12 151 0 0 0 0.041560002
3.369 -0.20900001 -0.126 151 0 0 0 0.04157
3.368 -0.21799999 -0.132 152 0 0 0 0.041579999
3.3440001 -0.226 -0.13699999 151 0 0 0 0.041590001
3.342 -0.235 -0.142 152 0 0 0 0.0416
3.3410001 -0.244 -0.148 152 0 0 0 0.041609999
3.3429999 -0.25299999 -0.154 152 0 0 0 0.041620001
3.339 -0.26199999 -0.16 152 0 0 0 0.04163
3.3329999 -0.27000001 -0.16500001 150 0 0 0 0.041639999
3.2479999 -0.27200001 -0.167 150 0 0 0 0.041650001
3.234 -0.28 -0.17200001 151 0 0 0 0.04166
3.233 -0.289 -0.178 151 0 0 0 0.041669998
3.2360001 -0.29800001 -0.184 151 0 0 0 0.041680001
3.2349999 -0.30599999 -0.189 151 0 0 0 0.041689999
3.2360001 -0.315 -0.19499999 151 0 0 0 0.041700002
3.2379999 -0.324 -0.20100001 152 0 0 0 0.04171
3.221 -0.331 -0.206 151 0 0 0 0.041719999
3.2049999 -0.338 -0.211 150 0 0 0 0.041730002
3.2030001 -0.347 -0.21699999 150 0 0 0 0.04174
3.2019999 -0.35499999 -0.222 151 0 0 0 0.041749999
3.21 -0.36500001 -0.229 150 0 0 0 0.041760001
3.2090001 -0.37400001 -0.235 150 0 0 0 0.04177
3.207 -0.382 -0.241 150 0 0 0 0.041779999
2.967 -0.361 -0.228 150 0 0 0 0.041790001
2.7869999 -0.347 -0.219 89 0 0 0 0.0418
2.539 -0.32300001 -0.205 19 0 0 0 0.041809998
2.51 -0.32600001 -0.207 21 0 0 0 0.041820001
2.4660001 -0.32699999 -0.208 21 0 0 0 0.04183
2.4230001 -0.32800001 -0.20900001 16 0 0 0 0.041839998
2.3889999 -0.329 -0.211 17 0 0 0 0.041850001
2.3659999 -0.333 -0.213 21 0 0 0 0.041859999
2.3559999 -0.338 -0.21699999 21 0 0 0 0.041870002
2.359 -0.34400001 -0.221 20 0 0 0 0.04188
2.3610001 -0.35100001 -0.226 19 0 0 0 0.041889999
2.359 -0.35699999 -0.23100001 20 0 0 0 0.041900001
2.359 -0.36300001 -0.235 20 0 0 0 0.04191
2.3629999 -0.37 -0.23999999 21 0 0 0 0.041919999
2.3610001 -0.37599999 -0.245 22 0 0 0 0.041930001
2.3599999 -0.382 -0.249 21 0 0 0 0.04194
2.3610001 -0.389 -0.25400001 22 0 0 0 0.041949999
2.3629999 -0.39500001 -0.259 18 0 0 0 0.041960001
2.359 -0.40099999 -0.26300001 19 0 0 0 0.04197
2.362 -0.40799999 -0.26800001 19 0 0 0 0.041979998
2.3629999 -0.414 -0.273 18 0 0 0 0.041990001
2.368 -0.421 -0.278 18 0 0 0 0.041999999
2.3629999 -0.42699999 -0.28200001 19 0 0 0 0.042010002
2.3629999 -0.433 -0.287 22 0 0 0 0.042020001
2.359 -0.43900001 -0.29100001 24 0 0 0 0.042029999
2.3629999 -0.44499999 -0.296 22 0 0 0 0.042040002
2.3640001 -0.45199999 -0.301 19 0 0 0 0.04205
2.3629999 -0.458 -0.30599999 18 0 0 0 0.042059999
2.3599999 -0.463 -0.31099999 18 0 0 0 0.042070001
2.3670001 -0.47099999 -0.31600001 19 0 0 0 0.04208
2.3740001 -0.479 -0.322 17 0 0 0 0.042089999
2.368 -0.484 -0.32600001 19 0 0 0 0.042100001
2.365 -0.48899999 -0.331 20 0 0 0 0.04211
2.3629999 -0.495 -0.33500001 20 0 0 0 0.042119998
2.368 -0.50199997 -0.34099999 19 0 0 0 0.042130001
2.368 -0.50800002 -0.34599999 17 0 0 0 0.04214
2.3670001 -0.514 -0.35100001 14 0 0 0 0.042149998
2.365 -0.51999998 -0.35600001 15 0 0 0 0.042160001
2.3640001 -0.52600002 -0.361 14 0 0 0 0.042169999
2.369 -0.53299999 -0.366 14 0 0 0 0.042180002
2.3699999 -0.54000002 -0.37200001 16 0 0 0 0.04219
2.369 -0.546 -0.377 18 0 0 0 0.042199999
2.372 -0.55199999 -0.382 18 0 0 0 0.042210001
2.368 -0.55800003 -0.38699999 22 0 0 0 0.04222
2.3670001 -0.56300002 -0.39199999 24 0 0 0 0.042229999
2.368 -0.56999999 -0.39700001 24 0 0 0 0.042240001
2.3710001 -0.57700002 -0.403 23 0 0 0 0.04225
2.369 -0.58200002 -0.40799999 21 0 0 0 0.042259999
2.3729999 -0.58899999 -0.414 19 0 0 0 0.042270001
2.368 -0.59399998 -0.41800001 17 0 0 0 0.04228
2.3729999 -0.60100001 -0.42399999 19 0 0 0 0.042289998
2.372 -0.60699999 -0.42899999 18 0 0 0 0.042300001
2.3759999 -0.61400002 -0.435 17 0 0 0 0.042309999
2.3729999 -0.61900002 -0.44 15 0 0 0 0.042319998
2.3710001 -0.625 -0.44499999 16 0 0 0 0.042330001
2.3740001 -0.63200003 -0.45100001 17 0 0 0 0.042339999
2.375 -0.63800001 -0.45699999 20 0 0 0 0.042350002
2.3759999 -0.64399999 -0.46200001 22 0 0 0 0.04236
2.378 -0.65100002 -0.46799999 21 0 0 0 0.042369999
2.3729999 -0.65499997 -0.472 19 0 0 0 0.042380001
2.3770001 -0.662 -0.479 19 0 0 0 0.04239
2.3770001 -0.66799998 -0.484 18 0 0 0 0.042399999
2.3759999 -0.67400002 -0.48899999 16 0 0 0 0.042410001
2.372 -0.67900002 -0.49399999 17 0 0 0 0.04242
2.3840001 -0.68800002 -0.50199997 17 0 0 0 0.042429999
2.3940001 -0.69700003 -0.50999999 12 0 0 0 0.042440001
2.3929999 -0.70200002 -0.51499999 12 0 0 0 0.04245
2.381 -0.70499998 -0.51800001 17 0 0 0 0.042459998
2.3759999 -0.70899999 -0.523 21 0 0 0 0.042470001
2.3740001 -0.71499997 -0.528 22 0 0 0 0.042479999
2.3789999 -0.722 -0.53500003 28 0 0 0 0.042490002
2.381 -0.72799999 -0.54100001 26 0 0 0 0.0425
2.378 -0.73299998 -0.546 22 0 0 0 0.042509999
2.381 -0.74000001 -0.55299997 19 0 0 0 0.042520002
2.3789999 -0.745 -0.55800003 21 0 0 0 0.04253
2.382 -0.75099999 -0.56400001 24 0 0 0 0.042539999
2.3770001 -0.75599998 -0.56900001 23 0 0 0 0.042550001
2.385 -0.764 -0.57700002 21 0 0 0 0.04256
2.381 -0.76800001 -0.58200002 20 0 0 0 0.042569999
2.3829999 -0.77399999 -0.588 19 0 0 0 0.042580001
2.385 -0.78100002 -0.59399998 20 0 0 0 0.04259
2.3829999 -0.78600001 -0.60000002 19 0 0 0 0.042599998
2.3800001 -0.79000002 -0.60500002 20 0 0 0 0.042610001
2.3829999 -0.79699999 -0.61199999 20 0 0 0 0.042619999
2.385 -0.80299997 -0.61799997 21 0 0 0 0.042629998
2.3859999 -0.80900002 -0.62400001 23 0 0 0 0.042640001
2.385 -0.81400001 -0.63 24 0 0 0 0.042649999
2.3859999 -0.81999999 -0.63700002 27 0 0 0 0.042660002
2.3859999 -0.82499999 -0.64300001 26 0 0 0 0.04267
2.3859999 -0.83099997 -0.64899999 26 0 0 0 0.042679999
2.3829999 -0.83499998 -0.65399998 26 0 0 0 0.042690001
2.3859999 -0.84100002 -0.66100001 26 0 0 0 0.0427
2.385 -0.84600002 -0.667 25 0 0 0 0.042709999
2.388 -0.85299999 -0.67400002 23 0 0 0 0.042720001
2.3859999 -0.85699999 -0.67900002 22 0 0 0 0.04273
2.3870001 -0.86299998 -0.68599999 21 0 0 0 0.042739999
2.3859999 -0.86799997 -0.69099998 22 0 0 0 0.042750001
2.388 -0.87400001 -0.69800001 22 0 0 0 0.04276
2.3870001 -0.87800002 -0.704 21 0 0 0 0.042769998
2.388 -0.884 -0.71100003 21 0 0 0 0.042780001
2.388 -0.889 -0.71700001 21 0 0 0 0.042789999
2.3870001 -0.89399999 -0.72299999 21 0 0 0 0.042800002
2.3900001 -0.89999998 -0.73000002 21 0 0 0 0.04281
2.3900001 -0.90499997 -0.736 23 0 0 0 0.042819999
2.3929999 -0.91100001 -0.74400002 21 0 0 0 0.042830002
2.3889999 -0.91399997 -0.74900001 21 0 0 0 0.04284
2.3900001 -0.92000002 -0.755 21 0 0 0 0.042849999
2.3940001 -0.926 -0.76300001 20 0 0 0 0.042860001
2.3889999 -0.92900002 -0.76800001 19 0 0 0 0.04287
2.3929999 -0.93599999 -0.77499998 20 0 0 0 0.042879999
2.391 -0.93900001 -0.78100002 19 0 0 0 0.042890001
2.3929999 -0.94499999 -0.78799999 21 0 0 0 0.0429
2.392 -0.949 -0.79400003 21 0 0 0 0.042909998
2.3929999 -0.954 -0.801 22 0 0 0 0.042920001
2.3959999 -0.95999998 -0.80800003 23 0 0 0 0.04293
2.391 -0.96200001 -0.81300002 27 0 0 0 0.042939998
2.3800001 -0.96200001 -0.815 30 0 0 0 0.042950001
2.362 -0.95999998 -0.81599998 28 0 0 0 0.042959999
2.3440001 -0.95700002 -0.81599998 27 0 0 0 0.042970002
2.326 -0.954 -0.81599998 27 0 0 0 0.04298
2.3069999 -0.94999999 -0.815 27 0 0 0 0.042989999
2.2920001 -0.94800001 -0.81599998 27 0 0 0 0.043000001
2.273 -0.94400001 -0.815 27 0 0 0 0.04301
2.2590001 -0.94199997 -0.81699997 27 0 0 0 0.043019999
2.243 -0.93900001 -0.81699997 27 0 0 0 0.043030001
2.2190001 -0.93300003 -0.81400001 29 0 0 0 0.04304
2.2079999 -0.93199998 -0.81599998 30 0 0 0 0.043049999
2.1889999 -0.92799997 -0.815 28 0 0 0 0.043060001
2.1800001 -0.92699999 -0.81699997 27 0 0 0 0.04307
2.1589999 -0.92199999 -0.815 27 0 0 0 0.043079998
2.1459999 -0.92000002 -0.81599998 27 0 0 0 0.043090001
2.1329999 -0.917 -0.81699997 27 0 0 0 0.043099999
2.1140001 -0.912 -0.815 26 0 0 0 0.043110002
2.1059999 -0.912 -0.81800002 27 0 0 0 0.043120001
2.0899999 -0.90899998 -0.81699997 26 0 0 0 0.043129999
2.0710001 -0.903 -0.815 29 0 0 0 0.043140002
2.063 -0.903 -0.81800002 29 0 0 0 0.04315
2.0450001 -0.898 -0.81599998 29 0 0 0 0.043159999
2.0320001 -0.89499998 -0.81599998 29 0 0 0 0.043170001
2.016 -0.89099997 -0.815 28 0 0 0 0.04318
2.0009999 -0.88700002 -0.81400001 27 0 0 0 0.043189999
1.989 -0.884 -0.815 26 0 0 0 0.043200001
1.972 -0.87900001 -0.81300002 27 0 0 0 0.04321
1.961 -0.87599999 -0.81300002 28 0 0 0 0.043219998
1.949 -0.87300003 -0.81300002 29 0 0 0 0.043230001
1.939 -0.87099999 -0.81400001 29 0 0 0 0.04324
1.927 -0.86799997 -0.81400001 30 0 0 0 0.043249998
1.9119999 -0.86299998 -0.81300002 29 0 0 0 0.043260001
1.903 -0.861 -0.81400001 30 0 0 0 0.043269999
1.891 -0.85799998 -0.81400001 29 0 0 0 0.043280002
1.88 -0.85500002 -0.81400001 28 0 0 0 0.04329
1.868 -0.85100001 -0.81300002 30 0 0 0 0.043299999
1.86 -0.84899998 -0.81400001 29 0 0 0 0.043310001
1.847 -0.84500003 -0.81300002 29 0 0 0 0.04332
1.837 -0.84200001 -0.81300002 28 0 0 0 0.043329999
1.8279999 -0.83999997 -0.81400001 31 0 0 0 0.043340001
1.816 -0.83600003 -0.81300002 30 0 0 0 0.04335
1.807 -0.833 -0.81300002 30 0 0 0 0.043359999
1.796 -0.829 -0.81300002 31 0 0 0 0.043370001
1.786 -0.82599998 -0.81300002 30 0 0 0 0.04338
1.779 -0.824 -0.81400001 31 0 0 0 0.043389998
1.77 -0.82099998 -0.81400001 30 0 0 0 0.043400001
1.755 -0.815 -0.81099999 31 0 0 0 0.043409999
1.75 -0.81400001 -0.81300002 31 0 0 0 0.043419998
1.742 -0.81099999 -0.81300002 32 0 0 0 0.043430001
1.738 -0.81 -0.815 13 0 0 0 0.043439999
1.722 -0.80299997 -0.81199998 16 0 0 0 0.043450002
1.704 -0.796 -0.80699998 20 0 0 0 0.04346
1.677 -0.78399998 -0.79799998 25 0 0 0 0.043469999
1.645 -0.76999998 -0.787 31 0 0 0 0.043480001
1.62 -0.75800002 -0.778 37 0 0 0 0.04349
1.5930001 -0.74599999 -0.76800001 47 0 0 0 0.043499999
1.5700001 -0.736 -0.76099998 50 0 0 0 0.043510001
1.5470001 -0.72500002 -0.75300002 55 0 0 0 0.04352
1.5190001 -0.713 -0.74299997 61 0 0 0 0.043529999
1.499 -0.70300001 -0.736 53 0 0 0 0.043540001
1.471 -0.69 -0.72500002 50 0 0 0 0.04355
1.4450001 -0.67799997 -0.71499997 47 0 0 0 0.043559998
1.423 -0.66799998 -0.70700002 46 0 0 0 0.043570001
1.405 -0.66000003 -0.70099998 43 0 0 0 0.043579999
1.382 -0.64899999 -0.69199997 37 0 0 0 0.043590002
1.374 -0.64499998 -0.69099998 34 0 0 0 0.0436
1.36 -0.63800001 -0.68599999 29 0 0 0 0.043609999
1.3559999 -0.63599998 -0.68599999 29 0 0 0 0.043620002
1.358 -0.63700002 -0.69 30 0 0 0 0.04363
1.357 -0.63599998 -0.69199997 31 0 0 0 0.043639999
1.365 -0.639 -0.69800001 30 0 0 0 0.043650001
1.373 -0.64200002 -0.70499998 32 0 0 0 0.04366
1.383 -0.64700001 -0.71200001 32 0 0 0 0.043669999
1.392 -0.64999998 -0.71899998 32 0 0 0 0.043680001
1.403 -0.65499997 -0.727 34 0 0 0 0.04369
1.4170001 -0.66100001 -0.73699999 32 0 0 0 0.043699998
1.4220001 -0.662 -0.741 32 0 0 0 0.043710001
1.436 -0.66799998 -0.75099999 31 0 0 0 0.043719999
1.454 -0.67500001 -0.76200002 30 0 0 0 0.043729998
1.462 -0.67799997 -0.76800001 28 0 0 0 0.043740001
1.478 -0.685 -0.77899998 27 0 0 0 0.043749999
1.49 -0.68900001 -0.787 24 0 0 0 0.043760002
1.5 -0.69300002 -0.79400003 20 0 0 0 0.04377
1.513 -0.69800001 -0.80400002 18 0 0 0 0.043779999
1.525 -0.70200002 -0.81099999 16 0 0 0 0.043790001
1.527 -0.70099998 -0.81400001 15 0 0 0 0.0438
1.527 -0.69999999 -0.81599998 14 0 0 0 0.043809999
1.522 -0.69599998 -0.815 14 0 0 0 0.043820001
1.522 -0.69499999 -0.81699997 14 0 0 0 0.04383
1.518 -0.69099998 -0.81599998 14 0 0 0 0.043839999
1.517 -0.69 -0.81699997 15 0 0 0 0.043850001
1.513 -0.68599999 -0.81599998 14 0 0 0 0.04386
1.508 -0.68199998 -0.815 14 0 0 0 0.043869998
1.508 -0.68000001 -0.81599998 13 0 0 0 0.043880001
1.507 -0.67799997 -0.81699997 13 0 0 0 0.043889999
1.502 -0.67400002 -0.815 1 0 0 0 0.043900002
1.502 -0.67199999 -0.81599998 14 0 0 0 0.04391
1.501 -0.66900003 -0.81699997 14 0 0 0 0.043919999
1.5 -0.667 -0.81699997 14 0 0 0 0.043930002
1.5 -0.66500002 -0.81800002 14 0 0 0 0.04394
1.5 -0.66299999 -0.81900001 14 0 0 0 0.043949999
1.4960001 -0.65899998 -0.81699997 14 0 0 0 0.043960001
1.499 -0.65799999 -0.81900001 14 0 0 0 0.04397
1.4960001 -0.65499997 -0.81800002 14 0 0 0 0.043979999
1.495 -0.65200001 -0.81900001 14 0 0 0 0.043990001
1.493 -0.64899999 -0.81699997 13 0 0 0 0.044
1.4910001 -0.64499998 -0.81699997 13 0 0 0 0.044009998
1.492 -0.64399999 -0.81800002 13 0 0 0 0.044020001
1.492 -0.64099997 -0.81800002 14 0 0 0 0.04403
1.4910001 -0.63800001 -0.81800002 13 0 0 0 0.044039998
1.487 -0.634 -0.815 13 0 0 0 0.044050001
1.492 -0.634 -0.81900001 14 0 0 0 0.044059999
1.4910001 -0.63099998 -0.81800002 14 0 0 0 0.044070002
1.49 -0.62699997 -0.81699997 14 0 0 0 0.04408
1.494 -0.62599999 -0.81900001 14 0 0 0 0.044089999
1.4910001 -0.62199998 -0.81800002 14 0 0 0 0.044100001
1.492 -0.62 -0.81800002 14 0 0 0 0.04411
1.4910001 -0.61699998 -0.81699997 13 0 0 0 0.044119999
1.494 -0.61500001 -0.81800002 14 0 0 0 0.044130001
1.495 -0.61299998 -0.81800002 14 0 0 0 0.04414
1.4960001 -0.61000001 -0.81800002 14 0 0 0 0.044149999
1.495 -0.60699999 -0.81699997 13 0 0 0 0.044160001
1.502 -0.60600001 -0.81999999 14 0 0 0 0.04417
1.5039999 -0.60399997 -0.81999999 14 0 0 0 0.044179998
1.506 -0.602 -0.82099998 13 0 0 0 0.044190001
1.506 -0.59899998 -0.81999999 14 0 0 0 0.044199999
1.5089999 -0.597 -0.81999999 14 0 0 0 0.044210002
1.512 -0.59500003 -0.82099998 14 0 0 0 0.044220001
1.508 -0.58999997 -0.81800002 14 0 0 0 0.044229999
1.52 -0.59200001 -0.82300001 14 0 0 0 0.044240002
1.517 -0.588 -0.82099998 13 0 0 0 0.04425
1.51 -0.58200002 -0.81599998 38 0 0 0 0.044259999
1.522 -0.583 -0.82099998 12 0 0 0 0.044270001
1.527 -0.58200002 -0.82200003 12 0 0 0 0.04428
1.5319999 -0.57999998 -0.82300001 8 0 0 0 0.044289999
1.533 -0.57700002 -0.82200003 8 0 0 0 0.044300001
1.526 -0.57099998 -0.81699997 24 0 0 0 0.04431
1.5369999 -0.57200003 -0.82099998 11 0 0 0 0.044319998
1.54 -0.56900001 -0.82099998 12 0 0 0 0.044330001
1.546 -0.56800002 -0.82300001 13 0 0 0 0.04434
1.545 -0.56400001 -0.81999999 13 0 0 0 0.044349998
1.553 -0.56300002 -0.82200003 14 0 0 0 0.044360001
1.551 -0.55900002 -0.81999999 14 0 0 0 0.044369999
1.558 -0.55900002 -0.82200003 15 0 0 0 0.044380002
1.564 -0.55699998 -0.82300001 15 0 0 0 0.04439
1.566 -0.55400002 -0.82099998 15 0 0 0 0.044399999
1.572 -0.55199999 -0.82200003 14 0 0 0 0.044410001
1.576 -0.55000001 -0.82200003 14 0 0 0 0.04442
1.5779999 -0.54699999 -0.82099998 14 0 0 0 0.044429999
1.584 -0.546 -0.82200003 15 0 0 0 0.044440001
1.59 -0.54400003 -0.82300001 15 0 0 0 0.04445
1.599 -0.54299998 -0.82499999 15 0 0 0 0.044459999
1.604 -0.54100001 -0.82499999 15 0 0 0 0.044470001
1.609 -0.53899997 -0.824 15 0 0 0 0.04448
1.612 -0.53600001 -0.824 15 0 0 0 0.044489998
1.615 -0.53299999 -0.82200003 15 0 0 0 0.044500001
1.625 -0.53299999 -0.82499999 15 0 0 0 0.044509999
1.628 -0.52999997 -0.824 14 0 0 0 0.044520002
1.635 -0.528 -0.824 15 0 0 0 0.044530001
1.6440001 -0.52700001 -0.82599998 15 0 0 0 0.044539999
1.646 -0.52399999 -0.824 15 0 0 0 0.044550002
1.652 -0.52200001 -0.824 15 0 0 0 0.04456
1.651 -0.51800001 -0.81999999 43 0 0 0 0.044569999
1.66 -0.51700002 -0.82200003 45 0 0 0 0.044580001
1.668 -0.51499999 -0.82200003 46 0 0 0 0.04459
1.6720001 -0.51300001 -0.82099998 45 0 0 0 0.044599999
1.681 -0.51099998 -0.82200003 47 0 0 0 0.044610001
1.687 -0.509 -0.82200003 47 0 0 0 0.04462
1.694 -0.50700003 -0.82200003 45 0 0 0 0.044629999
1.705 -0.50599998 -0.824 44 0 0 0 0.044640001
1.709 -0.50400001 -0.82200003 45 0 0 0 0.04465
1.716 -0.50099999 -0.82200003 46 0 0 0 0.044659998
1.724 -0.5 -0.82200003 45 0 0 0 0.044670001
1.734 -0.49900001 -0.82300001 42 0 0 0 0.044679999
1.738 -0.49599999 -0.82099998 42 0 0 0 0.044690002
1.753 -0.49599999 -0.824 42 0 0 0 0.0447
1.761 -0.49399999 -0.824 41 0 0 0 0.044709999
1.773 -0.493 -0.82599998 40 0 0 0 0.044720002
1.776 -0.49000001 -0.824 38 0 0 0 0.04473
1.785 -0.48800001 -0.82300001 40 0 0 0 0.044739999
1.7970001 -0.48699999 -0.82499999 36 0 0 0 0.044750001
1.807 -0.486 -0.82599998 37 0 0 0 0.04476
1.813 -0.48300001 -0.824 34 0 0 0 0.044769999
1.825 -0.48199999 -0.82499999 31 0 0 0 0.044780001
1.84 -0.48199999 -0.82800001 33 0 0 0 0.04479
1.8430001 -0.47799999 -0.82499999 33 0 0 0 0.044799998
1.852 -0.47600001 -0.824 34 0 0 0 0.044810001
1.8660001 -0.47600001 -0.82599998 32 0 0 0 0.044819999
1.874 -0.47400001 -0.82499999 33 0 0 0 0.044829998
1.888 -0.47299999 -0.82700002 32 0 0 0 0.044840001
1.895 -0.47 -0.82499999 32 0 0 0 0.044849999
1.9069999 -0.46900001 -0.82599998 32 0 0 0 0.044860002
1.92 -0.46799999 -0.82700002 32 0 0 0 0.04487
1.932 -0.46599999 -0.82700002 32 0 0 0 0.044879999
1.942 -0.46399999 -0.82700002 32 0 0 0 0.044890001
1.956 -0.463 -0.82800001 32 0 0 0 0.0449
1.97 -0.46200001 -0.82800001 32 0 0 0 0.044909999
1.979 -0.46000001 -0.82700002 32 0 0 0 0.044920001
1.995 -0.45899999 -0.829 32 0 0 0 0.04493
2.007 -0.458 -0.829 31 0 0 0 0.044939999
2.016 -0.45500001 -0.82700002 31 0 0 0 0.044950001
2.0380001 -0.456 -0.83099997 32 0 0 0 0.04496
2.0439999 -0.45300001 -0.82800001 32 0 0 0 0.044969998
2.059 -0.45199999 -0.829 32 0 0 0 0.044980001
2.0780001 -0.45100001 -0.83099997 31 0 0 0 0.044989999
2.0899999 -0.449 -0.82999998 31 0 0 0 0.045000002
2.1029999 -0.44800001 -0.82999998 30 0 0 0 0.04501
2.1210001 -0.447 -0.83099997 30 0 0 0 0.045019999
2.1329999 -0.44499999 -0.83099997 29 0 0 0 0.045030002
2.1489999 -0.44400001 -0.83099997 31 0 0 0 0.04504
2.1659999 -0.44299999 -0.83200002 33 0 0 0 0.045049999
2.181 -0.44100001 -0.83200002 34 0 0 0 0.045060001
2.1960001 -0.44 -0.83200002 30 0 0 0 0.04507
2.214 -0.43900001 -0.83200002 30 0 0 0 0.045079999
2.2279999 -0.43700001 -0.83200002 30 0 0 0 0.045090001
2.2490001 -0.43599999 -0.833 30 0 0 0 0.0451
2.263 -0.435 -0.83200002 30 0 0 0 0.045109998
2.279 -0.433 -0.83200002 29 0 0 0 0.045120001
2.302 -0.433 -0.83399999 30 0 0 0 0.04513
2.3199999 -0.43099999 -0.83399999 30 0 0 0 0.045139998
2.3340001 -0.42899999 -0.833 30 0 0 0 0.045150001
2.348 -0.42699999 -0.83099997 34 0 0 0 0.045159999
2.355 -0.42399999 -0.82700002 32 0 0 0 0.045170002
2.352 -0.41800001 -0.81999999 29 0 0 0 0.04518
2.352 -0.414 -0.81300002 29 0 0 0 0.045189999
2.3540001 -0.40900001 -0.80699998 29 0 0 0 0.045200001
2.3540001 -0.405 -0.801 28 0 0 0 0.04521
2.352 -0.40000001 -0.79299998 27 0 0 0 0.045219999
2.3499999 -0.39500001 -0.78600001 24 0 0 0 0.045230001
2.355 -0.391 -0.78100002 25 0 0 0 0.04524
2.3529999 -0.38600001 -0.77399999 26 0 0 0 0.045249999
2.3540001 -0.382 -0.76800001 25 0 0 0 0.045260001
2.3529999 -0.377 -0.75999999 21 0 0 0 0.04527
2.3529999 -0.373 -0.75400001 20 0 0 0 0.045279998
2.3529999 -0.36899999 -0.74699998 17 0 0 0 0.045290001
2.349 -0.36399999 -0.73900002 16 0 0 0 0.045299999
2.3559999 -0.36000001 -0.73500001 16 0 0 0 0.045310002
2.3540001 -0.35600001 -0.727 15 0 0 0 0.04532
2.3540001 -0.35100001 -0.72000003 16 0 0 0 0.045329999
2.3529999 -0.347 -0.71399999 17 0 0 0 0.045340002
2.3510001 -0.34200001 -0.70599997 16 0 0 0 0.04535
2.365 -0.34 -0.704 14 0 0 0 0.045359999
2.3840001 -0.338 -0.70200002 13 0 0 0 0.045370001
2.415 -0.338 -0.70499998 14 0 0 0 0.04538
2.4349999 -0.33700001 -0.70300001 14 0 0 0 0.045389999
2.461 -0.336 -0.704 13 0 0 0 0.045400001
2.4820001 -0.33399999 -0.70300001 12 0 0 0 0.04541
2.5020001 -0.333 -0.70099998 13 0 0 0 0.045419998
2.523 -0.331 -0.69999999 14 0 0 0 0.045430001
2.5439999 -0.329 -0.69800001 14 0 0 0 0.04544
2.677 -0.34200001 -0.727 26 0 0 0 0.045449998
2.905 -0.366 -0.77999997 39 0 0 0 0.045460001
3.1259999 -0.389 -0.83099997 30 0 0 0 0.045469999
3.201 -0.39300001 -0.84200001 60 0 0 0 0.045480002
3.204 -0.38800001 -0.833 150 0 0 0 0.04549
3.2060001 -0.382 -0.824 150 0 0 0 0.045499999
3.2049999 -0.377 -0.815 150 0 0 0 0.045510001
3.2030001 -0.37099999 -0.80500001 150 0 0 0 0.04552
3.2 -0.36500001 -0.79500002 150 0 0 0 0.045529999
3.2060001 -0.361 -0.787 150 0 0 0 0.045540001
3.2019999 -0.35499999 -0.77600002 150 0 0 0 0.04555
3.2019999 -0.34999999 -0.76700002 150 0 0 0 0.045559999
3.2090001 -0.345 -0.759 150 0 0 0 0.045570001
3.2219999 -0.34099999 -0.75300002 150 0 0 0 0.04558
3.2320001 -0.33700001 -0.74599999 151 0 0 0 0.045589998
3.233 -0.33199999 -0.736 151 0 0 0 0.045600001
3.234 -0.32699999 -0.727 150 0 0 0 0.045609999
3.23 -0.32100001 -0.71700001 150 0 0 0 0.045620002
3.2349999 -0.317 -0.708 150 0 0 0 0.045630001
3.234 -0.31099999 -0.699 150 0 0 0 0.045639999
3.234 -0.30599999 -0.68900001 150 0 0 0 0.045650002
3.2279999 -0.301 -0.67900002 150 0 0 0 0.04566
3.233 -0.296 -0.67000002 151 0 0 0 0.045669999
3.2320001 -0.29100001 -0.66000003 150 0 0 0 0.045680001
3.2290001 -0.28600001 -0.64999998 150 0 0 0 0.04569
3.2379999 -0.28200001 -0.64300001 150 0 0 0 0.045699999
3.273 -0.28 -0.63999999 44 0 0 0 0.045710001
3.329 -0.27900001 -0.64099997 71 0 0 0 0.04572
3.3269999 -0.27399999 -0.63099998 150 0 0 0 0.045729998
3.3280001 -0.26899999 -0.62099999 151 0 0 0 0.045740001
3.3269999 -0.264 -0.611 151 0 0 0 0.04575
3.332 -0.25999999 -0.602 151 0 0 0 0.045759998
3.3340001 -0.255 -0.59299999 150 0 0 0 0.045770001
3.329 -0.25 -0.58200002 150 0 0 0 0.045779999
3.3310001 -0.245 -0.57200003 150 0 0 0 0.045790002
3.332 -0.23999999 -0.56199998 151 0 0 0 0.0458
3.3299999 -0.235 -0.55199999 150 0 0 0 0.045809999
3.3429999 -0.23100001 -0.54500002 150 0 0 0 0.045820002
3.3540001 -0.227 -0.53600001 151 0 0 0 0.04583
3.3640001 -0.223 -0.528 151 0 0 0 0.045839999
3.365 -0.21799999 -0.51800001 151 0 0 0 0.045850001
3.3640001 -0.213 -0.50800002 151 0 0 0 0.04586
3.3610001 -0.208 -0.498 151 0 0 0 0.045869999
3.3629999 -0.204 -0.48800001 151 0 0 0 0.045880001
3.3670001 -0.199 -0.479 150 0 0 0 0.04589
3.3929999 -0.19599999 -0.472 150 0 0 0 0.045899998
3.4230001 -0.193 -0.46599999 150 0 0 0 0.045910001
3.4330001 -0.189 -0.45699999 151 0 0 0 0.045919999
3.431 -0.184 -0.447 151 0 0 0 0.045929998
3.4300001 -0.17900001 -0.43700001 151 0 0 0 0.045940001
3.4319999 -0.175 -0.426 151 0 0 0 0.045949999
3.4260001 -0.17 -0.41600001 151 0 0 0 0.045960002
3.431 -0.16599999 -0.40599999 151 0 0 0 0.04597
3.4330001 -0.161 -0.396 151 0 0 0 0.045979999
3.4289999 -0.156 -0.38499999 151 0 0 0 0.045990001
3.424 -0.152 -0.375 151 0 0 0 0.046
3.4319999 -0.147 -0.36500001 151 0 0 0 0.046009999
3.425 -0.142 -0.354 151 0 0 0 0.046020001
3.424 -0.138 -0.34400001 151 0 0 0 0.04603
3.428 -0.134 -0.33399999 151 0 0 0 0.046039999
3.427 -0.12899999 -0.324 151 0 0 0 0.046050001
3.428 -0.125 -0.31299999 151 0 0 0 0.04606
3.4289999 -0.12 -0.303 151 0 0 0 0.046069998
3.425 -0.116 -0.29300001 151 0 0 0 0.046080001
3.431 -0.112 -0.28299999 151 0 0 0 0.046089999
3.431 -0.107 -0.273 151 0 0 0 0.046100002
3.4300001 -0.103 -0.26199999 151 0 0 0 0.04611
3.428 -0.097999997 -0.252 151 0 0 0 0.046119999
3.4300001 -0.093999997 -0.242 151 0 0 0 0.046130002
3.4300001 -0.090000004 -0.23100001 151 0 0 0 0.04614
3.4260001 -0.086000003 -0.221 151 0 0 0 0.046149999
3.427 -0.081 -0.211 151 0 0 0 0.046160001
3.427 -0.077 -0.2 151 0 0 0 0.04617
3.4230001 -0.072999999 -0.19 151 0 0 0 0.046179999
3.4289999 -0.068999998 -0.18000001 151 0 0 0 0.046190001
3.427 -0.064999998 -0.169 151 0 0 0 0.0462
3.425 -0.059999999 -0.15899999 151 0 0 0 0.046209998
3.4260001 -0.056000002 -0.149 151 0 0 0 0.046220001
3.4230001 -0.052000001 -0.138 151 0 0 0 0.04623
3.424 -0.048 -0.12800001 151 0 0 0 0.046239998
3.4219999 -0.044 -0.118 151 0 0 0 0.046250001
3.425 -0.039999999 -0.107 151 0 0 0 0.046259999
3.4219999 -0.035999998 -0.097000003 151 0 0 0 0.046270002
3.4230001 -0.032000002 -0.086999997 151 0 0 0 0.04628
3.425 -0.028000001 -0.075999998 151 0 0 0 0.046289999
3.425 -0.024 -0.066 151 0 0 0 0.046300001
3.4219999 -0.02 -0.056000002 151 0 0 0 0.04631
3.425 -0.016000001 -0.045000002 151 0 0 0 0.046319999
3.4219999 -0.012 -0.035 151 0 0 0 0.046330001
3.4219999 -0.0080000004 -0.025 152 0 0 0 0.04634
3.4219999 -0.0040000002 -0.014 151 0 0 0 0.046349999
3.4200001 -0.001 -0.0040000002 152 0 0 0 0.046360001
3.4260001 0.0020000001 0.0060000001 152 0 0 0 0.04637
3.4260001 0.0060000001 0.016000001 152 0 0 0 0.046379998
3.4230001 0.0099999998 0.026000001 152 0 0 0 0.046390001
3.424 0.014 0.037 152 0 0 0 0.046399999
3.4260001 0.017000001 0.046999998 152 0 0 0 0.046410002
3.4230001 0.021 0.057999998 152 0 0 0 0.04642
3.4230001 0.025 0.068000004 152 0 0 0 0.046429999
3.4170001 0.028999999 0.079000004 152 0 0 0 0.046440002
3.4219999 0.032000002 0.089000002 152 0 0 0 0.04645
3.4219999 0.035999998 0.098999999 152 0 0 0 0.046459999
3.424 0.039999999 0.11 152 0 0 0 0.046470001
3.427 0.043000001 0.121 152 0 0 0 0.04648
3.4219999 0.046999998 0.131 152 0 0 0 0.046489999
3.4200001 0.050999999 0.141 152 0 0 0 0.046500001
3.4189999 0.054000001 0.152 152 0 0 0 0.04651
3.4189999 0.057999998 0.162 152 0 0 0 0.046519998
3.4189999 0.061000001 0.17299999 152 0 0 0 0.046530001
3.424 0.064999998 0.184 152 0 0 0 0.04654
3.421 0.068000004 0.19400001 152 0 0 0 0.046549998
3.4219999 0.071999997 0.204 152 0 0 0 0.046560001
3.4200001 0.075000003 0.215 152 0 0 0 0.046569999
3.4200001 0.079000004 0.22499999 151 0 0 0 0.046580002
3.4189999 0.082000002 0.236 151 0 0 0 0.04659
3.418 0.086000003 0.24600001 151 0 0 0 0.046599999
3.418 0.089000002 0.257 151 0 0 0 0.046610001
3.4230001 0.093000002 0.26800001 151 0 0 0 0.04662
3.4170001 0.096000001 0.278 151 0 0 0 0.046629999
3.418 0.098999999 0.289 151 0 0 0 0.046640001
3.4200001 0.103 0.29899999 151 0 0 0 0.04665
3.4189999 0.106 0.31 151 0 0 0 0.046659999
3.418 0.109 0.32100001 151 0 0 0 0.046670001
3.4159999 0.113 0.331 151 0 0 0 0.04668
3.4200001 0.116 0.34200001 151 0 0 0 0.046689998
3.421 0.119 0.35299999 151 0 0 0 0.046700001
3.4230001 0.123 0.36399999 151 0 0 0 0.046709999
3.4189999 0.126 0.37400001 151 0 0 0 0.046720002
3.4189999 0.12899999 0.38499999 151 0 0 0 0.046730001
3.4189999 0.132 0.39500001 151 0 0 0 0.046739999
3.418 0.13500001 0.40599999 151 0 0 0 0.046750002
3.4189999 0.138 0.417 151 0 0 0 0.04676
3.415 0.141 0.42699999 151 0 0 0 0.046769999
3.4230001 0.145 0.43900001 151 0 0 0 0.046780001
3.415 0.148 0.449 151 0 0 0 0.04679
3.421 0.15099999 0.46000001 151 0 0 0 0.046799999
3.4200001 0.154 0.47099999 151 0 0 0 0.046810001
3.418 0.15700001 0.48100001 151 0 0 0 0.04682
3.4159999 0.16 0.49200001 151 0 0 0 0.046829998
3.4189999 0.163 0.50300002 151 0 0 0 0.046840001
3.4170001 0.16599999 0.514 151 0 0 0 0.04685
3.415 0.169 0.52399999 151 0 0 0 0.046859998
3.418 0.17200001 0.53600001 151 0 0 0 0.046870001
3.4170001 0.175 0.546 151 0 0 0 0.046879999
3.415 0.177 0.55699998 151 0 0 0 0.046890002
3.4130001 0.18000001 0.56699997 151 0 0 0 0.0469
3.421 0.183 0.57999998 151 0 0 0 0.046909999
3.418 0.186 0.58999997 151 0 0 0 0.046920002
3.4189999 0.189 0.60100001 151 0 0 0 0.04693
3.4219999 0.192 0.61299998 151 0 0 0 0.046939999
3.418 0.19400001 0.62300003 151 0 0 0 0.046950001
3.418 0.197 0.634 151 0 0 0 0.04696
3.4159999 0.2 0.64399999 151 0 0 0 0.046969999
3.414 0.20200001 0.65499997 151 0 0 0 0.046980001
3.418 0.205 0.667 151 0 0 0 0.04699
3.4159999 0.208 0.67699999 150 0 0 0 0.046999998
3.4159999 0.20999999 0.68800002 151 0 0 0 0.047010001
3.4219999 0.213 0.70099998 150 0 0 0 0.047019999
3.411 0.215 0.70899999 151 0 0 0 0.047029998
3.4119999 0.21799999 0.72100002 150 0 0 0 0.047040001
3.4170001 0.221 0.73299998 150 0 0 0 0.047049999
3.4170001 0.223 0.74400002 151 0 0 0 0.047060002
3.4200001 0.226 0.755 151 0 0 0 0.04707
3.4170001 0.228 0.76599997 151 0 0 0 0.047079999
3.4159999 0.23100001 0.77700001 150 0 0 0 0.047090001
3.4130001 0.233 0.787 151 0 0 0 0.0471
3.4130001 0.235 0.79900002 151 0 0 0 0.047109999
3.414 0.23800001 0.81 150 0 0 0 0.047120001
3.4130001 0.23999999 0.82099998 150 0 0 0 0.04713
3.4159999 0.243 0.833 150 0 0 0 0.047139999
3.4119999 0.245 0.84299999 150 0 0 0 0.047150001
3.414 0.24699999 0.85500002 150 0 0 0 0.04716
3.411 0.249 0.866 150 0 0 0 0.047169998
3.4159999 0.252 0.87800002 150 0 0 0 0.047180001
3.414 0.25400001 0.889 150 0 0 0 0.047189999
3.4159999 0.25600001 0.90100002 150 0 0 0 0.047200002
3.414 0.25799999 0.91100001 150 0 0 0 0.04721
3.4130001 0.25999999 0.92199999 150 0 0 0 0.047219999
3.4119999 0.26199999 0.93300003 150 0 0 0 0.047230002
3.414 0.264 0.94499999 150 0 0 0 0.04724
3.4159999 0.26699999 0.95700002 150 0 0 0 0.047249999
3.4170001 0.26899999 0.96799999 150 0 0 0 0.047260001
3.411 0.27000001 0.97799999 150 0 0 0 0.04727
3.4130001 0.27200001 0.99000001 150 0 0 0 0.047279999
3.4100001 0.27399999 1.001 150 0 0 0 0.047290001
3.411 0.27599999 1.012 150 0 0 0 0.0473
3.4119999 0.278 1.024 150 0 0 0 0.047309998
3.4159999 0.28 1.0369999 150 0 0 0 0.047320001
3.414 0.28200001 1.048 150 0 0 0 0.04733
3.414 0.28400001 1.059 150 0 0 0 0.047339998
3.414 0.285 1.0700001 150 0 0 0 0.047350001
3.4170001 0.287 1.0829999 150 0 0 0 0.047359999
3.414 0.289 1.0930001 150 0 0 0 0.047370002
3.4100001 0.28999999 1.104 150 0 0 0 0.04738
3.4089999 0.292 1.115 150 0 0 0 0.047389999
3.414 0.294 1.128 150 0 0 0 0.047400001
3.4119999 0.29499999 1.1390001 150 0 0 0 0.04741
3.4130001 0.29699999 1.151 150 0 0 0 0.047419999
3.4159999 0.29800001 1.163 150 0 0 0 0.047430001
3.4130001 0.30000001 1.174 150 0 0 0 0.04744
3.418 0.301 1.187 150 0 0 0 0.047449999
3.414 0.303 1.197 150 0 0 0 0.047460001
3.4189999 0.30399999 1.21 150 0 0 0 0.04747
3.415 0.30500001 1.221 150 0 0 0 0.047479998
3.4119999 0.30599999 1.2309999 150 0 0 0 0.047490001
3.415 0.308 1.244 150 0 0 0 0.047499999
3.4130001 0.30899999 1.255 150 0 0 0 0.047510002
3.3889999 0.308 1.257 82 0 0 0 0.04752
3.3599999 0.30599999 1.258 150 0 0 0 0.047529999
3.348 0.30599999 1.265 150 0 0 0 0.047540002
3.3510001 0.308 1.277 150 0 0 0 0.04755
3.3410001 0.308 1.285 150 0 0 0 0.047559999
3.316 0.30599999 1.2869999 150 0 0 0 0.047570001
3.3199999 0.308 1.299 150 0 0 0 0.04758
3.3210001 0.30899999 1.311 150 0 0 0 0.047589999
3.3180001 0.30899999 1.322 150 0 0 0 0.047600001
3.3239999 0.31 1.335 150 0 0 0 0.04761
3.323 0.31099999 1.346 150 0 0 0 0.047619998
3.3199999 0.31200001 1.3559999 150 0 0 0 0.047630001
3.3210001 0.31200001 1.368 150 0 0 0 0.04764
3.325 0.31299999 1.381 150 0 0 0 0.047649998
3.3239999 0.31400001 1.392 150 0 0 0 0.047660001
3.322 0.31400001 1.402 150 0 0 0 0.047669999
3.3280001 0.315 1.416 150 0 0 0 0.047680002
3.326 0.31600001 1.426 150 0 0 0 0.04769
3.3269999 0.31600001 1.438 150 0 0 0 0.047699999
3.326 0.31600001 1.449 150 0 0 0 0.047710001
3.323 0.317 1.459 150 0 0 0 0.04772
3.326 0.317 1.472 150 0 0 0 0.047729999
3.3280001 0.31799999 1.484 150 0 0 0 0.047740001
3.3269999 0.31799999 1.495 150 0 0 0 0.04775
3.3239999 0.31799999 1.505 150 0 0 0 0.047759999
3.3269999 0.31799999 1.517 150 0 0 0 0.047770001
3.3239999 0.31799999 1.527 150 0 0 0 0.04778
3.3299999 0.31799999 1.541 150 0 0 0 0.047789998
3.3280001 0.31799999 1.551 150 0 0 0 0.047800001
3.3269999 0.31799999 1.562 150 0 0 0 0.047809999
3.3239999 0.317 1.572 150 0 0 0 0.047820002
3.3269999 0.31799999 1.584 150 0 0 0 0.047830001
3.312 0.31600001 1.589 150 0 0 0 0.047839999
3.296 0.31400001 1.592 101 0 0 0 0.047850002
3.2679999 0.31099999 1.589 96 0 0 0 0.04786
3.2460001 0.30899999 1.59 96 0 0 0 0.047869999
3.2249999 0.30700001 1.59 98 0 0 0 0.047880001
3.2030001 0.30399999 1.59 102 0 0 0 0.04789
3.188 0.30199999 1.5930001 96 0 0 0 0.047899999
3.164 0.29899999 1.591 96 0 0 0 0.047910001
3.1429999 0.296 1.591 95 0 0 0 0.04792
3.1300001 0.29499999 1.595 98 0 0 0 0.047929998
3.1059999 0.292 1.5930001 98 0 0 0 0.047940001
3.0880001 0.289 1.594 100 0 0 0 0.04795
3.0699999 0.287 1.595 99 0 0 0 0.047959998
3.0450001 0.28400001 1.591 100 0 0 0 0.047970001
3.027 0.28099999 1.592 103 0 0 0 0.047979999
3.0109999 0.27900001 1.594 98 0 0 0 0.047990002
2.9960001 0.27599999 1.595 107 0 0 0 0.048
2.9779999 0.27399999 1.595 103 0 0 0 0.048009999
2.957 0.271 1.594 108 0 0 0 0.048020002
2.9400001 0.26800001 1.5930001 106 0 0 0 0.04803
2.9230001 0.266 1.594 105 0 0 0 0.048039999
2.9070001 0.26300001 1.594 107 0 0 0 0.048050001
2.8870001 0.25999999 1.592 115 0 0 0 0.04806
2.872 0.257 1.5930001 118 0 0 0 0.048069999
2.8570001 0.255 1.5930001 112 0 0 0 0.048080001
2.8429999 0.252 1.594 107 0 0 0 0.04809
2.8280001 0.25 1.595 118 0 0 0 0.048099998
2.8169999 0.24699999 1.597 124 0 0 0 0.048110001
2.7969999 0.244 1.594 120 0 0 0 0.048119999
2.7839999 0.242 1.596 114 0 0 0 0.048129998
2.7639999 0.23800001 1.5930001 129 0 0 0 0.048140001
2.7509999 0.236 1.5930001 128 0 0 0 0.048149999
2.74 0.233 1.595 129 0 0 0 0.048160002
2.7190001 0.23 1.591 129 0 0 0 0.04817
2.7090001 0.227 1.5930001 139 0 0 0 0.048179999
2.697 0.22400001 1.594 145 0 0 0 0.048190001
2.691 0.222 1.598 132 0 0 0 0.0482
2.6700001 0.219 1.5930001 132 0 0 0 0.048209999
2.661 0.21600001 1.595 135 0 0 0 0.048220001
2.6489999 0.213 1.596 144 0 0 0 0.04823
2.6370001 0.20999999 1.596 146 0 0 0 0.048239999
2.622 0.207 1.594 150 0 0 0 0.048250001
2.6129999 0.205 1.596 150 0 0 0 0.04826
2.6040001 0.20200001 1.597 150 0 0 0 0.048269998
2.5899999 0.199 1.596 150 0 0 0 0.048280001
2.5799999 0.19599999 1.596 144 0 0 0 0.048289999
2.569 0.193 1.596 144 0 0 0 0.048300002
2.556 0.19 1.595 149 0 0 0 0.04831
2.546 0.18700001 1.595 150 0 0 0 0.048319999
2.5339999 0.184 1.594 150 0 0 0 0.048330002
2.523 0.18099999 1.594 150 0 0 0 0.04834
2.5120001 0.178 1.5930001 150 0 0 0 0.048349999
2.5090001 0.175 1.597 150 0 0 0 0.048360001
2.4979999 0.17200001 1.596 150 0 0 0 0.04837
2.487 0.169 1.595 150 0 0 0 0.048379999
2.4749999 0.16599999 1.594 150 0 0 0 0.048390001
2.473 0.163 1.598 150 0 0 0 0.0484
2.461 0.16 1.596 150 0 0 0 0.048409998
2.4519999 0.15700001 1.595 150 0 0 0 0.048420001
2.4489999 0.154 1.599 150 0 0 0 0.04843
2.4360001 0.15099999 1.596 150 0 0 0 0.048439998
2.4289999 0.148 1.596 150 0 0 0 0.048450001
2.4230001 0.145 1.598 150 0 0 0 0.048459999
2.415 0.142 1.597 150 0 0 0 0.048470002
2.4089999 0.139 1.598 150 0 0 0 0.04848
2.4000001 0.13600001 1.597 150 0 0 0 0.048489999
2.392 0.133 1.596 150 0 0 0 0.048500001
2.3900001 0.13 1.599 150 0 0 0 0.04851
2.3840001 0.127 1.6 150 0 0 0 0.048519999
2.3729999 0.123 1.596 150 0 0 0 0.048530001
2.365 0.12 1.595 150 0 0 0 0.04854
2.3629999 0.117 1.598 150 0 0 0 0.048549999
2.355 0.114 1.597 150 0 0 0 0.048560001
2.3529999 0.111 1.599 150 0 0 0 0.04857
2.349 0.108 1.6 150 0 0 0 0.048579998
2.3410001 0.105 1.598 150 0 0 0 0.048590001
2.3369999 0.102 1.599 150 0 0 0 0.048599999
2.3310001 0.097999997 1.598 150 0 0 0 0.048610002
2.326 0.094999999 1.598 150 0 0 0 0.04862
2.3239999 0.092 1.6 150 0 0 0 0.048629999
2.3210001 0.089000002 1.601 150 0 0 0 0.048640002
2.312 0.085000001 1.597 150 0 0 0 0.04865
2.313 0.082999997 1.601 150 0 0 0 0.048659999
2.3080001 0.079000004 1.6 150 0 0 0 0.048670001
2.3080001 0.075999998 1.603 150 0 0 0 0.04868
2.302 0.072999999 1.601 150 0 0 0 0.048689999
2.3039999 0.07 1.604 150 0 0 0 0.048700001
2.3 0.067000002 1.604 150 0 0 0 0.04871
2.3 0.063000001 1.605 150 0 0 0 0.048719998
2.2939999 0.059999999 1.603 150 0 0 0 0.048730001
2.2920001 0.057 1.604 150 0 0 0 0.04874
2.2920001 0.054000001 1.605 150 0 0 0 0.048749998
2.2839999 0.050000001 1.602 150 0 0 0 0.048760001
2.2839999 0.046999998 1.603 150 0 0 0 0.048769999
2.2880001 0.044 1.607 150 0 0 0 0.048780002
2.2839999 0.041000001 1.605 150 0 0 0 0.04879
2.277 0.037999999 1.601 150 0 0 0 0.048799999
2.277 0.034000002 1.602 150 0 0 0 0.048810001
2.2780001 0.030999999 1.604 150 0 0 0 0.04882
2.276 0.028000001 1.602 142 0 0 0 0.048829999
2.2750001 0.025 1.603 150 0 0 0 0.048840001
2.276 0.021 1.604 150 0 0 0 0.04885
2.276 0.017999999 1.604 150 0 0 0 0.048859999
2.276 0.015 1.604 150 0 0 0 0.048870001
2.273 0.012 1.602 150 0 0 0 0.04888
2.276 0.0080000004 1.604 150 0 0 0 0.048889998
2.2780001 0.0049999999 1.605 150 0 0 0 0.048900001
2.276 0.0020000001 1.603 150 0 0 0 0.048909999
2.276 0 1.603 150 0 0 0 0.048920002
2.2780001 -0.0040000002 1.604 150 0 0 0 0.048930001
2.279 -0.0070000002 1.603 150 0 0 0 0.048939999
2.2820001 -0.0099999998 1.605 150 0 0 0 0.048950002
2.2880001 -0.013 1.608 150 0 0 0 0.04896
2.2880001 -0.016000001 1.607 150 0 0 0 0.048969999
2.286 -0.02 1.604 150 0 0 0 0.048980001
2.2920001 -0.023 1.607 150 0 0 0 0.04899
2.293 -0.026000001 1.6059999 150 0 0 0 0.048999999
2.2980001 -0.028999999 1.608 146 0 0 0 0.049010001
2.299 -0.033 1.607 148 0 0 0 0.04902
2.3 -0.035999998 1.6059999 150 0 0 0 0.049029998
2.302 -0.039000001 1.605 149 0 0 0 0.049040001
2.303 -0.041999999 1.603 150 0 0 0 0.04905
2.306 -0.046 1.604 150 0 0 0 0.049059998
2.309 -0.048999999 1.603 148 0 0 0 0.049070001
2.313 -0.052000001 1.603 150 0 0 0 0.049079999
2.316 -0.055 1.603 150 0 0 0 0.049090002
2.316 -0.057999998 1.6 147 0 0 0 0.0491
2.3199999 -0.061000001 1.6 146 0 0 0 0.049109999
2.325 -0.064999998 1.6 149 0 0 0 0.049120001
2.3310001 -0.068000004 1.601 150 0 0 0 0.04913
2.3369999 -0.071000002 1.602 150 0 0 0 0.049139999
2.3380001 -0.074000001 1.599 150 0 0 0 0.049150001
2.342 -0.077 1.599 150 0 0 0 0.04916
2.352 -0.079999998 1.602 146 0 0 0 0.049169999
2.3540001 -0.082999997 1.6 150 0 0 0 0.049180001
2.358 -0.086999997 1.599 150 0 0 0 0.04919
2.368 -0.090000004 1.601 137 0 0 0 0.049199998
2.3770001 -0.093000002 1.603 149 0 0 0 0.049210001
2.3789999 -0.096000001 1.6 140 0 0 0 0.049219999
2.388 -0.098999999 1.602 150 0 0 0 0.049229998
2.3959999 -0.102 1.603 144 0 0 0 0.049240001
2.398 -0.105 1.6 133 0 0 0 0.049249999
2.408 -0.109 1.602 150 0 0 0 0.049260002
2.4119999 -0.111 1.6 138 0 0 0 0.04927
2.421 -0.115 1.601 139 0 0 0 0.049279999
2.4300001 -0.118 1.602 137 0 0 0 0.049290001
2.4389999 -0.121 1.603 146 0 0 0 0.0493
2.4430001 -0.124 1.6 127 0 0 0 0.049309999
2.4549999 -0.127 1.602 134 0 0 0 0.049320001
2.46 -0.13 1.6 132 0 0 0 0.04933
2.4660001 -0.133 1.599 129 0 0 0 0.049339999
2.4760001 -0.13600001 1.6 132 0 0 0 0.049350001
2.487 -0.139 1.601 132 0 0 0 0.04936
2.4949999 -0.142 1.6 131 0 0 0 0.049369998
2.5050001 -0.145 1.601 130 0 0 0 0.049380001
2.516 -0.148 1.602 129 0 0 0 0.049389999
2.5239999 -0.15099999 1.6 116 0 0 0 0.049400002
2.533 -0.154 1.6 119 0 0 0 0.04941
2.5469999 -0.15700001 1.602 121 0 0 0 0.049419999
2.5580001 -0.16 1.603 118 0 0 0 0.049430002
2.5699999 -0.163 1.603 115 0 0 0 0.04944
2.5810001 -0.16599999 1.604 113 0 0 0 0.049449999
2.589 -0.169 1.602 114 0 0 0 0.049460001
2.5969999 -0.171 1.6 113 0 0 0 0.04947
2.6110001 -0.175 1.602 110 0 0 0 0.049479999
2.628 -0.178 1.605 104 0 0 0 0.049490001
2.6359999 -0.18000001 1.602 108 0 0 0 0.0495
2.648 -0.183 1.602 112 0 0 0 0.049509998
2.6589999 -0.186 1.601 97 0 0 0 0.049520001
2.671 -0.189 1.601 97 0 0 0 0.049529999
2.6889999 -0.192 1.604 110 0 0 0 0.049539998
2.698 -0.19499999 1.602 102 0 0 0 0.049550001
2.7079999 -0.197 1.6 96 0 0 0 0.049559999
2.7219999 -0.2 1.6 87 0 0 0 0.049570002
2.74 -0.20299999 1.602 91 0 0 0 0.04958
2.757 -0.206 1.604 93 0 0 0 0.049589999
2.7690001 -0.20900001 1.603 83 0 0 0 0.049600001
2.786 -0.212 1.605 86 0 0 0 0.04961
2.7969999 -0.214 1.603 88 0 0 0 0.049619999
2.812 -0.21699999 1.603 84 0 0 0 0.049630001
2.8269999 -0.22 1.603 86 0 0 0 0.04964
2.845 -0.223 1.604 85 0 0 0 0.049649999
2.855 -0.22499999 1.601 88 0 0 0 0.049660001
2.8729999 -0.228 1.602 89 0 0 0 0.04967
2.8889999 -0.23100001 1.602 89 0 0 0 0.049679998
2.908 -0.233 1.604 89 0 0 0 0.049690001
2.9230001 -0.236 1.602 88 0 0 0 0.049699999
2.941 -0.23899999 1.603 92 0 0 0 0.049710002
2.9579999 -0.241 1.603 105 0 0 0 0.04972
2.977 -0.244 1.604 102 0 0 0 0.049729999
2.9909999 -0.24600001 1.602 69 0 0 0 0.049740002
3.006 -0.249 1.6 43 0 0 0 0.04975
3.0079999 -0.25 1.592 23 0 0 0 0.049759999
3.0150001 -0.252 1.586 17 0 0 0 0.049770001
3.026 -0.25400001 1.582 16 0 0 0 0.04978
3.027 -0.255 1.572 15 0 0 0 0.049789999
3.026 -0.255 1.561 14 0 0 0 0.049800001
3.023 -0.25600001 1.55 14 0 0 0 0.04981
3.0250001 -0.257 1.541 14 0 0 0 0.049819998
3.0209999 -0.257 1.529 14 0 0 0 0.049830001
3.023 -0.25799999 1.52 13 0 0 0 0.04984
3.0250001 -0.259 1.511 14 0 0 0 0.049849998
3.023 -0.25999999 1.501 15 0 0 0 0.049860001
3.0239999 -0.25999999 1.49 17 0 0 0 0.049869999
3.0150001 -0.25999999 1.476 15 0 0 0 0.049880002
3.0139999 -0.25999999 1.465 17 0 0 0 0.04989
3.0109999 -0.26100001 1.454 18 0 0 0 0.049899999
3.0139999 -0.26100001 1.4450001 21 0 0 0 0.049910001
3.0320001 -0.26300001 1.444 33 0 0 0 0.04992
3.056 -0.266 1.4450001 36 0 0 0 0.049929999
3.059 -0.266 1.436 37 0 0 0 0.049940001
3.0610001 -0.26699999 1.426 36 0 0 0 0.04995
3.0650001 -0.26699999 1.418 36 0 0 0 0.049959999
3.0639999 -0.26699999 1.4069999 37 0 0 0 0.049970001
3.0550001 -0.266 1.393 36 0 0 0 0.04998
3.046 -0.266 1.3789999 35 0 0 0 0.049989998
3 -0.26199999 1.347 35 0 0 0 0.050000001
2.954 -0.25799999 1.317 36 0 0 0 0.050009999
2.9549999 -0.25799999 1.307 41 0 0 0 0.050020002
2.964 -0.25799999 1.301 51 0 0 0 0.050030001
2.9779999 -0.259 1.2970001 59 0 0 0 0.050039999
3 -0.26100001 1.296 60 0 0 0 0.050050002
3.0239999 -0.26300001 1.2970001 60 0 0 0 0.05006
3.049 -0.26499999 1.2970001 56 0 0 0 0.050069999
3.0799999 -0.26699999 1.3 56 0 0 0 0.050080001
3.105 -0.26899999 1.3 56 0 0 0 0.05009
3.1289999 -0.271 1.299 57 0 0 0 0.050099999
3.1570001 -0.273 1.3 58 0 0 0 0.050110001
3.1800001 -0.27399999 1.299 61 0 0 0 0.05012
3.2079999 -0.27599999 1.299 65 0 0 0 0.050129998
3.2409999 -0.27900001 1.301 150 0 0 0 0.050140001
3.25 -0.27900001 1.294 150 0 0 0 0.05015
3.2490001 -0.278 1.2819999 150 0 0 0 0.050159998
3.2490001 -0.27700001 1.271 150 0 0 0 0.050170001
3.2539999 -0.27700001 1.262 150 0 0 0 0.050179999
3.25 -0.27599999 1.25 150 0 0 0 0.050190002
3.25 -0.27500001 1.238 150 0 0 0 0.0502
3.247 -0.27399999 1.226 150 0 0 0 0.050209999
3.2479999 -0.273 1.215 150 0 0 0 0.050220001
3.2509999 -0.273 1.206 150 0 0 0 0.05023
3.2490001 -0.27200001 1.194 150 0 0 0 0.050239999
3.2460001 -0.27000001 1.182 150 0 0 0 0.050250001
3.2479999 -0.27000001 1.171 150 0 0 0 0.05026
3.2509999 -0.26899999 1.161 150 0 0 0 0.050269999
3.2509999 -0.26800001 1.15 150 0 0 0 0.050280001
3.2460001 -0.266 1.138 150 0 0 0 0.05029
3.247 -0.26499999 1.127 150 0 0 0 0.050299998
3.2479999 -0.264 1.1160001 150 0 0 0 0.050310001
3.247 -0.26300001 1.105 150 0 0 0 0.050319999
3.2479999 -0.26199999 1.094 150 0 0 0 0.050330002
3.243 -0.25999999 1.081 150 0 0 0 0.050340001
3.2460001 -0.259 1.072 150 0 0 0 0.050349999
3.2390001 -0.257 1.058 150 0 0 0 0.050360002
3.2420001 -0.25600001 1.048 150 0 0 0 0.05037
3.243 -0.255 1.038 150 0 0 0 0.050379999
3.2409999 -0.25299999 1.026 150 0 0 0 0.050390001
3.2420001 -0.252 1.016 150 0 0 0 0.0504
3.2449999 -0.25 1.006 126 0 0 0 0.050409999
3.2490001 -0.249 0.99599999 76 0 0 0 0.050420001
3.25 -0.248 0.98500001 53 0 0 0 0.05043
3.263 -0.24699999 0.97799999 40 0 0 0 0.050439999
3.2869999 -0.24699999 0.97500002 29 0 0 0 0.050450001
3.3199999 -0.248 0.97299999 27 0 0 0 0.05046
3.336 -0.248 0.96700001 28 0 0 0 0.050469998
3.342 -0.24600001 0.95700002 30 0 0 0 0.050480001
3.3469999 -0.245 0.94800001 45 0 0 0 0.050489999
3.349 -0.243 0.93699998 85 0 0 0 0.050500002
3.3499999 -0.242 0.926 150 0 0 0 0.05051
3.3529999 -0.23999999 0.91600001 150 0 0 0 0.050519999
3.352 -0.23800001 0.90499997 150 0 0 0 0.050530002
3.358 -0.237 0.89499998 150 0 0 0 0.05054
3.355 -0.234 0.88300002 150 0 0 0 0.050549999
3.3570001 -0.233 0.87199998 150 0 0 0 0.050560001
3.3559999 -0.23100001 0.861 150 0 0 0 0.05057
3.3570001 -0.229 0.85000002 150 0 0 0 0.050579999
3.3599999 -0.227 0.83999997 150 0 0 0 0.050590001
3.359 -0.22499999 0.829 150 0 0 0 0.0506
3.352 -0.222 0.81599998 150 0 0 0 0.050609998
3.355 -0.22 0.80500001 150 0 0 0 0.050620001
3.3540001 -0.21799999 0.79400003 150 0 0 0 0.050629999
3.3559999 -0.21600001 0.78399998 150 0 0 0 0.050639998
3.3529999 -0.214 0.77200001 150 0 0 0 0.050650001
3.3540001 -0.211 0.76099998 150 0 0 0 0.050659999
3.3529999 -0.20900001 0.75 150 0 0 0 0.050670002
3.3540001 -0.207 0.73900002 150 0 0 0 0.05068
3.3599999 -0.205 0.73000002 150 0 0 0 0.050689999
3.3640001 -0.20299999 0.72000003 150 0 0 0 0.050700001
3.3729999 -0.20100001 0.71100003 150 0 0 0 0.05071
3.3789999 -0.199 0.70099998 150 0 0 0 0.050719999
3.388 -0.197 0.69199997 150 0 0 0 0.050730001
3.3829999 -0.19499999 0.68000001 150 0 0 0 0.05074
