# .PCD v0.7 - Point Cloud Data file format
VERSION 0.7
FIELDS x y z intensity normal_x normal_y normal_z curvature
SIZE 4 4 4 4 4 4 4 4
TYPE F F F F F F F F
COUNT 1 1 1 1 1 1 1 1
WIDTH 985
HEIGHT 1
VIEWPOINT 0 0 0 1 0 0 0
POINTS 985
DATA ascii
0.91799998 0.46200001 0.44400001 6 0 0 0 0.065520003
0.92699999 0.465 0.44800001 0 0 0 0 0.065530002
0.93300003 0.46599999 0.45199999 5 0 0 0 0.065540001
0.93199998 0.46399999 0.45199999 5 0 0 0 0.065549999
0.93400002 0.46399999 0.45300001 6 0 0 0 0.065559998
0.93300003 0.46200001 0.45300001 8 0 0 0 0.065569997
0.94 0.463 0.456 10 0 0 0 0.065580003
0.93699998 0.46000001 0.45500001 10 0 0 0 0.065590002
0.94 0.46000001 0.45699999 10 0 0 0 0.0656
0.94199997 0.45899999 0.45699999 10 0 0 0 0.065609999
0.94599998 0.45899999 0.45899999 8 0 0 0 0.065619998
0.94999999 0.46000001 0.461 7 0 0 0 0.065629996
0.95599997 0.46000001 0.46399999 6 0 0 0 0.065640002
0.963 0.46200001 0.46799999 6 0 0 0 0.065650001
0.96899998 0.463 0.47 5 0 0 0 0.06566
0.97100002 0.46200001 0.47099999 0 0 0 0 0.065669999
0.97899997 0.46399999 0.47400001 0 0 0 0 0.065679997
0.98799998 0.46599999 0.479 0 0 0 0 0.065690003
1.029 0.48300001 0.498 0 0 0 0 0.065700002
1.125 0.52600002 0.54500002 42 0 0 0 0.065710001
1.177 0.54699999 0.56900001 87 0 0 0 0.065719999
1.1950001 0.55299997 0.57800001 129 0 0 0 0.065729998
1.2130001 0.55900002 0.58600003 150 0 0 0 0.065739997
1.229 0.56400001 0.59299999 150 0 0 0 0.065750003
1.243 0.56699997 0.59899998 150 0 0 0 0.065760002
1.266 0.57499999 0.60900003 150 0 0 0 0.06577
1.256 0.56699997 0.60399997 150 0 0 0 0.065779999
1.2640001 0.56800002 0.60699999 150 0 0 0 0.065789998
1.265 0.56599998 0.60699999 150 0 0 0 0.065800004
1.2640001 0.56199998 0.60500002 150 0 0 0 0.065810002
1.265 0.56 0.60500002 150 0 0 0 0.065820001
1.262 0.55500001 0.602 150 0 0 0 0.06583
1.263 0.55299997 0.602 150 0 0 0 0.065839998
1.2640001 0.55000001 0.60100001 150 0 0 0 0.065849997
1.263 0.54699999 0.60000002 150 0 0 0 0.065860003
1.2640001 0.54400003 0.59899998 150 0 0 0 0.065870002
1.261 0.54000002 0.597 150 0 0 0 0.065880001
1.263 0.537 0.59600002 150 0 0 0 0.065889999
1.2640001 0.53500003 0.59500003 150 0 0 0 0.065899998
1.266 0.53200001 0.59500003 150 0 0 0 0.065909997
1.2640001 0.52899998 0.59299999 150 0 0 0 0.065920003
1.258 0.523 0.58899999 150 0 0 0 0.065930001
1.26 0.51999998 0.588 150 0 0 0 0.06594
1.261 0.51800001 0.58700001 150 0 0 0 0.065949999
1.26 0.514 0.58499998 150 0 0 0 0.065959997
1.261 0.51200002 0.58399999 150 0 0 0 0.065970004
1.256 0.50599998 0.57999998 150 0 0 0 0.065980002
1.267 0.50700003 0.583 150 0 0 0 0.065990001
1.258 0.50099999 0.57800001 150 0 0 0 0.066
1.26 0.498 0.57700002 150 0 0 0 0.066009998
1.261 0.495 0.57599998 150 0 0 0 0.066019997
1.28 0.49900001 0.58200002 150 0 0 0 0.066030003
1.263 0.48899999 0.57300001 150 0 0 0 0.066040002
1.2589999 0.484 0.56900001 150 0 0 0 0.06605
1.261 0.48199999 0.56800002 150 0 0 0 0.066059999
1.262 0.479 0.56699997 150 0 0 0 0.066069998
1.261 0.47600001 0.56400001 150 0 0 0 0.066079997
1.255 0.47 0.56 150 0 0 0 0.066090003
1.256 0.46700001 0.55800003 150 0 0 0 0.066100001
1.258 0.46399999 0.55699998 150 0 0 0 0.06611
1.257 0.461 0.55500001 150 0 0 0 0.066119999
1.256 0.45699999 0.55199999 150 0 0 0 0.066129997
1.2589999 0.45500001 0.551 150 0 0 0 0.066140004
1.26 0.45199999 0.55000001 150 0 0 0 0.066150002
1.261 0.449 0.54799998 150 0 0 0 0.066160001
1.263 0.447 0.54699999 150 0 0 0 0.06617
1.262 0.44299999 0.54400003 150 0 0 0 0.066179998
1.256 0.43700001 0.53899997 150 0 0 0 0.066189997
1.267 0.43799999 0.542 150 0 0 0 0.066200003
1.285 0.44100001 0.54699999 150 0 0 0 0.066210002
1.296 0.44100001 0.54900002 53 0 0 0 0.06622
1.316 0.44400001 0.55500001 13 0 0 0 0.066229999
1.337 0.44800001 0.56099999 11 0 0 0 0.066239998
1.352 0.449 0.565 11 0 0 0 0.066249996
1.367 0.45100001 0.56800002 11 0 0 0 0.066260003
1.383 0.45199999 0.57200003 12 0 0 0 0.066270001
1.3940001 0.45199999 0.574 12 0 0 0 0.06628
1.415 0.45500001 0.57999998 12 0 0 0 0.066289999
1.424 0.45500001 0.58099997 14 0 0 0 0.066299997
1.45 0.45899999 0.58899999 11 0 0 0 0.066310003
1.467 0.461 0.59299999 11 0 0 0 0.066320002
1.479 0.461 0.59399998 11 0 0 0 0.066330001
3.816 1.1799999 1.526 1 0 0 0 0.066339999
1.493 0.45699999 0.59399998 8 0 0 0 0.066349998
1.503 0.45699999 0.59399998 2 0 0 0 0.066359997
1.521 0.458 0.59799999 0 0 0 0 0.066370003
3.9219999 1.1720001 1.535 67 0 0 0 0.066380002
3.9400001 1.1670001 1.534 66 0 0 0 0.06639
3.9630001 1.164 1.534 68 0 0 0 0.066399999
3.9820001 1.159 1.5319999 70 0 0 0 0.066409998
0 0 0 0 0 0 0 0.066419996
0 0 0 0 0 0 0 0.066430002
2.2449999 0.63599998 0.84899998 151 0 0 0 0.066440001
2.237 0.62800002 0.84100002 150 0 0 0 0.06645
2.2390001 0.62300003 0.83700001 151 0 0 0 0.066459998
2.243 0.61900002 0.833 150 0 0 0 0.066469997
2.2420001 0.61299998 0.82700002 151 0 0 0 0.066480003
2.24 0.60699999 0.82200003 151 0 0 0 0.066490002
2.24 0.60100001 0.81699997 150 0 0 0 0.066500001
2.2320001 0.59399998 0.80800003 150 0 0 0 0.066509999
2.2309999 0.588 0.80299997 150 0 0 0 0.066519998
2.233 0.583 0.79799998 150 0 0 0 0.066529997
2.2309999 0.57700002 0.792 150 0 0 0 0.066540003
2.2320001 0.57200003 0.78799999 150 0 0 0 0.066550002
2.2349999 0.56699997 0.78299999 150 0 0 0 0.06656
2.237 0.56199998 0.77899998 150 0 0 0 0.066569999
2.2360001 0.55599999 0.773 150 0 0 0 0.066579998
2.2360001 0.551 0.76700002 150 0 0 0 0.066590004
2.2320001 0.54400003 0.76099998 150 0 0 0 0.066600002
2.2349999 0.54000002 0.75599998 150 0 0 0 0.066610001
2.234 0.53399998 0.75099999 150 0 0 0 0.06662
2.244 0.53100002 0.74900001 150 0 0 0 0.066629998
2.2590001 0.52899998 0.74800003 150 0 0 0 0.066639997
2.266 0.52499998 0.745 151 0 0 0 0.066650003
2.2679999 0.52100003 0.74000001 151 0 0 0 0.066660002
2.2709999 0.51599997 0.73500001 151 0 0 0 0.066670001
2.2690001 0.50999999 0.72899997 150 0 0 0 0.066679999
2.2909999 0.50999999 0.73000002 45 0 0 0 0.066689998
2.358 0.51899999 0.74599999 22 0 0 0 0.066699997
2.3929999 0.52100003 0.75099999 19 0 0 0 0.066710003
2.4319999 0.52399999 0.75700003 19 0 0 0 0.066720001
2.4649999 0.52600002 0.76099998 19 0 0 0 0.06673
2.51 0.52899998 0.76899999 19 0 0 0 0.066739999
2.55 0.53200001 0.77399999 20 0 0 0 0.066749997
2.589 0.53399998 0.77999997 21 0 0 0 0.066760004
2.6359999 0.53799999 0.787 21 0 0 0 0.066770002
2.691 0.54299998 0.79699999 22 0 0 0 0.066780001
2.74 0.546 0.80400002 23 0 0 0 0.06679
2.7909999 0.551 0.81199998 24 0 0 0 0.066799998
2.8629999 0.55800003 0.82599998 26 0 0 0 0.066809997
2.938 0.56599998 0.83999997 27 0 0 0 0.066820003
2.9909999 0.56999999 0.847 28 0 0 0 0.066830002
3.043 0.57300001 0.85399997 27 0 0 0 0.06684
3.092 0.57499999 0.86000001 28 0 0 0 0.066849999
3.142 0.57800001 0.866 27 0 0 0 0.066859998
3.201 0.58200002 0.87400001 28 0 0 0 0.066869996
3.256 0.58499998 0.88 29 0 0 0 0.066880003
3.2839999 0.583 0.87900001 30 0 0 0 0.066890001
3.296 0.57700002 0.87400001 150 0 0 0 0.0669
3.2939999 0.56999999 0.86500001 151 0 0 0 0.066909999
3.2939999 0.56300002 0.85600001 150 0 0 0 0.066919997
3.299 0.55699998 0.84899998 150 0 0 0 0.066930003
3.2969999 0.54900002 0.83999997 150 0 0 0 0.066940002
3.299 0.54299998 0.83200002 150 0 0 0 0.066950001
3.2980001 0.53600001 0.82300001 150 0 0 0 0.06696
3.319 0.53200001 0.81900001 150 0 0 0 0.066969998
3.332 0.52700001 0.81400001 150 0 0 0 0.066979997
3.3299999 0.51999998 0.80400002 150 0 0 0 0.066990003
3.3329999 0.51300001 0.796 150 0 0 0 0.067000002
3.3369999 0.50700003 0.78799999 150 0 0 0 0.06701
3.3829999 0.50700003 0.79000002 150 0 0 0 0.067019999
3.388 0.50099999 0.78200001 150 0 0 0 0.067029998
3.3929999 0.495 0.77399999 150 0 0 0 0.067039996
3.3959999 0.48800001 0.76599997 150 0 0 0 0.067050003
3.3959999 0.48100001 0.75700003 150 0 0 0 0.067060001
3.3970001 0.47400001 0.74800003 150 0 0 0 0.06707
3.3989999 0.46799999 0.73900002 150 0 0 0 0.067079999
3.401 0.461 0.73100001 150 0 0 0 0.067089997
3.3959999 0.454 0.72000003 150 0 0 0 0.067100003
3.3940001 0.447 0.71100003 150 0 0 0 0.067110002
3.398 0.44 0.70300001 150 0 0 0 0.067120001
3.3989999 0.43399999 0.69400001 150 0 0 0 0.067129999
3.402 0.42699999 0.685 150 0 0 0 0.067139998
3.4000001 0.41999999 0.67500001 150 0 0 0 0.067149997
3.3989999 0.414 0.66600001 150 0 0 0 0.067160003
3.401 0.40700001 0.65700001 150 0 0 0 0.067170002
3.4030001 0.40099999 0.64899999 150 0 0 0 0.06718
3.402 0.39399999 0.639 150 0 0 0 0.067189999
3.404 0.38800001 0.63 150 0 0 0 0.067199998
3.404 0.382 0.62099999 150 0 0 0 0.067209996
3.4030001 0.375 0.61199999 150 0 0 0 0.067220002
3.4030001 0.368 0.602 150 0 0 0 0.067230001
3.404 0.36199999 0.59299999 150 0 0 0 0.06724
3.3989999 0.35499999 0.583 150 0 0 0 0.067249998
3.4059999 0.34900001 0.57499999 150 0 0 0 0.067259997
3.4059999 0.34299999 0.56599998 150 0 0 0 0.067270003
3.4070001 0.33700001 0.55699998 150 0 0 0 0.067280002
3.404 0.33000001 0.54699999 150 0 0 0 0.067290001
3.4030001 0.324 0.53799999 150 0 0 0 0.067299999
3.405 0.31799999 0.52899998 150 0 0 0 0.067309998
3.4059999 0.31099999 0.51899999 150 0 0 0 0.067319997
3.4059999 0.30500001 0.50999999 150 0 0 0 0.067330003
3.4070001 0.29899999 0.50099999 150 0 0 0 0.067340001
3.4089999 0.29300001 0.49200001 150 0 0 0 0.06735
3.4100001 0.287 0.48300001 150 0 0 0 0.067359999
3.4089999 0.28099999 0.47299999 150 0 0 0 0.067369998
3.4089999 0.27399999 0.46399999 150 0 0 0 0.067380004
3.4130001 0.26899999 0.45500001 150 0 0 0 0.067390002
3.4119999 0.26199999 0.44600001 150 0 0 0 0.067400001
3.4070001 0.25600001 0.43599999 150 0 0 0 0.06741
3.405 0.25 0.426 150 0 0 0 0.067419998
3.404 0.244 0.41600001 150 0 0 0 0.067429997
3.4130001 0.23800001 0.40799999 150 0 0 0 0.067440003
3.4119999 0.23199999 0.398 150 0 0 0 0.067450002
3.414 0.226 0.389 150 0 0 0 0.067460001
3.4100001 0.22 0.37900001 150 0 0 0 0.067469999
3.4059999 0.214 0.36899999 150 0 0 0 0.067479998
3.4070001 0.208 0.36000001 150 0 0 0 0.067489997
3.408 0.20200001 0.35100001 150 0 0 0 0.067500003
3.4070001 0.19599999 0.34099999 150 0 0 0 0.067510001
3.4119999 0.191 0.33199999 150 0 0 0 0.06752
3.404 0.184 0.322 150 0 0 0 0.067529999
3.414 0.17900001 0.31299999 150 0 0 0 0.067539997
3.4100001 0.17299999 0.303 151 0 0 0 0.067550004
3.4119999 0.167 0.294 151 0 0 0 0.067560002
3.404 0.161 0.28400001 151 0 0 0 0.067570001
3.4100001 0.156 0.27500001 151 0 0 0 0.06758
3.411 0.15000001 0.266 151 0 0 0 0.067589998
3.408 0.14399999 0.25600001 151 0 0 0 0.067599997
3.4070001 0.139 0.24600001 151 0 0 0 0.067610003
3.4100001 0.133 0.237 151 0 0 0 0.067620002
3.4100001 0.127 0.228 151 0 0 0 0.06763
3.4119999 0.122 0.21799999 151 0 0 0 0.067639999
3.4100001 0.116 0.208 151 0 0 0 0.067649998
3.411 0.111 0.199 151 0 0 0 0.067659996
3.4119999 0.105 0.189 151 0 0 0 0.067670003
3.4100001 0.098999999 0.18000001 151 0 0 0 0.067680001
3.4130001 0.093999997 0.17 151 0 0 0 0.06769
3.4170001 0.089000002 0.161 151 0 0 0 0.067699999
3.4159999 0.082999997 0.15099999 152 0 0 0 0.067709997
3.4170001 0.078000002 0.142 152 0 0 0 0.067720003
3.4159999 0.071999997 0.132 151 0 0 0 0.067730002
3.4159999 0.067000002 0.122 152 0 0 0 0.067740001
3.415 0.061000001 0.113 152 0 0 0 0.067749999
3.4159999 0.056000002 0.103 152 0 0 0 0.067759998
3.4159999 0.050000001 0.093000002 152 0 0 0 0.067769997
3.4159999 0.045000002 0.083999999 152 0 0 0 0.067780003
3.4159999 0.039999999 0.074000001 152 0 0 0 0.067790002
3.418 0.034000002 0.064000003 152 0 0 0 0.0678
3.4170001 0.028999999 0.055 152 0 0 0 0.067809999
3.4170001 0.024 0.045000002 152 0 0 0 0.067819998
3.4170001 0.017999999 0.035 152 0 0 0 0.067829996
3.4170001 0.013 0.026000001 152 0 0 0 0.067840002
3.418 0.0080000004 0.016000001 151 0 0 0 0.067850001
3.4159999 0.003 0.0060000001 151 0 0 0 0.06786
3.421 -0.0020000001 -0.003 151 0 0 0 0.067869999
3.4119999 -0.0070000002 -0.012 151 0 0 0 0.067879997
3.4159999 -0.012 -0.022 151 0 0 0 0.067890003
3.4159999 -0.017000001 -0.032000002 151 0 0 0 0.067900002
3.415 -0.022 -0.041999999 151 0 0 0 0.067910001
3.418 -0.028000001 -0.052000001 151 0 0 0 0.067919999
3.4200001 -0.033 -0.061000001 151 0 0 0 0.067929998
3.4159999 -0.037999999 -0.071000002 151 0 0 0 0.067939997
3.4170001 -0.043000001 -0.081 151 0 0 0 0.067950003
3.4200001 -0.048 -0.090999998 151 0 0 0 0.067960002
3.4170001 -0.052999999 -0.101 151 0 0 0 0.06797
3.4189999 -0.057999998 -0.111 151 0 0 0 0.067979999
3.418 -0.063000001 -0.12 151 0 0 0 0.067989998
3.4159999 -0.068000004 -0.13 151 0 0 0 0.068000004
3.4219999 -0.072999999 -0.14 151 0 0 0 0.068010002
3.421 -0.078000002 -0.15000001 151 0 0 0 0.068020001
3.424 -0.082999997 -0.16 151 0 0 0 0.06803
3.4230001 -0.088 -0.17 150 0 0 0 0.068039998
3.421 -0.093000002 -0.18000001 151 0 0 0 0.068049997
3.4219999 -0.097999997 -0.19 151 0 0 0 0.068060003
3.4260001 -0.103 -0.2 151 0 0 0 0.068070002
3.425 -0.108 -0.20999999 151 0 0 0 0.068080001
3.425 -0.113 -0.22 150 0 0 0 0.068089999
3.424 -0.118 -0.23 151 0 0 0 0.068099998
3.4260001 -0.123 -0.23999999 151 0 0 0 0.068109997
3.425 -0.12800001 -0.25 150 0 0 0 0.068120003
3.424 -0.132 -0.25999999 151 0 0 0 0.068130001
3.4319999 -0.138 -0.271 150 0 0 0 0.06814
3.4260001 -0.142 -0.28 150 0 0 0 0.068149999
3.425 -0.147 -0.28999999 150 0 0 0 0.068159997
3.424 -0.152 -0.30000001 150 0 0 0 0.068170004
3.428 -0.156 -0.31099999 150 0 0 0 0.068180002
3.4319999 -0.161 -0.32100001 150 0 0 0 0.068190001
3.4300001 -0.16599999 -0.331 150 0 0 0 0.0682
3.4319999 -0.171 -0.34200001 150 0 0 0 0.068209998
3.4289999 -0.175 -0.352 150 0 0 0 0.068219997
3.4300001 -0.18000001 -0.36199999 150 0 0 0 0.068230003
3.428 -0.185 -0.37200001 150 0 0 0 0.068240002
3.4300001 -0.189 -0.382 150 0 0 0 0.06825
3.4319999 -0.19400001 -0.39300001 150 0 0 0 0.068259999
3.4230001 -0.198 -0.40200001 151 0 0 0 0.068269998
3.4330001 -0.20299999 -0.41299999 151 0 0 0 0.068279997
3.4300001 -0.208 -0.42300001 150 0 0 0 0.068290003
3.392 -0.20999999 -0.42899999 150 0 0 0 0.068300001
3.3659999 -0.213 -0.435 150 0 0 0 0.06831
3.365 -0.21699999 -0.44499999 150 0 0 0 0.068319999
3.3629999 -0.221 -0.45500001 150 0 0 0 0.068329997
3.3610001 -0.226 -0.465 150 0 0 0 0.068340003
3.3629999 -0.23 -0.47600001 151 0 0 0 0.068350002
3.362 -0.234 -0.486 151 0 0 0 0.068360001
3.359 -0.23899999 -0.495 150 0 0 0 0.06837
3.349 -0.242 -0.50400001 150 0 0 0 0.068379998
3.3369999 -0.24600001 -0.51200002 150 0 0 0 0.068389997
3.3299999 -0.249 -0.52100003 150 0 0 0 0.068400003
3.3299999 -0.25299999 -0.53100002 150 0 0 0 0.068410002
3.3299999 -0.25799999 -0.542 150 0 0 0 0.06842
3.329 -0.26199999 -0.55199999 150 0 0 0 0.068429999
3.3310001 -0.266 -0.56199998 150 0 0 0 0.068439998
3.3329999 -0.27000001 -0.57300001 150 0 0 0 0.068449996
3.329 -0.27399999 -0.58200002 150 0 0 0 0.068460003
3.3340001 -0.27900001 -0.59299999 150 0 0 0 0.068470001
3.3329999 -0.28299999 -0.60299999 151 0 0 0 0.06848
3.3269999 -0.28600001 -0.61299998 150 0 0 0 0.068489999
3.329 -0.28999999 -0.62300003 150 0 0 0 0.068499997
3.322 -0.294 -0.63200003 36 0 0 0 0.068510003
3.273 -0.29300001 -0.63300002 33 0 0 0 0.068520002
3.243 -0.29499999 -0.63700002 79 0 0 0 0.068530001
3.237 -0.29800001 -0.64600003 150 0 0 0 0.068539999
3.2309999 -0.301 -0.65499997 150 0 0 0 0.068549998
3.233 -0.30500001 -0.66500002 150 0 0 0 0.068559997
3.2320001 -0.30899999 -0.67500001 150 0 0 0 0.068570003
3.2320001 -0.31299999 -0.685 150 0 0 0 0.068580002
3.2309999 -0.31600001 -0.69499999 150 0 0 0 0.06859
3.2309999 -0.31999999 -0.70499998 150 0 0 0 0.068599999
3.23 -0.324 -0.71499997 150 0 0 0 0.068609998
3.23 -0.32699999 -0.72500002 150 0 0 0 0.068619996
3.23 -0.331 -0.736 150 0 0 0 0.068630002
3.237 -0.336 -0.74699998 150 0 0 0 0.068640001
3.234 -0.33899999 -0.75700003 150 0 0 0 0.06865
3.2349999 -0.34299999 -0.76700002 150 0 0 0 0.068659998
3.23 -0.34599999 -0.77600002 150 0 0 0 0.068669997
3.2309999 -0.34900001 -0.787 150 0 0 0 0.068680003
3.23 -0.35299999 -0.79699999 150 0 0 0 0.068690002
3.221 -0.35499999 -0.80500001 150 0 0 0 0.068700001
3.21 -0.35800001 -0.81199998 150 0 0 0 0.068709999
3.204 -0.36000001 -0.82099998 150 0 0 0 0.068719998
3.1989999 -0.36300001 -0.82999998 150 0 0 0 0.068729997
3.1949999 -0.366 -0.83899999 52 0 0 0 0.068740003
3.1630001 -0.366 -0.84100002 28 0 0 0 0.068750001
3.118 -0.36399999 -0.83899999 26 0 0 0 0.06876
3.089 -0.36399999 -0.84100002 27 0 0 0 0.068769999
3.0599999 -0.36300001 -0.84299999 27 0 0 0 0.068779998
3.0209999 -0.36199999 -0.84200001 27 0 0 0 0.068790004
2.987 -0.361 -0.84200001 27 0 0 0 0.068800002
2.9549999 -0.36000001 -0.84299999 27 0 0 0 0.068810001
2.9159999 -0.35800001 -0.84100002 27 0 0 0 0.06882
2.8729999 -0.35600001 -0.838 26 0 0 0 0.068829998
2.8399999 -0.354 -0.838 25 0 0 0 0.068839997
2.812 -0.35299999 -0.838 26 0 0 0 0.068850003
2.773 -0.35100001 -0.83600003 25 0 0 0 0.068860002
2.7449999 -0.34999999 -0.83600003 25 0 0 0 0.068870001
2.72 -0.34999999 -0.83700001 26 0 0 0 0.068879999
2.6900001 -0.34799999 -0.83700001 26 0 0 0 0.068889998
2.6600001 -0.347 -0.83700001 26 0 0 0 0.068899997
2.6270001 -0.345 -0.83499998 26 0 0 0 0.068910003
2.596 -0.34299999 -0.833 27 0 0 0 0.068920001
2.563 -0.34099999 -0.83099997 22 0 0 0 0.06893
2.5350001 -0.34 -0.82999998 23 0 0 0 0.068939999
2.5050001 -0.338 -0.829 26 0 0 0 0.068949997
2.4909999 -0.338 -0.833 25 0 0 0 0.068960004
2.4619999 -0.336 -0.83099997 24 0 0 0 0.068970002
2.441 -0.336 -0.83200002 25 0 0 0 0.068980001
2.415 -0.33399999 -0.83099997 24 0 0 0 0.06899
2.3889999 -0.333 -0.82999998 25 0 0 0 0.068999998
2.3640001 -0.331 -0.829 25 0 0 0 0.069009997
2.346 -0.33000001 -0.83099997 25 0 0 0 0.069020003
2.325 -0.329 -0.83099997 25 0 0 0 0.069030002
2.3010001 -0.32800001 -0.82999998 25 0 0 0 0.06904
2.2809999 -0.32699999 -0.82999998 24 0 0 0 0.069049999
2.2609999 -0.32499999 -0.82999998 25 0 0 0 0.069059998
2.2390001 -0.324 -0.82999998 25 0 0 0 0.069069996
2.2179999 -0.32300001 -0.82999998 25 0 0 0 0.069080003
2.201 -0.322 -0.82999998 25 0 0 0 0.069090001
2.1800001 -0.31999999 -0.82999998 26 0 0 0 0.0691
2.1570001 -0.31799999 -0.82800001 26 0 0 0 0.069109999
2.141 -0.31799999 -0.829 24 0 0 0 0.069119997
2.122 -0.31600001 -0.829 25 0 0 0 0.069130003
2.099 -0.31400001 -0.82700002 24 0 0 0 0.069140002
2.082 -0.31299999 -0.82700002 25 0 0 0 0.069150001
2.063 -0.31099999 -0.82700002 24 0 0 0 0.069159999
2.049 -0.31 -0.82800001 25 0 0 0 0.069169998
2.0320001 -0.30899999 -0.82800001 25 0 0 0 0.069179997
2.0120001 -0.30700001 -0.82599998 26 0 0 0 0.069190003
1.9960001 -0.30599999 -0.82700002 28 0 0 0 0.069200002
1.979 -0.30500001 -0.82599998 29 0 0 0 0.06921
1.9680001 -0.30399999 -0.82800001 30 0 0 0 0.069219999
1.951 -0.303 -0.82700002 30 0 0 0 0.069229998
1.934 -0.301 -0.82700002 30 0 0 0 0.069239996
1.918 -0.30000001 -0.82599998 30 0 0 0 0.069250003
1.901 -0.29800001 -0.82499999 28 0 0 0 0.069260001
1.8890001 -0.29699999 -0.82700002 29 0 0 0 0.06927
1.872 -0.29499999 -0.82499999 29 0 0 0 0.069279999
1.863 -0.29499999 -0.82700002 30 0 0 0 0.069289997
1.844 -0.29300001 -0.82499999 30 0 0 0 0.069300003
1.8329999 -0.292 -0.82700002 31 0 0 0 0.069310002
1.822 -0.29100001 -0.82800001 30 0 0 0 0.069320001
1.804 -0.28799999 -0.82499999 28 0 0 0 0.069329999
1.789 -0.287 -0.824 30 0 0 0 0.069339998
1.775 -0.285 -0.824 30 0 0 0 0.069349997
1.7640001 -0.28400001 -0.82499999 36 0 0 0 0.069360003
1.753 -0.28299999 -0.82599998 38 0 0 0 0.069370002
1.7359999 -0.28099999 -0.824 38 0 0 0 0.06938
1.725 -0.28 -0.824 39 0 0 0 0.069389999
1.717 -0.27900001 -0.82599998 42 0 0 0 0.069399998
1.699 -0.27700001 -0.82300001 40 0 0 0 0.069410004
1.693 -0.27599999 -0.82499999 13 0 0 0 0.069420002
1.683 -0.27500001 -0.82599998 13 0 0 0 0.069430001
1.675 -0.27399999 -0.82800001 13 0 0 0 0.06944
1.658 -0.271 -0.824 14 0 0 0 0.069449998
1.647 -0.27000001 -0.824 13 0 0 0 0.069459997
1.6440001 -0.27000001 -0.82800001 13 0 0 0 0.069470003
1.63 -0.26800001 -0.82700002 13 0 0 0 0.069480002
1.62 -0.266 -0.82700002 13 0 0 0 0.069490001
1.608 -0.26499999 -0.82599998 13 0 0 0 0.069499999
1.602 -0.264 -0.82800001 14 0 0 0 0.069509998
1.591 -0.26199999 -0.82700002 13 0 0 0 0.069519997
1.577 -0.25999999 -0.82499999 13 0 0 0 0.069530003
1.568 -0.259 -0.82599998 13 0 0 0 0.069540001
1.563 -0.25799999 -0.82800001 13 0 0 0 0.06955
1.554 -0.257 -0.82800001 13 0 0 0 0.069559999
1.54 -0.25400001 -0.82499999 13 0 0 0 0.069569997
1.525 -0.252 -0.82300001 12 0 0 0 0.069580004
1.513 -0.25 -0.82099998 12 0 0 0 0.069590002
1.5089999 -0.249 -0.82300001 12 0 0 0 0.069600001
1.501 -0.248 -0.82300001 12 0 0 0 0.06961
1.4960001 -0.24699999 -0.82499999 11 0 0 0 0.069619998
1.489 -0.245 -0.82599998 10 0 0 0 0.069629997
1.484 -0.244 -0.82800001 9 0 0 0 0.069640003
1.472 -0.242 -0.82599998 9 0 0 0 0.069650002
1.4579999 -0.23999999 -0.82200003 10 0 0 0 0.069660001
1.456 -0.23899999 -0.82499999 11 0 0 0 0.069669999
1.448 -0.237 -0.82499999 12 0 0 0 0.069679998
1.436 -0.235 -0.82300001 13 0 0 0 0.069689997
1.427 -0.233 -0.82200003 13 0 0 0 0.069700003
1.423 -0.23199999 -0.824 13 0 0 0 0.069710001
1.4119999 -0.23 -0.82200003 14 0 0 0 0.06972
1.4069999 -0.229 -0.82300001 14 0 0 0 0.069729999
1.403 -0.228 -0.824 14 0 0 0 0.069739997
1.391 -0.22499999 -0.82099998 13 0 0 0 0.069750004
1.3890001 -0.22400001 -0.824 13 0 0 0 0.069760002
1.381 -0.223 -0.82300001 13 0 0 0 0.069770001
1.372 -0.221 -0.82200003 14 0 0 0 0.06978
1.3660001 -0.219 -0.82200003 13 0 0 0 0.069789998
1.36 -0.21799999 -0.82200003 14 0 0 0 0.069799997
1.353 -0.21600001 -0.82099998 14 0 0 0 0.069810003
1.349 -0.215 -0.82200003 14 0 0 0 0.069820002
1.346 -0.213 -0.824 13 0 0 0 0.06983
1.337 -0.211 -0.82300001 13 0 0 0 0.069839999
1.332 -0.20999999 -0.82200003 13 0 0 0 0.069849998
1.327 -0.208 -0.82300001 13 0 0 0 0.069859996
1.3150001 -0.206 -0.81900001 13 0 0 0 0.069870003
1.314 -0.205 -0.82200003 13 0 0 0 0.069880001
1.309 -0.20299999 -0.82200003 13 0 0 0 0.06989
1.308 -0.20200001 -0.824 13 0 0 0 0.069899999
1.301 -0.2 -0.82300001 14 0 0 0 0.069909997
1.295 -0.198 -0.82200003 14 0 0 0 0.069920003
1.289 -0.19599999 -0.82099998 14 0 0 0 0.069930002
1.288 -0.19499999 -0.824 14 0 0 0 0.069940001
1.28 -0.193 -0.82200003 14 0 0 0 0.069949999
1.276 -0.192 -0.82200003 14 0 0 0 0.069959998
1.272 -0.19 -0.82200003 14 0 0 0 0.069969997
1.268 -0.18799999 -0.82200003 14 0 0 0 0.069980003
1.265 -0.18700001 -0.82300001 14 0 0 0 0.069990002
1.262 -0.185 -0.824 14 0 0 0 0.07
1.257 -0.184 -0.82300001 14 0 0 0 0.070009999
1.255 -0.182 -0.824 14 0 0 0 0.070019998
1.247 -0.18000001 -0.82099998 14 0 0 0 0.070029996
1.25 -0.17900001 -0.82499999 14 0 0 0 0.070040002
1.244 -0.177 -0.824 14 0 0 0 0.070050001
1.239 -0.175 -0.82300001 14 0 0 0 0.07006
1.237 -0.17399999 -0.824 14 0 0 0 0.070069999
1.234 -0.17200001 -0.824 15 0 0 0 0.070079997
1.229 -0.17 -0.82300001 15 0 0 0 0.070090003
1.229 -0.169 -0.82499999 15 0 0 0 0.070100002
1.225 -0.167 -0.824 15 0 0 0 0.070110001
1.22 -0.16500001 -0.82300001 15 0 0 0 0.070119999
1.22 -0.164 -0.824 15 0 0 0 0.070129998
1.219 -0.162 -0.82599998 15 0 0 0 0.070139997
1.216 -0.16 -0.82499999 15 0 0 0 0.070150003
1.211 -0.15800001 -0.824 16 0 0 0 0.070160002
1.2079999 -0.15700001 -0.82300001 15 0 0 0 0.07017
1.207 -0.155 -0.824 15 0 0 0 0.070179999
1.207 -0.154 -0.82499999 15 0 0 0 0.070189998
1.201 -0.15099999 -0.82300001 15 0 0 0 0.070200004
1.2 -0.15000001 -0.824 15 0 0 0 0.070210002
1.2 -0.148 -0.82499999 16 0 0 0 0.070220001
1.199 -0.147 -0.82499999 16 0 0 0 0.07023
1.199 -0.145 -0.82599998 15 0 0 0 0.070239998
1.197 -0.14399999 -0.82599998 16 0 0 0 0.070249997
1.196 -0.142 -0.82599998 15 0 0 0 0.070260003
1.191 -0.14 -0.824 15 0 0 0 0.070270002
1.193 -0.138 -0.82700002 15 0 0 0 0.070280001
1.188 -0.13600001 -0.824 16 0 0 0 0.070289999
1.188 -0.13500001 -0.824 15 0 0 0 0.070299998
1.188 -0.133 -0.82499999 15 0 0 0 0.070309997
1.187 -0.131 -0.82499999 16 0 0 0 0.070320003
1.187 -0.13 -0.82499999 16 0 0 0 0.070330001
1.183 -0.12800001 -0.824 16 0 0 0 0.07034
1.186 -0.126 -0.82599998 16 0 0 0 0.070349999
1.183 -0.124 -0.824 17 0 0 0 0.070359997
1.184 -0.123 -0.82499999 17 0 0 0 0.070370004
1.186 -0.122 -0.82700002 16 0 0 0 0.070380002
1.181 -0.119 -0.824 16 0 0 0 0.070390001
1.183 -0.118 -0.82499999 16 0 0 0 0.0704
1.183 -0.116 -0.82499999 16 0 0 0 0.070409998
1.183 -0.114 -0.82499999 16 0 0 0 0.070419997
1.181 -0.113 -0.824 16 0 0 0 0.070430003
1.184 -0.111 -0.82499999 17 0 0 0 0.070440002
1.184 -0.109 -0.82499999 16 0 0 0 0.07045
1.184 -0.108 -0.82499999 16 0 0 0 0.070459999
1.188 -0.106 -0.82700002 16 0 0 0 0.070469998
1.1849999 -0.104 -0.82499999 16 0 0 0 0.070479997
1.1849999 -0.102 -0.82499999 16 0 0 0 0.070490003
1.1849999 -0.101 -0.824 16 0 0 0 0.070500001
1.186 -0.098999999 -0.824 16 0 0 0 0.07051
1.192 -0.097999997 -0.82800001 16 0 0 0 0.070519999
1.187 -0.096000001 -0.82300001 16 0 0 0 0.070529997
1.1950001 -0.093999997 -0.82800001 16 0 0 0 0.070540003
1.1950001 -0.093000002 -0.82700002 16 0 0 0 0.070550002
1.1950001 -0.090999998 -0.82700002 1 0 0 0 0.070560001
1.197 -0.089000002 -0.82700002 17 0 0 0 0.07057
1.2 -0.088 -0.82800001 16 0 0 0 0.070579998
1.198 -0.086000003 -0.82499999 16 0 0 0 0.070589997
1.199 -0.083999999 -0.82499999 16 0 0 0 0.070600003
1.199 -0.082000002 -0.824 17 0 0 0 0.070610002
1.205 -0.081 -0.82599998 16 0 0 0 0.07062
1.2079999 -0.079000004 -0.82700002 17 0 0 0 0.070629999
1.211 -0.078000002 -0.82800001 17 0 0 0 0.070639998
1.21 -0.075999998 -0.82499999 16 0 0 0 0.070649996
1.215 -0.075000003 -0.82800001 17 0 0 0 0.070660003
1.217 -0.072999999 -0.82700002 16 0 0 0 0.070670001
1.2180001 -0.071000002 -0.82599998 16 0 0 0 0.07068
1.219 -0.068999998 -0.82499999 16 0 0 0 0.070689999
1.222 -0.068000004 -0.82499999 17 0 0 0 0.070699997
1.228 -0.066 -0.82800001 16 0 0 0 0.070710003
1.2309999 -0.064999998 -0.82700002 15 0 0 0 0.070720002
1.233 -0.063000001 -0.82700002 16 0 0 0 0.070730001
1.235 -0.061000001 -0.82599998 15 0 0 0 0.070739999
1.2410001 -0.059999999 -0.82800001 16 0 0 0 0.070749998
1.245 -0.057999998 -0.82800001 16 0 0 0 0.070759997
1.2460001 -0.057 -0.82700002 16 0 0 0 0.070770003
1.249 -0.055 -0.82599998 16 0 0 0 0.070780002
1.255 -0.054000001 -0.82800001 17 0 0 0 0.07079
1.2589999 -0.052000001 -0.829 17 0 0 0 0.070799999
1.261 -0.050000001 -0.82800001 16 0 0 0 0.070809998
1.267 -0.048999999 -0.829 17 0 0 0 0.070819996
1.2690001 -0.046999998 -0.82800001 16 0 0 0 0.070830002
1.272 -0.046 -0.82700002 16 0 0 0 0.070840001
1.281 -0.044 -0.82999998 16 0 0 0 0.07085
1.2819999 -0.043000001 -0.82800001 16 0 0 0 0.070859998
1.286 -0.041000001 -0.82800001 16 0 0 0 0.070869997
1.288 -0.039000001 -0.82599998 16 0 0 0 0.070880003
1.298 -0.037999999 -0.82999998 17 0 0 0 0.070890002
1.2970001 -0.035999998 -0.82599998 17 0 0 0 0.070900001
1.304 -0.035 -0.82700002 17 0 0 0 0.070909999
1.308 -0.033 -0.82700002 16 0 0 0 0.070919998
1.3099999 -0.032000002 -0.82499999 16 0 0 0 0.070929997
1.321 -0.029999999 -0.829 16 0 0 0 0.070940003
1.323 -0.028999999 -0.82700002 17 0 0 0 0.070950001
1.332 -0.027000001 -0.829 17 0 0 0 0.07096
1.334 -0.026000001 -0.82700002 17 0 0 0 0.070969999
1.344 -0.024 -0.82999998 17 0 0 0 0.070979998
1.349 -0.023 -0.829 16 0 0 0 0.070990004
1.352 -0.021 -0.82800001 16 0 0 0 0.071000002
1.357 -0.02 -0.82700002 16 0 0 0 0.071010001
1.364 -0.017999999 -0.82800001 16 0 0 0 0.07102
1.3710001 -0.017000001 -0.829 17 0 0 0 0.071029998
1.378 -0.016000001 -0.829 17 0 0 0 0.071039997
1.382 -0.014 -0.82800001 17 0 0 0 0.071050003
1.393 -0.013 -0.82999998 17 0 0 0 0.071060002
1.401 -0.011 -0.83099997 17 0 0 0 0.071070001
1.4069999 -0.0099999998 -0.83099997 17 0 0 0 0.071079999
1.4119999 -0.0080000004 -0.829 16 0 0 0 0.071089998
1.419 -0.0070000002 -0.82999998 17 0 0 0 0.071099997
1.424 -0.0060000001 -0.82800001 17 0 0 0 0.071110003
1.436 -0.0040000002 -0.83099997 16 0 0 0 0.071120001
1.441 -0.003 -0.82999998 15 0 0 0 0.07113
1.451 -0.001 -0.83200002 14 0 0 0 0.071139999
1.459 0 -0.83200002 14 0 0 0 0.071149997
1.467 0 -0.83200002 16 0 0 0 0.071160004
1.472 0.0020000001 -0.83099997 16 0 0 0 0.071170002
1.487 0.003 -0.83399999 16 0 0 0 0.071180001
1.49 0.0049999999 -0.83200002 16 0 0 0 0.07119
1.499 0.0060000001 -0.83200002 16 0 0 0 0.071199998
1.506 0.0070000002 -0.83099997 16 0 0 0 0.071209997
1.516 0.0089999996 -0.83200002 16 0 0 0 0.071220003
1.521 0.0099999998 -0.82999998 15 0 0 0 0.071230002
1.539 0.011 -0.83499998 16 0 0 0 0.07124
1.5470001 0.013 -0.83399999 16 0 0 0 0.071249999
1.549 0.014 -0.83099997 16 0 0 0 0.071259998
1.568 0.015 -0.83600003 16 0 0 0 0.071269996
1.576 0.017000001 -0.83600003 16 0 0 0 0.071280003
1.59 0.017999999 -0.838 16 0 0 0 0.071290001
1.6 0.018999999 -0.838 17 0 0 0 0.0713
1.605 0.021 -0.83499998 17 0 0 0 0.071309999
1.617 0.022 -0.83600003 16 0 0 0 0.071319997
1.633 0.023 -0.83899999 17 0 0 0 0.071330003
1.6390001 0.025 -0.83700001 16 0 0 0 0.071340002
1.648 0.026000001 -0.83600003 16 0 0 0 0.071350001
1.655 0.027000001 -0.83399999 16 0 0 0 0.071359999
1.674 0.028999999 -0.83899999 17 0 0 0 0.071369998
1.682 0.029999999 -0.83700001 16 0 0 0 0.071379997
1.691 0.030999999 -0.83600003 16 0 0 0 0.071390003
1.706 0.032000002 -0.838 16 0 0 0 0.071400002
1.719 0.034000002 -0.83899999 16 0 0 0 0.07141
1.727 0.035 -0.83700001 16 0 0 0 0.071419999
1.744 0.035999998 -0.83899999 17 0 0 0 0.071429998
1.749 0.037 -0.83600003 17 0 0 0 0.071439996
1.765 0.037999999 -0.838 17 0 0 0 0.071450002
1.779 0.039999999 -0.83899999 17 0 0 0 0.071460001
1.7920001 0.041000001 -0.83899999 17 0 0 0 0.07147
1.806 0.041999999 -0.83899999 17 0 0 0 0.071479999
1.819 0.043000001 -0.83899999 16 0 0 0 0.071489997
1.831 0.044 -0.838 49 0 0 0 0.071500003
1.847 0.046 -0.83899999 13 0 0 0 0.071510002
1.8660001 0.046999998 -0.84200001 13 0 0 0 0.071520001
1.87 0.048 -0.83700001 39 0 0 0 0.071529999
1.882 0.048999999 -0.83700001 36 0 0 0 0.071539998
1.898 0.050000001 -0.83700001 34 0 0 0 0.071549997
1.9119999 0.050999999 -0.83700001 34 0 0 0 0.071560003
1.931 0.052999999 -0.83899999 34 0 0 0 0.071570002
1.946 0.054000001 -0.838 32 0 0 0 0.07158
1.964 0.055 -0.83899999 32 0 0 0 0.071589999
1.9809999 0.056000002 -0.83999997 32 0 0 0 0.071599998
1.993 0.057 -0.83899999 32 0 0 0 0.071610004
2.0139999 0.059 -0.84100002 33 0 0 0 0.071620002
2.0320001 0.059999999 -0.84100002 32 0 0 0 0.071630001
2.046 0.061000001 -0.83999997 33 0 0 0 0.07164
2.063 0.061999999 -0.83999997 31 0 0 0 0.071649998
2.0840001 0.063000001 -0.84100002 31 0 0 0 0.071659997
2.1010001 0.064000003 -0.84100002 32 0 0 0 0.071670003
2.118 0.064999998 -0.83999997 28 0 0 0 0.071680002
2.142 0.066 -0.84299999 28 0 0 0 0.071690001
2.1600001 0.068000004 -0.84299999 30 0 0 0 0.071699999
2.174 0.068000004 -0.84100002 31 0 0 0 0.071709998
2.2 0.07 -0.84299999 31 0 0 0 0.071719997
2.2190001 0.071000002 -0.84299999 32 0 0 0 0.071730003
2.2420001 0.071999997 -0.84399998 32 0 0 0 0.071740001
2.2639999 0.072999999 -0.84399998 32 0 0 0 0.07175
2.2809999 0.074000001 -0.84299999 32 0 0 0 0.071759999
2.3039999 0.075000003 -0.84399998 32 0 0 0 0.071769997
2.3310001 0.075999998 -0.84600002 33 0 0 0 0.071780004
2.3559999 0.077 -0.847 33 0 0 0 0.071790002
2.3729999 0.078000002 -0.84500003 33 0 0 0 0.071800001
2.392 0.079000004 -0.84299999 31 0 0 0 0.07181
2.424 0.079999998 -0.84600002 32 0 0 0 0.071819998
2.4449999 0.081 -0.84600002 31 0 0 0 0.071829997
2.4760001 0.082999997 -0.84799999 33 0 0 0 0.071840003
2.497 0.083999999 -0.847 34 0 0 0 0.071850002
2.5280001 0.085000001 -0.84899998 32 0 0 0 0.07186
2.5550001 0.086000003 -0.84899998 33 0 0 0 0.071869999
2.582 0.086999997 -0.84899998 34 0 0 0 0.071879998
2.6159999 0.088 -0.85100001 34 0 0 0 0.071889997
2.6489999 0.089000002 -0.85299999 34 0 0 0 0.071900003
2.6730001 0.090000004 -0.852 34 0 0 0 0.071910001
2.7079999 0.090999998 -0.85399997 36 0 0 0 0.07192
2.733 0.092 -0.852 33 0 0 0 0.071929999
2.766 0.093000002 -0.85299999 32 0 0 0 0.071939997
2.8 0.093999997 -0.85399997 31 0 0 0 0.071950004
2.8269999 0.094999999 -0.85299999 32 0 0 0 0.071960002
2.862 0.096000001 -0.85399997 33 0 0 0 0.071970001
2.908 0.097999997 -0.85799998 32 0 0 0 0.07198
2.9419999 0.098999999 -0.85799998 31 0 0 0 0.071989998
2.983 0.1 -0.86000001 30 0 0 0 0.071999997
3.029 0.101 -0.86299998 31 0 0 0 0.072010003
3.0710001 0.102 -0.86400002 32 0 0 0 0.072020002
3.1059999 0.103 -0.86400002 32 0 0 0 0.07203
3.1400001 0.104 -0.86299998 31 0 0 0 0.072039999
3.175 0.105 -0.861 31 0 0 0 0.072049998
3.2060001 0.105 -0.85900003 30 0 0 0 0.072059996
3.257 0.107 -0.86199999 31 0 0 0 0.072070003
3.2969999 0.107 -0.861 32 0 0 0 0.072080001
3.332 0.108 -0.85900003 31 0 0 0 0.07209
3.3710001 0.109 -0.85799998 32 0 0 0 0.072099999
3.405 0.109 -0.85500002 53 0 0 0 0.072109997
3.402 0.109 -0.84299999 150 0 0 0 0.072120003
3.4000001 0.108 -0.83200002 151 0 0 0 0.072130002
3.4030001 0.108 -0.82099998 151 0 0 0 0.072140001
3.4030001 0.107 -0.80900002 151 0 0 0 0.072149999
3.4030001 0.106 -0.79799998 151 0 0 0 0.072159998
3.405 0.106 -0.787 151 0 0 0 0.072169997
3.408 0.105 -0.77700001 151 0 0 0 0.072180003
3.4030001 0.104 -0.764 151 0 0 0 0.072190002
3.4089999 0.104 -0.75400001 151 0 0 0 0.0722
3.404 0.103 -0.74199998 151 0 0 0 0.072209999
3.4059999 0.102 -0.73100001 151 0 0 0 0.072219998
3.408 0.101 -0.72000003 151 0 0 0 0.072229996
3.4100001 0.1 -0.70899999 151 0 0 0 0.072240002
3.405 0.098999999 -0.69700003 151 0 0 0 0.072250001
3.4070001 0.097999997 -0.68599999 151 0 0 0 0.07226
3.4089999 0.097000003 -0.67500001 151 0 0 0 0.072269998
3.411 0.097000003 -0.66399997 151 0 0 0 0.072279997
3.4100001 0.096000001 -0.653 151 0 0 0 0.072290003
3.4100001 0.094999999 -0.64200002 151 0 0 0 0.072300002
3.4100001 0.093999997 -0.63099998 151 0 0 0 0.072310001
3.4070001 0.092 -0.61900002 151 0 0 0 0.072319999
3.4070001 0.090999998 -0.60799998 151 0 0 0 0.072329998
3.4089999 0.090000004 -0.597 151 0 0 0 0.072339997
3.411 0.089000002 -0.58600003 151 0 0 0 0.072350003
3.4089999 0.088 -0.574 151 0 0 0 0.072360002
3.4119999 0.086999997 -0.56400001 151 0 0 0 0.07237
3.4130001 0.086000003 -0.55299997 151 0 0 0 0.072379999
3.4059999 0.083999999 -0.54000002 151 0 0 0 0.072389998
3.408 0.082999997 -0.52899998 151 0 0 0 0.072400004
3.4089999 0.082000002 -0.51800001 151 0 0 0 0.072410002
3.4089999 0.081 -0.50700003 151 0 0 0 0.072420001
3.408 0.079000004 -0.49599999 151 0 0 0 0.07243
3.411 0.078000002 -0.48500001 151 0 0 0 0.072439998
3.4059999 0.077 -0.47400001 151 0 0 0 0.072449997
3.4119999 0.075000003 -0.46399999 151 0 0 0 0.072460003
3.411 0.074000001 -0.45199999 151 0 0 0 0.072470002
3.4100001 0.072999999 -0.44100001 151 0 0 0 0.072480001
3.4119999 0.071000002 -0.43000001 151 0 0 0 0.072489999
3.418 0.07 -0.41999999 151 0 0 0 0.072499998
3.408 0.068000004 -0.40799999 151 0 0 0 0.072509997
3.4119999 0.067000002 -0.39700001 151 0 0 0 0.072520003
3.4119999 0.064999998 -0.38600001 151 0 0 0 0.072530001
3.4130001 0.064000003 -0.375 151 0 0 0 0.07254
3.415 0.061999999 -0.36399999 151 0 0 0 0.072549999
3.4159999 0.061000001 -0.35299999 151 0 0 0 0.072559997
3.411 0.059 -0.34200001 151 0 0 0 0.072570004
3.4100001 0.057 -0.331 151 0 0 0 0.072580002
3.411 0.056000002 -0.31999999 151 0 0 0 0.072590001
3.415 0.054000001 -0.30899999 151 0 0 0 0.0726
3.414 0.052999999 -0.29800001 151 0 0 0 0.072609998
3.414 0.050999999 -0.287 151 0 0 0 0.072619997
3.415 0.048999999 -0.27599999 151 0 0 0 0.072630003
3.4170001 0.048 -0.26499999 151 0 0 0 0.072640002
3.415 0.046 -0.25400001 152 0 0 0 0.07265
3.4130001 0.044 -0.243 152 0 0 0 0.072659999
3.414 0.041999999 -0.23199999 152 0 0 0 0.072669998
3.415 0.041000001 -0.221 152 0 0 0 0.072679996
3.4159999 0.039000001 -0.20999999 152 0 0 0 0.072690003
3.4159999 0.037 -0.2 152 0 0 0 0.072700001
3.421 0.035 -0.189 152 0 0 0 0.07271
3.4219999 0.033 -0.178 152 0 0 0 0.072719999
3.414 0.030999999 -0.167 152 0 0 0 0.072729997
3.415 0.028999999 -0.156 153 0 0 0 0.072740003
3.415 0.027000001 -0.145 153 0 0 0 0.072750002
3.4130001 0.025 -0.134 153 0 0 0 0.072760001
3.4100001 0.024 -0.123 153 0 0 0 0.07277
3.411 0.022 -0.112 153 0 0 0 0.072779998
3.411 0.02 -0.101 153 0 0 0 0.072789997
3.4170001 0.017999999 -0.090999998 153 0 0 0 0.072800003
3.415 0.016000001 -0.079999998 153 0 0 0 0.072810002
3.4119999 0.013 -0.068999998 152 0 0 0 0.07282
3.415 0.011 -0.057999998 153 0 0 0 0.072829999
3.418 0.0089999996 -0.046999998 153 0 0 0 0.072839998
3.418 0.0070000002 -0.035999998 152 0 0 0 0.072849996
3.4230001 0.0049999999 -0.025 152 0 0 0 0.072860003
3.4200001 0.003 -0.014 152 0 0 0 0.072870001
3.4230001 0.001 -0.0040000002 152 0 0 0 0.07288
3.4230001 0 0.0060000001 152 0 0 0 0.072889999
3.4230001 -0.003 0.017000001 152 0 0 0 0.072899997
3.4260001 -0.0049999999 0.028000001 152 0 0 0 0.072910003
3.4230001 -0.0070000002 0.039000001 152 0 0 0 0.072920002
3.424 -0.0089999996 0.050000001 152 0 0 0 0.072930001
3.424 -0.012 0.059999999 152 0 0 0 0.072939999
3.424 -0.014 0.071000002 152 0 0 0 0.072949998
3.424 -0.016000001 0.082000002 152 0 0 0 0.072959997
3.4260001 -0.018999999 0.093000002 151 0 0 0 0.072970003
3.424 -0.021 0.104 151 0 0 0 0.072980002
3.4230001 -0.023 0.115 151 0 0 0 0.07299
3.425 -0.026000001 0.125 151 0 0 0 0.072999999
3.4260001 -0.028000001 0.13600001 151 0 0 0 0.073009998
3.424 -0.029999999 0.147 151 0 0 0 0.073019996
3.424 -0.033 0.15800001 151 0 0 0 0.073030002
3.4200001 -0.035 0.169 151 0 0 0 0.073040001
3.4230001 -0.037999999 0.18000001 151 0 0 0 0.07305
3.427 -0.039999999 0.191 151 0 0 0 0.073059998
3.431 -0.043000001 0.20200001 151 0 0 0 0.073069997
3.4289999 -0.046 0.212 151 0 0 0 0.073080003
3.428 -0.048 0.223 151 0 0 0 0.073090002
3.431 -0.050999999 0.234 151 0 0 0 0.073100001
3.425 -0.052999999 0.245 151 0 0 0 0.073109999
3.4289999 -0.056000002 0.25600001 151 0 0 0 0.073119998
3.4289999 -0.059 0.26699999 151 0 0 0 0.073129997
3.428 -0.061000001 0.27700001 151 0 0 0 0.073140003
3.4319999 -0.064000003 0.28799999 151 0 0 0 0.073150001
3.431 -0.067000002 0.29899999 151 0 0 0 0.07316
3.4319999 -0.068999998 0.31 151 0 0 0 0.073169999
3.4319999 -0.071999997 0.32100001 151 0 0 0 0.073179998
3.4300001 -0.075000003 0.33199999 151 0 0 0 0.073190004
3.4330001 -0.078000002 0.34299999 151 0 0 0 0.073200002
3.4319999 -0.081 0.354 151 0 0 0 0.073210001
3.431 -0.082999997 0.36399999 151 0 0 0 0.07322
3.431 -0.086000003 0.375 151 0 0 0 0.073229998
3.4389999 -0.089000002 0.38699999 151 0 0 0 0.073239997
3.4349999 -0.092 0.39700001 151 0 0 0 0.073250003
3.434 -0.094999999 0.40799999 151 0 0 0 0.073260002
3.4360001 -0.097999997 0.419 151 0 0 0 0.073270001
3.434 -0.101 0.43000001 151 0 0 0 0.073279999
3.4349999 -0.104 0.44100001 151 0 0 0 0.073289998
3.4330001 -0.107 0.45100001 151 0 0 0 0.073299997
3.4400001 -0.11 0.463 151 0 0 0 0.073310003
3.434 -0.113 0.47299999 151 0 0 0 0.073320001
3.4389999 -0.116 0.484 151 0 0 0 0.07333
3.4349999 -0.119 0.495 151 0 0 0 0.073339999
3.437 -0.122 0.50599998 151 0 0 0 0.073349997
3.4360001 -0.125 0.51599997 151 0 0 0 0.073360004
3.434 -0.12899999 0.52700001 151 0 0 0 0.073370002
3.437 -0.132 0.53799999 151 0 0 0 0.073380001
3.4349999 -0.13500001 0.54900002 151 0 0 0 0.07339
3.437 -0.138 0.56 151 0 0 0 0.073399998
3.4349999 -0.141 0.56999999 150 0 0 0 0.073409997
3.437 -0.145 0.58200002 151 0 0 0 0.073420003
3.4430001 -0.148 0.59399998 151 0 0 0 0.073430002
3.4360001 -0.15099999 0.60299999 151 0 0 0 0.07344
3.4389999 -0.155 0.61500001 151 0 0 0 0.073449999
3.438 -0.15800001 0.625 151 0 0 0 0.073459998
3.4400001 -0.162 0.63700002 151 0 0 0 0.073469996
3.4400001 -0.16500001 0.64700001 150 0 0 0 0.073480003
3.438 -0.169 0.65799999 150 0 0 0 0.073490001
3.444 -0.17200001 0.67000002 151 0 0 0 0.0735
3.4400001 -0.176 0.68000001 151 0 0 0 0.073509999
3.4430001 -0.18000001 0.69099998 151 0 0 0 0.073519997
3.4349999 -0.183 0.70099998 150 0 0 0 0.073530003
3.4070001 -0.185 0.70599997 150 0 0 0 0.073540002
3.3840001 -0.18700001 0.71200001 150 0 0 0 0.073550001
3.381 -0.19 0.722 150 0 0 0 0.073559999
3.3840001 -0.19400001 0.73299998 150 0 0 0 0.073569998
3.385 -0.198 0.74400002 150 0 0 0 0.073579997
3.3829999 -0.20100001 0.75400001 151 0 0 0 0.073590003
3.385 -0.205 0.76499999 151 0 0 0 0.073600002
3.381 -0.20900001 0.77499998 150 0 0 0 0.07361
3.3710001 -0.212 0.78299999 150 0 0 0 0.073619999
3.358 -0.215 0.79100001 150 0 0 0 0.073629998
3.3499999 -0.21799999 0.79900002 150 0 0 0 0.073639996
3.3540001 -0.222 0.81099999 151 0 0 0 0.073650002
3.3540001 -0.226 0.82099998 151 0 0 0 0.073660001
3.3510001 -0.23 0.83099997 150 0 0 0 0.07367
3.3529999 -0.234 0.84200001 150 0 0 0 0.073679999
3.3529999 -0.237 0.85299999 150 0 0 0 0.073689997
3.3540001 -0.241 0.86299998 150 0 0 0 0.073700003
3.3540001 -0.245 0.87400001 151 0 0 0 0.073710002
3.3529999 -0.249 0.884 151 0 0 0 0.073720001
3.3529999 -0.25299999 0.89499998 150 0 0 0 0.073729999
3.3499999 -0.257 0.90499997 150 0 0 0 0.073739998
3.3429999 -0.26100001 0.91299999 39 0 0 0 0.073749997
3.299 -0.26100001 0.91100001 40 0 0 0 0.073760003
3.2520001 -0.26100001 0.90899998 104 0 0 0 0.073770002
3.24 -0.26499999 0.91600001 150 0 0 0 0.07378
3.244 -0.26899999 0.92699999 150 0 0 0 0.073789999
3.24 -0.273 0.93599999 150 0 0 0 0.073799998
3.2420001 -0.27700001 0.94700003 150 0 0 0 0.073810004
3.24 -0.28099999 0.95599997 150 0 0 0 0.073820002
3.24 -0.285 0.96600002 150 0 0 0 0.073830001
3.2390001 -0.289 0.97600001 150 0 0 0 0.07384
3.2409999 -0.294 0.98699999 150 0 0 0 0.073849998
3.243 -0.29800001 0.99800003 150 0 0 0 0.073859997
3.2409999 -0.30199999 1.007 151 0 0 0 0.073870003
3.237 -0.30599999 1.016 150 0 0 0 0.073880002
3.233 -0.31 1.025 150 0 0 0 0.073890001
3.2179999 -0.31299999 1.03 150 0 0 0 0.073899999
3.217 -0.31799999 1.04 150 0 0 0 0.073909998
3.2179999 -0.322 1.05 150 0 0 0 0.073919997
3.2190001 -0.32699999 1.061 150 0 0 0 0.073930003
3.2160001 -0.331 1.0700001 150 0 0 0 0.073940001
3.2179999 -0.33500001 1.08 150 0 0 0 0.07395
3.2179999 -0.34 1.09 150 0 0 0 0.073959999
3.2149999 -0.34400001 1.099 150 0 0 0 0.073969997
3.223 -0.34999999 1.112 150 0 0 0 0.073980004
3.221 -0.354 1.1210001 150 0 0 0 0.073990002
3.2190001 -0.359 1.13 150 0 0 0 0.074000001
3.1029999 -0.34999999 1.099 151 0 0 0 0.07401
2.934 -0.33500001 1.048 150 0 0 0 0.074019998
2.842 -0.329 1.024 150 0 0 0 0.074029997
2.5940001 -0.30399999 0.94300002 37 0 0 0 0.074040003
2.552 -0.303 0.93599999 29 0 0 0 0.074050002
2.5280001 -0.30399999 0.93400002 24 0 0 0 0.07406
2.503 -0.30500001 0.93300003 23 0 0 0 0.074069999
2.4849999 -0.30599999 0.93400002 26 0 0 0 0.074079998
2.4660001 -0.308 0.93400002 26 0 0 0 0.074089997
2.4349999 -0.308 0.93000001 22 0 0 0 0.074100003
2.3959999 -0.30599999 0.92199999 47 0 0 0 0.074110001
2.3900001 -0.31 0.92699999 91 0 0 0 0.07412
2.3859999 -0.31299999 0.93300003 43 0 0 0 0.074129999
2.392 -0.317 0.94199997 8 0 0 0 0.074139997
0 0 0 0 0 0 0 0.074150003
3.9820001 -0.542 1.5930001 11 0 0 0 0.074160002
3.9489999 -0.54299998 1.591 23 0 0 0 0.074170001
3.9189999 -0.546 1.591 38 0 0 0 0.07418
3.8900001 -0.54799998 1.591 37 0 0 0 0.074189998
3.862 -0.551 1.591 38 0 0 0 0.074199997
3.8369999 -0.55299997 1.592 39 0 0 0 0.074210003
3.8180001 -0.55699998 1.596 39 0 0 0 0.074220002
3.796 -0.56 1.598 43 0 0 0 0.07423
3.767 -0.56199998 1.597 45 0 0 0 0.074239999
3.743 -0.565 1.597 41 0 0 0 0.074249998
3.7190001 -0.56800002 1.598 40 0 0 0 0.074259996
3.694 -0.57099998 1.598 43 0 0 0 0.074270003
3.6700001 -0.57300001 1.599 43 0 0 0 0.074280001
3.6500001 -0.57700002 1.6 43 0 0 0 0.07429
3.619 -0.57800001 1.597 43 0 0 0 0.074299999
3.5999999 -0.58099997 1.599 45 0 0 0 0.074309997
3.5799999 -0.58399999 1.601 46 0 0 0 0.074320003
3.5539999 -0.58700001 1.599 45 0 0 0 0.074330002
3.536 -0.58999997 1.601 44 0 0 0 0.074340001
3.517 -0.59299999 1.602 44 0 0 0 0.074349999
3.49 -0.59500003 1.6 44 0 0 0 0.074359998
3.47 -0.59799999 1.601 51 0 0 0 0.074369997
3.448 -0.60000002 1.6 51 0 0 0 0.074380003
3.425 -0.60299999 1.599 51 0 0 0 0.074390002
3.4089999 -0.60600001 1.601 50 0 0 0 0.0744
3.3870001 -0.60900003 1.6 51 0 0 0 0.074409999
3.369 -0.61199999 1.601 50 0 0 0 0.074419998
3.3499999 -0.61400002 1.601 50 0 0 0 0.074429996
3.335 -0.61799997 1.603 49 0 0 0 0.074440002
3.3110001 -0.62 1.6 49 0 0 0 0.074450001
3.296 -0.62300003 1.602 48 0 0 0 0.07446
3.28 -0.62699997 1.603 47 0 0 0 0.074469998
3.257 -0.62800002 1.6 47 0 0 0 0.074479997
3.2490001 -0.63300002 1.605 47 0 0 0 0.074490003
3.23 -0.63599998 1.604 47 0 0 0 0.074500002
3.2279999 -0.64200002 1.6109999 46 0 0 0 0.074510001
3.1960001 -0.64200002 1.604 83 0 0 0 0.074519999
2.8640001 -0.57999998 1.444 150 0 0 0 0.074529998
2.408 -0.493 1.22 58 0 0 0 0.074539997
2.3859999 -0.493 1.215 16 0 0 0 0.074550003
2.3829999 -0.49700001 1.22 21 0 0 0 0.074560001
2.3859999 -0.50199997 1.227 25 0 0 0 0.07457
2.388 -0.50800002 1.234 20 0 0 0 0.074579999
2.3859999 -0.51200002 1.239 20 0 0 0 0.074589998
2.385 -0.51700002 1.244 22 0 0 0 0.074600004
2.3900001 -0.523 1.252 25 0 0 0 0.074610002
2.3870001 -0.52700001 1.256 26 0 0 0 0.074620001
2.388 -0.53200001 1.263 28 0 0 0 0.07463
2.3889999 -0.537 1.268 27 0 0 0 0.074639998
2.385 -0.54100001 1.272 26 0 0 0 0.074649997
2.391 -0.54699999 1.281 26 0 0 0 0.074660003
2.3889999 -0.55199999 1.285 26 0 0 0 0.074670002
2.391 -0.55699998 1.2920001 26 0 0 0 0.074680001
2.392 -0.56199998 1.2970001 27 0 0 0 0.074689999
2.3900001 -0.56699997 1.301 25 0 0 0 0.074699998
2.391 -0.57200003 1.307 27 0 0 0 0.074709997
2.3929999 -0.57700002 1.313 28 0 0 0 0.074720003
2.395 -0.583 1.319 28 0 0 0 0.074730001
2.395 -0.588 1.324 25 0 0 0 0.07474
2.3900001 -0.59200001 1.327 22 0 0 0 0.074749999
2.3959999 -0.59799999 1.335 20 0 0 0 0.074759997
2.395 -0.60299999 1.339 22 0 0 0 0.074770004
2.3970001 -0.60799998 1.345 25 0 0 0 0.074780002
2.3929999 -0.61199999 1.347 26 0 0 0 0.074790001
2.3929999 -0.61699998 1.352 26 0 0 0 0.0748
2.4030001 -0.625 1.362 24 0 0 0 0.074809998
2.3989999 -0.62900001 1.364 25 0 0 0 0.074819997
2.398 -0.63300002 1.367 26 0 0 0 0.074830003
2.3970001 -0.63800001 1.3710001 21 0 0 0 0.074840002
2.395 -0.64200002 1.374 18 0 0 0 0.07485
2.3989999 -0.64899999 1.381 18 0 0 0 0.074859999
2.401 -0.65399998 1.385 21 0 0 0 0.074869998
2.402 -0.65899998 1.39 24 0 0 0 0.074879996
2.3959999 -0.66299999 1.39 27 0 0 0 0.074890003
2.3989999 -0.66799998 1.396 26 0 0 0 0.074900001
2.4000001 -0.67400002 1.4 24 0 0 0 0.07491
2.405 -0.68000001 1.406 24 0 0 0 0.074919999
2.404 -0.68400002 1.409 25 0 0 0 0.074929997
2.404 -0.68900001 1.4119999 28 0 0 0 0.074940003
2.4030001 -0.69400001 1.415 29 0 0 0 0.074950002
2.401 -0.69800001 1.4170001 29 0 0 0 0.074960001
2.402 -0.70300001 1.421 29 0 0 0 0.074969999
2.4000001 -0.708 1.4220001 29 0 0 0 0.074979998
2.4070001 -0.71499997 1.429 29 0 0 0 0.074989997
2.4070001 -0.72000003 1.432 29 0 0 0 0.075000003
2.404 -0.72399998 1.433 24 0 0 0 0.075010002
2.4070001 -0.72899997 1.437 21 0 0 0 0.07502
2.4059999 -0.73400003 1.439 19 0 0 0 0.075029999
2.4070001 -0.73900002 1.442 18 0 0 0 0.075039998
2.4059999 -0.74299997 1.443 20 0 0 0 0.075049996
2.4100001 -0.74900001 1.448 21 0 0 0 0.075060003
2.4070001 -0.75199997 1.448 23 0 0 0 0.075070001
2.4089999 -0.75800002 1.451 24 0 0 0 0.07508
2.4130001 -0.76300001 1.455 21 0 0 0 0.075089999
2.414 -0.76800001 1.4579999 19 0 0 0 0.075099997
2.408 -0.77100003 1.456 22 0 0 0 0.075110003
2.4059999 -0.77499998 1.456 22 0 0 0 0.075120002
2.411 -0.78100002 1.461 26 0 0 0 0.075130001
2.411 -0.78500003 1.462 22 0 0 0 0.075139999
2.4100001 -0.78899997 1.462 20 0 0 0 0.075149998
2.411 -0.79400003 1.464 18 0 0 0 0.075159997
2.411 -0.79799998 1.465 20 0 0 0 0.075170003
2.4119999 -0.80199999 1.466 22 0 0 0 0.075180002
2.411 -0.80599999 1.466 22 0 0 0 0.07519
2.4100001 -0.81 1.466 19 0 0 0 0.075199999
2.414 -0.815 1.469 20 0 0 0 0.075209998
2.414 -0.81900001 1.469 19 0 0 0 0.075220004
2.4130001 -0.82300001 1.469 19 0 0 0 0.075230002
2.4070001 -0.82499999 1.465 18 0 0 0 0.075240001
2.411 -0.82999998 1.4680001 18 0 0 0 0.07525
2.414 -0.83499998 1.47 19 0 0 0 0.075259998
2.415 -0.83899999 1.47 20 0 0 0 0.075269997
2.4130001 -0.84200001 1.4680001 21 0 0 0 0.075280003
2.4119999 -0.84500003 1.467 21 0 0 0 0.075290002
2.4170001 -0.85100001 1.469 22 0 0 0 0.075300001
2.414 -0.85299999 1.467 24 0 0 0 0.075309999
2.4159999 -0.85699999 1.467 25 0 0 0 0.075319998
2.4170001 -0.861 1.467 26 0 0 0 0.075329997
2.4119999 -0.86299998 1.4630001 30 0 0 0 0.075340003
2.4119999 -0.866 1.461 29 0 0 0 0.075350001
2.4159999 -0.87 1.462 30 0 0 0 0.07536
