# .PCD v0.7 - Point Cloud Data file format
VERSION 0.7
FIELDS x y z intensity normal_x normal_y normal_z curvature
SIZE 4 4 4 4 4 4 4 4
TYPE F F F F F F F F
COUNT 1 1 1 1 1 1 1 1
WIDTH 1109
HEIGHT 1
VIEWPOINT 0 0 0 1 0 0 0
POINTS 1109
DATA ascii
3.381 0.403 -0.79500002 151 0 0 0 0.05367
3.3840001 0.39899999 -0.78500003 151 0 0 0 0.053679999
3.385 0.39500001 -0.77499998 151 0 0 0 0.053690001
3.388 0.391 -0.76499999 151 0 0 0 0.0537
3.391 0.38699999 -0.755 151 0 0 0 0.053709999
3.3870001 0.382 -0.74400002 151 0 0 0 0.053720001
3.3829999 0.377 -0.73299998 151 0 0 0 0.05373
3.3889999 0.373 -0.72399998 151 0 0 0 0.053739998
3.391 0.36899999 -0.71399999 151 0 0 0 0.053750001
3.3859999 0.36399999 -0.70200002 151 0 0 0 0.05376
3.3900001 0.36000001 -0.69300002 151 0 0 0 0.053769998
3.392 0.35600001 -0.68300003 151 0 0 0 0.053780001
3.3929999 0.35100001 -0.67299998 151 0 0 0 0.053789999
3.388 0.34599999 -0.66100001 151 0 0 0 0.053800002
3.3929999 0.34200001 -0.65200001 151 0 0 0 0.05381
3.392 0.338 -0.64200002 151 0 0 0 0.053819999
3.3940001 0.333 -0.63200003 151 0 0 0 0.053830002
3.3900001 0.32800001 -0.62099999 151 0 0 0 0.05384
3.3900001 0.324 -0.61000001 151 0 0 0 0.053849999
3.392 0.31900001 -0.60100001 151 0 0 0 0.053860001
3.3940001 0.315 -0.59100002 151 0 0 0 0.05387
3.3959999 0.31 -0.58099997 151 0 0 0 0.053879999
3.3929999 0.30500001 -0.56999999 151 0 0 0 0.053890001
3.392 0.30000001 -0.56 151 0 0 0 0.0539
3.392 0.296 -0.55000001 151 0 0 0 0.053909998
3.392 0.29100001 -0.54000002 151 0 0 0 0.053920001
3.3959999 0.28600001 -0.52999997 151 0 0 0 0.053929999
3.3959999 0.28099999 -0.51999998 151 0 0 0 0.053939998
3.4000001 0.27700001 -0.51099998 151 0 0 0 0.053950001
3.3970001 0.27200001 -0.5 151 0 0 0 0.053959999
3.401 0.26699999 -0.49000001 151 0 0 0 0.053970002
3.401 0.26199999 -0.47999999 151 0 0 0 0.05398
3.3989999 0.257 -0.47 151 0 0 0 0.053989999
3.3989999 0.252 -0.46000001 151 0 0 0 0.054000001
3.401 0.248 -0.44999999 151 0 0 0 0.05401
3.402 0.243 -0.44 151 0 0 0 0.054019999
3.3989999 0.23800001 -0.43000001 151 0 0 0 0.054030001
3.402 0.233 -0.421 151 0 0 0 0.05404
3.401 0.228 -0.41 151 0 0 0 0.054049999
3.404 0.223 -0.40099999 151 0 0 0 0.054060001
3.404 0.21799999 -0.391 151 0 0 0 0.05407
3.404 0.213 -0.38100001 151 0 0 0 0.054079998
3.405 0.208 -0.37099999 151 0 0 0 0.054090001
3.4070001 0.20299999 -0.361 151 0 0 0 0.054099999
3.398 0.197 -0.35100001 151 0 0 0 0.054110002
3.405 0.192 -0.34099999 151 0 0 0 0.05412
3.3989999 0.18700001 -0.331 151 0 0 0 0.054129999
3.4059999 0.182 -0.322 152 0 0 0 0.054140002
3.4070001 0.177 -0.31200001 152 0 0 0 0.05415
3.4070001 0.17200001 -0.30199999 151 0 0 0 0.054159999
3.4089999 0.167 -0.29300001 152 0 0 0 0.054170001
3.4070001 0.161 -0.28299999 152 0 0 0 0.05418
3.408 0.156 -0.273 152 0 0 0 0.054189999
3.4100001 0.15099999 -0.26300001 152 0 0 0 0.054200001
3.414 0.146 -0.25400001 152 0 0 0 0.05421
3.415 0.141 -0.244 152 0 0 0 0.054219998
3.4130001 0.13500001 -0.235 152 0 0 0 0.054230001
3.4089999 0.13 -0.22499999 153 0 0 0 0.05424
3.4059999 0.124 -0.215 153 0 0 0 0.054249998
3.4070001 0.119 -0.205 153 0 0 0 0.054260001
3.405 0.114 -0.19499999 153 0 0 0 0.054269999
3.4119999 0.108 -0.186 153 0 0 0 0.054280002
3.4119999 0.103 -0.176 153 0 0 0 0.05429
3.4130001 0.097999997 -0.167 153 0 0 0 0.054299999
3.414 0.092 -0.15700001 153 0 0 0 0.054310001
3.408 0.086999997 -0.147 153 0 0 0 0.05432
3.404 0.081 -0.13699999 153 0 0 0 0.054329999
3.404 0.075999998 -0.12800001 154 0 0 0 0.054340001
3.405 0.07 -0.118 154 0 0 0 0.05435
3.405 0.064999998 -0.109 153 0 0 0 0.054359999
3.4059999 0.059 -0.098999999 153 0 0 0 0.054370001
3.411 0.054000001 -0.090000004 153 0 0 0 0.05438
3.411 0.048 -0.079999998 153 0 0 0 0.054389998
3.4059999 0.041999999 -0.071000002 153 0 0 0 0.054400001
3.418 0.037 -0.061000001 153 0 0 0 0.054409999
3.4170001 0.030999999 -0.052000001 152 0 0 0 0.054420002
3.4230001 0.026000001 -0.041999999 152 0 0 0 0.05443
3.424 0.02 -0.033 152 0 0 0 0.054439999
3.4200001 0.014 -0.023 152 0 0 0 0.054450002
3.4219999 0.0089999996 -0.014 152 0 0 0 0.05446
3.4219999 0.003 -0.0040000002 152 0 0 0 0.054469999
3.425 -0.0020000001 0.0040000002 152 0 0 0 0.054480001
3.425 -0.0080000004 0.014 152 0 0 0 0.05449
3.424 -0.013 0.023 152 0 0 0 0.054499999
3.425 -0.018999999 0.033 151 0 0 0 0.054510001
3.425 -0.025 0.041999999 152 0 0 0 0.05452
3.427 -0.030999999 0.052000001 151 0 0 0 0.054529998
3.427 -0.037 0.061000001 151 0 0 0 0.054540001
3.4260001 -0.041999999 0.071000002 151 0 0 0 0.05455
3.425 -0.048 0.079999998 151 0 0 0 0.054559998
3.425 -0.054000001 0.089000002 151 0 0 0 0.054570001
3.427 -0.059999999 0.098999999 151 0 0 0 0.054579999
3.431 -0.066 0.108 151 0 0 0 0.054590002
3.4319999 -0.071999997 0.118 151 0 0 0 0.0546
3.431 -0.078000002 0.127 151 0 0 0 0.054609999
3.4300001 -0.083999999 0.13600001 151 0 0 0 0.054620001
3.4300001 -0.090000004 0.146 151 0 0 0 0.05463
3.4349999 -0.096000001 0.155 151 0 0 0 0.054639999
3.4360001 -0.102 0.16500001 151 0 0 0 0.054650001
3.4349999 -0.108 0.17399999 151 0 0 0 0.05466
3.4349999 -0.114 0.184 151 0 0 0 0.054669999
3.4360001 -0.12 0.193 151 0 0 0 0.054680001
3.4349999 -0.126 0.20200001 151 0 0 0 0.05469
3.4400001 -0.133 0.212 151 0 0 0 0.054699998
3.438 -0.139 0.221 151 0 0 0 0.054710001
3.4360001 -0.145 0.23 151 0 0 0 0.054719999
3.438 -0.15099999 0.23899999 151 0 0 0 0.054730002
3.437 -0.15700001 0.249 151 0 0 0 0.054740001
3.437 -0.163 0.25799999 152 0 0 0 0.054749999
3.4349999 -0.17 0.26699999 151 0 0 0 0.054760002
3.391 -0.17399999 0.273 150 0 0 0 0.05477
3.3740001 -0.17900001 0.28099999 151 0 0 0 0.054779999
3.3800001 -0.185 0.28999999 151 0 0 0 0.054790001
3.3759999 -0.191 0.29899999 151 0 0 0 0.0548
3.3710001 -0.197 0.308 151 0 0 0 0.054809999
3.359 -0.20299999 0.315 150 0 0 0 0.054820001
3.346 -0.208 0.32300001 151 0 0 0 0.05483
3.3440001 -0.214 0.33199999 151 0 0 0 0.054839998
3.342 -0.22 0.34099999 151 0 0 0 0.054850001
3.3429999 -0.227 0.34999999 151 0 0 0 0.05486
3.3429999 -0.233 0.359 151 0 0 0 0.054869998
3.3469999 -0.23999999 0.368 151 0 0 0 0.054880001
3.3429999 -0.24600001 0.377 151 0 0 0 0.054889999
3.3399999 -0.252 0.38499999 55 0 0 0 0.054900002
3.263 -0.252 0.38499999 49 0 0 0 0.05491
3.2379999 -0.25600001 0.391 150 0 0 0 0.054919999
3.233 -0.26199999 0.39899999 151 0 0 0 0.054930001
3.24 -0.26899999 0.40799999 151 0 0 0 0.05494
3.2409999 -0.27500001 0.417 151 0 0 0 0.054949999
3.2409999 -0.28200001 0.426 151 0 0 0 0.054960001
3.2379999 -0.28799999 0.43399999 151 0 0 0 0.05497
3.243 -0.294 0.44299999 151 0 0 0 0.054979999
3.237 -0.30000001 0.45100001 151 0 0 0 0.054990001
3.2379999 -0.30700001 0.46000001 151 0 0 0 0.055
3.217 -0.31099999 0.465 150 0 0 0 0.055009998
3.2119999 -0.317 0.47299999 151 0 0 0 0.055020001
3.211 -0.32300001 0.48100001 151 0 0 0 0.055029999
3.2119999 -0.33000001 0.49000001 151 0 0 0 0.055039998
3.217 -0.336 0.49900001 150 0 0 0 0.055050001
3.2160001 -0.34299999 0.50700003 151 0 0 0 0.055059999
3.2190001 -0.34900001 0.51599997 151 0 0 0 0.055070002
3.217 -0.35600001 0.52399999 151 0 0 0 0.05508
3.033 -0.34200001 0.50199997 151 0 0 0 0.055089999
2.8429999 -0.32600001 0.47799999 150 0 0 0 0.055100001
2.6170001 -0.30500001 0.447 28 0 0 0 0.05511
2.5450001 -0.30199999 0.44100001 21 0 0 0 0.055119999
2.507 -0.303 0.44100001 18 0 0 0 0.055130001
2.4779999 -0.30399999 0.44299999 18 0 0 0 0.05514
2.4419999 -0.30500001 0.44299999 16 0 0 0 0.055149999
2.401 -0.30500001 0.442 22 0 0 0 0.055160001
2.385 -0.308 0.44499999 31 0 0 0 0.05517
2.3840001 -0.31299999 0.45100001 17 0 0 0 0.055179998
2.395 -0.31900001 0.45899999 0 0 0 0 0.055190001
2.378 -0.322 0.46200001 0 0 0 0 0.055199999
0 0 0 0 0 0 0 0.055210002
0 0 0 0 0 0 0 0.05522
0 0 0 0 0 0 0 0.055229999
0 0 0 0 0 0 0 0.055240002
0 0 0 0 0 0 0 0.05525
0 0 0 0 0 0 0 0.055259999
0 0 0 0 0 0 0 0.055270001
0 0 0 0 0 0 0 0.05528
0 0 0 0 0 0 0 0.055289999
0 0 0 0 0 0 0 0.055300001
0 0 0 0 0 0 0 0.05531
0 0 0 0 0 0 0 0.055319998
0 0 0 0 0 0 0 0.055330001
0 0 0 0 0 0 0 0.055339999
0 0 0 0 0 0 0 0.055349998
0 0 0 0 0 0 0 0.055360001
0 0 0 0 0 0 0 0.055369999
0 0 0 0 0 0 0 0.055380002
0 0 0 0 0 0 0 0.05539
0 0 0 0 0 0 0 0.055399999
0 0 0 0 0 0 0 0.055410001
0 0 0 0 0 0 0 0.05542
0 0 0 0 0 0 0 0.055429999
0 0 0 0 0 0 0 0.055440001
0 0 0 0 0 0 0 0.05545
0 0 0 0 0 0 0 0.055459999
0 0 0 0 0 0 0 0.055470001
0 0 0 0 0 0 0 0.05548
0 0 0 0 0 0 0 0.055489998
0 0 0 0 0 0 0 0.055500001
0 0 0 0 0 0 0 0.055509999
0 0 0 0 0 0 0 0.055520002
0 0 0 0 0 0 0 0.05553
0 0 0 0 0 0 0 0.055539999
0 0 0 0 0 0 0 0.055550002
0 0 0 0 0 0 0 0.05556
0 0 0 0 0 0 0 0.055569999
0 0 0 0 0 0 0 0.055580001
0 0 0 0 0 0 0 0.05559
0 0 0 0 0 0 0 0.055599999
0 0 0 0 0 0 0 0.055610001
0 0 0 0 0 0 0 0.05562
0 0 0 0 0 0 0 0.055629998
0 0 0 0 0 0 0 0.055640001
2.415 -0.574 0.741 0 0 0 0 0.05565
0 0 0 0 0 0 0 0.055659998
0 0 0 0 0 0 0 0.055670001
0 0 0 0 0 0 0 0.055679999
0 0 0 0 0 0 0 0.055690002
2.4749999 -0.61900002 0.78799999 0 0 0 0 0.0557
2.3789999 -0.60100001 0.76300001 0 0 0 0 0.055709999
0 0 0 0 0 0 0 0.055720001
2.467 -0.63599998 0.80299997 0 0 0 0 0.05573
0 0 0 0 0 0 0 0.055739999
0 0 0 0 0 0 0 0.055750001
0 0 0 0 0 0 0 0.05576
0 0 0 0 0 0 0 0.055769999
0 0 0 0 0 0 0 0.055780001
0 0 0 0 0 0 0 0.05579
0 0 0 0 0 0 0 0.055799998
0 0 0 0 0 0 0 0.055810001
2.457 -0.69 0.84899998 0 0 0 0 0.055819999
2.4560001 -0.69599998 0.85500002 0 0 0 0 0.055830002
0 0 0 0 0 0 0 0.055840001
2.428 -0.70099998 0.85500002 0 0 0 0 0.055849999
2.385 -0.69499999 0.84500003 0 0 0 0 0.055860002
0 0 0 0 0 0 0 0.05587
0 0 0 0 0 0 0 0.055879999
0 0 0 0 0 0 0 0.055890001
2.4300001 -0.73299998 0.88200003 0 0 0 0 0.0559
2.823 -0.85900003 1.031 0 0 0 0 0.055909999
2.414 -0.741 0.88599998 0 0 0 0 0.055920001
2.8870001 -0.89399999 1.066 0 0 0 0 0.05593
2.9860001 -0.93300003 1.109 0 0 0 0 0.055939998
2.812 -0.88599998 1.05 0 0 0 0 0.055950001
0 0 0 0 0 0 0 0.05596
2.8829999 -0.92400002 1.0880001 0 0 0 0 0.055969998
4.244 -1.372 1.6109999 43 0 0 0 0.055980001
4.2199998 -1.375 1.61 45 0 0 0 0.055989999
4.1929998 -1.377 1.608 39 0 0 0 0.056000002
4.1659999 -1.38 1.6059999 37 0 0 0 0.05601
4.1440001 -1.3839999 1.605 36 0 0 0 0.056019999
4.118 -1.386 1.603 32 0 0 0 0.056030001
4.0910001 -1.388 1.6 25 0 0 0 0.05604
4.0700002 -1.392 1.6 22 0 0 0 0.056049999
4.0430002 -1.393 1.596 21 0 0 0 0.056060001
4.0120001 -1.3940001 1.592 19 0 0 0 0.05607
3.993 -1.398 1.592 20 0 0 0 0.056079999
3.96 -1.397 1.585 19 0 0 0 0.056090001
3.9449999 -1.403 1.586 19 0 0 0 0.0561
3.911 -1.401 1.58 19 0 0 0 0.056109998
3.885 -1.402 1.576 20 0 0 0 0.056120001
3.859 -1.404 1.572 19 0 0 0 0.056129999
3.8380001 -1.406 1.5700001 20 0 0 0 0.056139998
3.809 -1.406 1.5650001 19 0 0 0 0.056150001
3.783 -1.4069999 1.5599999 18 0 0 0 0.056159999
3.763 -1.41 1.558 19 0 0 0 0.056170002
3.734 -1.409 1.552 19 0 0 0 0.05618
3.7119999 -1.41 1.549 19 0 0 0 0.056189999
3.6930001 -1.413 1.5470001 20 0 0 0 0.056200001
3.665 -1.413 1.541 19 0 0 0 0.05621
3.6459999 -1.415 1.539 20 0 0 0 0.056219999
3.6229999 -1.416 1.534 19 0 0 0 0.056230001
3.5999999 -1.4170001 1.53 19 0 0 0 0.05624
3.5829999 -1.419 1.528 19 0 0 0 0.056249999
3.5580001 -1.419 1.522 20 0 0 0 0.056260001
3.5380001 -1.421 1.5190001 19 0 0 0 0.05627
3.523 -1.424 1.517 21 0 0 0 0.056279998
3.5020001 -1.425 1.513 21 0 0 0 0.056290001
3.48 -1.426 1.508 21 0 0 0 0.056299999
3.4679999 -1.4299999 1.507 21 0 0 0 0.056310002
3.444 -1.429 1.501 21 0 0 0 0.05632
3.427 -1.431 1.498 21 0 0 0 0.056329999
3.408 -1.432 1.494 21 0 0 0 0.056340002
3.3889999 -1.433 1.49 22 0 0 0 0.05635
3.3599999 -1.4299999 1.4809999 22 0 0 0 0.056359999
3.3499999 -1.434 1.48 21 0 0 0 0.056370001
3.326 -1.433 1.473 22 0 0 0 0.05638
3.3139999 -1.436 1.472 22 0 0 0 0.056389999
3.2920001 -1.4349999 1.465 22 0 0 0 0.056400001
3.2739999 -1.436 1.461 24 0 0 0 0.05641
3.2609999 -1.439 1.4579999 24 0 0 0 0.056419998
3.2449999 -1.4400001 1.454 27 0 0 0 0.056430001
3.24 -1.446 1.454 31 0 0 0 0.056439999
3.227 -1.448 1.452 29 0 0 0 0.056449998
3.221 -1.4529999 1.452 31 0 0 0 0.056460001
3.217 -1.459 1.452 31 0 0 0 0.056469999
3.21 -1.464 1.452 34 0 0 0 0.056480002
3.207 -1.471 1.4529999 32 0 0 0 0.05649
3.198 -1.475 1.451 31 0 0 0 0.056499999
3.191 -1.479 1.45 32 0 0 0 0.056510001
3.1889999 -1.4859999 1.451 30 0 0 0 0.05652
3.188 -1.493 1.4529999 30 0 0 0 0.056529999
3.1830001 -1.498 1.4529999 29 0 0 0 0.056540001
3.1819999 -1.505 1.454 30 0 0 0 0.05655
3.1760001 -1.51 1.4529999 27 0 0 0 0.056559999
3.1730001 -1.516 1.4529999 27 0 0 0 0.056570001
3.171 -1.522 1.4529999 28 0 0 0 0.05658
3.1689999 -1.528 1.4529999 28 0 0 0 0.056589998
3.1689999 -1.535 1.455 27 0 0 0 0.056600001
3.1659999 -1.541 1.455 28 0 0 0 0.056609999
3.165 -1.5470001 1.455 27 0 0 0 0.056620002
3.165 -1.554 1.456 29 0 0 0 0.05663
3.1619999 -1.5599999 1.455 26 0 0 0 0.056639999
3.164 -1.567 1.456 27 0 0 0 0.056650002
3.161 -1.572 1.456 28 0 0 0 0.05666
3.1630001 -1.58 1.457 29 0 0 0 0.056669999
3.161 -1.585 1.456 28 0 0 0 0.056680001
3.1589999 -1.591 1.455 29 0 0 0 0.05669
3.1600001 -1.597 1.456 29 0 0 0 0.056699999
3.164 -1.605 1.457 28 0 0 0 0.056710001
3.1619999 -1.61 1.456 28 0 0 0 0.05672
3.1630001 -1.617 1.456 28 0 0 0 0.056729998
3.1659999 -1.625 1.457 30 0 0 0 0.056740001
3.1659999 -1.63 1.456 30 0 0 0 0.05675
3.1670001 -1.637 1.456 28 0 0 0 0.056759998
3.1760001 -1.647 1.459 27 0 0 0 0.056770001
3.174 -1.651 1.457 28 0 0 0 0.056779999
3.1730001 -1.656 1.456 28 0 0 0 0.056790002
3.178 -1.664 1.457 27 0 0 0 0.0568
3.177 -1.669 1.455 27 0 0 0 0.056809999
3.1849999 -1.678 1.457 27 0 0 0 0.056820001
3.1830001 -1.682 1.455 26 0 0 0 0.05683
3.191 -1.691 1.456 27 0 0 0 0.056839999
3.198 -1.699 1.4579999 26 0 0 0 0.056850001
3.21 -1.71 1.461 29 0 0 0 0.05686
3.2550001 -1.738 1.479 53 0 0 0 0.056869999
3.313 -1.774 1.503 63 0 0 0 0.056880001
3.3559999 -1.801 1.521 58 0 0 0 0.05689
3.3840001 -1.821 1.531 34 0 0 0 0.056899998
3.395 -1.831 1.533 33 0 0 0 0.056910001
3.4059999 -1.841 1.535 34 0 0 0 0.056919999
3.4089999 -1.846 1.533 32 0 0 0 0.056930002
3.415 -1.854 1.533 33 0 0 0 0.056940001
3.424 -1.862 1.534 32 0 0 0 0.056949999
3.4330001 -1.87 1.534 32 0 0 0 0.056960002
3.438 -1.876 1.533 31 0 0 0 0.05697
3.4489999 -1.886 1.534 31 0 0 0 0.056979999
3.457 -1.893 1.534 30 0 0 0 0.056990001
3.464 -1.9 1.533 29 0 0 0 0.057
3.471 -1.9069999 1.5319999 30 0 0 0 0.057009999
3.48 -1.914 1.5319999 29 0 0 0 0.057020001
3.49 -1.9220001 1.5319999 30 0 0 0 0.05703
3.5009999 -1.9299999 1.5319999 30 0 0 0 0.057039998
3.51 -1.938 1.5319999 28 0 0 0 0.057050001
3.526 -1.948 1.533 27 0 0 0 0.05706
3.5350001 -1.956 1.533 27 0 0 0 0.057069998
3.546 -1.9630001 1.5319999 28 0 0 0 0.057080001
3.559 -1.972 1.533 27 0 0 0 0.057089999
3.575 -1.982 1.534 28 0 0 0 0.057100002
3.585 -1.989 1.533 27 0 0 0 0.05711
3.596 -1.9960001 1.5319999 27 0 0 0 0.057119999
3.612 -2.006 1.534 27 0 0 0 0.057130001
3.628 -2.016 1.535 29 0 0 0 0.05714
3.6389999 -2.023 1.534 27 0 0 0 0.057149999
3.6559999 -2.033 1.535 28 0 0 0 0.057160001
3.6600001 -2.036 1.53 27 0 0 0 0.05717
3.6819999 -2.0480001 1.533 27 0 0 0 0.057179999
3.698 -2.0569999 1.534 27 0 0 0 0.057190001
3.7149999 -2.066 1.534 26 0 0 0 0.0572
3.7260001 -2.072 1.5319999 26 0 0 0 0.057209998
3.7449999 -2.082 1.533 26 0 0 0 0.057220001
3.767 -2.0940001 1.535 26 0 0 0 0.057229999
3.777 -2.098 1.5319999 26 0 0 0 0.057240002
3.8 -2.1099999 1.534 27 0 0 0 0.057250001
3.813 -2.1159999 1.5319999 26 0 0 0 0.057259999
3.829 -2.1229999 1.531 26 0 0 0 0.057270002
3.852 -2.135 1.533 25 0 0 0 0.05728
3.8670001 -2.141 1.531 24 0 0 0 0.057289999
3.888 -2.151 1.5319999 25 0 0 0 0.057300001
3.908 -2.1600001 1.5319999 25 0 0 0 0.05731
3.9300001 -2.1689999 1.533 24 0 0 0 0.057319999
3.944 -2.175 1.53 25 0 0 0 0.057330001
3.973 -2.188 1.533 24 0 0 0 0.05734
3.9909999 -2.1949999 1.5319999 25 0 0 0 0.057349999
4.0110002 -2.204 1.531 25 0 0 0 0.057360001
4.0359998 -2.214 1.533 25 0 0 0 0.05737
4.052 -2.2190001 1.53 24 0 0 0 0.057379998
4.0799999 -2.2309999 1.5319999 24 0 0 0 0.057390001
4.1009998 -2.2390001 1.53 24 0 0 0 0.057399999
4.1240001 -2.2479999 1.531 24 0 0 0 0.057410002
4.1529999 -2.2590001 1.5319999 25 0 0 0 0.05742
4.1789999 -2.2690001 1.5319999 25 0 0 0 0.057429999
4.2030001 -2.2780001 1.5319999 25 0 0 0 0.057440002
4.2280002 -2.2869999 1.5319999 24 0 0 0 0.05745
4.256 -2.2969999 1.5319999 25 0 0 0 0.057459999
4.2810001 -2.3050001 1.5319999 25 0 0 0 0.057470001
4.3140001 -2.3180001 1.534 25 0 0 0 0.05748
4.3429999 -2.3280001 1.534 25 0 0 0 0.057489999
4.3759999 -2.3399999 1.536 25 0 0 0 0.057500001
4.4000001 -2.3469999 1.534 25 0 0 0 0.05751
4.4359999 -2.3599999 1.5369999 25 0 0 0 0.057519998
4.4590001 -2.3659999 1.535 25 0 0 0 0.057530001
4.493 -2.378 1.536 25 0 0 0 0.057539999
4.5300002 -2.391 1.538 25 0 0 0 0.057549998
4.5580001 -2.3989999 1.5369999 26 0 0 0 0.057560001
4.592 -2.4100001 1.538 25 0 0 0 0.057569999
4.625 -2.4200001 1.539 25 0 0 0 0.057580002
4.6609998 -2.431 1.539 26 0 0 0 0.05759
4.6950002 -2.441 1.54 32 0 0 0 0.057599999
4.711 -2.4419999 1.534 36 0 0 0 0.057610001
4.7210002 -2.4389999 1.526 38 0 0 0 0.05762
2.5079999 -1.291 0.80500001 0 0 0 0 0.057629999
4.724 -2.424 1.505 35 0 0 0 0.057640001
4.717 -2.4119999 1.492 32 0 0 0 0.05765
4.71 -2.4000001 1.479 29 0 0 0 0.057659999
4.7140002 -2.3940001 1.469 29 0 0 0 0.057670001
2.473 -1.251 0.76499999 0 0 0 0 0.05768
4.7069998 -2.3729999 1.4450001 29 0 0 0 0.057689998
4.7080002 -2.365 1.434 31 0 0 0 0.057700001
2.4189999 -1.21 0.73100001 0 0 0 0 0.057709999
2.4300001 -1.211 0.72899997 0 0 0 0 0.057720002
4.7129998 -2.339 1.402 31 0 0 0 0.05773
4.7090001 -2.3280001 1.39 31 0 0 0 0.057739999
4.7080002 -2.3180001 1.3789999 31 0 0 0 0.057750002
2.576 -1.262 0.74800003 0 0 0 0 0.05776
4.5809999 -2.2360001 1.3200001 150 0 0 0 0.057769999
3.8759999 -1.8839999 1.108 151 0 0 0 0.057780001
3.6830001 -1.7819999 1.044 57 0 0 0 0.05779
3.6819999 -1.774 1.035 56 0 0 0 0.057799999
3.6860001 -1.768 1.028 56 0 0 0 0.057810001
3.6830001 -1.758 1.0190001 56 0 0 0 0.05782
3.6830001 -1.75 1.01 56 0 0 0 0.057829998
3.6849999 -1.743 1.002 56 0 0 0 0.057840001
3.6830001 -1.734 0.99299997 55 0 0 0 0.05785
3.681 -1.724 0.98400003 56 0 0 0 0.057859998
3.6789999 -1.715 0.97500002 56 0 0 0 0.057870001
3.684 -1.7079999 0.96799999 56 0 0 0 0.057879999
3.684 -1.7 0.95999998 56 0 0 0 0.057890002
3.681 -1.6900001 0.94999999 56 0 0 0 0.0579
3.6800001 -1.681 0.94199997 56 0 0 0 0.057909999
3.674 -1.669 0.93199998 55 0 0 0 0.057920001
3.678 -1.6619999 0.92400002 55 0 0 0 0.05793
3.678 -1.653 0.91600001 55 0 0 0 0.057939999
3.671 -1.641 0.90600002 55 0 0 0 0.057950001
3.6730001 -1.633 0.89899999 55 0 0 0 0.05796
3.675 -1.625 0.89099997 55 0 0 0 0.057969999
3.674 -1.615 0.88200003 55 0 0 0 0.057980001
3.671 -1.605 0.87300003 54 0 0 0 0.05799
3.674 -1.597 0.866 56 0 0 0 0.057999998
3.6719999 -1.587 0.85799998 54 0 0 0 0.058010001
3.6730001 -1.5779999 0.85000002 57 0 0 0 0.058019999
3.671 -1.568 0.84100002 57 0 0 0 0.058030002
3.6730001 -1.559 0.83399999 56 0 0 0 0.05804
3.6689999 -1.548 0.82499999 56 0 0 0 0.058049999
3.671 -1.539 0.81699997 57 0 0 0 0.058060002
3.6659999 -1.528 0.80800003 58 0 0 0 0.05807
3.664 -1.517 0.80000001 57 0 0 0 0.058079999
3.664 -1.508 0.792 55 0 0 0 0.058090001
3.6619999 -1.497 0.78399998 55 0 0 0 0.0581
3.6600001 -1.487 0.77600002 49 0 0 0 0.058109999
3.6619999 -1.478 0.76899999 49 0 0 0 0.058120001
3.661 -1.4680001 0.76099998 50 0 0 0 0.05813
3.6600001 -1.4579999 0.75300002 46 0 0 0 0.058139998
3.6730001 -1.4529999 0.74800003 22 0 0 0 0.058150001
3.6989999 -1.4529999 0.745 11 0 0 0 0.05816
3.7260001 -1.454 0.74299997 11 0 0 0 0.058169998
3.7650001 -1.4579999 0.74299997 10 0 0 0 0.058180001
3.803 -1.4630001 0.74299997 9 0 0 0 0.058189999
3.8410001 -1.467 0.74199998 9 0 0 0 0.058200002
3.8840001 -1.473 0.74299997 9 0 0 0 0.05821
3.921 -1.476 0.74199998 9 0 0 0 0.058219999
3.961 -1.48 0.74199998 9 0 0 0 0.058230001
4.0089998 -1.487 0.74299997 8 0 0 0 0.05824
4.0489998 -1.4910001 0.74199998 8 0 0 0 0.058249999
4.0929999 -1.4960001 0.74199998 8 0 0 0 0.058260001
4.138 -1.501 0.74199998 9 0 0 0 0.05827
0 0 0 0 0 0 0 0.058279999
4.2319999 -1.511 0.74199998 9 0 0 0 0.058290001
2.8710001 -1.017 0.498 0 0 0 0 0.0583
0 0 0 0 0 0 0 0.058309998
0 0 0 0 0 0 0 0.058320001
0 0 0 0 0 0 0 0.058329999
0 0 0 0 0 0 0 0.058340002
0 0 0 0 0 0 0 0.058350001
0 0 0 0 0 0 0 0.058359999
0 0 0 0 0 0 0 0.058370002
0 0 0 0 0 0 0 0.05838
0 0 0 0 0 0 0 0.058389999
0 0 0 0 0 0 0 0.058400001
0 0 0 0 0 0 0 0.05841
0 0 0 0 0 0 0 0.058419999
0 0 0 0 0 0 0 0.058430001
0 0 0 0 0 0 0 0.05844
0 0 0 0 0 0 0 0.058449998
0 0 0 0 0 0 0 0.058460001
0 0 0 0 0 0 0 0.05847
0 0 0 0 0 0 0 0.058479998
0 0 0 0 0 0 0 0.058490001
0 0 0 0 0 0 0 0.058499999
0 0 0 0 0 0 0 0.058510002
0 0 0 0 0 0 0 0.05852
0 0 0 0 0 0 0 0.058529999
0 0 0 0 0 0 0 0.058540002
0 0 0 0 0 0 0 0.05855
0 0 0 0 0 0 0 0.058559999
0 0 0 0 0 0 0 0.058570001
0 0 0 0 0 0 0 0.05858
0 0 0 0 0 0 0 0.058589999
0 0 0 0 0 0 0 0.058600001
0 0 0 0 0 0 0 0.05861
0 0 0 0 0 0 0 0.058619998
0 0 0 0 0 0 0 0.058630001
0 0 0 0 0 0 0 0.058639999
0 0 0 0 0 0 0 0.058649998
0 0 0 0 0 0 0 0.058660001
0 0 0 0 0 0 0 0.058669999
0 0 0 0 0 0 0 0.058680002
0 0 0 0 0 0 0 0.05869
0 0 0 0 0 0 0 0.058699999
0 0 0 0 0 0 0 0.058710001
0 0 0 0 0 0 0 0.05872
0 0 0 0 0 0 0 0.058729999
0 0 0 0 0 0 0 0.058740001
0 0 0 0 0 0 0 0.05875
0 0 0 0 0 0 0 0.058759999
0 0 0 0 0 0 0 0.058770001
0 0 0 0 0 0 0 0.05878
0 0 0 0 0 0 0 0.058789998
0 0 0 0 0 0 0 0.058800001
0 0 0 0 0 0 0 0.058809999
0 0 0 0 0 0 0 0.058820002
0 0 0 0 0 0 0 0.05883
0 0 0 0 0 0 0 0.058839999
0 0 0 0 0 0 0 0.058850002
0 0 0 0 0 0 0 0.05886
0 0 0 0 0 0 0 0.058869999
0 0 0 0 0 0 0 0.058880001
0 0 0 0 0 0 0 0.05889
0 0 0 0 0 0 0 0.058899999
0 0 0 0 0 0 0 0.058910001
0 0 0 0 0 0 0 0.05892
2.398 -0.40700001 0.16500001 0 0 0 0 0.058929998
2.4170001 -0.403 0.163 0 0 0 0 0.058940001
2.411 -0.39500001 0.15899999 0 0 0 0 0.05895
2.4119999 -0.38800001 0.156 0 0 0 0 0.058959998
2.4130001 -0.38100001 0.153 0 0 0 0 0.058970001
2.3929999 -0.37 0.148 0 0 0 0 0.058979999
2.405 -0.36500001 0.146 0 0 0 0 0.058990002
2.4289999 -0.361 0.14399999 0 0 0 0 0.059
2.388 -0.34799999 0.138 0 0 0 0 0.059009999
2.381 -0.34 0.134 0 0 0 0 0.059020001
2.3959999 -0.33500001 0.132 1 0 0 0 0.05903
2.378 -0.32499999 0.12800001 3 0 0 0 0.059039999
2.3740001 -0.31799999 0.124 12 0 0 0 0.059050001
2.408 -0.315 0.123 15 0 0 0 0.05906
2.4519999 -0.31299999 0.122 17 0 0 0 0.059069999
2.5079999 -0.31299999 0.122 21 0 0 0 0.059080001
2.549 -0.31 0.12 19 0 0 0 0.05909
2.809 -0.33399999 0.12899999 110 0 0 0 0.059099998
3.0769999 -0.35600001 0.13699999 150 0 0 0 0.059110001
3.2079999 -0.36199999 0.139 150 0 0 0 0.059119999
3.21 -0.352 0.13500001 150 0 0 0 0.059130002
3.2130001 -0.34299999 0.131 150 0 0 0 0.05914
3.2090001 -0.333 0.127 150 0 0 0 0.059149999
3.2119999 -0.324 0.123 150 0 0 0 0.059160002
3.2290001 -0.31600001 0.12 150 0 0 0 0.05917
3.2360001 -0.30700001 0.116 151 0 0 0 0.059179999
3.2390001 -0.29699999 0.112 150 0 0 0 0.059190001
3.2349999 -0.287 0.108 150 0 0 0 0.0592
3.2360001 -0.27700001 0.104 150 0 0 0 0.059209999
3.2379999 -0.26800001 0.1 151 0 0 0 0.059220001
3.2479999 -0.259 0.096000001 150 0 0 0 0.05923
3.3380001 -0.25600001 0.094999999 150 0 0 0 0.059239998
3.3440001 -0.24600001 0.090999998 151 0 0 0 0.059250001
3.3410001 -0.236 0.086999997 150 0 0 0 0.05926
3.346 -0.226 0.082999997 151 0 0 0 0.059269998
3.3469999 -0.21600001 0.079000004 151 0 0 0 0.059280001
3.368 -0.208 0.075999998 150 0 0 0 0.059289999
3.3710001 -0.198 0.071999997 151 0 0 0 0.059300002
3.372 -0.18700001 0.068000004 151 0 0 0 0.05931
3.398 -0.17900001 0.064999998 150 0 0 0 0.059319999
3.4230001 -0.169 0.061000001 153 0 0 0 0.059330001
3.4360001 -0.16 0.057 150 0 0 0 0.05934
3.4400001 -0.149 0.054000001 150 0 0 0 0.059349999
3.4330001 -0.139 0.048999999 150 0 0 0 0.059360001
3.434 -0.12800001 0.046 150 0 0 0 0.05937
3.434 -0.118 0.041999999 150 0 0 0 0.059379999
3.428 -0.107 0.037999999 150 0 0 0 0.059390001
3.4319999 -0.097000003 0.034000002 150 0 0 0 0.0594
3.4330001 -0.086000003 0.029999999 150 0 0 0 0.059409998
3.427 -0.075999998 0.026000001 150 0 0 0 0.059420001
3.427 -0.064999998 0.022 150 0 0 0 0.059429999
3.424 -0.055 0.018999999 150 0 0 0 0.059440002
3.431 -0.045000002 0.015 150 0 0 0 0.059450001
3.424 -0.034000002 0.011 150 0 0 0 0.059459999
3.4230001 -0.024 0.0070000002 150 0 0 0 0.059470002
3.4189999 -0.013 0.0040000002 150 0 0 0 0.05948
3.4189999 -0.003 0 150 0 0 0 0.059489999
3.425 0.0070000002 -0.003 151 0 0 0 0.059500001
3.4130001 0.017000001 -0.0060000001 151 0 0 0 0.05951
3.418 0.028000001 -0.0099999998 151 0 0 0 0.059519999
3.4219999 0.037999999 -0.013 152 0 0 0 0.059530001
3.4260001 0.048999999 -0.017000001 152 0 0 0 0.05954
3.4230001 0.059 -0.021 152 0 0 0 0.059549998
3.4070001 0.068999998 -0.024 153 0 0 0 0.059560001
3.401 0.079999998 -0.027000001 153 0 0 0 0.05957
3.4030001 0.090000004 -0.030999999 153 0 0 0 0.059579998
3.401 0.1 -0.034000002 153 0 0 0 0.059590001
3.381 0.11 -0.037999999 154 0 0 0 0.059599999
3.382 0.121 -0.041000001 154 0 0 0 0.059610002
3.3829999 0.131 -0.044 155 0 0 0 0.05962
3.3770001 0.141 -0.048 155 0 0 0 0.059629999
3.3659999 0.15099999 -0.050999999 157 0 0 0 0.059640002
3.3629999 0.162 -0.054000001 158 0 0 0 0.05965
3.362 0.17200001 -0.057999998 158 0 0 0 0.059659999
3.3610001 0.182 -0.061000001 158 0 0 0 0.059670001
3.358 0.193 -0.064000003 158 0 0 0 0.05968
3.358 0.20299999 -0.067000002 160 0 0 0 0.059689999
3.3570001 0.213 -0.071000002 160 0 0 0 0.059700001
3.359 0.22400001 -0.074000001 161 0 0 0 0.05971
3.358 0.234 -0.077 161 0 0 0 0.059719998
3.3570001 0.245 -0.079999998 162 0 0 0 0.059730001
3.3510001 0.255 -0.082999997 163 0 0 0 0.059739999
3.3570001 0.26499999 -0.086000003 161 0 0 0 0.059749998
3.352 0.27500001 -0.089000002 161 0 0 0 0.059760001
3.3529999 0.28600001 -0.093000002 161 0 0 0 0.059769999
3.3529999 0.29699999 -0.096000001 160 0 0 0 0.059780002
3.355 0.30700001 -0.098999999 159 0 0 0 0.05979
3.3529999 0.317 -0.102 159 0 0 0 0.059799999
3.3559999 0.32800001 -0.105 158 0 0 0 0.059810001
3.355 0.33899999 -0.108 158 0 0 0 0.05982
3.3540001 0.34900001 -0.111 157 0 0 0 0.059829999
3.365 0.361 -0.114 156 0 0 0 0.059840001
3.3599999 0.37099999 -0.117 156 0 0 0 0.05985
3.362 0.38100001 -0.12 154 0 0 0 0.059859999
3.3740001 0.39399999 -0.123 154 0 0 0 0.059870001
3.3699999 0.40400001 -0.126 154 0 0 0 0.05988
3.3800001 0.41600001 -0.13 153 0 0 0 0.059889998
3.388 0.42699999 -0.133 152 0 0 0 0.059900001
3.3900001 0.43799999 -0.13600001 152 0 0 0 0.059909999
3.3889999 0.449 -0.139 152 0 0 0 0.059920002
3.3870001 0.45899999 -0.141 152 0 0 0 0.05993
3.388 0.47 -0.14399999 151 0 0 0 0.059939999
3.3829999 0.47999999 -0.147 151 0 0 0 0.059950002
3.3829999 0.491 -0.15000001 151 0 0 0 0.05996
3.3840001 0.50199997 -0.152 152 0 0 0 0.059969999
3.3570001 0.50800002 -0.154 153 0 0 0 0.059980001
3.3150001 0.51300001 -0.155 151 0 0 0 0.05999
3.319 0.52399999 -0.15800001 152 0 0 0 0.059999999
3.3080001 0.53299999 -0.16 151 0 0 0 0.060010001
3.2850001 0.54000002 -0.161 153 0 0 0 0.06002
3.2809999 0.54900002 -0.163 153 0 0 0 0.060029998
3.2839999 0.56 -0.16599999 152 0 0 0 0.060040001
3.28 0.56999999 -0.169 152 0 0 0 0.06005
3.2690001 0.579 -0.17 37 0 0 0 0.060059998
3.2219999 0.58099997 -0.17 24 0 0 0 0.060070001
3.1589999 0.57999998 -0.169 24 0 0 0 0.060079999
3.0780001 0.57499999 -0.167 24 0 0 0 0.060090002
3.007 0.57099998 -0.16599999 24 0 0 0 0.0601
2.9130001 0.56300002 -0.163 23 0 0 0 0.060109999
2.8599999 0.56199998 -0.162 24 0 0 0 0.060120001
2.7920001 0.55699998 -0.16 24 0 0 0 0.06013
2.681 0.54400003 -0.156 22 0 0 0 0.060139999
2.589 0.53399998 -0.152 19 0 0 0 0.060150001
2.5250001 0.52899998 -0.15000001 17 0 0 0 0.06016
2.474 0.52600002 -0.149 17 0 0 0 0.060169999
2.415 0.52100003 -0.147 16 0 0 0 0.060180001
2.358 0.51700002 -0.145 15 0 0 0 0.06019
2.276 0.50599998 -0.141 32 0 0 0 0.060199998
2.256 0.509 -0.142 151 0 0 0 0.060210001
2.244 0.514 -0.142 151 0 0 0 0.060219999
2.2420001 0.52100003 -0.14399999 151 0 0 0 0.060230002
2.2349999 0.52600002 -0.145 150 0 0 0 0.06024
2.224 0.53100002 -0.145 151 0 0 0 0.060249999
2.2219999 0.53799999 -0.147 151 0 0 0 0.060260002
2.227 0.546 -0.148 151 0 0 0 0.06027
2.2249999 0.55299997 -0.15000001 151 0 0 0 0.060279999
2.223 0.56 -0.15099999 151 0 0 0 0.060290001
2.221 0.56699997 -0.152 151 0 0 0 0.0603
2.22 0.574 -0.153 151 0 0 0 0.060309999
2.223 0.58200002 -0.155 151 0 0 0 0.060320001
2.2290001 0.59100002 -0.15700001 151 0 0 0 0.06033
2.233 0.60000002 -0.15800001 151 0 0 0 0.060339998
2.23 0.60600001 -0.15899999 151 0 0 0 0.060350001
2.2290001 0.61299998 -0.16 151 0 0 0 0.06036
2.2279999 0.62 -0.161 151 0 0 0 0.060369998
2.2349999 0.63 -0.163 151 0 0 0 0.060380001
2.2869999 0.65200001 -0.168 150 0 0 0 0.060389999
2.4749999 0.71399999 -0.183 150 0 0 0 0.060400002
2.487 0.72600001 -0.185 150 0 0 0 0.06041
2.483 0.73299998 -0.186 150 0 0 0 0.060419999
2.4860001 0.74199998 -0.18799999 150 0 0 0 0.060430001
2.408 0.727 -0.183 150 0 0 0 0.06044
2.2880001 0.69800001 -0.175 150 0 0 0 0.060449999
0 0 0 0 0 0 0 0.060460001
1.476 0.46000001 -0.114 1 0 0 0 0.06047
1.459 0.46000001 -0.114 1 0 0 0 0.060479999
1.439 0.458 -0.113 1 0 0 0 0.060490001
1.418 0.45699999 -0.112 1 0 0 0 0.0605
1.377 0.44800001 -0.109 0 0 0 0 0.060509998
1.352 0.44400001 -0.107 3 0 0 0 0.060520001
1.3430001 0.44600001 -0.107 3 0 0 0 0.060529999
1.3430001 0.44999999 -0.108 5 0 0 0 0.060540002
1.318 0.44600001 -0.106 27 0 0 0 0.060550001
1.3 0.44499999 -0.105 134 0 0 0 0.060559999
1.289 0.44600001 -0.105 150 0 0 0 0.060570002
1.29 0.44999999 -0.105 150 0 0 0 0.06058
1.29 0.45500001 -0.106 150 0 0 0 0.060589999
1.289 0.45899999 -0.106 150 0 0 0 0.060600001
1.29 0.463 -0.107 150 0 0 0 0.06061
1.288 0.46700001 -0.107 150 0 0 0 0.060619999
1.2869999 0.47099999 -0.107 150 0 0 0 0.060630001
1.29 0.47600001 -0.108 150 0 0 0 0.06064
1.2869999 0.47999999 -0.108 150 0 0 0 0.060649998
1.2920001 0.486 -0.109 150 0 0 0 0.060660001
1.294 0.491 -0.109 53 0 0 0 0.06067
1.286 0.49200001 -0.109 9 0 0 0 0.060679998
1.2539999 0.484 -0.106 0 0 0 0 0.060690001
1.237 0.48199999 -0.105 4 0 0 0 0.060699999
3.3239999 1.307 -0.285 3 0 0 0 0.060710002
3.302 1.3099999 -0.28299999 5 0 0 0 0.06072
3.3110001 1.325 -0.285 5 0 0 0 0.060729999
3.313 1.337 -0.28600001 3 0 0 0 0.060740001
3.312 1.348 -0.28600001 2 0 0 0 0.06075
3.2639999 1.339 -0.28200001 2 0 0 0 0.060759999
3.2539999 1.347 -0.28200001 3 0 0 0 0.060770001
3.247 1.355 -0.28200001 3 0 0 0 0.06078
3.247 1.3660001 -0.28200001 3 0 0 0 0.060789999
3.233 1.3710001 -0.28099999 2 0 0 0 0.060800001
3.234 1.382 -0.28200001 3 0 0 0 0.06081
3.2160001 1.386 -0.28 3 0 0 0 0.060819998
3.207 1.393 -0.28 4 0 0 0 0.060830001
3.237 1.416 -0.28299999 3 0 0 0 0.060839999
3.188 1.406 -0.278 2 0 0 0 0.060849998
3.1860001 1.416 -0.278 0 0 0 0 0.060860001
3.142 1.4069999 -0.27399999 1 0 0 0 0.060869999
3.1010001 1.399 -0.271 2 0 0 0 0.060880002
3.1170001 1.4170001 -0.27200001 2 0 0 0 0.06089
3.1099999 1.424 -0.27200001 2 0 0 0 0.060899999
3.128 1.443 -0.273 3 0 0 0 0.060910001
3.1129999 1.447 -0.27200001 2 0 0 0 0.06092
3.1210001 1.461 -0.27200001 3 0 0 0 0.060929999
3.099 1.461 -0.27000001 2 0 0 0 0.060940001
3.073 1.459 -0.26699999 2 0 0 0 0.06095
3.0650001 1.466 -0.266 2 0 0 0 0.060959999
3.059 1.473 -0.26499999 2 0 0 0 0.060970001
3.0710001 1.489 -0.266 2 0 0 0 0.06098
3.062 1.495 -0.264 2 0 0 0 0.060989998
3.059 1.5039999 -0.264 2 0 0 0 0.061000001
3.1010001 1.535 -0.26699999 1 0 0 0 0.061009999
0.91600001 0.456 -0.078000002 0 0 0 0 0.061020002
0.90899998 0.456 -0.078000002 0 0 0 0 0.06103
0.92000002 0.46399999 -0.078000002 4 0 0 0 0.061039999
0.91299999 0.46399999 -0.077 5 0 0 0 0.061050002
0.91900003 0.47 -0.078000002 5 0 0 0 0.06106
0.91299999 0.47 -0.077 4 0 0 0 0.061069999
0.91100001 0.472 -0.075999998 0 0 0 0 0.061080001
1.411 0.73500001 -0.118 9 0 0 0 0.06109
1.472 0.77200001 -0.123 9 0 0 0 0.061099999
0 0 0 0 0 0 0 0.061110001
3.2539999 1.728 -0.27000001 12 0 0 0 0.06112
3.24 1.7309999 -0.26800001 15 0 0 0 0.061129998
3.243 1.743 -0.26699999 13 0 0 0 0.061140001
3.2490001 1.757 -0.266 12 0 0 0 0.061149999
3.2409999 1.762 -0.264 13 0 0 0 0.061159998
3.2360001 1.77 -0.26199999 10 0 0 0 0.061170001
3.2449999 1.785 -0.26199999 10 0 0 0 0.061179999
3.253 1.8 -0.26100001 11 0 0 0 0.061190002
3.25 1.808 -0.259 6 0 0 0 0.0612
3.2420001 1.814 -0.257 3 0 0 0 0.061209999
0 0 0 0 0 0 0 0.061220001
3.2809999 1.8559999 -0.25600001 1 0 0 0 0.06123
3.2690001 1.859 -0.25299999 4 0 0 0 0.061239999
3.2679999 1.869 -0.252 9 0 0 0 0.061250001
3.2639999 1.876 -0.249 14 0 0 0 0.06126
3.2579999 1.883 -0.24699999 12 0 0 0 0.061269999
3.25 1.888 -0.244 9 0 0 0 0.061280001
1.234 0.72000003 -0.092 0 0 0 0 0.06129
3.2049999 1.88 -0.237 3 0 0 0 0.061299998
3.2460001 1.914 -0.23800001 1 0 0 0 0.061310001
0 0 0 0 0 0 0 0.061319999
1.09 0.64899999 -0.078000002 2 0 0 0 0.061330002
1.089 0.65100002 -0.077 2 0 0 0 0.06134
1.085 0.65200001 -0.075999998 1 0 0 0 0.061349999
0 0 0 0 0 0 0 0.061360002
3.2550001 1.975 -0.22400001 1 0 0 0 0.06137
3.2060001 1.954 -0.21799999 4 0 0 0 0.061379999
3.22 1.971 -0.21699999 7 0 0 0 0.061390001
3.2290001 1.9859999 -0.215 10 0 0 0 0.0614
3.227 1.993 -0.212 12 0 0 0 0.061409999
3.22 1.997 -0.20900001 12 0 0 0 0.061420001
3.22 2.006 -0.206 12 0 0 0 0.06143
3.227 2.0179999 -0.20299999 12 0 0 0 0.061439998
3.221 2.023 -0.2 9 0 0 0 0.061450001
0 0 0 0 0 0 0 0.06146
0 0 0 0 0 0 0 0.061469998
0 0 0 0 0 0 0 0.061480001
3.257 2.0780001 -0.19 1 0 0 0 0.061489999
3.25 2.0810001 -0.186 1 0 0 0 0.061500002
0 0 0 0 0 0 0 0.06151
0 0 0 0 0 0 0 0.061519999
0 0 0 0 0 0 0 0.061530001
1.489 0.96700001 -0.079000004 1 0 0 0 0.06154
1.502 0.97899997 -0.078000002 4 0 0 0 0.061549999
1.499 0.98100001 -0.077 10 0 0 0 0.061560001
1.499 0.98299998 -0.075000003 11 0 0 0 0.06157
1.4960001 0.98500001 -0.072999999 11 0 0 0 0.061579999
1.49 0.98400003 -0.071000002 10 0 0 0 0.061590001
1.482 0.98199999 -0.068999998 10 0 0 0 0.0616
1.482 0.98400003 -0.067000002 11 0 0 0 0.061609998
1.476 0.98400003 -0.064999998 10 0 0 0 0.061620001
1.477 0.98699999 -0.064000003 5 0 0 0 0.061629999
1.4680001 0.98400003 -0.061999999 1 0 0 0 0.061640002
1.472 0.98900002 -0.059999999 0 0 0 0 0.061650001
0 0 0 0 0 0 0 0.061659999
0 0 0 0 0 0 0 0.061670002
0 0 0 0 0 0 0 0.06168
0 0 0 0 0 0 0 0.061689999
1.3430001 0.91399997 -0.046999998 3 0 0 0 0.061700001
0 0 0 0 0 0 0 0.06171
0 0 0 0 0 0 0 0.061719999
0 0 0 0 0 0 0 0.061730001
0 0 0 0 0 0 0 0.06174
0 0 0 0 0 0 0 0.061749998
0 0 0 0 0 0 0 0.061760001
1.499 1.034 -0.037999999 11 0 0 0 0.06177
1.507 1.0420001 -0.037 13 0 0 0 0.061779998
1.508 1.045 -0.035 12 0 0 0 0.061790001
1.539 1.068 -0.033 0 0 0 0 0.061799999
1.563 1.086 -0.032000002 0 0 0 0 0.061810002
1.596 1.11 -0.029999999 0 0 0 0 0.06182
0 0 0 0 0 0 0 0.061829999
1.375 0.95999998 -0.022 0 0 0 0 0.061840001
1.405 0.98199999 -0.021 0 0 0 0 0.06185
1.404 0.98199999 -0.018999999 0 0 0 0 0.061859999
1.3940001 0.97600001 -0.017000001 0 0 0 0 0.061870001
1.387 0.972 -0.015 0 0 0 0 0.06188
1.399 0.98100001 -0.013 0 0 0 0 0.061889999
1.4 0.98299998 -0.011 0 0 0 0 0.061900001
1.3839999 0.972 -0.0089999996 1 0 0 0 0.06191
1.391 0.97799999 -0.0070000002 1 0 0 0 0.061919998
1.365 0.95999998 -0.0049999999 3 0 0 0 0.061930001
1.367 0.96200001 -0.003 5 0 0 0 0.061939999
1.365 0.96100003 -0.001 9 0 0 0 0.061949998
1.3609999 0.958 0 10 0 0 0 0.061960001
1.349 0.94999999 0.0020000001 10 0 0 0 0.061969999
3.039 2.142 0.0089999996 6 0 0 0 0.061980002
3.0280001 2.1340001 0.013 6 0 0 0 0.06199
3.0209999 2.1289999 0.017999999 7 0 0 0 0.061999999
3.0469999 2.1470001 0.022 7 0 0 0 0.062010001
1.058 0.745 0.0089999996 51 0 0 0 0.06202
1.021 0.71899998 0.0099999998 135 0 0 0 0.062029999
1.026 0.72299999 0.012 150 0 0 0 0.062040001
1.008 0.70899999 0.013 150 0 0 0 0.06205
1.027 0.72299999 0.015 150 0 0 0 0.062059999
1.0599999 0.74599999 0.016000001 124 0 0 0 0.062070001
1.077 0.75700003 0.017999999 99 0 0 0 0.06208
1.084 0.76200002 0.02 97 0 0 0 0.062089998
1.12 0.78600001 0.022 97 0 0 0 0.062100001
3.0439999 2.135 0.064999998 7 0 0 0 0.062109999
1.331 0.93300003 0.029999999 12 0 0 0 0.062120002
1.353 0.94700003 0.032000002 12 0 0 0 0.06213
1.373 0.95999998 0.035 11 0 0 0 0.062139999
1.385 0.96700001 0.037 11 0 0 0 0.062150002
1.388 0.96899998 0.039000001 10 0 0 0 0.06216
1.399 0.97500002 0.041000001 10 0 0 0 0.062169999
1.398 0.972 0.043000001 10 0 0 0 0.062180001
1.404 0.97500002 0.045000002 1 0 0 0 0.06219
1.404 0.97399998 0.046999998 1 0 0 0 0.062199999
1.409 0.97600001 0.048999999 1 0 0 0 0.062210001
1.413 0.977 0.050999999 1 0 0 0 0.06222
1.424 0.98299998 0.052999999 1 0 0 0 0.062229998
1.428 0.98400003 0.055 1 0 0 0 0.062240001
1.418 0.97500002 0.057 0 0 0 0 0.062249999
1.432 0.98199999 0.059 0 0 0 0 0.062259998
1.416 0.97000003 0.059999999 0 0 0 0 0.062270001
1.393 0.95200002 0.061000001 0 0 0 0 0.062279999
1.448 0.98699999 0.064999998 0 0 0 0 0.062290002
1.4349999 0.97600001 0.067000002 0 0 0 0 0.0623
1.47 0.99800003 0.07 0 0 0 0 0.062309999
1.479 1.001 0.071999997 0 0 0 0 0.062320001
1.515 1.023 0.075999998 0 0 0 0 0.06233
1.428 0.96200001 0.072999999 0 0 0 0 0.062339999
1.447 0.972 0.075999998 0 0 0 0 0.062350001
1.4450001 0.96799999 0.077 0 0 0 0 0.06236
1.459 0.97500002 0.079999998 0 0 0 0 0.062369999
1.478 0.98400003 0.082999997 0 0 0 0 0.062380001
1.472 0.97799999 0.083999999 1 0 0 0 0.06239
1.476 0.977 0.086000003 1 0 0 0 0.062399998
1.489 0.98299998 0.088 2 0 0 0 0.062410001
1.492 0.98199999 0.090000004 3 0 0 0 0.062419999
0 0 0 0 0 0 0 0.062430002
0 0 0 0 0 0 0 0.06244
0 0 0 0 0 0 0 0.062449999
0 0 0 0 0 0 0 0.062460002
3.6900001 2.388 0.242 2 0 0 0 0.06247
3.632 2.342 0.242 5 0 0 0 0.062479999
3.641 2.3399999 0.24600001 7 0 0 0 0.062490001
3.635 2.3269999 0.249 7 0 0 0 0.0625
3.6570001 2.332 0.25400001 7 0 0 0 0.062509999
3.6600001 2.325 0.25799999 7 0 0 0 0.062519997
3.658 2.3150001 0.26100001 10 0 0 0 0.062530003
3.665 2.3099999 0.264 13 0 0 0 0.062540002
3.6659999 2.3010001 0.26800001 15 0 0 0 0.062550001
3.668 2.293 0.271 17 0 0 0 0.06256
3.6719999 2.286 0.27399999 18 0 0 0 0.062569998
3.671 2.276 0.27700001 20 0 0 0 0.062579997
3.674 2.2679999 0.28099999 22 0 0 0 0.062590003
3.668 2.2550001 0.28299999 22 0 0 0 0.062600002
3.6730001 2.247 0.28600001 22 0 0 0 0.06261
3.6730001 2.237 0.289 20 0 0 0 0.062619999
3.671 2.2260001 0.292 13 0 0 0 0.062629998
3.6730001 2.217 0.294 9 0 0 0 0.062639996
3.655 2.1960001 0.29499999 6 0 0 0 0.062650003
3.642 2.178 0.29699999 4 0 0 0 0.062660001
3.652 2.1730001 0.30000001 4 0 0 0 0.06267
3.668 2.1719999 0.30399999 5 0 0 0 0.062679999
3.668 2.1619999 0.30599999 6 0 0 0 0.062689997
3.677 2.1559999 0.30899999 7 0 0 0 0.062700003
3.6619999 2.1370001 0.31 9 0 0 0 0.062710002
3.6670001 2.1289999 0.31299999 10 0 0 0 0.062720001
3.675 2.122 0.31600001 12 0 0 0 0.062729999
3.6789999 2.1129999 0.31799999 14 0 0 0 0.062739998
3.677 2.1010001 0.31999999 16 0 0 0 0.062749997
3.677 2.0899999 0.322 20 0 0 0 0.062760003
3.678 2.079 0.324 21 0 0 0 0.062770002
3.6760001 2.0669999 0.32499999 23 0 0 0 0.06278
3.6789999 2.0569999 0.32699999 21 0 0 0 0.062789999
3.6819999 2.0480001 0.329 21 0 0 0 0.062799998
3.677 2.033 0.33000001 20 0 0 0 0.062809996
3.6760001 2.0209999 0.33199999 20 0 0 0 0.062820002
3.681 2.0120001 0.33399999 20 0 0 0 0.062830001
3.684 2.0020001 0.33500001 21 0 0 0 0.06284
3.6819999 1.989 0.33700001 21 0 0 0 0.062849998
3.691 1.982 0.33899999 23 0 0 0 0.062859997
3.6900001 1.97 0.34 21 0 0 0 0.062870003
3.687 1.957 0.34099999 21 0 0 0 0.062880002
3.6889999 1.9450001 0.34200001 16 0 0 0 0.062890001
3.6860001 1.932 0.34299999 8 0 0 0 0.062899999
0.90600002 0.472 0.083999999 0 0 0 0 0.062909998
0.912 0.472 0.085000001 0 0 0 0 0.062919997
0.912 0.46900001 0.085000001 5 0 0 0 0.062930003
0.91299999 0.46700001 0.086000003 6 0 0 0 0.062940001
0.91299999 0.463 0.086000003 5 0 0 0 0.06295
0.90399998 0.456 0.085000001 3 0 0 0 0.062959999
0.91100001 0.456 0.086000003 0 0 0 0 0.062969998
3.075 1.531 0.29100001 1 0 0 0 0.062980004
3.079 1.523 0.292 2 0 0 0 0.062990002
3.079 1.513 0.292 2 0 0 0 0.063000001
3.0840001 1.505 0.29300001 3 0 0 0 0.06301
3.0880001 1.4960001 0.294 3 0 0 0 0.063019998
3.0910001 1.488 0.29499999 2 0 0 0 0.063029997
3.072 1.4680001 0.29300001 2 0 0 0 0.063040003
3.082 1.462 0.294 2 0 0 0 0.063050002
3.118 1.469 0.29800001 2 0 0 0 0.063060001
3.131 1.464 0.29899999 3 0 0 0 0.063069999
3.109 1.444 0.29699999 3 0 0 0 0.063079998
3.1259999 1.441 0.29899999 3 0 0 0 0.063089997
3.119 1.427 0.29800001 2 0 0 0 0.063100003
3.125 1.42 0.29800001 2 0 0 0 0.063110001
3.122 1.4069999 0.29800001 1 0 0 0 0.06312
3.1819999 1.424 0.303 0 0 0 0 0.063129999
3.2019999 1.4220001 0.30500001 1 0 0 0 0.063139997
1.061 0.46700001 0.101 0 0 0 0 0.063150004
3.2249999 1.41 0.30700001 3 0 0 0 0.063160002
3.237 1.405 0.308 3 0 0 0 0.063170001
3.244 1.397 0.308 3 0 0 0 0.06318
1.112 0.47499999 0.105 2 0 0 0 0.063189998
1.119 0.47400001 0.105 0 0 0 0 0.063199997
1.128 0.47400001 0.106 0 0 0 0 0.063210003
1.14 0.47499999 0.107 2 0 0 0 0.063220002
1.151 0.47600001 0.108 0 0 0 0 0.06323
1.165 0.477 0.109 0 0 0 0 0.063239999
3.313 1.347 0.31 4 0 0 0 0.063249998
3.3099999 1.335 0.30899999 5 0 0 0 0.063259996
1.207 0.48199999 0.112 3 0 0 0 0.063270003
1.211 0.47999999 0.112 4 0 0 0 0.063280001
1.235 0.48500001 0.114 5 0 0 0 0.06329
1.257 0.49000001 0.116 6 0 0 0 0.063299999
1.2819999 0.495 0.118 14 0 0 0 0.063309997
1.2869999 0.49200001 0.118 88 0 0 0 0.063320003
1.285 0.48699999 0.117 150 0 0 0 0.063330002
1.285 0.48300001 0.117 150 0 0 0 0.063340001
1.284 0.47799999 0.116 150 0 0 0 0.063349999
1.275 0.47099999 0.115 150 0 0 0 0.063359998
1.284 0.46900001 0.116 150 0 0 0 0.063369997
1.278 0.463 0.115 150 0 0 0 0.063380003
1.278 0.45899999 0.114 150 0 0 0 0.063390002
1.279 0.45500001 0.114 150 0 0 0 0.0634
1.281 0.45100001 0.113 150 0 0 0 0.063409999
1.28 0.44600001 0.113 150 0 0 0 0.063419998
1.289 0.44499999 0.113 150 0 0 0 0.063429996
1.311 0.44800001 0.114 38 0 0 0 0.063440003
1.3329999 0.45100001 0.116 7 0 0 0 0.063450001
1.351 0.45300001 0.117 6 0 0 0 0.06346
1.368 0.454 0.118 6 0 0 0 0.063469999
1.393 0.458 0.119 7 0 0 0 0.063479997
1.393 0.45300001 0.118 8 0 0 0 0.063490003
1.408 0.45300001 0.119 8 0 0 0 0.063500002
1.428 0.45500001 0.12 8 0 0 0 0.063510001
1.452 0.45699999 0.121 9 0 0 0 0.063519999
1.492 0.465 0.124 27 0 0 0 0.063529998
1.692 0.52200001 0.14 150 0 0 0 0.063539997
2.023 0.61699998 0.16599999 150 0 0 0 0.063550003
2.4809999 0.74900001 0.20299999 150 0 0 0 0.063560002
2.4820001 0.741 0.20100001 150 0 0 0 0.06357
2.4879999 0.73400003 0.2 150 0 0 0 0.063579999
2.48 0.72299999 0.198 150 0 0 0 0.063589998
2.3310001 0.67199999 0.185 150 0 0 0 0.063600004
2.2420001 0.639 0.177 150 0 0 0 0.063610002
2.2349999 0.62900001 0.175 151 0 0 0 0.063620001
2.2379999 0.62300003 0.17399999 150 0 0 0 0.06363
2.2539999 0.62 0.17399999 150 0 0 0 0.063639998
2.2679999 0.616 0.17299999 150 0 0 0 0.063649997
2.2390001 0.60100001 0.17 150 0 0 0 0.063660003
2.223 0.58899999 0.167 151 0 0 0 0.063670002
2.224 0.58200002 0.16599999 151 0 0 0 0.063680001
2.2260001 0.57499999 0.16500001 151 0 0 0 0.063689999
2.22 0.56699997 0.163 151 0 0 0 0.063699998
2.2219999 0.56 0.161 151 0 0 0 0.063709997
2.224 0.55299997 0.16 151 0 0 0 0.063720003
2.2260001 0.546 0.15899999 151 0 0 0 0.063730001
2.227 0.53899997 0.15700001 151 0 0 0 0.06374
2.224 0.53100002 0.155 150 0 0 0 0.063749999
2.2449999 0.52899998 0.155 151 0 0 0 0.063759997
2.2420001 0.51999998 0.154 151 0 0 0 0.063770004
2.2509999 0.51499999 0.153 151 0 0 0 0.063780002
2.2609999 0.50999999 0.152 150 0 0 0 0.063790001
2.348 0.52200001 0.156 24 0 0 0 0.0638
2.411 0.52899998 0.15800001 25 0 0 0 0.063809998
2.473 0.53399998 0.16 26 0 0 0 0.063819997
2.54 0.54000002 0.163 27 0 0 0 0.063830003
2.6259999 0.55000001 0.167 29 0 0 0 0.063840002
2.6960001 0.55599999 0.169 27 0 0 0 0.063850001
2.78 0.56400001 0.17200001 28 0 0 0 0.063859999
2.8469999 0.56900001 0.17399999 27 0 0 0 0.063869998
2.902 0.56999999 0.175 26 0 0 0 0.063879997
2.99 0.57800001 0.178 26 0 0 0 0.063890003
3.0669999 0.583 0.18000001 25 0 0 0 0.063900001
3.142 0.58700001 0.182 25 0 0 0 0.06391
3.194 0.58700001 0.183 24 0 0 0 0.063919999
3.25 0.58700001 0.183 25 0 0 0 0.063929997
3.2809999 0.58200002 0.182 150 0 0 0 0.063940004
3.2850001 0.57200003 0.18000001 151 0 0 0 0.063950002
3.2809999 0.56099999 0.177 151 0 0 0 0.063960001
3.289 0.55199999 0.175 151 0 0 0 0.06397
3.2869999 0.54100001 0.17200001 151 0 0 0 0.063979998
3.3099999 0.53399998 0.17 151 0 0 0 0.063989997
3.3199999 0.52499998 0.168 151 0 0 0 0.064000003
3.325 0.51499999 0.16500001 150 0 0 0 0.064010002
3.3800001 0.51300001 0.16500001 152 0 0 0 0.06402
3.3829999 0.50300002 0.162 150 0 0 0 0.064029999
3.3699999 0.49000001 0.15899999 23 0 0 0 0.064039998
3.3740001 0.47999999 0.156 38 0 0 0 0.064049996
3.382 0.47099999 0.153 151 0 0 0 0.064060003
3.3840001 0.46000001 0.15099999 152 0 0 0 0.064070001
3.3870001 0.44999999 0.148 151 0 0 0 0.06408
3.3900001 0.44 0.145 151 0 0 0 0.064089999
3.391 0.42899999 0.142 151 0 0 0 0.064099997
3.3940001 0.419 0.139 152 0 0 0 0.064110003
3.395 0.40799999 0.13600001 152 0 0 0 0.064120002
3.3959999 0.398 0.133 152 0 0 0 0.064130001
3.3940001 0.38699999 0.12899999 152 0 0 0 0.064139999
3.3940001 0.37599999 0.126 152 0 0 0 0.064149998
3.391 0.36500001 0.123 152 0 0 0 0.064159997
3.3870001 0.354 0.12 153 0 0 0 0.064170003
3.3829999 0.34299999 0.116 153 0 0 0 0.064180002
3.381 0.333 0.113 153 0 0 0 0.06419
3.382 0.322 0.11 154 0 0 0 0.064199999
3.3729999 0.31099999 0.106 154 0 0 0 0.064209998
3.369 0.30000001 0.103 154 0 0 0 0.064219996
3.3699999 0.28999999 0.098999999 154 0 0 0 0.064230002
3.3710001 0.27900001 0.096000001 154 0 0 0 0.064240001
3.372 0.26899999 0.093000002 155 0 0 0 0.06425
3.3729999 0.259 0.090000004 155 0 0 0 0.064259999
3.372 0.248 0.086000003 155 0 0 0 0.064269997
3.3729999 0.23800001 0.082999997 155 0 0 0 0.064280003
3.372 0.227 0.079000004 156 0 0 0 0.064290002
3.3640001 0.21600001 0.075999998 156 0 0 0 0.064300001
3.365 0.206 0.071999997 156 0 0 0 0.064309999
3.3759999 0.19599999 0.068999998 155 0 0 0 0.064319998
3.368 0.186 0.066 156 0 0 0 0.064329997
3.375 0.176 0.061999999 156 0 0 0 0.064340003
3.3759999 0.16500001 0.059 156 0 0 0 0.064350002
3.381 0.155 0.055 155 0 0 0 0.06436
3.381 0.145 0.052000001 155 0 0 0 0.064369999
3.3829999 0.134 0.048 154 0 0 0 0.064379998
3.3829999 0.124 0.045000002 154 0 0 0 0.064390004
3.3859999 0.114 0.041000001 154 0 0 0 0.064400002
3.398 0.104 0.037999999 153 0 0 0 0.064410001
3.4030001 0.093000002 0.034000002 153 0 0 0 0.06442
3.4030001 0.082999997 0.029999999 154 0 0 0 0.064429998
3.4070001 0.072999999 0.027000001 153 0 0 0 0.064439997
3.4119999 0.061999999 0.023 152 0 0 0 0.064450003
3.4170001 0.052000001 0.018999999 153 0 0 0 0.064460002
3.4230001 0.041999999 0.015 152 0 0 0 0.064470001
3.4189999 0.030999999 0.012 152 0 0 0 0.064479999
3.4260001 0.021 0.0080000004 151 0 0 0 0.064489998
3.418 0.0099999998 0.0040000002 151 0 0 0 0.064499997
3.4200001 0 0 151 0 0 0 0.064510003
3.4219999 -0.0089999996 -0.003 151 0 0 0 0.064520001
3.418 -0.02 -0.0060000001 151 0 0 0 0.06453
3.418 -0.029999999 -0.0099999998 151 0 0 0 0.064539999
3.424 -0.039999999 -0.014 151 0 0 0 0.064549997
3.424 -0.050999999 -0.017999999 151 0 0 0 0.064560004
3.424 -0.061000001 -0.022 151 0 0 0 0.064570002
3.428 -0.071999997 -0.026000001 151 0 0 0 0.064580001
3.431 -0.082000002 -0.029999999 151 0 0 0 0.06459
3.431 -0.092 -0.034000002 151 0 0 0 0.064599998
3.4319999 -0.103 -0.037999999 151 0 0 0 0.064609997
3.4300001 -0.113 -0.041999999 151 0 0 0 0.064620003
3.431 -0.123 -0.046 151 0 0 0 0.064630002
3.4330001 -0.134 -0.050000001 151 0 0 0 0.06464
3.4330001 -0.14399999 -0.054000001 151 0 0 0 0.064649999
3.434 -0.155 -0.059 151 0 0 0 0.064659998
3.4300001 -0.16500001 -0.063000001 151 0 0 0 0.064669997
3.405 -0.17399999 -0.066 155 0 0 0 0.064680003
3.375 -0.182 -0.07 150 0 0 0 0.064690001
3.369 -0.192 -0.074000001 151 0 0 0 0.0647
3.372 -0.20200001 -0.078000002 152 0 0 0 0.064709999
3.3559999 -0.211 -0.082000002 151 0 0 0 0.064719997
3.342 -0.221 -0.086000003 152 0 0 0 0.064730003
3.3440001 -0.23100001 -0.090000004 152 0 0 0 0.064740002
3.3399999 -0.241 -0.093999997 152 0 0 0 0.064750001
