# .PCD v0.7 - Point Cloud Data file format
VERSION 0.7
FIELDS x y z intensity normal_x normal_y normal_z curvature
SIZE 4 4 4 4 4 4 4 4
TYPE F F F F F F F F
COUNT 1 1 1 1 1 1 1 1
WIDTH 1017
HEIGHT 1
VIEWPOINT 0 0 0 1 0 0 0
POINTS 1017
DATA ascii
3.6889999 1.947 0.39300001 17 0 0 0 0.041110002
3.6849999 1.933 0.39399999 8 0 0 0 0.04112
0.90499997 0.472 0.097000003 0 0 0 0 0.041129999
0.90899998 0.47099999 0.097000003 0 0 0 0 0.041140001
0.91100001 0.46900001 0.097000003 6 0 0 0 0.04115
0.91100001 0.46599999 0.097999997 6 0 0 0 0.041159999
0.90899998 0.46200001 0.097999997 5 0 0 0 0.041170001
0.91600001 0.463 0.097999997 4 0 0 0 0.04118
0.91100001 0.45699999 0.097999997 0 0 0 0 0.041189998
0.91500002 0.456 0.097999997 0 0 0 0 0.041200001
3.069 1.5190001 0.331 2 0 0 0 0.041209999
3.079 1.5140001 0.333 2 0 0 0 0.041219998
3.0829999 1.506 0.333 2 0 0 0 0.041230001
3.076 1.492 0.333 2 0 0 0 0.041239999
3.073 1.48 0.33199999 2 0 0 0 0.041250002
3.0739999 1.47 0.33199999 2 0 0 0 0.04126
3.0869999 1.466 0.33399999 2 0 0 0 0.041269999
0.98100001 0.46200001 0.106 0 0 0 0 0.041280001
3.109 1.456 0.336 2 0 0 0 0.04129
0.995 0.46200001 0.107 0 0 0 0 0.041299999
1.007 0.465 0.108 0 0 0 0 0.041310001
1.01 0.463 0.109 0 0 0 0 0.04132
1.027 0.46700001 0.11 0 0 0 0 0.041329999
3.135 1.415 0.33700001 1 0 0 0 0.041340001
1.045 0.46799999 0.112 0 0 0 0 0.04135
1.051 0.46700001 0.112 0 0 0 0 0.041359998
1.056 0.46599999 0.113 0 0 0 0 0.041370001
1.062 0.465 0.113 0 0 0 0 0.041379999
3.2219999 1.399 0.34400001 3 0 0 0 0.041390002
1.0930001 0.47099999 0.116 0 0 0 0 0.0414
1.107 0.47299999 0.117 0 0 0 0 0.041409999
1.118 0.47400001 0.118 0 0 0 0 0.041420002
1.127 0.47400001 0.119 0 0 0 0 0.04143
1.138 0.47499999 0.12 0 0 0 0 0.041439999
1.15 0.47600001 0.121 0 0 0 0 0.041450001
1.155 0.47400001 0.121 0 0 0 0 0.04146
1.173 0.477 0.123 0 0 0 0 0.041469999
1.187 0.479 0.124 4 0 0 0 0.041480001
3.313 1.326 0.345 5 0 0 0 0.04149
1.21 0.47999999 0.125 4 0 0 0 0.041499998
1.232 0.48500001 0.127 5 0 0 0 0.041510001
1.258 0.491 0.12899999 0 0 0 0 0.04152
1.28 0.495 0.131 11 0 0 0 0.041529998
1.2869999 0.493 0.132 68 0 0 0 0.041540001
1.281 0.486 0.13 150 0 0 0 0.041549999
1.281 0.48199999 0.13 150 0 0 0 0.041560002
1.2819999 0.47799999 0.12899999 150 0 0 0 0.04157
1.281 0.47400001 0.12899999 150 0 0 0 0.041579999
1.281 0.46900001 0.12800001 150 0 0 0 0.041590001
1.284 0.46599999 0.12800001 150 0 0 0 0.0416
1.284 0.46200001 0.127 150 0 0 0 0.041609999
1.278 0.45500001 0.126 150 0 0 0 0.041620001
1.277 0.45100001 0.126 150 0 0 0 0.04163
1.279 0.447 0.125 150 0 0 0 0.041639999
1.288 0.44499999 0.125 150 0 0 0 0.041650001
1.306 0.447 0.126 46 0 0 0 0.04166
1.33 0.45100001 0.12800001 8 0 0 0 0.041669998
1.352 0.454 0.13 6 0 0 0 0.041680001
1.3710001 0.456 0.131 6 0 0 0 0.041689999
1.369 0.45100001 0.13 8 0 0 0 0.041700002
1.406 0.458 0.132 7 0 0 0 0.04171
1.405 0.45300001 0.132 8 0 0 0 0.041719999
1.4220001 0.454 0.132 8 0 0 0 0.041730002
1.442 0.45500001 0.133 9 0 0 0 0.04174
1.467 0.458 0.13500001 9 0 0 0 0.041749999
1.663 0.514 0.152 150 0 0 0 0.041760001
1.873 0.57300001 0.17 150 0 0 0 0.04177
2.4779999 0.74900001 0.22400001 150 0 0 0 0.041779999
2.4809999 0.74199998 0.222 150 0 0 0 0.041790001
2.483 0.73400003 0.221 150 0 0 0 0.0418
2.4879999 0.72799999 0.22 150 0 0 0 0.041809998
2.3729999 0.68599999 0.208 150 0 0 0 0.041820001
2.253 0.64399999 0.19599999 150 0 0 0 0.04183
2.2260001 0.62900001 0.192 151 0 0 0 0.041839998
2.23 0.62300003 0.191 150 0 0 0 0.041850001
2.2479999 0.62 0.191 150 0 0 0 0.041859999
2.266 0.61799997 0.191 150 0 0 0 0.041870002
2.2639999 0.61000001 0.189 150 0 0 0 0.04188
2.2260001 0.59299999 0.185 151 0 0 0 0.041889999
2.223 0.58399999 0.183 151 0 0 0 0.041900001
2.2249999 0.57700002 0.18099999 151 0 0 0 0.04191
2.2260001 0.56999999 0.18000001 151 0 0 0 0.041919999
2.221 0.56199998 0.178 151 0 0 0 0.041930001
2.221 0.55500001 0.176 151 0 0 0 0.04194
2.2320001 0.55000001 0.175 151 0 0 0 0.041949999
2.227 0.54100001 0.17299999 151 0 0 0 0.041960001
2.2279999 0.53399998 0.171 150 0 0 0 0.04197
2.243 0.53100002 0.171 151 0 0 0 0.041979998
2.2460001 0.52399999 0.169 151 0 0 0 0.041990001
2.2520001 0.51800001 0.168 151 0 0 0 0.041999999
2.26 0.51300001 0.167 150 0 0 0 0.042010002
2.2939999 0.51300001 0.168 28 0 0 0 0.042020001
2.3770001 0.52399999 0.17200001 20 0 0 0 0.042029999
2.4300001 0.528 0.17399999 19 0 0 0 0.042040002
2.484 0.53100002 0.175 20 0 0 0 0.04205
2.5599999 0.53899997 0.17900001 22 0 0 0 0.042059999
2.6400001 0.54799998 0.182 25 0 0 0 0.042070001
2.737 0.55900002 0.186 28 0 0 0 0.04208
2.852 0.57300001 0.192 32 0 0 0 0.042089999
2.9170001 0.57700002 0.19400001 30 0 0 0 0.042100001
3.007 0.58499998 0.197 31 0 0 0 0.04211
3.0669999 0.58700001 0.198 29 0 0 0 0.042119998
3.1170001 0.58700001 0.199 26 0 0 0 0.042130001
3.181 0.58899999 0.2 25 0 0 0 0.04214
3.24 0.58899999 0.20100001 25 0 0 0 0.042149998
3.266 0.58399999 0.2 49 0 0 0 0.042160001
3.283 0.57599998 0.198 151 0 0 0 0.042169999
3.2809999 0.56599998 0.19499999 151 0 0 0 0.042180002
3.2850001 0.55599999 0.192 151 0 0 0 0.04219
3.2839999 0.54500002 0.189 151 0 0 0 0.042199999
3.3010001 0.53799999 0.18700001 150 0 0 0 0.042210001
3.3169999 0.52999997 0.185 151 0 0 0 0.04222
3.319 0.51999998 0.182 151 0 0 0 0.042229999
3.352 0.514 0.18000001 150 0 0 0 0.042240001
3.385 0.509 0.17900001 151 0 0 0 0.04225
3.3729999 0.49599999 0.175 30 0 0 0 0.042259999
3.352 0.48300001 0.171 8 0 0 0 0.042270001
3.3800001 0.47600001 0.169 48 0 0 0 0.04228
3.382 0.46599999 0.16599999 113 0 0 0 0.042289998
3.3870001 0.456 0.163 151 0 0 0 0.042300001
3.3870001 0.44499999 0.15899999 151 0 0 0 0.042309999
3.3889999 0.435 0.156 151 0 0 0 0.042319998
3.3889999 0.42399999 0.153 151 0 0 0 0.042330001
3.388 0.414 0.149 151 0 0 0 0.042339999
3.395 0.40400001 0.146 152 0 0 0 0.042350002
3.398 0.39399999 0.14300001 152 0 0 0 0.04236
3.3929999 0.38299999 0.139 152 0 0 0 0.042369999
3.4000001 0.373 0.13600001 152 0 0 0 0.042380001
3.3959999 0.36199999 0.133 152 0 0 0 0.04239
3.392 0.35100001 0.12899999 153 0 0 0 0.042399999
3.388 0.34 0.125 153 0 0 0 0.042410001
3.3889999 0.33000001 0.122 153 0 0 0 0.04242
3.382 0.31799999 0.118 153 0 0 0 0.042429999
3.372 0.30700001 0.114 154 0 0 0 0.042440001
3.3740001 0.29699999 0.111 154 0 0 0 0.04245
3.372 0.28600001 0.107 154 0 0 0 0.042459998
3.3740001 0.27599999 0.103 154 0 0 0 0.042470001
3.372 0.266 0.1 154 0 0 0 0.042479999
3.3729999 0.255 0.096000001 155 0 0 0 0.042490002
3.3729999 0.245 0.092 154 0 0 0 0.0425
3.375 0.235 0.089000002 155 0 0 0 0.042509999
3.3759999 0.22400001 0.085000001 155 0 0 0 0.042520002
3.378 0.214 0.082000002 156 0 0 0 0.04253
3.365 0.20299999 0.078000002 156 0 0 0 0.042539999
3.3740001 0.19400001 0.074000001 155 0 0 0 0.042550001
3.3759999 0.183 0.07 156 0 0 0 0.04256
3.3800001 0.17299999 0.067000002 155 0 0 0 0.042569999
3.381 0.163 0.063000001 155 0 0 0 0.042580001
3.3800001 0.153 0.059 155 0 0 0 0.04259
3.3829999 0.14300001 0.055 154 0 0 0 0.042599998
3.385 0.132 0.052000001 154 0 0 0 0.042610001
3.3889999 0.122 0.048 154 0 0 0 0.042619999
3.3889999 0.112 0.044 154 0 0 0 0.042629998
3.401 0.102 0.039999999 153 0 0 0 0.042640001
3.3970001 0.092 0.035999998 153 0 0 0 0.042649999
3.4030001 0.082000002 0.032000002 153 0 0 0 0.042660002
3.4070001 0.071000002 0.028000001 153 0 0 0 0.04267
3.415 0.061000001 0.024 152 0 0 0 0.042679999
3.418 0.050999999 0.02 152 0 0 0 0.042690001
3.418 0.041000001 0.016000001 152 0 0 0 0.0427
3.4219999 0.029999999 0.012 152 0 0 0 0.042709999
3.418 0.02 0.0080000004 151 0 0 0 0.042720001
3.418 0.0099999998 0.0040000002 151 0 0 0 0.04273
3.4200001 0 0 151 0 0 0 0.042739999
3.418 -0.0099999998 -0.003 151 0 0 0 0.042750001
3.418 -0.02 -0.0070000002 151 0 0 0 0.04276
3.4189999 -0.029999999 -0.011 151 0 0 0 0.042769998
3.424 -0.039999999 -0.016000001 151 0 0 0 0.042780001
3.424 -0.050999999 -0.02 151 0 0 0 0.042789999
3.424 -0.061000001 -0.024 151 0 0 0 0.042800002
3.427 -0.071999997 -0.028000001 151 0 0 0 0.04281
3.431 -0.082000002 -0.033 151 0 0 0 0.042819999
3.431 -0.092 -0.037 151 0 0 0 0.042830002
3.428 -0.102 -0.041000001 151 0 0 0 0.04284
3.431 -0.113 -0.046 151 0 0 0 0.042849999
3.4300001 -0.123 -0.050000001 151 0 0 0 0.042860001
3.4330001 -0.133 -0.054000001 151 0 0 0 0.04287
3.4319999 -0.14300001 -0.059 151 0 0 0 0.042879999
3.4319999 -0.154 -0.063000001 151 0 0 0 0.042890001
3.434 -0.164 -0.067000002 151 0 0 0 0.0429
3.402 -0.17200001 -0.071000002 155 0 0 0 0.042909998
3.388 -0.182 -0.075000003 150 0 0 0 0.042920001
3.369 -0.191 -0.079000004 151 0 0 0 0.04293
3.369 -0.20100001 -0.083999999 152 0 0 0 0.042939998
3.368 -0.211 -0.088 151 0 0 0 0.042950001
3.345 -0.219 -0.092 152 0 0 0 0.042959999
3.3469999 -0.229 -0.096000001 152 0 0 0 0.042970002
3.3429999 -0.23899999 -0.101 152 0 0 0 0.04298
3.3380001 -0.248 -0.105 153 0 0 0 0.042989999
3.3340001 -0.25799999 -0.109 150 0 0 0 0.043000001
3.2520001 -0.26100001 -0.111 150 0 0 0 0.04301
3.234 -0.26899999 -0.115 151 0 0 0 0.043019999
3.2320001 -0.27900001 -0.119 151 0 0 0 0.043030001
3.2379999 -0.289 -0.124 151 0 0 0 0.04304
3.234 -0.29800001 -0.12800001 151 0 0 0 0.043049999
3.2360001 -0.308 -0.133 151 0 0 0 0.043060001
3.237 -0.31799999 -0.13699999 151 0 0 0 0.04307
3.2060001 -0.324 -0.14 150 0 0 0 0.043079998
3.211 -0.33399999 -0.145 150 0 0 0 0.043090001
3.2079999 -0.34299999 -0.149 151 0 0 0 0.043099999
3.2079999 -0.35299999 -0.154 151 0 0 0 0.043110002
3.2079999 -0.36199999 -0.15800001 151 0 0 0 0.043120001
3.2090001 -0.37200001 -0.163 150 0 0 0 0.043129999
2.9219999 -0.347 -0.152 150 0 0 0 0.043140002
2.5880001 -0.315 -0.139 23 0 0 0 0.04315
2.5369999 -0.31600001 -0.14 22 0 0 0 0.043159999
2.5009999 -0.31900001 -0.141 25 0 0 0 0.043170001
2.4519999 -0.31999999 -0.142 23 0 0 0 0.04318
2.415 -0.322 -0.14300001 19 0 0 0 0.043189999
2.3710001 -0.32300001 -0.14399999 20 0 0 0 0.043200001
2.3640001 -0.329 -0.147 20 0 0 0 0.04321
2.3640001 -0.336 -0.15099999 17 0 0 0 0.043219998
2.3610001 -0.34299999 -0.154 17 0 0 0 0.043230001
2.359 -0.34900001 -0.15700001 15 0 0 0 0.04324
2.3629999 -0.35699999 -0.161 15 0 0 0 0.043249998
2.3570001 -0.36300001 -0.164 18 0 0 0 0.043260001
2.3629999 -0.37 -0.168 17 0 0 0 0.043269999
2.3610001 -0.377 -0.17200001 18 0 0 0 0.043280002
2.3599999 -0.384 -0.175 21 0 0 0 0.04329
2.3640001 -0.39199999 -0.17900001 22 0 0 0 0.043299999
2.3670001 -0.39899999 -0.183 17 0 0 0 0.043310001
2.369 -0.40599999 -0.18700001 14 0 0 0 0.04332
2.3859999 -0.41600001 -0.192 13 0 0 0 0.043329999
2.385 -0.42300001 -0.19599999 13 0 0 0 0.043340001
2.3759999 -0.428 -0.199 16 0 0 0 0.04335
2.3670001 -0.433 -0.20200001 20 0 0 0 0.043359999
2.3699999 -0.44100001 -0.206 22 0 0 0 0.043370001
2.3640001 -0.447 -0.20900001 21 0 0 0 0.04338
2.3670001 -0.454 -0.213 19 0 0 0 0.043389998
2.3710001 -0.46200001 -0.21699999 18 0 0 0 0.043400001
2.369 -0.46799999 -0.221 17 0 0 0 0.043409999
2.3699999 -0.47499999 -0.22499999 17 0 0 0 0.043419998
2.3740001 -0.48300001 -0.229 19 0 0 0 0.043430001
2.3629999 -0.48800001 -0.23199999 22 0 0 0 0.043439999
2.3729999 -0.49700001 -0.237 18 0 0 0 0.043450002
2.375 -0.50400001 -0.241 14 0 0 0 0.04346
2.372 -0.50999999 -0.244 15 0 0 0 0.043469999
2.369 -0.51599997 -0.248 16 0 0 0 0.043480001
2.3710001 -0.52399999 -0.252 15 0 0 0 0.04349
2.375 -0.53200001 -0.25600001 13 0 0 0 0.043499999
2.3740001 -0.53799999 -0.25999999 17 0 0 0 0.043510001
2.3740001 -0.54500002 -0.264 20 0 0 0 0.04352
2.3740001 -0.55199999 -0.26800001 24 0 0 0 0.043529999
2.3759999 -0.55900002 -0.273 26 0 0 0 0.043540001
2.3710001 -0.565 -0.27599999 28 0 0 0 0.04355
2.375 -0.57300001 -0.28099999 27 0 0 0 0.043559998
2.3770001 -0.57999998 -0.285 20 0 0 0 0.043570001
2.378 -0.58700001 -0.289 18 0 0 0 0.043579999
2.3800001 -0.59399998 -0.294 22 0 0 0 0.043590002
2.378 -0.60100001 -0.29800001 22 0 0 0 0.0436
2.378 -0.60799998 -0.30199999 16 0 0 0 0.043609999
2.378 -0.61400002 -0.30599999 17 0 0 0 0.043620002
2.3740001 -0.62 -0.31 19 0 0 0 0.04363
2.375 -0.62699997 -0.31400001 18 0 0 0 0.043639999
2.378 -0.63499999 -0.31900001 21 0 0 0 0.043650001
2.3789999 -0.64200002 -0.324 24 0 0 0 0.04366
2.375 -0.64700001 -0.32699999 23 0 0 0 0.043669999
2.3759999 -0.65399998 -0.33199999 21 0 0 0 0.043680001
2.3770001 -0.662 -0.336 21 0 0 0 0.04369
2.381 -0.66900003 -0.34099999 21 0 0 0 0.043699998
2.3770001 -0.67500001 -0.345 22 0 0 0 0.043710001
2.381 -0.68300003 -0.34999999 25 0 0 0 0.043719999
2.378 -0.68900001 -0.354 24 0 0 0 0.043729998
2.3840001 -0.69700003 -0.359 23 0 0 0 0.043740001
2.381 -0.70300001 -0.36399999 19 0 0 0 0.043749999
2.381 -0.70999998 -0.368 20 0 0 0 0.043760002
2.381 -0.71700001 -0.373 23 0 0 0 0.04377
2.381 -0.72299999 -0.377 24 0 0 0 0.043779999
2.3829999 -0.73000002 -0.382 22 0 0 0 0.043790001
2.3829999 -0.73699999 -0.38699999 19 0 0 0 0.0438
2.3870001 -0.745 -0.39199999 17 0 0 0 0.043809999
2.382 -0.75 -0.396 16 0 0 0 0.043820001
2.3900001 -0.759 -0.40200001 17 0 0 0 0.04383
2.3859999 -0.76499999 -0.40599999 19 0 0 0 0.043839999
2.3859999 -0.77100003 -0.41100001 19 0 0 0 0.043850001
2.3870001 -0.778 -0.41499999 21 0 0 0 0.04386
2.3859999 -0.78399998 -0.41999999 23 0 0 0 0.043869998
2.3829999 -0.79000002 -0.42399999 24 0 0 0 0.043880001
2.3889999 -0.79900002 -0.43000001 22 0 0 0 0.043889999
2.3900001 -0.80500001 -0.435 21 0 0 0 0.043900002
2.385 -0.81 -0.43900001 22 0 0 0 0.04391
2.3900001 -0.81900001 -0.44499999 22 0 0 0 0.043919999
2.3889999 -0.82499999 -0.44999999 22 0 0 0 0.043930002
2.3929999 -0.833 -0.456 22 0 0 0 0.04394
2.388 -0.83700001 -0.46000001 23 0 0 0 0.043949999
2.395 -0.84600002 -0.46599999 23 0 0 0 0.043960001
2.395 -0.85299999 -0.47099999 22 0 0 0 0.04397
2.392 -0.85799998 -0.47499999 20 0 0 0 0.043979999
2.395 -0.866 -0.48100001 18 0 0 0 0.043990001
2.392 -0.87099999 -0.48500001 18 0 0 0 0.044
2.395 -0.87900001 -0.491 17 0 0 0 0.044009998
2.401 -0.88700002 -0.498 17 0 0 0 0.044020001
2.408 -0.89600003 -0.50400001 12 0 0 0 0.04403
2.408 -0.90200001 -0.509 11 0 0 0 0.044039998
2.3989999 -0.90600002 -0.51300001 17 0 0 0 0.044050001
2.3940001 -0.91000003 -0.51700002 21 0 0 0 0.044059999
2.3959999 -0.917 -0.52200001 22 0 0 0 0.044070002
2.3970001 -0.92299998 -0.528 21 0 0 0 0.04408
2.398 -0.93000001 -0.53299999 20 0 0 0 0.044089999
2.3970001 -0.93599999 -0.53799999 20 0 0 0 0.044100001
2.3970001 -0.94199997 -0.54400003 20 0 0 0 0.04411
2.398 -0.94800001 -0.54900002 19 0 0 0 0.044119999
2.3959999 -0.954 -0.55400002 21 0 0 0 0.044130001
2.398 -0.96100003 -0.56 25 0 0 0 0.04414
2.401 -0.96799999 -0.56599998 23 0 0 0 0.044149999
2.3959999 -0.972 -0.56999999 24 0 0 0 0.044160001
2.398 -0.97899997 -0.57599998 27 0 0 0 0.04417
2.4030001 -0.98699999 -0.583 25 0 0 0 0.044179998
2.3989999 -0.991 -0.58700001 21 0 0 0 0.044190001
2.401 -0.99800003 -0.59299999 24 0 0 0 0.044199999
2.4000001 -1.003 -0.59899998 27 0 0 0 0.044210002
2.404 -1.011 -0.60500002 26 0 0 0 0.044220001
2.4000001 -1.015 -0.61000001 23 0 0 0 0.044229999
2.408 -1.024 -0.61699998 23 0 0 0 0.044240002
2.3989999 -1.026 -0.62099999 24 0 0 0 0.04425
2.402 -1.033 -0.62699997 29 0 0 0 0.044259999
2.402 -1.039 -0.63300002 25 0 0 0 0.044270001
2.405 -1.046 -0.639 23 0 0 0 0.04428
2.405 -1.052 -0.64499998 24 0 0 0 0.044289999
2.4030001 -1.056 -0.64999998 24 0 0 0 0.044300001
2.402 -1.061 -0.65499997 23 0 0 0 0.04431
2.405 -1.068 -0.662 20 0 0 0 0.044319998
2.402 -1.073 -0.667 19 0 0 0 0.044330001
2.4070001 -1.08 -0.67400002 24 0 0 0 0.04434
2.4030001 -1.084 -0.67900002 24 0 0 0 0.044349998
2.402 -1.0880001 -0.68400002 24 0 0 0 0.044360001
2.405 -1.095 -0.69099998 22 0 0 0 0.044369999
2.4059999 -1.101 -0.69700003 18 0 0 0 0.044380002
2.4070001 -1.1059999 -0.70300001 17 0 0 0 0.04439
2.4089999 -1.112 -0.70899999 22 0 0 0 0.044399999
2.4089999 -1.118 -0.71499997 25 0 0 0 0.044410001
2.3959999 -1.117 -0.71700001 24 0 0 0 0.04442
2.3840001 -1.1160001 -0.71899998 51 0 0 0 0.044429999
2.322 -1.092 -0.70599997 150 0 0 0 0.044440001
2.319 -1.095 -0.71100003 150 0 0 0 0.04445
1.119 -0.52999997 -0.345 40 0 0 0 0.044459999
1.118 -0.53200001 -0.34799999 4 0 0 0 0.044470001
1.112 -0.53200001 -0.34900001 5 0 0 0 0.04448
1.107 -0.53100002 -0.34999999 5 0 0 0 0.044489998
1.11 -0.53500003 -0.35299999 5 0 0 0 0.044500001
1.112 -0.53799999 -0.35699999 4 0 0 0 0.044509999
1.11 -0.53899997 -0.359 3 0 0 0 0.044520002
1.11 -0.54100001 -0.36199999 2 0 0 0 0.044530001
1.109 -0.54299998 -0.36399999 2 0 0 0 0.044539999
1.109 -0.54500002 -0.36700001 2 0 0 0 0.044550002
1.1160001 -0.55000001 -0.37099999 4 0 0 0 0.04456
1.114 -0.551 -0.37400001 6 0 0 0 0.044569999
1.1109999 -0.551 -0.375 6 0 0 0 0.044580001
1.108 -0.55199999 -0.377 6 0 0 0 0.04459
1.11 -0.55400002 -0.38 6 0 0 0 0.044599999
1.109 -0.55599999 -0.38299999 6 0 0 0 0.044610001
1.103 -0.55500001 -0.38299999 5 0 0 0 0.04462
1.1059999 -0.55800003 -0.38699999 4 0 0 0 0.044629999
1.103 -0.55800003 -0.389 4 0 0 0 0.044640001
1.1059999 -0.56099999 -0.39199999 3 0 0 0 0.04465
1.103 -0.56099999 -0.39399999 3 0 0 0 0.044659998
1.102 -0.56199998 -0.396 2 0 0 0 0.044670001
1.099 -0.56199998 -0.398 2 0 0 0 0.044679999
1.098 -0.56300002 -0.40000001 2 0 0 0 0.044690002
1.096 -0.56400001 -0.40200001 2 0 0 0 0.0447
1.094 -0.56400001 -0.403 2 0 0 0 0.044709999
1.094 -0.56599998 -0.40599999 2 0 0 0 0.044720002
1.092 -0.56599998 -0.40799999 2 0 0 0 0.04473
1.092 -0.56699997 -0.41100001 2 0 0 0 0.044739999
1.092 -0.56800002 -0.41299999 2 0 0 0 0.044750001
1.086 -0.56699997 -0.41299999 1 0 0 0 0.04476
1.082 -0.56599998 -0.414 2 0 0 0 0.044769999
1.087 -0.56900001 -0.41800001 15 0 0 0 0.044780001
2.0810001 -1.092 -0.80699998 150 0 0 0 0.04479
2.069 -1.0880001 -0.80599999 150 0 0 0 0.044799998
2.063 -1.087 -0.80900002 150 0 0 0 0.044810001
2.049 -1.081 -0.80800003 51 0 0 0 0.044819999
2.0309999 -1.073 -0.80500001 13 0 0 0 0.044829998
2.0320001 -1.075 -0.81 27 0 0 0 0.044840001
2.0209999 -1.071 -0.81 28 0 0 0 0.044849999
2.016 -1.0700001 -0.81199998 29 0 0 0 0.044860002
2.006 -1.066 -0.81199998 28 0 0 0 0.04487
1.9910001 -1.0599999 -0.81099999 29 0 0 0 0.044879999
1.98 -1.0549999 -0.81 29 0 0 0 0.044890001
1.972 -1.052 -0.81099999 29 0 0 0 0.0449
1.954 -1.044 -0.80800003 28 0 0 0 0.044909999
1.949 -1.0420001 -0.81 28 0 0 0 0.044920001
1.938 -1.0369999 -0.80900002 29 0 0 0 0.04493
1.9349999 -1.036 -0.81199998 29 0 0 0 0.044939999
1.925 -1.031 -0.81099999 30 0 0 0 0.044950001
1.913 -1.025 -0.81 30 0 0 0 0.04496
1.901 -1.0190001 -0.80900002 30 0 0 0 0.044969998
1.892 -1.015 -0.80800003 31 0 0 0 0.044980001
1.8839999 -1.011 -0.80900002 33 0 0 0 0.044989999
1.876 -1.008 -0.80900002 33 0 0 0 0.045000002
1.867 -1.003 -0.80800003 32 0 0 0 0.04501
1.859 -0.99900001 -0.80800003 31 0 0 0 0.045019999
1.853 -0.995 -0.80900002 31 0 0 0 0.045030002
1.846 -0.991 -0.80900002 31 0 0 0 0.04504
1.842 -0.98900002 -0.81099999 31 0 0 0 0.045049999
1.8329999 -0.98400003 -0.81 31 0 0 0 0.045060001
1.824 -0.97899997 -0.80900002 31 0 0 0 0.04507
1.816 -0.97500002 -0.80800003 31 0 0 0 0.045079999
1.814 -0.97299999 -0.81 31 0 0 0 0.045090001
1.806 -0.96799999 -0.81 31 0 0 0 0.0451
1.801 -0.96499997 -0.81 32 0 0 0 0.045109998
1.794 -0.96100003 -0.81 32 0 0 0 0.045120001
1.786 -0.95599997 -0.80900002 31 0 0 0 0.04513
1.781 -0.95200002 -0.80900002 31 0 0 0 0.045139998
1.779 -0.94999999 -0.81099999 32 0 0 0 0.045150001
1.768 -0.94300002 -0.80800003 32 0 0 0 0.045159999
1.766 -0.94099998 -0.81 32 0 0 0 0.045170002
1.758 -0.93599999 -0.80800003 32 0 0 0 0.04518
1.753 -0.93199998 -0.80800003 32 0 0 0 0.045189999
1.749 -0.92900002 -0.80900002 32 0 0 0 0.045200001
1.744 -0.92500001 -0.80900002 32 0 0 0 0.04521
1.7410001 -0.921 -0.80900002 32 0 0 0 0.045219999
1.734 -0.91600001 -0.80800003 32 0 0 0 0.045230001
1.733 -0.91399997 -0.81 32 0 0 0 0.04524
1.73 -0.91100001 -0.81 33 0 0 0 0.045249999
1.724 -0.90600002 -0.80900002 33 0 0 0 0.045260001
1.723 -0.90399998 -0.81 33 0 0 0 0.04527
1.719 -0.89999998 -0.81 30 0 0 0 0.045279998
1.7180001 -0.898 -0.81099999 27 0 0 0 0.045290001
1.714 -0.89399999 -0.81099999 28 0 0 0 0.045299999
1.711 -0.88999999 -0.81099999 30 0 0 0 0.045310002
1.71 -0.88800001 -0.81199998 32 0 0 0 0.04532
1.705 -0.88300002 -0.81099999 34 0 0 0 0.045329999
1.7029999 -0.87900001 -0.81099999 34 0 0 0 0.045340002
1.7029999 -0.87699997 -0.81199998 34 0 0 0 0.04535
1.699 -0.87300003 -0.81099999 34 0 0 0 0.045359999
1.694 -0.86799997 -0.81 34 0 0 0 0.045370001
1.692 -0.86400002 -0.81 35 0 0 0 0.04538
1.691 -0.86199999 -0.81099999 34 0 0 0 0.045389999
1.6900001 -0.85900003 -0.81099999 33 0 0 0 0.045400001
1.6900001 -0.85600001 -0.81199998 34 0 0 0 0.04541
1.691 -0.85299999 -0.81300002 34 0 0 0 0.045419998
1.684 -0.847 -0.81 34 0 0 0 0.045430001
1.687 -0.84600002 -0.81199998 34 0 0 0 0.04544
1.678 -0.83899999 -0.80800003 34 0 0 0 0.045449998
1.679 -0.83600003 -0.80900002 15 0 0 0 0.045460001
1.642 -0.815 -0.79100001 28 0 0 0 0.045469999
1.582 -0.78200001 -0.76300001 58 0 0 0 0.045480002
1.49 -0.73400003 -0.71899998 63 0 0 0 0.04549
1.27 -0.62300003 -0.61299998 22 0 0 0 0.045499999
1.15 -0.56199998 -0.55500001 14 0 0 0 0.045510001
1.119 -0.54500002 -0.54000002 7 0 0 0 0.04552
1.118 -0.542 -0.53899997 5 0 0 0 0.045529999
1.118 -0.54000002 -0.54000002 6 0 0 0 0.045540001
1.12 -0.53899997 -0.54000002 6 0 0 0 0.04555
1.119 -0.53600001 -0.54000002 7 0 0 0 0.045559999
1.1160001 -0.53200001 -0.53799999 7 0 0 0 0.045570001
1.119 -0.53200001 -0.53899997 7 0 0 0 0.04558
1.119 -0.52899998 -0.53899997 7 0 0 0 0.045589998
1.146 -0.53899997 -0.551 17 0 0 0 0.045600001
1.279 -0.59899998 -0.61500001 44 0 0 0 0.045609999
1.508 -0.70300001 -0.72500002 91 0 0 0 0.045620002
1.607 -0.74599999 -0.77100003 61 0 0 0 0.045630001
1.6849999 -0.778 -0.80800003 19 0 0 0 0.045639999
1.6950001 -0.77999997 -0.81199998 34 0 0 0 0.045650002
1.699 -0.778 -0.81300002 34 0 0 0 0.04566
1.697 -0.77200001 -0.81099999 31 0 0 0 0.045669999
1.704 -0.77200001 -0.81400001 32 0 0 0 0.045680001
1.706 -0.76899999 -0.81300002 34 0 0 0 0.04569
1.707 -0.76499999 -0.81300002 33 0 0 0 0.045699999
1.71 -0.76300001 -0.81300002 33 0 0 0 0.045710001
1.714 -0.75999999 -0.81400001 34 0 0 0 0.04572
1.7130001 -0.75599998 -0.81199998 34 0 0 0 0.045729998
1.719 -0.75400001 -0.81300002 32 0 0 0 0.045740001
1.722 -0.75099999 -0.81300002 33 0 0 0 0.04575
1.724 -0.74800003 -0.81300002 33 0 0 0 0.045759998
1.733 -0.74800003 -0.815 33 0 0 0 0.045770001
1.735 -0.74400002 -0.815 32 0 0 0 0.045779999
1.743 -0.74299997 -0.81699997 33 0 0 0 0.045790002
1.7460001 -0.74000001 -0.81599998 33 0 0 0 0.0458
1.75 -0.73799998 -0.81599998 33 0 0 0 0.045809999
1.752 -0.73400003 -0.815 34 0 0 0 0.045820002
1.762 -0.73400003 -0.81800002 34 0 0 0 0.04583
1.765 -0.73100001 -0.81800002 34 0 0 0 0.045839999
1.767 -0.727 -0.81599998 34 0 0 0 0.045850001
1.7690001 -0.72299999 -0.815 33 0 0 0 0.04586
1.778 -0.722 -0.81699997 33 0 0 0 0.045869999
1.78 -0.71899998 -0.81599998 33 0 0 0 0.045880001
1.784 -0.71600002 -0.815 34 0 0 0 0.04589
1.7920001 -0.71399999 -0.81699997 32 0 0 0 0.045899998
1.801 -0.713 -0.81800002 32 0 0 0 0.045910001
1.8049999 -0.70999998 -0.81800002 32 0 0 0 0.045919999
1.808 -0.70599997 -0.81599998 31 0 0 0 0.045929998
1.813 -0.704 -0.81599998 31 0 0 0 0.045940001
1.8200001 -0.70099998 -0.81599998 31 0 0 0 0.045949999
1.8279999 -0.69999999 -0.81699997 29 0 0 0 0.045960002
1.836 -0.69800001 -0.81800002 31 0 0 0 0.04597
1.841 -0.69499999 -0.81800002 31 0 0 0 0.045979999
1.848 -0.69300002 -0.81800002 31 0 0 0 0.045990001
1.851 -0.68900001 -0.81599998 33 0 0 0 0.046
1.86 -0.68800002 -0.81699997 33 0 0 0 0.046009999
1.872 -0.68699998 -0.81900001 33 0 0 0 0.046020001
1.876 -0.68400002 -0.81800002 33 0 0 0 0.04603
1.886 -0.68199998 -0.81900001 32 0 0 0 0.046039999
1.895 -0.68099999 -0.81999999 34 0 0 0 0.046050001
1.9 -0.67699999 -0.81900001 32 0 0 0 0.04606
1.906 -0.67500001 -0.81800002 32 0 0 0 0.046069998
1.915 -0.67299998 -0.81800002 32 0 0 0 0.046080001
1.925 -0.671 -0.81900001 34 0 0 0 0.046089999
1.937 -0.67000002 -0.81999999 33 0 0 0 0.046100002
1.9450001 -0.66799998 -0.81999999 32 0 0 0 0.04611
1.95 -0.66399997 -0.81900001 31 0 0 0 0.046119999
1.9579999 -0.662 -0.81900001 32 0 0 0 0.046130002
1.97 -0.66100001 -0.81999999 32 0 0 0 0.04614
1.977 -0.65799999 -0.81900001 32 0 0 0 0.046149999
1.989 -0.65700001 -0.81999999 32 0 0 0 0.046160001
1.994 -0.653 -0.81800002 32 0 0 0 0.04617
2.0079999 -0.653 -0.81999999 33 0 0 0 0.046179999
2.02 -0.65100002 -0.82099998 33 0 0 0 0.046190001
2.029 -0.648 -0.81999999 32 0 0 0 0.0462
2.0409999 -0.64700001 -0.82099998 32 0 0 0 0.046209998
2.053 -0.64499998 -0.82099998 32 0 0 0 0.046220001
2.0639999 -0.64399999 -0.82200003 32 0 0 0 0.04623
2.0739999 -0.64099997 -0.82099998 30 0 0 0 0.046239998
2.0869999 -0.63999999 -0.82200003 31 0 0 0 0.046250001
2.0929999 -0.63599998 -0.81999999 31 0 0 0 0.046259999
2.1099999 -0.63599998 -0.82200003 31 0 0 0 0.046270002
2.125 -0.63499999 -0.824 32 0 0 0 0.04628
2.135 -0.63300002 -0.82300001 32 0 0 0 0.046289999
2.148 -0.63099998 -0.82300001 31 0 0 0 0.046300001
2.1619999 -0.63 -0.824 30 0 0 0 0.04631
2.181 -0.62900001 -0.82599998 31 0 0 0 0.046319999
2.1900001 -0.62599999 -0.82499999 31 0 0 0 0.046330001
2.2060001 -0.625 -0.82599998 32 0 0 0 0.04634
2.2160001 -0.62300003 -0.82499999 31 0 0 0 0.046349999
2.233 -0.62199998 -0.82599998 29 0 0 0 0.046360001
2.2449999 -0.62 -0.82599998 29 0 0 0 0.04637
2.2609999 -0.61799997 -0.82599998 26 0 0 0 0.046379998
2.277 -0.61699998 -0.82700002 26 0 0 0 0.046390001
2.2909999 -0.61500001 -0.82700002 26 0 0 0 0.046399999
2.302 -0.61199999 -0.82499999 26 0 0 0 0.046410002
2.319 -0.611 -0.82599998 26 0 0 0 0.04642
2.336 -0.61000001 -0.82700002 26 0 0 0 0.046429999
2.348 -0.60699999 -0.82599998 26 0 0 0 0.046440002
2.3610001 -0.60500002 -0.82499999 27 0 0 0 0.04645
2.3640001 -0.60000002 -0.81999999 27 0 0 0 0.046459999
2.3729999 -0.59600002 -0.81699997 22 0 0 0 0.046470001
2.369 -0.58899999 -0.81 18 0 0 0 0.04648
2.3659999 -0.583 -0.80400002 17 0 0 0 0.046489999
2.3740001 -0.579 -0.801 17 0 0 0 0.046500001
2.3670001 -0.57099998 -0.792 21 0 0 0 0.04651
2.3670001 -0.56599998 -0.787 26 0 0 0 0.046519998
2.368 -0.56 -0.78100002 27 0 0 0 0.046530001
2.3670001 -0.55400002 -0.77499998 25 0 0 0 0.04654
2.369 -0.54900002 -0.76999998 23 0 0 0 0.046549998
2.3670001 -0.54299998 -0.764 21 0 0 0 0.046560001
2.3659999 -0.537 -0.75700003 16 0 0 0 0.046569999
2.368 -0.53200001 -0.75199997 18 0 0 0 0.046580002
2.3670001 -0.52600002 -0.74599999 24 0 0 0 0.04659
2.365 -0.51999998 -0.74000001 25 0 0 0 0.046599999
2.3659999 -0.51499999 -0.73400003 23 0 0 0 0.046610001
2.3629999 -0.509 -0.727 21 0 0 0 0.04662
2.3629999 -0.50300002 -0.72100002 20 0 0 0 0.046629999
2.3659999 -0.49900001 -0.71600002 20 0 0 0 0.046640001
2.3640001 -0.493 -0.70999998 18 0 0 0 0.04665
2.3710001 -0.48899999 -0.70599997 16 0 0 0 0.046659999
2.369 -0.48300001 -0.699 16 0 0 0 0.046670001
2.3629999 -0.47600001 -0.69099998 16 0 0 0 0.04668
2.3670001 -0.472 -0.68699998 17 0 0 0 0.046689998
2.3629999 -0.46599999 -0.67900002 17 0 0 0 0.046700001
2.3640001 -0.461 -0.67400002 18 0 0 0 0.046709999
2.3599999 -0.454 -0.667 19 0 0 0 0.046720002
2.3640001 -0.44999999 -0.66100001 22 0 0 0 0.046730001
2.359 -0.44400001 -0.65399998 23 0 0 0 0.046739999
2.359 -0.43799999 -0.648 24 0 0 0 0.046750002
2.362 -0.43399999 -0.64300001 27 0 0 0 0.04676
2.3599999 -0.428 -0.63599998 26 0 0 0 0.046769999
2.3610001 -0.42300001 -0.63 24 0 0 0 0.046780001
2.362 -0.41800001 -0.62400001 22 0 0 0 0.04679
2.359 -0.41299999 -0.61799997 22 0 0 0 0.046799999
2.3610001 -0.40799999 -0.61199999 24 0 0 0 0.046810001
2.362 -0.403 -0.60600001 23 0 0 0 0.04682
2.3599999 -0.398 -0.59899998 24 0 0 0 0.046829998
2.359 -0.39199999 -0.59299999 23 0 0 0 0.046840001
2.358 -0.38699999 -0.58600003 20 0 0 0 0.04685
2.3610001 -0.38299999 -0.58099997 18 0 0 0 0.046859998
2.362 -0.37799999 -0.57499999 19 0 0 0 0.046870001
2.3599999 -0.373 -0.56800002 19 0 0 0 0.046879999
2.3629999 -0.368 -0.56300002 18 0 0 0 0.046890002
2.3599999 -0.36300001 -0.55599999 17 0 0 0 0.0469
2.3599999 -0.35800001 -0.55000001 16 0 0 0 0.046909999
2.3610001 -0.35299999 -0.54400003 17 0 0 0 0.046920002
2.3599999 -0.34799999 -0.537 16 0 0 0 0.04693
2.3610001 -0.34299999 -0.53100002 17 0 0 0 0.046939999
2.362 -0.338 -0.52499998 18 0 0 0 0.046950001
2.3759999 -0.33500001 -0.52200001 15 0 0 0 0.04696
2.3759999 -0.331 -0.51499999 16 0 0 0 0.046969999
2.3859999 -0.32699999 -0.51099998 15 0 0 0 0.046980001
2.4189999 -0.32699999 -0.51200002 17 0 0 0 0.04699
2.4460001 -0.32600001 -0.51099998 17 0 0 0 0.046999998
2.4760001 -0.32499999 -0.51099998 17 0 0 0 0.047010001
2.5009999 -0.32300001 -0.509 19 0 0 0 0.047019999
2.5309999 -0.322 -0.509 20 0 0 0 0.047029998
2.553 -0.31999999 -0.50599998 21 0 0 0 0.047040001
2.7909999 -0.34400001 -0.546 137 0 0 0 0.047049999
2.8989999 -0.35100001 -0.55900002 150 0 0 0 0.047060002
3.1270001 -0.373 -0.59500003 151 0 0 0 0.04707
3.207 -0.37599999 -0.60100001 150 0 0 0 0.047079999
3.2090001 -0.37 -0.59299999 150 0 0 0 0.047090001
3.2090001 -0.36399999 -0.58399999 150 0 0 0 0.0471
3.21 -0.35800001 -0.57599998 150 0 0 0 0.047109999
3.2119999 -0.352 -0.56800002 150 0 0 0 0.047120001
3.2119999 -0.34599999 -0.55900002 151 0 0 0 0.04713
3.2060001 -0.33899999 -0.54900002 150 0 0 0 0.047139999
3.2090001 -0.333 -0.54100001 150 0 0 0 0.047150001
3.224 -0.329 -0.53500003 150 0 0 0 0.04716
3.2409999 -0.324 -0.52899998 151 0 0 0 0.047169998
3.24 -0.31799999 -0.51999998 151 0 0 0 0.047180001
3.2390001 -0.31200001 -0.51099998 151 0 0 0 0.047189999
3.2320001 -0.30500001 -0.50099999 151 0 0 0 0.047200002
3.233 -0.29899999 -0.49200001 150 0 0 0 0.04721
3.2360001 -0.294 -0.484 151 0 0 0 0.047219999
3.2360001 -0.28799999 -0.47499999 151 0 0 0 0.047230002
3.233 -0.28099999 -0.46599999 151 0 0 0 0.04724
3.2349999 -0.27599999 -0.45699999 151 0 0 0 0.047249999
3.234 -0.27000001 -0.44800001 150 0 0 0 0.047260001
3.2709999 -0.26699999 -0.44499999 52 0 0 0 0.04727
3.3280001 -0.26499999 -0.44299999 150 0 0 0 0.047279999
3.3299999 -0.25999999 -0.43399999 151 0 0 0 0.047290001
3.3299999 -0.25299999 -0.42500001 151 0 0 0 0.0473
3.335 -0.248 -0.417 151 0 0 0 0.047309998
3.3329999 -0.242 -0.40700001 151 0 0 0 0.047320001
3.3380001 -0.236 -0.39899999 151 0 0 0 0.04733
3.3329999 -0.23 -0.389 151 0 0 0 0.047339998
3.332 -0.22400001 -0.38 151 0 0 0 0.047350001
3.346 -0.219 -0.37200001 150 0 0 0 0.047359999
3.3629999 -0.214 -0.36399999 151 0 0 0 0.047370002
3.3659999 -0.208 -0.35600001 151 0 0 0 0.04738
3.3659999 -0.20200001 -0.34599999 151 0 0 0 0.047389999
3.3670001 -0.197 -0.33700001 151 0 0 0 0.047400001
3.369 -0.191 -0.32800001 151 0 0 0 0.04741
3.365 -0.185 -0.31799999 150 0 0 0 0.047419999
3.4159999 -0.182 -0.31400001 150 0 0 0 0.047430001
3.4319999 -0.177 -0.30599999 152 0 0 0 0.04744
3.4319999 -0.171 -0.296 151 0 0 0 0.047449999
3.4319999 -0.16500001 -0.28600001 151 0 0 0 0.047460001
3.4319999 -0.15899999 -0.27700001 151 0 0 0 0.04747
3.431 -0.153 -0.26699999 151 0 0 0 0.047479998
3.4319999 -0.148 -0.25799999 151 0 0 0 0.047490001
3.4300001 -0.142 -0.248 151 0 0 0 0.047499999
3.4360001 -0.13600001 -0.23899999 151 0 0 0 0.047510002
3.434 -0.13 -0.229 151 0 0 0 0.04752
3.4319999 -0.125 -0.22 151 0 0 0 0.047529999
3.4319999 -0.119 -0.20999999 151 0 0 0 0.047540002
3.4319999 -0.113 -0.20100001 151 0 0 0 0.04755
3.431 -0.108 -0.191 151 0 0 0 0.047559999
3.4219999 -0.102 -0.18099999 151 0 0 0 0.047570001
3.428 -0.096000001 -0.17200001 151 0 0 0 0.04758
3.428 -0.090999998 -0.162 151 0 0 0 0.047589999
3.424 -0.085000001 -0.152 151 0 0 0 0.047600001
3.425 -0.079000004 -0.14300001 151 0 0 0 0.04761
3.4300001 -0.074000001 -0.133 151 0 0 0 0.047619998
3.424 -0.068000004 -0.123 151 0 0 0 0.047630001
3.4260001 -0.063000001 -0.114 151 0 0 0 0.04764
3.4289999 -0.057 -0.104 151 0 0 0 0.047649998
3.4300001 -0.052000001 -0.094999999 151 0 0 0 0.047660001
3.4200001 -0.046 -0.085000001 151 0 0 0 0.047669999
3.425 -0.041000001 -0.075000003 151 0 0 0 0.047680002
3.4260001 -0.035 -0.066 151 0 0 0 0.04769
3.424 -0.029999999 -0.056000002 151 0 0 0 0.047699999
3.424 -0.025 -0.046 151 0 0 0 0.047710001
3.4260001 -0.018999999 -0.035999998 151 0 0 0 0.04772
3.4260001 -0.014 -0.027000001 151 0 0 0 0.047729999
3.4260001 -0.0089999996 -0.017000001 151 0 0 0 0.047740001
3.424 -0.003 -0.0070000002 151 0 0 0 0.04775
3.4230001 0.001 0.001 151 0 0 0 0.047759999
3.4230001 0.0060000001 0.011 152 0 0 0 0.047770001
3.4230001 0.012 0.021 152 0 0 0 0.04778
3.4219999 0.017000001 0.030999999 152 0 0 0 0.047789998
3.4230001 0.022 0.039999999 152 0 0 0 0.047800001
3.424 0.027000001 0.050000001 152 0 0 0 0.047809999
3.4230001 0.033 0.059999999 152 0 0 0 0.047820002
3.4260001 0.037999999 0.07 152 0 0 0 0.047830001
3.4219999 0.043000001 0.079999998 152 0 0 0 0.047839999
3.425 0.048 0.090000004 152 0 0 0 0.047850002
3.4230001 0.052999999 0.098999999 152 0 0 0 0.04786
3.4219999 0.057999998 0.109 152 0 0 0 0.047869999
3.424 0.064000003 0.119 152 0 0 0 0.047880001
3.4230001 0.068999998 0.12899999 152 0 0 0 0.04789
3.4200001 0.074000001 0.138 152 0 0 0 0.047899999
3.4189999 0.079000004 0.148 152 0 0 0 0.047910001
3.4200001 0.083999999 0.15800001 152 0 0 0 0.04792
3.418 0.089000002 0.168 152 0 0 0 0.047929998
3.4189999 0.093999997 0.178 152 0 0 0 0.047940001
3.4189999 0.098999999 0.18799999 152 0 0 0 0.04795
3.418 0.104 0.198 151 0 0 0 0.047959998
3.4189999 0.109 0.208 152 0 0 0 0.047970001
3.4159999 0.113 0.21799999 151 0 0 0 0.047979999
3.4170001 0.118 0.228 151 0 0 0 0.047990002
3.418 0.123 0.23800001 151 0 0 0 0.048
3.4159999 0.12800001 0.24699999 151 0 0 0 0.048009999
3.415 0.133 0.257 151 0 0 0 0.048020002
3.415 0.138 0.26699999 151 0 0 0 0.04803
3.4200001 0.14300001 0.278 151 0 0 0 0.048039999
3.4130001 0.148 0.287 151 0 0 0 0.048050001
3.4170001 0.152 0.29800001 151 0 0 0 0.04806
3.4170001 0.15700001 0.308 151 0 0 0 0.048069999
3.4200001 0.162 0.31799999 151 0 0 0 0.048080001
3.4189999 0.167 0.32800001 151 0 0 0 0.04809
3.418 0.17200001 0.338 151 0 0 0 0.048099998
3.4159999 0.176 0.34799999 151 0 0 0 0.048110001
3.418 0.18099999 0.35800001 151 0 0 0 0.048119999
3.415 0.185 0.368 151 0 0 0 0.048129998
3.418 0.19 0.37799999 151 0 0 0 0.048140001
3.4159999 0.19499999 0.38800001 151 0 0 0 0.048149999
3.414 0.199 0.398 151 0 0 0 0.048160002
3.4159999 0.204 0.40900001 151 0 0 0 0.04817
3.4130001 0.20900001 0.41800001 151 0 0 0 0.048179999
3.4130001 0.213 0.42899999 151 0 0 0 0.048190001
3.411 0.21799999 0.43900001 151 0 0 0 0.0482
3.4159999 0.223 0.44999999 151 0 0 0 0.048209999
3.4130001 0.227 0.45899999 151 0 0 0 0.048220001
3.414 0.23100001 0.47 151 0 0 0 0.04823
3.4130001 0.236 0.47999999 151 0 0 0 0.048239999
3.4119999 0.23999999 0.49000001 151 0 0 0 0.048250001
3.4089999 0.245 0.5 151 0 0 0 0.04826
3.4119999 0.249 0.51099998 151 0 0 0 0.048269998
3.414 0.25400001 0.52100003 151 0 0 0 0.048280001
3.4130001 0.25799999 0.53100002 151 0 0 0 0.048289999
3.411 0.26199999 0.54100001 151 0 0 0 0.048300002
3.4100001 0.26699999 0.55199999 151 0 0 0 0.04831
3.411 0.271 0.56199998 151 0 0 0 0.048319999
3.411 0.27500001 0.57300001 151 0 0 0 0.048330002
3.411 0.28 0.583 151 0 0 0 0.04834
3.4089999 0.28400001 0.59299999 151 0 0 0 0.048349999
3.4059999 0.28799999 0.60299999 151 0 0 0 0.048360001
3.4089999 0.292 0.61400002 151 0 0 0 0.04837
3.4119999 0.29699999 0.625 151 0 0 0 0.048379999
3.4100001 0.301 0.63499999 150 0 0 0 0.048390001
3.4100001 0.30500001 0.64600003 150 0 0 0 0.0484
3.408 0.30899999 0.65600002 150 0 0 0 0.048409998
3.4100001 0.31299999 0.667 150 0 0 0 0.048420001
3.4070001 0.317 0.67699999 151 0 0 0 0.04843
3.408 0.322 0.68699998 150 0 0 0 0.048439998
3.404 0.32499999 0.69700003 150 0 0 0 0.048450001
3.405 0.329 0.708 151 0 0 0 0.048459999
3.4030001 0.333 0.71799999 150 0 0 0 0.048470002
3.404 0.33700001 0.72899997 150 0 0 0 0.04848
3.408 0.34200001 0.741 150 0 0 0 0.048489999
3.4100001 0.34599999 0.75199997 150 0 0 0 0.048500001
3.4089999 0.34999999 0.76200002 150 0 0 0 0.04851
3.4059999 0.354 0.77200001 150 0 0 0 0.048519999
3.4030001 0.35699999 0.78200001 150 0 0 0 0.048530001
3.405 0.361 0.79299998 150 0 0 0 0.04854
3.4059999 0.36500001 0.80400002 150 0 0 0 0.048549999
3.402 0.36899999 0.81400001 150 0 0 0 0.048560001
3.405 0.373 0.82599998 150 0 0 0 0.04857
3.4059999 0.377 0.83700001 150 0 0 0 0.048579998
3.4059999 0.38 0.847 150 0 0 0 0.048590001
3.4030001 0.384 0.85799998 150 0 0 0 0.048599999
3.404 0.38800001 0.86900002 150 0 0 0 0.048610002
3.4000001 0.391 0.87800002 150 0 0 0 0.04862
3.3970001 0.39399999 0.88800001 150 0 0 0 0.048629999
3.4030001 0.398 0.90100002 150 0 0 0 0.048640002
3.401 0.40200001 0.91100001 150 0 0 0 0.04865
3.4059999 0.40599999 0.92400002 150 0 0 0 0.048659999
3.3970001 0.40900001 0.93199998 150 0 0 0 0.048670001
3.402 0.41299999 0.94400001 150 0 0 0 0.04868
3.402 0.41600001 0.95499998 150 0 0 0 0.048689999
3.4030001 0.41999999 0.96700001 150 0 0 0 0.048700001
3.4000001 0.42300001 0.97600001 150 0 0 0 0.04871
3.402 0.42699999 0.98799998 150 0 0 0 0.048719998
3.3989999 0.43000001 0.99800003 150 0 0 0 0.048730001
3.4059999 0.43399999 1.011 150 0 0 0 0.04874
3.4030001 0.43700001 1.021 150 0 0 0 0.048749998
3.402 0.44 1.0319999 150 0 0 0 0.048760001
3.401 0.44299999 1.043 150 0 0 0 0.048769999
3.3959999 0.44600001 1.053 150 0 0 0 0.048780002
3.398 0.449 1.064 150 0 0 0 0.04879
3.3959999 0.45199999 1.075 150 0 0 0 0.048799999
3.4000001 0.456 1.087 150 0 0 0 0.048810001
3.4030001 0.46000001 1.099 150 0 0 0 0.04882
3.3989999 0.46200001 1.109 150 0 0 0 0.048829999
3.3970001 0.465 1.12 150 0 0 0 0.048840001
3.4000001 0.46799999 1.132 150 0 0 0 0.04885
3.402 0.472 1.1440001 150 0 0 0 0.048859999
3.401 0.47400001 1.155 150 0 0 0 0.048870001
3.4000001 0.477 1.166 150 0 0 0 0.04888
3.4000001 0.47999999 1.177 150 0 0 0 0.048889998
3.401 0.48300001 1.189 150 0 0 0 0.048900001
3.402 0.486 1.2 150 0 0 0 0.048909999
3.398 0.48800001 1.21 150 0 0 0 0.048920002
3.4030001 0.49200001 1.223 150 0 0 0 0.048930001
3.405 0.495 1.235 150 0 0 0 0.048939999
3.402 0.49700001 1.245 150 0 0 0 0.048950002
3.3929999 0.498 1.253 150 0 0 0 0.04896
3.3770001 0.49900001 1.2589999 84 0 0 0 0.048969999
3.3499999 0.49700001 1.26 94 0 0 0 0.048980001
3.335 0.49700001 1.265 150 0 0 0 0.04899
3.335 0.5 1.276 150 0 0 0 0.048999999
3.3329999 0.50199997 1.286 150 0 0 0 0.049010001
3.3099999 0.50099999 1.289 150 0 0 0 0.04902
3.3010001 0.50199997 1.2970001 150 0 0 0 0.049029998
3.2980001 0.50400001 1.306 150 0 0 0 0.049040001
3.302 0.50599998 1.319 150 0 0 0 0.04905
3.3039999 0.509 1.331 150 0 0 0 0.049059998
3.302 0.51099998 1.341 150 0 0 0 0.049070001
3.3080001 0.514 1.354 150 0 0 0 0.049079999
3.306 0.51599997 1.365 150 0 0 0 0.049090002
3.3050001 0.51700002 1.375 150 0 0 0 0.0491
3.303 0.51899999 1.386 150 0 0 0 0.049109999
3.3050001 0.52100003 1.398 150 0 0 0 0.049120001
3.3050001 0.523 1.408 150 0 0 0 0.04913
3.302 0.52499998 1.419 150 0 0 0 0.049139999
3.3099999 0.528 1.433 150 0 0 0 0.049150001
3.309 0.52899998 1.443 150 0 0 0 0.04916
3.303 0.52999997 1.452 150 0 0 0 0.049169999
3.306 0.53200001 1.464 150 0 0 0 0.049180001
3.302 0.53299999 1.474 150 0 0 0 0.04919
3.309 0.53600001 1.488 150 0 0 0 0.049199998
3.303 0.53600001 1.4960001 150 0 0 0 0.049210001
3.306 0.53799999 1.508 150 0 0 0 0.049219999
3.3039999 0.53899997 1.5190001 150 0 0 0 0.049229998
3.3039999 0.54100001 1.529 150 0 0 0 0.049240001
3.3050001 0.542 1.541 150 0 0 0 0.049249999
3.3039999 0.54299998 1.552 150 0 0 0 0.049260002
3.302 0.54400003 1.562 150 0 0 0 0.04927
3.3010001 0.54500002 1.572 150 0 0 0 0.049279999
3.299 0.546 1.582 150 0 0 0 0.049290001
3.2920001 0.546 1.59 150 0 0 0 0.0493
3.2739999 0.54400003 1.592 93 0 0 0 0.049309999
3.2539999 0.54100001 1.5930001 92 0 0 0 0.049320001
3.2279999 0.53799999 1.59 91 0 0 0 0.04933
3.207 0.53500003 1.591 91 0 0 0 0.049339999
3.1849999 0.53200001 1.59 90 0 0 0 0.049350001
3.1670001 0.52999997 1.592 92 0 0 0 0.04936
3.1470001 0.52700001 1.592 92 0 0 0 0.049369998
3.132 0.52499998 1.594 94 0 0 0 0.049380001
3.1099999 0.52200001 1.5930001 94 0 0 0 0.049389999
3.089 0.51899999 1.5930001 93 0 0 0 0.049400002
3.0710001 0.51599997 1.5930001 92 0 0 0 0.04941
3.0539999 0.514 1.594 95 0 0 0 0.049419999
3.033 0.50999999 1.5930001 99 0 0 0 0.049430002
3.017 0.50800002 1.594 98 0 0 0 0.04944
2.9990001 0.505 1.594 96 0 0 0 0.049449999
2.9779999 0.50199997 1.592 95 0 0 0 0.049460001
2.967 0.5 1.596 98 0 0 0 0.04947
2.9489999 0.49700001 1.595 94 0 0 0 0.049479999
2.9300001 0.49399999 1.594 101 0 0 0 0.049490001
2.9159999 0.491 1.596 100 0 0 0 0.0495
2.9030001 0.48899999 1.597 95 0 0 0 0.049509998
2.882 0.48500001 1.595 97 0 0 0 0.049520001
2.865 0.48199999 1.595 96 0 0 0 0.049529999
2.8499999 0.479 1.594 97 0 0 0 0.049539998
2.836 0.47600001 1.595 97 0 0 0 0.049550001
2.8210001 0.47299999 1.596 104 0 0 0 0.049559999
2.806 0.47 1.596 106 0 0 0 0.049570002
2.79 0.46700001 1.595 107 0 0 0 0.04958
2.7739999 0.46399999 1.594 105 0 0 0 0.049589999
2.767 0.46200001 1.598 105 0 0 0 0.049600001
2.7490001 0.458 1.596 104 0 0 0 0.04961
2.7360001 0.45500001 1.596 100 0 0 0 0.049619999
2.723 0.45199999 1.596 117 0 0 0 0.049630001
2.7079999 0.449 1.595 109 0 0 0 0.04964
2.6949999 0.44600001 1.595 103 0 0 0 0.049649999
2.684 0.44299999 1.596 114 0 0 0 0.049660001
2.671 0.44 1.596 113 0 0 0 0.04967
2.6530001 0.43599999 1.5930001 119 0 0 0 0.049679998
2.6440001 0.433 1.595 122 0 0 0 0.049690001
2.6359999 0.43099999 1.597 117 0 0 0 0.049699999
2.618 0.42699999 1.5930001 122 0 0 0 0.049710002
2.6129999 0.42500001 1.597 134 0 0 0 0.04972
2.599 0.421 1.595 121 0 0 0 0.049729999
2.5880001 0.41800001 1.595 124 0 0 0 0.049740002
2.575 0.414 1.594 124 0 0 0 0.04975
2.5710001 0.412 1.598 124 0 0 0 0.049759999
2.5599999 0.40900001 1.597 127 0 0 0 0.049770001
2.5469999 0.40599999 1.596 126 0 0 0 0.04978
2.5369999 0.40200001 1.596 116 0 0 0 0.049789999
2.527 0.39899999 1.595 118 0 0 0 0.049800001
2.516 0.39500001 1.594 129 0 0 0 0.04981
2.506 0.39199999 1.594 127 0 0 0 0.049819998
2.5009999 0.38999999 1.596 125 0 0 0 0.049830001
2.4909999 0.38600001 1.596 142 0 0 0 0.04984
2.48 0.38299999 1.594 133 0 0 0 0.049849998
2.4719999 0.38 1.595 135 0 0 0 0.049860001
2.4660001 0.377 1.596 146 0 0 0 0.049869999
2.4560001 0.373 1.595 137 0 0 0 0.049880002
2.451 0.37 1.597 142 0 0 0 0.04989
2.4430001 0.36700001 1.596 137 0 0 0 0.049899999
2.4360001 0.36399999 1.597 149 0 0 0 0.049910001
2.431 0.361 1.598 139 0 0 0 0.04992
2.424 0.35800001 1.598 147 0 0 0 0.049929999
2.4159999 0.354 1.598 137 0 0 0 0.049940001
2.4119999 0.35100001 1.6 143 0 0 0 0.04995
2.4030001 0.34799999 1.598 131 0 0 0 0.049959999
2.3989999 0.345 1.6 135 0 0 0 0.049970001
2.391 0.34099999 1.598 134 0 0 0 0.04998
2.382 0.338 1.596 138 0 0 0 0.049989998
2.378 0.33500001 1.598 133 0 0 0 0.050000001
2.3770001 0.33199999 1.601 131 0 0 0 0.050009999
2.369 0.32800001 1.599 132 0 0 0 0.050020002
2.3629999 0.32499999 1.598 130 0 0 0 0.050030001
2.355 0.32100001 1.596 130 0 0 0 0.050039999
2.3540001 0.31799999 1.599 136 0 0 0 0.050050002
2.346 0.315 1.597 129 0 0 0 0.05006
2.3410001 0.31099999 1.596 141 0 0 0 0.050069999
2.3410001 0.30899999 1.599 147 0 0 0 0.050080001
2.336 0.30500001 1.599 149 0 0 0 0.05009
2.332 0.30199999 1.598 146 0 0 0 0.050099999
2.332 0.29899999 1.601 145 0 0 0 0.050110001
2.323 0.29499999 1.597 134 0 0 0 0.05012
2.322 0.292 1.599 144 0 0 0 0.050129998
2.3210001 0.289 1.6 145 0 0 0 0.050140001
2.3180001 0.28600001 1.6 141 0 0 0 0.05015
2.3139999 0.28200001 1.599 148 0 0 0 0.050159998
2.3139999 0.27900001 1.601 143 0 0 0 0.050170001
2.306 0.27500001 1.597 144 0 0 0 0.050179999
2.3050001 0.27200001 1.598 147 0 0 0 0.050190002
2.3050001 0.26899999 1.599 142 0 0 0 0.0502
2.302 0.26499999 1.599 146 0 0 0 0.050209999
2.299 0.26199999 1.598 136 0 0 0 0.050220001
2.299 0.259 1.599 141 0 0 0 0.05023
2.296 0.255 1.598 136 0 0 0 0.050239999
2.2980001 0.252 1.6 135 0 0 0 0.050250001
2.296 0.249 1.599 138 0 0 0 0.05026
2.2980001 0.24600001 1.601 140 0 0 0 0.050269999
2.296 0.242 1.6 140 0 0 0 0.050280001
2.296 0.23899999 1.6 137 0 0 0 0.05029
2.296 0.236 1.6 134 0 0 0 0.050299998
2.296 0.233 1.6 139 0 0 0 0.050310001
2.2969999 0.229 1.601 150 0 0 0 0.050319999
2.2969999 0.226 1.601 142 0 0 0 0.050330002
2.2980001 0.223 1.601 142 0 0 0 0.050340001
2.3 0.22 1.602 145 0 0 0 0.050349999
2.2980001 0.21600001 1.6 141 0 0 0 0.050360002
2.3010001 0.213 1.601 146 0 0 0 0.05037
2.302 0.20999999 1.601 140 0 0 0 0.050379999
2.302 0.206 1.6 138 0 0 0 0.050390001
2.3039999 0.20299999 1.6 137 0 0 0 0.0504
2.3050001 0.2 1.599 139 0 0 0 0.050409999
2.3050001 0.19599999 1.599 140 0 0 0 0.050420001
2.309 0.193 1.599 150 0 0 0 0.05043
2.312 0.19 1.6 150 0 0 0 0.050439999
2.312 0.18700001 1.598 144 0 0 0 0.050450001
2.3139999 0.183 1.598 150 0 0 0 0.05046
2.3150001 0.18000001 1.597 141 0 0 0 0.050469998
2.3239999 0.177 1.6 141 0 0 0 0.050480001
2.3280001 0.17399999 1.601 137 0 0 0 0.050489999
2.3310001 0.171 1.601 146 0 0 0 0.050500002
2.3299999 0.167 1.598 123 0 0 0 0.05051
2.335 0.164 1.598 139 0 0 0 0.050519999
2.3410001 0.161 1.6 141 0 0 0 0.050530002
2.348 0.15800001 1.601 141 0 0 0 0.05054
2.349 0.155 1.6 133 0 0 0 0.050549999
2.3529999 0.15099999 1.599 141 0 0 0 0.050560001
2.3559999 0.148 1.598 133 0 0 0 0.05057
2.365 0.145 1.601 128 0 0 0 0.050579999
2.369 0.142 1.6 132 0 0 0 0.050590001
2.372 0.139 1.598 126 0 0 0 0.0506
2.3789999 0.13600001 1.599 133 0 0 0 0.050609998
2.3870001 0.133 1.601 136 0 0 0 0.050620001
2.392 0.13 1.601 126 0 0 0 0.050629999
2.398 0.127 1.6 133 0 0 0 0.050639998
2.404 0.123 1.6 140 0 0 0 0.050650001
2.411 0.12 1.6 135 0 0 0 0.050659999
2.4159999 0.117 1.6 128 0 0 0 0.050670002
2.424 0.114 1.6 127 0 0 0 0.05068
2.4330001 0.111 1.602 124 0 0 0 0.050689999
2.438 0.108 1.6 122 0 0 0 0.050700001
2.4460001 0.105 1.601 129 0 0 0 0.05071
2.4489999 0.102 1.598 120 0 0 0 0.050719999
2.461 0.098999999 1.6 118 0 0 0 0.050730001
2.464 0.096000001 1.597 121 0 0 0 0.05074
2.4749999 0.093000002 1.599 134 0 0 0 0.050749999
2.483 0.090000004 1.599 129 0 0 0 0.050760001
2.4879999 0.086999997 1.596 128 0 0 0 0.05077
2.4990001 0.083999999 1.598 128 0 0 0 0.050779998
2.51 0.081 1.599 131 0 0 0 0.050790001
2.5179999 0.078000002 1.598 135 0 0 0 0.050799999
2.527 0.075000003 1.598 114 0 0 0 0.050810002
2.536 0.071999997 1.598 115 0 0 0 0.05082
2.549 0.068999998 1.6 112 0 0 0 0.050829999
2.556 0.066 1.598 112 0 0 0 0.050840002
2.566 0.063000001 1.598 116 0 0 0 0.05085
2.5780001 0.059999999 1.599 114 0 0 0 0.050859999
2.589 0.057 1.599 118 0 0 0 0.050870001
2.5999999 0.055 1.6 112 0 0 0 0.05088
2.609 0.052000001 1.598 109 0 0 0 0.050889999
2.6229999 0.048999999 1.6 108 0 0 0 0.050900001
2.6359999 0.046 1.601 105 0 0 0 0.05091
2.6440001 0.043000001 1.599 98 0 0 0 0.050919998
2.6559999 0.041000001 1.599 96 0 0 0 0.050930001
2.6700001 0.037999999 1.6 95 0 0 0 0.05094
2.681 0.035 1.599 97 0 0 0 0.050949998
2.6960001 0.032000002 1.6 99 0 0 0 0.050960001
2.7049999 0.028999999 1.598 95 0 0 0 0.050969999
2.7219999 0.027000001 1.601 101 0 0 0 0.050980002
2.73 0.024 1.598 94 0 0 0 0.05099
2.747 0.021 1.6 93 0 0 0 0.050999999
2.76 0.018999999 1.599 90 0 0 0 0.051010001
2.773 0.016000001 1.598 87 0 0 0 0.05102
2.7909999 0.013 1.601 87 0 0 0 0.051029999
2.806 0.0099999998 1.601 87 0 0 0 0.051040001
2.8180001 0.0080000004 1.6 85 0 0 0 0.05105
2.835 0.0049999999 1.601 85 0 0 0 0.051059999
2.8540001 0.003 1.603 87 0 0 0 0.051070001
2.865 0 1.6 88 0 0 0 0.05108
2.8770001 -0.0020000001 1.598 89 0 0 0 0.051089998
2.8970001 -0.0040000002 1.601 92 0 0 0 0.051100001
2.9100001 -0.0070000002 1.599 87 0 0 0 0.051109999
2.9300001 -0.0099999998 1.601 86 0 0 0 0.051120002
2.948 -0.012 1.602 83 0 0 0 0.051130001
2.964 -0.015 1.601 85 0 0 0 0.051139999
2.9790001 -0.017000001 1.6 84 0 0 0 0.051150002
3 -0.02 1.601 82 0 0 0 0.05116
3.0150001 -0.022 1.6 82 0 0 0 0.051169999
3.0320001 -0.025 1.6 84 0 0 0 0.051180001
3.053 -0.028000001 1.601 86 0 0 0 0.05119
3.0699999 -0.029999999 1.6 82 0 0 0 0.051199999
3.092 -0.033 1.602 84 0 0 0 0.051210001
3.109 -0.035 1.6 84 0 0 0 0.05122
3.1340001 -0.037999999 1.603 82 0 0 0 0.051229998
3.1500001 -0.039999999 1.601 84 0 0 0 0.051240001
3.1689999 -0.041999999 1.6 85 0 0 0 0.05125
3.1860001 -0.045000002 1.598 84 0 0 0 0.051259998
3.2090001 -0.046999998 1.6 84 0 0 0 0.051270001
