# .PCD v0.7 - Point Cloud Data file format
VERSION 0.7
FIELDS x y z intensity normal_x normal_y normal_z curvature
SIZE 4 4 4 4 4 4 4 4
TYPE F F F F F F F F
COUNT 1 1 1 1 1 1 1 1
WIDTH 1012
HEIGHT 1
VIEWPOINT 0 0 0 1 0 0 0
POINTS 1012
DATA ascii
0.71499997 -0.447 -0.045000002 0 0 0 0 0.054529998
0.70200002 -0.44 -0.045000002 0 0 0 0 0.054540001
0.71799999 -0.45199999 -0.046999998 0 0 0 0 0.05455
0.70099998 -0.44299999 -0.046999998 0 0 0 0 0.054559998
0.69800001 -0.442 -0.048 0 0 0 0 0.054570001
0.69700003 -0.44299999 -0.048999999 0 0 0 0 0.054579999
0.69599998 -0.44400001 -0.050000001 0 0 0 0 0.054590002
0.69499999 -0.44499999 -0.050999999 0 0 0 0 0.0546
0.69099998 -0.44299999 -0.050999999 0 0 0 0 0.054609999
0.69 -0.44400001 -0.052000001 0 0 0 0 0.054620001
0.68699998 -0.44400001 -0.052999999 0 0 0 0 0.05463
0.67799997 -0.44 -0.054000001 0 0 0 0 0.054639999
0.68800002 -0.447 -0.055 0 0 0 0 0.054650001
0.68000001 -0.44299999 -0.056000002 0 0 0 0 0.05466
0.67900002 -0.44400001 -0.057 0 0 0 0 0.054669999
0.68199998 -0.447 -0.057999998 0 0 0 0 0.054680001
0.68099999 -0.44800001 -0.059 0 0 0 0 0.05469
0.67699999 -0.44600001 -0.059999999 0 0 0 0 0.054699998
0.67400002 -0.44600001 -0.059999999 0 0 0 0 0.054710001
0.67900002 -0.44999999 -0.061999999 0 0 0 0 0.054719999
0.67500001 -0.449 -0.061999999 0 0 0 0 0.054730002
0.65700001 -0.43799999 -0.061999999 0 0 0 0 0.054740001
0.67400002 -0.44999999 -0.064000003 0 0 0 0 0.054749999
0.67000002 -0.44800001 -0.064999998 0 0 0 0 0.054760002
0.68199998 -0.45699999 -0.067000002 0 0 0 0 0.05477
0.676 -0.454 -0.068000004 0 0 0 0 0.054779999
0.68300003 -0.46000001 -0.07 0 0 0 0 0.054790001
0.67500001 -0.45500001 -0.07 0 0 0 0 0.0548
0.68000001 -0.45899999 -0.071000002 0 0 0 0 0.054809999
0.68199998 -0.461 -0.072999999 0 0 0 0 0.054820001
0.67400002 -0.45699999 -0.072999999 0 0 0 0 0.05483
0.68699998 -0.46700001 -0.075000003 0 0 0 0 0.054839998
0.73400003 -0.49900001 -0.082000002 0 0 0 0 0.054850001
0.773 -0.52600002 -0.086999997 0 0 0 0 0.05486
0.86299998 -0.58899999 -0.098999999 0 0 0 0 0.054869998
1.052 -0.71899998 -0.122 2 0 0 0 0.054880001
1.173 -0.80199999 -0.138 8 0 0 0 0.054889999
1.166 -0.79799998 -0.139 9 0 0 0 0.054900002
1.1849999 -0.81199998 -0.14300001 10 0 0 0 0.05491
1.176 -0.80699998 -0.14399999 9 0 0 0 0.054919999
1.173 -0.80500001 -0.145 8 0 0 0 0.054930001
1.1720001 -0.80500001 -0.147 7 0 0 0 0.05494
1.1619999 -0.79900002 -0.147 7 0 0 0 0.054949999
1.173 -0.80699998 -0.15099999 7 0 0 0 0.054960001
1.177 -0.81 -0.153 7 0 0 0 0.05497
1.181 -0.81300002 -0.155 7 0 0 0 0.054979999
1.183 -0.815 -0.15700001 5 0 0 0 0.054990001
1.183 -0.815 -0.15899999 4 0 0 0 0.055
1.184 -0.81599998 -0.161 4 0 0 0 0.055009998
1.182 -0.815 -0.162 4 0 0 0 0.055020001
1.184 -0.81699997 -0.164 4 0 0 0 0.055029999
1.183 -0.81599998 -0.16599999 4 0 0 0 0.055039998
1.183 -0.81599998 -0.167 4 0 0 0 0.055050001
1.182 -0.815 -0.169 4 0 0 0 0.055059999
1.181 -0.815 -0.171 4 0 0 0 0.055070002
1.181 -0.81400001 -0.17200001 4 0 0 0 0.05508
1.181 -0.81400001 -0.17399999 4 0 0 0 0.055089999
1.182 -0.81400001 -0.176 4 0 0 0 0.055100001
1.183 -0.815 -0.177 4 0 0 0 0.05511
1.177 -0.81 -0.178 4 0 0 0 0.055119999
1.182 -0.81199998 -0.18000001 4 0 0 0 0.055130001
1.1799999 -0.81099999 -0.182 4 0 0 0 0.05514
1.178 -0.80900002 -0.183 4 0 0 0 0.055149999
1.1799999 -0.81 -0.185 4 0 0 0 0.055160001
1.181 -0.80900002 -0.18700001 4 0 0 0 0.05517
1.178 -0.80699998 -0.18799999 4 0 0 0 0.055179998
1.179 -0.80599999 -0.189 4 0 0 0 0.055190001
1.178 -0.80400002 -0.191 4 0 0 0 0.055199999
1.178 -0.80400002 -0.192 4 0 0 0 0.055210002
1.179 -0.80299997 -0.19400001 4 0 0 0 0.05522
1.178 -0.801 -0.19499999 5 0 0 0 0.055229999
1.175 -0.79799998 -0.19599999 4 0 0 0 0.055240002
1.177 -0.79799998 -0.197 5 0 0 0 0.05525
1.173 -0.79400003 -0.198 5 0 0 0 0.055259999
1.174 -0.79299998 -0.2 4 0 0 0 0.055270001
1.176 -0.79299998 -0.20100001 4 0 0 0 0.05528
1.175 -0.79100001 -0.20200001 5 0 0 0 0.055289999
1.175 -0.78899997 -0.204 5 0 0 0 0.055300001
1.1720001 -0.78600001 -0.205 4 0 0 0 0.05531
1.1720001 -0.78399998 -0.206 4 0 0 0 0.055319998
1.175 -0.78399998 -0.207 4 0 0 0 0.055330001
1.174 -0.78200001 -0.20900001 5 0 0 0 0.055339999
1.173 -0.77899998 -0.20900001 4 0 0 0 0.055349998
1.173 -0.77700001 -0.211 5 0 0 0 0.055360001
1.176 -0.77700001 -0.212 5 0 0 0 0.055369999
1.169 -0.77100003 -0.212 4 0 0 0 0.055380002
1.1720001 -0.76999998 -0.214 5 0 0 0 0.05539
1.176 -0.77100003 -0.215 4 0 0 0 0.055399999
1.1720001 -0.76599997 -0.21600001 5 0 0 0 0.055410001
1.168 -0.76200002 -0.21600001 4 0 0 0 0.05542
1.169 -0.75999999 -0.21699999 4 0 0 0 0.055429999
1.168 -0.75700003 -0.21799999 4 0 0 0 0.055440001
1.17 -0.75599998 -0.219 4 0 0 0 0.05545
1.1720001 -0.755 -0.22 4 0 0 0 0.055459999
1.171 -0.75199997 -0.221 4 0 0 0 0.055470001
1.169 -0.74800003 -0.221 4 0 0 0 0.05548
1.168 -0.745 -0.222 4 0 0 0 0.055489998
1.166 -0.741 -0.223 5 0 0 0 0.055500001
1.1670001 -0.73900002 -0.22400001 4 0 0 0 0.055509999
1.169 -0.73699999 -0.22499999 4 0 0 0 0.055520002
1.168 -0.73400003 -0.22499999 5 0 0 0 0.05553
1.168 -0.73100001 -0.226 5 0 0 0 0.055539999
1.171 -0.73100001 -0.227 5 0 0 0 0.055550002
1.1670001 -0.72500002 -0.227 4 0 0 0 0.05556
1.166 -0.722 -0.227 4 0 0 0 0.055569999
1.163 -0.71700001 -0.227 4 0 0 0 0.055580001
1.164 -0.71399999 -0.228 4 0 0 0 0.05559
1.164 -0.71200001 -0.228 4 0 0 0 0.055599999
1.165 -0.70899999 -0.229 4 0 0 0 0.055610001
1.163 -0.70499998 -0.229 4 0 0 0 0.05562
1.163 -0.70200002 -0.23 3 0 0 0 0.055629998
1.161 -0.69800001 -0.23 4 0 0 0 0.055640001
1.163 -0.69599998 -0.23 4 0 0 0 0.05565
1.1619999 -0.69199997 -0.23100001 4 0 0 0 0.055659998
1.161 -0.68800002 -0.23100001 4 0 0 0 0.055670001
1.158 -0.68300003 -0.23 3 0 0 0 0.055679999
1.159 -0.68099999 -0.23100001 4 0 0 0 0.055690002
1.161 -0.67799997 -0.23199999 4 0 0 0 0.0557
1.16 -0.67500001 -0.23199999 4 0 0 0 0.055709999
1.16 -0.671 -0.23199999 4 0 0 0 0.055720001
1.161 -0.66900003 -0.23199999 4 0 0 0 0.05573
1.16 -0.66500002 -0.23199999 4 0 0 0 0.055739999
1.16 -0.66100001 -0.23199999 4 0 0 0 0.055750001
1.158 -0.65700001 -0.23199999 3 0 0 0 0.05576
1.158 -0.65399998 -0.23199999 4 0 0 0 0.055769999
1.1569999 -0.64999998 -0.23199999 4 0 0 0 0.055780001
1.155 -0.64499998 -0.23199999 3 0 0 0 0.05579
1.155 -0.64099997 -0.23199999 3 0 0 0 0.055799998
1.153 -0.63700002 -0.23100001 4 0 0 0 0.055810001
1.151 -0.63200003 -0.23100001 3 0 0 0 0.055819999
1.152 -0.62900001 -0.23100001 4 0 0 0 0.055830002
1.151 -0.625 -0.23 3 0 0 0 0.055840001
1.152 -0.62199998 -0.23100001 3 0 0 0 0.055849999
1.15 -0.61699998 -0.23 3 0 0 0 0.055860002
1.15 -0.61400002 -0.23 4 0 0 0 0.05587
1.154 -0.61199999 -0.23 3 0 0 0 0.055879999
1.146 -0.60500002 -0.229 3 0 0 0 0.055890001
1.15 -0.60299999 -0.229 3 0 0 0 0.0559
1.149 -0.59899998 -0.229 4 0 0 0 0.055909999
1.142 -0.59200001 -0.227 3 0 0 0 0.055920001
1.1440001 -0.58899999 -0.227 3 0 0 0 0.05593
1.145 -0.58600003 -0.227 3 0 0 0 0.055939998
1.147 -0.583 -0.227 3 0 0 0 0.055950001
1.147 -0.57999998 -0.227 3 0 0 0 0.05596
1.1440001 -0.574 -0.226 3 0 0 0 0.055969998
1.141 -0.56900001 -0.22499999 3 0 0 0 0.055980001
1.143 -0.56599998 -0.22499999 2 0 0 0 0.055989999
1.1390001 -0.56099999 -0.22400001 1 0 0 0 0.056000002
1.133 -0.55400002 -0.222 1 0 0 0 0.05601
1.132 -0.55000001 -0.221 1 0 0 0 0.056019999
1.1289999 -0.54500002 -0.22 3 0 0 0 0.056030001
1.126 -0.54000002 -0.219 5 0 0 0 0.05604
1.124 -0.53500003 -0.21799999 5 0 0 0 0.056049999
1.1289999 -0.53299999 -0.219 6 0 0 0 0.056060001
1.125 -0.528 -0.21699999 119 0 0 0 0.05607
2.411 -1.124 -0.465 150 0 0 0 0.056079999
2.3699999 -1.097 -0.456 98 0 0 0 0.056090001
2.4100001 -1.108 -0.46200001 21 0 0 0 0.0561
2.411 -1.101 -0.461 21 0 0 0 0.056109998
2.4130001 -1.0930001 -0.46000001 20 0 0 0 0.056120001
2.4119999 -1.085 -0.458 21 0 0 0 0.056129999
2.411 -1.076 -0.456 21 0 0 0 0.056139998
2.4059999 -1.066 -0.454 24 0 0 0 0.056150001
2.402 -1.056 -0.45199999 24 0 0 0 0.056159999
2.4070001 -1.051 -0.45100001 22 0 0 0 0.056170002
2.4070001 -1.043 -0.449 22 0 0 0 0.05618
2.404 -1.034 -0.447 20 0 0 0 0.056189999
2.404 -1.026 -0.44499999 20 0 0 0 0.056200001
2.404 -1.018 -0.44400001 23 0 0 0 0.05621
2.402 -1.0089999 -0.442 23 0 0 0 0.056219999
2.4030001 -1.002 -0.44 23 0 0 0 0.056230001
2.398 -0.99199998 -0.43700001 22 0 0 0 0.05624
2.402 -0.98500001 -0.43599999 23 0 0 0 0.056249999
2.4000001 -0.977 -0.43399999 23 0 0 0 0.056260001
2.398 -0.96799999 -0.43200001 22 0 0 0 0.05627
2.401 -0.96100003 -0.43000001 20 0 0 0 0.056279998
2.402 -0.95300001 -0.428 20 0 0 0 0.056290001
2.395 -0.94300002 -0.42500001 16 0 0 0 0.056299999
2.398 -0.93599999 -0.42300001 20 0 0 0 0.056310002
2.3959999 -0.92699999 -0.421 23 0 0 0 0.05632
2.3959999 -0.91900003 -0.419 25 0 0 0 0.056329999
2.3959999 -0.912 -0.417 23 0 0 0 0.056340002
2.3959999 -0.90399998 -0.41499999 20 0 0 0 0.05635
2.3970001 -0.89600003 -0.41299999 27 0 0 0 0.056359999
2.3959999 -0.88800001 -0.41 24 0 0 0 0.056370001
2.391 -0.87800002 -0.40700001 19 0 0 0 0.05638
2.3940001 -0.87099999 -0.405 19 0 0 0 0.056389999
2.3900001 -0.86199999 -0.40200001 21 0 0 0 0.056400001
2.395 -0.85600001 -0.40099999 24 0 0 0 0.05641
2.3940001 -0.84799999 -0.398 23 0 0 0 0.056419998
2.392 -0.83899999 -0.396 25 0 0 0 0.056430001
2.391 -0.83099997 -0.39300001 26 0 0 0 0.056439999
2.388 -0.82200003 -0.38999999 23 0 0 0 0.056449998
2.3870001 -0.81400001 -0.38800001 23 0 0 0 0.056460001
2.3889999 -0.80699998 -0.38600001 23 0 0 0 0.056469999
2.3870001 -0.79900002 -0.38299999 25 0 0 0 0.056480002
2.385 -0.79000002 -0.38 23 0 0 0 0.05649
2.388 -0.78399998 -0.37799999 22 0 0 0 0.056499999
2.3859999 -0.77499998 -0.375 21 0 0 0 0.056510001
2.388 -0.76800001 -0.373 19 0 0 0 0.05652
2.3859999 -0.75999999 -0.37 17 0 0 0 0.056529999
2.3870001 -0.75199997 -0.36700001 17 0 0 0 0.056540001
2.3829999 -0.74299997 -0.36399999 18 0 0 0 0.05655
2.3870001 -0.73699999 -0.36199999 21 0 0 0 0.056559999
2.3789999 -0.727 -0.35800001 23 0 0 0 0.056570001
2.3829999 -0.72000003 -0.35600001 24 0 0 0 0.05658
2.3800001 -0.71200001 -0.35299999 21 0 0 0 0.056589998
2.382 -0.70499998 -0.34999999 21 0 0 0 0.056600001
2.3829999 -0.69800001 -0.34799999 24 0 0 0 0.056609999
2.381 -0.68900001 -0.345 26 0 0 0 0.056620002
2.381 -0.68199998 -0.34200001 25 0 0 0 0.05663
2.382 -0.67500001 -0.33899999 22 0 0 0 0.056639999
2.381 -0.667 -0.336 22 0 0 0 0.056650002
2.375 -0.65799999 -0.33199999 22 0 0 0 0.05666
2.378 -0.65100002 -0.33000001 22 0 0 0 0.056669999
2.3859999 -0.64499998 -0.32800001 25 0 0 0 0.056680001
2.378 -0.63599998 -0.324 22 0 0 0 0.05669
2.381 -0.62900001 -0.322 20 0 0 0 0.056699999
2.3770001 -0.62099999 -0.31799999 21 0 0 0 0.056710001
2.3800001 -0.61400002 -0.31600001 16 0 0 0 0.05672
2.375 -0.60500002 -0.31200001 19 0 0 0 0.056729998
2.3740001 -0.59799999 -0.30899999 24 0 0 0 0.056740001
2.3800001 -0.59200001 -0.30700001 25 0 0 0 0.05675
2.3740001 -0.583 -0.303 22 0 0 0 0.056759998
2.3740001 -0.57499999 -0.30000001 26 0 0 0 0.056770001
2.3740001 -0.56800002 -0.29699999 29 0 0 0 0.056779999
2.375 -0.56099999 -0.294 27 0 0 0 0.056790002
2.3740001 -0.55299997 -0.29100001 25 0 0 0 0.0568
2.3740001 -0.546 -0.287 23 0 0 0 0.056809999
2.372 -0.53799999 -0.28400001 21 0 0 0 0.056820001
2.378 -0.53200001 -0.28200001 18 0 0 0 0.05683
2.375 -0.52399999 -0.278 18 0 0 0 0.056839999
2.378 -0.51800001 -0.27500001 19 0 0 0 0.056850001
2.375 -0.50999999 -0.27200001 17 0 0 0 0.05686
2.369 -0.50099999 -0.26800001 19 0 0 0 0.056869999
2.3699999 -0.49399999 -0.26499999 22 0 0 0 0.056880001
2.3740001 -0.48800001 -0.26199999 22 0 0 0 0.05689
2.3759999 -0.48100001 -0.259 19 0 0 0 0.056899998
2.3710001 -0.47299999 -0.255 18 0 0 0 0.056910001
2.368 -0.465 -0.252 19 0 0 0 0.056919999
2.369 -0.458 -0.248 20 0 0 0 0.056930002
2.3670001 -0.45100001 -0.245 21 0 0 0 0.056940001
2.3670001 -0.44299999 -0.242 22 0 0 0 0.056949999
2.3659999 -0.43599999 -0.23800001 25 0 0 0 0.056960002
2.365 -0.42899999 -0.235 24 0 0 0 0.05697
2.369 -0.42199999 -0.23199999 20 0 0 0 0.056979999
2.369 -0.41499999 -0.228 18 0 0 0 0.056990001
2.3670001 -0.40799999 -0.22499999 20 0 0 0 0.057
2.368 -0.40099999 -0.222 21 0 0 0 0.057009999
2.365 -0.39300001 -0.21799999 22 0 0 0 0.057020001
2.3640001 -0.38600001 -0.214 25 0 0 0 0.05703
2.3640001 -0.37900001 -0.211 24 0 0 0 0.057039998
2.3640001 -0.37200001 -0.208 22 0 0 0 0.057050001
2.3699999 -0.366 -0.205 20 0 0 0 0.05706
2.3800001 -0.361 -0.20200001 17 0 0 0 0.057069998
2.3770001 -0.35299999 -0.198 14 0 0 0 0.057080001
2.3770001 -0.34599999 -0.19499999 14 0 0 0 0.057089999
2.372 -0.338 -0.191 14 0 0 0 0.057100002
2.3670001 -0.331 -0.18700001 18 0 0 0 0.05711
2.3729999 -0.32499999 -0.184 20 0 0 0 0.057119999
2.415 -0.32300001 -0.183 19 0 0 0 0.057130001
2.4590001 -0.322 -0.183 24 0 0 0 0.05714
2.5 -0.31999999 -0.182 24 0 0 0 0.057149999
2.5280001 -0.31600001 -0.18099999 20 0 0 0 0.057160001
2.585 -0.31600001 -0.18099999 25 0 0 0 0.05717
2.9189999 -0.34799999 -0.2 150 0 0 0 0.057179999
3.2049999 -0.373 -0.215 150 0 0 0 0.057190001
3.2090001 -0.36399999 -0.20999999 150 0 0 0 0.0572
3.2119999 -0.35600001 -0.205 150 0 0 0 0.057209998
3.21 -0.34599999 -0.2 150 0 0 0 0.057220001
3.2030001 -0.336 -0.19499999 150 0 0 0 0.057229999
3.2079999 -0.32699999 -0.19 150 0 0 0 0.057240002
3.2290001 -0.31999999 -0.186 151 0 0 0 0.057250001
3.234 -0.31099999 -0.182 151 0 0 0 0.057259999
3.237 -0.30199999 -0.177 151 0 0 0 0.057270002
3.2379999 -0.29300001 -0.17200001 151 0 0 0 0.05728
3.237 -0.28400001 -0.167 151 0 0 0 0.057289999
3.233 -0.27399999 -0.161 151 0 0 0 0.057300001
3.2349999 -0.26499999 -0.156 150 0 0 0 0.05731
3.3210001 -0.26300001 -0.155 68 0 0 0 0.057319999
3.3429999 -0.255 -0.15099999 152 0 0 0 0.057330001
3.3429999 -0.24600001 -0.146 152 0 0 0 0.05734
3.3440001 -0.236 -0.141 152 0 0 0 0.057349999
3.346 -0.227 -0.13500001 152 0 0 0 0.057360001
3.348 -0.21799999 -0.13 151 0 0 0 0.05737
3.3740001 -0.20999999 -0.125 151 0 0 0 0.057379998
3.3729999 -0.2 -0.12 151 0 0 0 0.057390001
3.3670001 -0.19 -0.114 151 0 0 0 0.057399999
3.391 -0.182 -0.11 150 0 0 0 0.057410002
3.4089999 -0.17399999 -0.105 154 0 0 0 0.05742
3.438 -0.16500001 -0.1 151 0 0 0 0.057429999
3.434 -0.156 -0.093999997 150 0 0 0 0.057440002
3.4330001 -0.146 -0.089000002 150 0 0 0 0.05745
3.4349999 -0.13600001 -0.082999997 150 0 0 0 0.057459999
3.4319999 -0.127 -0.077 150 0 0 0 0.057470001
3.4300001 -0.117 -0.071999997 150 0 0 0 0.05748
3.4330001 -0.108 -0.066 150 0 0 0 0.057489999
3.431 -0.097999997 -0.059999999 150 0 0 0 0.057500001
3.428 -0.088 -0.054000001 150 0 0 0 0.05751
3.428 -0.079000004 -0.048999999 150 0 0 0 0.057519998
3.4289999 -0.068999998 -0.043000001 150 0 0 0 0.057530001
3.4289999 -0.059999999 -0.037 150 0 0 0 0.057539999
3.424 -0.050000001 -0.030999999 151 0 0 0 0.057549998
3.424 -0.041000001 -0.026000001 151 0 0 0 0.057560001
3.424 -0.030999999 -0.02 151 0 0 0 0.057569999
3.424 -0.022 -0.014 150 0 0 0 0.057580002
3.424 -0.013 -0.0080000004 151 0 0 0 0.05759
3.4189999 -0.003 -0.0020000001 151 0 0 0 0.057599999
3.4200001 0.0049999999 0.0020000001 151 0 0 0 0.057610001
3.4200001 0.015 0.0080000004 151 0 0 0 0.05762
3.421 0.024 0.014 151 0 0 0 0.057629999
3.4219999 0.033 0.02 152 0 0 0 0.057640001
3.4230001 0.043000001 0.026000001 152 0 0 0 0.05765
3.418 0.052000001 0.032000002 152 0 0 0 0.057659999
3.4170001 0.061000001 0.037999999 152 0 0 0 0.057670001
3.4170001 0.071000002 0.044 152 0 0 0 0.05768
3.4059999 0.079999998 0.050000001 153 0 0 0 0.057689998
3.411 0.089000002 0.056000002 153 0 0 0 0.057700001
3.4100001 0.097999997 0.061999999 153 0 0 0 0.057709999
3.405 0.107 0.068000004 153 0 0 0 0.057720002
3.405 0.117 0.074000001 153 0 0 0 0.05773
3.401 0.126 0.079999998 153 0 0 0 0.057739999
3.401 0.13500001 0.086000003 154 0 0 0 0.057750002
3.4030001 0.14399999 0.092 153 0 0 0 0.05776
3.4030001 0.153 0.097999997 154 0 0 0 0.057769999
3.3989999 0.162 0.104 153 0 0 0 0.057780001
3.398 0.17200001 0.11 154 0 0 0 0.05779
3.398 0.18099999 0.116 153 0 0 0 0.057799999
3.3970001 0.19 0.122 154 0 0 0 0.057810001
3.4100001 0.2 0.12899999 153 0 0 0 0.05782
3.398 0.208 0.13500001 153 0 0 0 0.057829998
3.4030001 0.21799999 0.141 153 0 0 0 0.057840001
3.408 0.227 0.148 153 0 0 0 0.05785
3.4070001 0.236 0.154 152 0 0 0 0.057859998
3.411 0.24600001 0.16 152 0 0 0 0.057870001
3.404 0.25400001 0.16599999 152 0 0 0 0.057879999
3.4070001 0.264 0.17299999 152 0 0 0 0.057890002
3.4059999 0.273 0.17900001 152 0 0 0 0.0579
3.4059999 0.28200001 0.185 152 0 0 0 0.057909999
3.404 0.29100001 0.192 152 0 0 0 0.057920001
3.4059999 0.30000001 0.198 152 0 0 0 0.05793
3.4000001 0.30899999 0.204 152 0 0 0 0.057939999
3.3989999 0.317 0.211 151 0 0 0 0.057950001
3.398 0.32600001 0.21699999 151 0 0 0 0.05796
3.398 0.33500001 0.223 151 0 0 0 0.057969999
3.4000001 0.345 0.23 151 0 0 0 0.057980001
3.4000001 0.354 0.237 151 0 0 0 0.05799
3.3970001 0.36199999 0.243 151 0 0 0 0.057999998
3.398 0.37099999 0.249 151 0 0 0 0.058010001
3.3970001 0.38 0.25600001 151 0 0 0 0.058019999
3.401 0.38999999 0.26300001 151 0 0 0 0.058030002
3.3989999 0.398 0.26899999 151 0 0 0 0.05804
3.3970001 0.40700001 0.27500001 151 0 0 0 0.058049999
3.392 0.41600001 0.28200001 150 0 0 0 0.058060002
3.3940001 0.42500001 0.289 150 0 0 0 0.05807
3.392 0.433 0.29499999 150 0 0 0 0.058079999
3.3959999 0.44299999 0.30199999 151 0 0 0 0.058090001
3.3940001 0.45100001 0.30899999 151 0 0 0 0.0581
3.395 0.46000001 0.315 150 0 0 0 0.058109999
3.3929999 0.46900001 0.322 151 0 0 0 0.058120001
3.391 0.47799999 0.329 151 0 0 0 0.05813
3.395 0.48699999 0.336 150 0 0 0 0.058139998
3.391 0.495 0.34200001 150 0 0 0 0.058150001
3.391 0.50400001 0.34900001 151 0 0 0 0.05816
3.3959999 0.514 0.35600001 151 0 0 0 0.058169998
3.382 0.51999998 0.36199999 150 0 0 0 0.058180001
3.325 0.51999998 0.36300001 150 0 0 0 0.058189999
3.325 0.52899998 0.36899999 150 0 0 0 0.058200002
3.326 0.53799999 0.37599999 151 0 0 0 0.05821
3.313 0.54400003 0.382 150 0 0 0 0.058219999
3.286 0.54799998 0.38499999 150 0 0 0 0.058230001
3.2880001 0.55699998 0.39199999 151 0 0 0 0.05824
3.29 0.56599998 0.39899999 151 0 0 0 0.058249999
3.283 0.57300001 0.405 151 0 0 0 0.058260001
3.2839999 0.58200002 0.412 151 0 0 0 0.05827
3.279 0.58999997 0.419 150 0 0 0 0.058279999
3.24 0.59100002 0.421 29 0 0 0 0.058290001
3.211 0.59399998 0.42300001 29 0 0 0 0.0583
3.1700001 0.59500003 0.42500001 29 0 0 0 0.058309998
3.1170001 0.59299999 0.42399999 29 0 0 0 0.058320001
3.0450001 0.58700001 0.421 29 0 0 0 0.058329999
2.971 0.57999998 0.417 28 0 0 0 0.058340002
2.9030001 0.574 0.414 28 0 0 0 0.058350001
2.8399999 0.56900001 0.41100001 27 0 0 0 0.058359999
2.766 0.56099999 0.40599999 26 0 0 0 0.058370002
2.707 0.55599999 0.403 25 0 0 0 0.05838
2.658 0.55299997 0.40200001 25 0 0 0 0.058389999
2.615 0.55000001 0.40099999 25 0 0 0 0.058400001
2.559 0.54500002 0.398 24 0 0 0 0.05841
2.5090001 0.54100001 0.396 23 0 0 0 0.058419999
2.471 0.53899997 0.39500001 22 0 0 0 0.058430001
2.4219999 0.53399998 0.39300001 20 0 0 0 0.05844
2.3800001 0.53100002 0.391 20 0 0 0 0.058449998
2.3340001 0.52700001 0.389 19 0 0 0 0.058460001
2.273 0.51800001 0.384 150 0 0 0 0.05847
2.2650001 0.52200001 0.38800001 151 0 0 0 0.058479998
2.2650001 0.528 0.39300001 151 0 0 0 0.058490001
2.263 0.53299999 0.39700001 151 0 0 0 0.058499999
2.2590001 0.53799999 0.40200001 151 0 0 0 0.058510002
2.244 0.54000002 0.40400001 150 0 0 0 0.05852
2.23 0.542 0.40700001 150 0 0 0 0.058529999
2.2309999 0.54799998 0.412 151 0 0 0 0.058540002
2.2309999 0.55400002 0.417 151 0 0 0 0.05855
2.2349999 0.56 0.42300001 151 0 0 0 0.058559999
2.2290001 0.56400001 0.42699999 151 0 0 0 0.058570001
2.2290001 0.56999999 0.433 151 0 0 0 0.05858
2.227 0.57499999 0.43700001 151 0 0 0 0.058589999
2.2309999 0.58099997 0.44299999 151 0 0 0 0.058600001
2.23 0.58600003 0.449 151 0 0 0 0.05861
2.2260001 0.59100002 0.45300001 151 0 0 0 0.058619998
2.2260001 0.59600002 0.458 151 0 0 0 0.058630001
2.2260001 0.602 0.46399999 151 0 0 0 0.058639999
2.234 0.60900003 0.47099999 151 0 0 0 0.058649998
2.2360001 0.61500001 0.47600001 151 0 0 0 0.058660001
2.2379999 0.62099999 0.48199999 151 0 0 0 0.058669999
2.2360001 0.62599999 0.48699999 151 0 0 0 0.058680002
2.2390001 0.63200003 0.493 151 0 0 0 0.05869
2.2379999 0.63700002 0.498 151 0 0 0 0.058699999
2.2360001 0.64200002 0.50300002 151 0 0 0 0.058710001
0 0 0 0 0 0 0 0.05872
0 0 0 0 0 0 0 0.058729999
2.2219999 0.65399998 0.51700002 1 0 0 0 0.058740001
4.0190001 1.192 0.94499999 66 0 0 0 0.05875
4.0180001 1.201 0.954 63 0 0 0 0.058759999
4.0180001 1.21 0.96399999 59 0 0 0 0.058770001
4.013 1.2180001 0.97299999 61 0 0 0 0.05878
4.0190001 1.229 0.98400003 59 0 0 0 0.058789998
4.0040002 1.234 0.991 46 0 0 0 0.058800001
4 1.242 1 17 0 0 0 0.058809999
3.983 1.2460001 1.006 5 0 0 0 0.058820002
1.495 0.47099999 0.38100001 3 0 0 0 0.05883
1.4809999 0.47 0.38100001 3 0 0 0 0.058839999
1.47 0.47 0.382 3 0 0 0 0.058850002
1.4579999 0.46900001 0.38299999 2 0 0 0 0.05886
1.447 0.46900001 0.38299999 2 0 0 0 0.058869999
1.438 0.46900001 0.38499999 2 0 0 0 0.058880001
1.426 0.46799999 0.38499999 2 0 0 0 0.05889
1.4119999 0.46700001 0.38499999 2 0 0 0 0.058899999
1.398 0.46599999 0.38499999 2 0 0 0 0.058910001
1.392 0.46700001 0.38699999 2 0 0 0 0.05892
1.3559999 0.458 0.38100001 8 0 0 0 0.058929998
1.349 0.458 0.382 8 0 0 0 0.058940001
1.336 0.45699999 0.382 8 0 0 0 0.05895
1.3200001 0.454 0.38100001 10 0 0 0 0.058959998
1.327 0.45899999 0.38600001 16 0 0 0 0.058970001
1.312 0.45699999 0.38499999 54 0 0 0 0.058979999
1.299 0.45500001 0.38499999 120 0 0 0 0.058990002
1.293 0.456 0.38699999 150 0 0 0 0.059
1.291 0.458 0.389 150 0 0 0 0.059009999
1.29 0.46000001 0.39300001 150 0 0 0 0.059020001
1.2920001 0.46399999 0.39700001 150 0 0 0 0.05903
1.2869999 0.46399999 0.39899999 150 0 0 0 0.059039999
1.291 0.46799999 0.403 150 0 0 0 0.059050001
1.291 0.47099999 0.40700001 150 0 0 0 0.05906
1.289 0.47299999 0.41 150 0 0 0 0.059069999
1.289 0.47499999 0.41299999 150 0 0 0 0.059080001
1.291 0.479 0.417 150 0 0 0 0.05909
1.29 0.48100001 0.41999999 150 0 0 0 0.059099998
1.288 0.48300001 0.42300001 150 0 0 0 0.059110001
1.29 0.486 0.42699999 150 0 0 0 0.059119999
1.286 0.48699999 0.42899999 150 0 0 0 0.059130002
1.288 0.49000001 0.433 150 0 0 0 0.05914
1.288 0.493 0.43700001 150 0 0 0 0.059149999
1.288 0.495 0.44100001 150 0 0 0 0.059160002
1.289 0.498 0.44400001 150 0 0 0 0.05917
1.291 0.50099999 0.449 150 0 0 0 0.059179999
1.288 0.50199997 0.45100001 98 0 0 0 0.059190001
1.291 0.50599998 0.456 50 0 0 0 0.0592
1.2869999 0.50700003 0.458 18 0 0 0 0.059209999
1.268 0.50099999 0.45500001 11 0 0 0 0.059220001
1.262 0.50099999 0.456 11 0 0 0 0.05923
1.255 0.50099999 0.45699999 0 0 0 0 0.059239998
1.244 0.498 0.456 0 0 0 0 0.059250001
1.2309999 0.495 0.45500001 0 0 0 0 0.05926
1.2130001 0.49000001 0.45100001 0 0 0 0 0.059269998
1.206 0.48899999 0.45199999 0 0 0 0 0.059280001
1.194 0.486 0.45100001 0 0 0 0 0.059289999
1.165 0.47600001 0.44299999 54 0 0 0 0.059300002
1.1569999 0.47499999 0.44299999 65 0 0 0 0.05931
1.182 0.48699999 0.456 0 0 0 0 0.059319999
1.1799999 0.48800001 0.45899999 10 0 0 0 0.059330001
1.17 0.486 0.458 0 0 0 0 0.05934
1.163 0.484 0.458 0 0 0 0 0.059349999
1.16 0.48500001 0.46000001 0 0 0 0 0.059360001
1.147 0.48100001 0.458 3 0 0 0 0.05937
1.142 0.47999999 0.45899999 1 0 0 0 0.059379999
1.14 0.48100001 0.46200001 0 0 0 0 0.059390001
1.135 0.48100001 0.463 0 0 0 0 0.0594
1.125 0.47799999 0.46200001 0 0 0 0 0.059409998
1.1210001 0.47799999 0.463 0 0 0 0 0.059420001
1.119 0.47799999 0.465 0 0 0 0 0.059429999
1.1109999 0.47600001 0.465 0 0 0 0 0.059440002
1.117 0.47999999 0.47 0 0 0 0 0.059450001
1.108 0.47799999 0.46900001 0 0 0 0 0.059459999
1.099 0.47499999 0.46900001 0 0 0 0 0.059470002
1.104 0.479 0.47400001 0 0 0 0 0.05948
1.097 0.477 0.47400001 0 0 0 0 0.059489999
3.2620001 1.4220001 1.4170001 1 0 0 0 0.059500001
1.092 0.477 0.477 0 0 0 0 0.05951
1.095 0.47999999 0.48199999 0 0 0 0 0.059519999
1.107 0.486 0.48899999 0 0 0 0 0.059530001
1.147 0.505 0.50999999 0 0 0 0 0.05954
1.193 0.52600002 0.53399998 0 0 0 0 0.059549998
1.217 0.537 0.54699999 55 0 0 0 0.059560001
1.225 0.542 0.55400002 77 0 0 0 0.05957
1.228 0.54500002 0.55900002 102 0 0 0 0.059579998
1.237 0.55000001 0.56599998 128 0 0 0 0.059590001
1.242 0.55299997 0.57200003 150 0 0 0 0.059599999
1.2539999 0.55900002 0.57999998 150 0 0 0 0.059610002
1.268 0.56599998 0.58899999 150 0 0 0 0.05962
1.273 0.56900001 0.59500003 150 0 0 0 0.059629999
1.2819999 0.574 0.602 150 0 0 0 0.059640002
1.279 0.574 0.60399997 150 0 0 0 0.05965
1.279 0.574 0.60699999 150 0 0 0 0.059659999
1.278 0.57499999 0.61000001 150 0 0 0 0.059670001
1.2819999 0.57700002 0.61500001 150 0 0 0 0.05968
1.281 0.57700002 0.61699998 150 0 0 0 0.059689999
1.279 0.57700002 0.61900002 150 0 0 0 0.059700001
1.281 0.57800001 0.62300003 150 0 0 0 0.05971
1.281 0.579 0.62599999 150 0 0 0 0.059719998
1.28 0.579 0.62800002 150 0 0 0 0.059730001
1.279 0.579 0.63099998 150 0 0 0 0.059739999
1.278 0.579 0.63300002 150 0 0 0 0.059749998
1.277 0.57800001 0.63499999 150 0 0 0 0.059760001
1.279 0.579 0.639 150 0 0 0 0.059769999
1.279 0.57999998 0.64200002 150 0 0 0 0.059780002
1.28 0.57999998 0.64499998 150 0 0 0 0.05979
1.286 0.583 0.64999998 150 0 0 0 0.059799999
1.278 0.57999998 0.64899999 150 0 0 0 0.059810001
1.283 0.58200002 0.65399998 150 0 0 0 0.05982
1.283 0.58200002 0.65700001 150 0 0 0 0.059829999
1.283 0.58200002 0.65899998 150 0 0 0 0.059840001
1.2819999 0.58099997 0.66100001 150 0 0 0 0.05985
1.283 0.58099997 0.66399997 150 0 0 0 0.059859999
1.281 0.57999998 0.66500002 150 0 0 0 0.059870001
1.28 0.579 0.667 150 0 0 0 0.05988
1.286 0.58200002 0.67299998 150 0 0 0 0.059889998
1.283 0.57999998 0.67400002 150 0 0 0 0.059900001
1.2819999 0.579 0.67500001 150 0 0 0 0.059909999
1.262 0.56900001 0.66600001 150 0 0 0 0.059920002
1.266 0.57099998 0.671 150 0 0 0 0.05993
1.265 0.56999999 0.67299998 150 0 0 0 0.059939999
1.265 0.56900001 0.67400002 150 0 0 0 0.059950002
1.2640001 0.56800002 0.676 150 0 0 0 0.05996
1.2640001 0.56699997 0.67799997 150 0 0 0 0.059969999
1.266 0.56699997 0.68099999 150 0 0 0 0.059980001
1.266 0.56599998 0.68199998 150 0 0 0 0.05999
1.267 0.56599998 0.685 150 0 0 0 0.059999999
1.266 0.565 0.68599999 150 0 0 0 0.060010001
1.266 0.56400001 0.68800002 150 0 0 0 0.06002
1.266 0.56300002 0.68900001 150 0 0 0 0.060029998
1.266 0.56199998 0.69 150 0 0 0 0.060040001
1.265 0.56 0.69199997 150 0 0 0 0.06005
1.266 0.56 0.69300002 150 0 0 0 0.060059998
1.265 0.55800003 0.69400001 150 0 0 0 0.060070001
1.265 0.55699998 0.69599998 150 0 0 0 0.060079999
1.272 0.55900002 0.70099998 150 0 0 0 0.060090002
1.272 0.55699998 0.70200002 150 0 0 0 0.0601
1.272 0.55599999 0.70300001 150 0 0 0 0.060109999
1.265 0.551 0.69999999 150 0 0 0 0.060120001
1.265 0.55000001 0.70099998 150 0 0 0 0.06013
1.266 0.54900002 0.70300001 150 0 0 0 0.060139999
1.266 0.54699999 0.704 150 0 0 0 0.060150001
1.265 0.54500002 0.704 150 0 0 0 0.06016
1.273 0.54699999 0.70899999 150 0 0 0 0.060169999
1.265 0.542 0.70599997 150 0 0 0 0.060180001
1.266 0.54000002 0.70700002 150 0 0 0 0.06019
1.266 0.53899997 0.708 150 0 0 0 0.060199998
1.274 0.54000002 0.713 150 0 0 0 0.060210001
1.274 0.53799999 0.713 150 0 0 0 0.060219999
1.274 0.537 0.71399999 150 0 0 0 0.060230002
1.275 0.53500003 0.71499997 150 0 0 0 0.06024
1.275 0.53299999 0.71499997 150 0 0 0 0.060249999
1.268 0.528 0.71200001 150 0 0 0 0.060260002
1.267 0.52600002 0.71100003 150 0 0 0 0.06027
1.2690001 0.52499998 0.713 150 0 0 0 0.060279999
1.27 0.523 0.713 150 0 0 0 0.060290001
1.27 0.52100003 0.71399999 150 0 0 0 0.0603
1.271 0.51899999 0.71399999 150 0 0 0 0.060309999
1.271 0.51700002 0.71399999 150 0 0 0 0.060320001
1.273 0.51499999 0.71499997 150 0 0 0 0.06033
1.2690001 0.51099998 0.71200001 150 0 0 0 0.060339998
1.2690001 0.509 0.713 150 0 0 0 0.060350001
1.27 0.50700003 0.713 150 0 0 0 0.06036
1.275 0.50700003 0.71499997 150 0 0 0 0.060369998
1.272 0.50300002 0.713 150 0 0 0 0.060380001
1.272 0.50099999 0.713 150 0 0 0 0.060389999
1.273 0.49900001 0.713 150 0 0 0 0.060400002
1.2690001 0.495 0.70999998 150 0 0 0 0.06041
1.27 0.493 0.70999998 150 0 0 0 0.060419999
1.271 0.491 0.70999998 150 0 0 0 0.060430001
1.272 0.48800001 0.70999998 150 0 0 0 0.06044
1.27 0.48500001 0.708 150 0 0 0 0.060449999
1.2690001 0.48199999 0.70599997 150 0 0 0 0.060460001
1.272 0.48100001 0.70700002 150 0 0 0 0.06047
1.271 0.47799999 0.70599997 150 0 0 0 0.060479999
1.27 0.47499999 0.704 150 0 0 0 0.060490001
1.273 0.47299999 0.70499998 150 0 0 0 0.0605
1.272 0.47 0.70300001 150 0 0 0 0.060509998
1.271 0.46700001 0.70099998 150 0 0 0 0.060520001
1.27 0.46399999 0.69999999 150 0 0 0 0.060529999
1.271 0.46200001 0.699 150 0 0 0 0.060540002
1.267 0.45699999 0.69599998 150 0 0 0 0.060550001
1.268 0.45500001 0.69499999 150 0 0 0 0.060559999
1.27 0.45300001 0.69400001 150 0 0 0 0.060570002
1.271 0.44999999 0.69300002 150 0 0 0 0.06058
1.2819999 0.45199999 0.69800001 150 0 0 0 0.060589999
1.288 0.45100001 0.69999999 138 0 0 0 0.060600001
1.299 0.45199999 0.704 50 0 0 0 0.06061
1.322 0.45699999 0.71499997 16 0 0 0 0.060619999
1.3329999 0.458 0.71899998 13 0 0 0 0.060630001
1.348 0.46000001 0.72500002 12 0 0 0 0.06064
1.363 0.46200001 0.73100001 12 0 0 0 0.060649998
1.375 0.463 0.736 14 0 0 0 0.060660001
1.386 0.463 0.74000001 15 0 0 0 0.06067
1.399 0.46399999 0.74400002 15 0 0 0 0.060679998
1.4170001 0.46700001 0.75199997 15 0 0 0 0.060690001
1.427 0.46700001 0.755 16 0 0 0 0.060699999
1.441 0.46799999 0.75999999 16 0 0 0 0.060710002
1.4529999 0.46900001 0.764 15 0 0 0 0.06072
1.465 0.46900001 0.76800001 10 0 0 0 0.060729999
1.477 0.47 0.77200001 15 0 0 0 0.060740001
0.057999998 0.017999999 0.029999999 0 0 0 0 0.06075
0 0 0 0 0 0 0 0.060759999
0.044 0.013 0.023 0 0 0 0 0.060770001
3.0190001 0.93300003 1.556 75 0 0 0 0.06078
3.0320001 0.93000001 1.558 73 0 0 0 0.060789999
3.0420001 0.926 1.557 73 0 0 0 0.060800001
3.0510001 0.921 1.556 75 0 0 0 0.06081
3.066 0.91900003 1.558 75 0 0 0 0.060819998
2.707 0.80500001 1.37 151 0 0 0 0.060830001
2.3599999 0.69599998 1.1900001 152 0 0 0 0.060839999
2.3010001 0.67400002 1.155 151 0 0 0 0.060849998
2.2460001 0.65200001 1.123 150 0 0 0 0.060860001
2.244 0.64600003 1.118 150 0 0 0 0.060869999
2.2409999 0.63999999 1.112 150 0 0 0 0.060880002
2.24 0.63499999 1.107 150 0 0 0 0.06089
2.243 0.63099998 1.103 150 0 0 0 0.060899999
2.2409999 0.625 1.097 150 0 0 0 0.060910001
2.2390001 0.61900002 1.092 150 0 0 0 0.06092
2.237 0.61299998 1.086 150 0 0 0 0.060929999
2.2349999 0.60799998 1.08 150 0 0 0 0.060940001
2.2320001 0.602 1.073 150 0 0 0 0.06095
2.233 0.597 1.069 150 0 0 0 0.060959999
2.2379999 0.59299999 1.066 150 0 0 0 0.060970001
2.237 0.588 1.0599999 150 0 0 0 0.06098
2.237 0.583 1.0549999 150 0 0 0 0.060989998
2.2390001 0.57800001 1.051 150 0 0 0 0.061000001
2.2349999 0.57200003 1.044 150 0 0 0 0.061009999
2.2349999 0.56699997 1.039 150 0 0 0 0.061020002
2.234 0.56199998 1.033 150 0 0 0 0.06103
2.2349999 0.55699998 1.028 150 0 0 0 0.061039999
2.237 0.55299997 1.024 150 0 0 0 0.061050002
2.247 0.55000001 1.023 150 0 0 0 0.06106
2.266 0.55000001 1.026 150 0 0 0 0.061069999
2.267 0.54500002 1.021 151 0 0 0 0.061080001
2.2690001 0.54100001 1.016 151 0 0 0 0.06109
2.2690001 0.53600001 1.01 150 0 0 0 0.061099999
2.2709999 0.53100002 1.006 150 0 0 0 0.061110001
2.2809999 0.528 1.0039999 99 0 0 0 0.06112
2.3110001 0.52999997 1.011 22 0 0 0 0.061129998
2.3599999 0.53600001 1.027 20 0 0 0 0.061140001
2.4000001 0.54000002 1.038 21 0 0 0 0.061149999
2.438 0.54400003 1.048 24 0 0 0 0.061159998
2.4820001 0.54799998 1.061 25 0 0 0 0.061170001
2.53 0.55299997 1.075 26 0 0 0 0.061179999
2.5810001 0.55900002 1.089 27 0 0 0 0.061190002
2.6259999 0.56300002 1.102 28 0 0 0 0.0612
2.678 0.56900001 1.1160001 28 0 0 0 0.061209999
2.7290001 0.574 1.13 29 0 0 0 0.061220001
2.7909999 0.58099997 1.149 30 0 0 0 0.06123
2.8410001 0.58600003 1.161 31 0 0 0 0.061239999
2.9000001 0.59200001 1.178 32 0 0 0 0.061250001
2.954 0.597 1.192 32 0 0 0 0.06126
3.01 0.602 1.206 33 0 0 0 0.061269999
3.0569999 0.60500002 1.217 32 0 0 0 0.061280001
3.0969999 0.60699999 1.224 33 0 0 0 0.06129
3.145 0.61000001 1.235 31 0 0 0 0.061299998
3.1830001 0.61000001 1.2410001 24 0 0 0 0.061310001
3.217 0.611 1.245 23 0 0 0 0.061319999
3.253 0.611 1.25 27 0 0 0 0.061330002
3.2809999 0.61000001 1.252 35 0 0 0 0.06134
3.2909999 0.60500002 1.2460001 107 0 0 0 0.061349999
3.2939999 0.59899998 1.238 150 0 0 0 0.061360002
3.293 0.59200001 1.229 150 0 0 0 0.06137
3.296 0.58600003 1.221 150 0 0 0 0.061379999
3.2920001 0.579 1.21 150 0 0 0 0.061390001
3.2939999 0.57300001 1.202 150 0 0 0 0.0614
3.2939999 0.56699997 1.192 150 0 0 0 0.061409999
3.299 0.56199998 1.1849999 150 0 0 0 0.061420001
3.319 0.55900002 1.182 150 0 0 0 0.06143
3.3310001 0.55400002 1.177 150 0 0 0 0.061439998
3.3340001 0.54900002 1.169 150 0 0 0 0.061450001
3.3329999 0.542 1.159 150 0 0 0 0.06146
3.3340001 0.53600001 1.15 150 0 0 0 0.061469998
3.359 0.53399998 1.149 150 0 0 0 0.061480001
3.398 0.53399998 1.152 150 0 0 0 0.061489999
3.391 0.52700001 1.14 150 0 0 0 0.061500002
3.3970001 0.52100003 1.132 150 0 0 0 0.06151
3.392 0.514 1.1210001 150 0 0 0 0.061519999
3.3940001 0.50800002 1.112 150 0 0 0 0.061530001
3.3970001 0.50300002 1.103 150 0 0 0 0.06154
3.3929999 0.49599999 1.092 150 0 0 0 0.061549999
3.3959999 0.491 1.0829999 150 0 0 0 0.061560001
3.398 0.48500001 1.074 150 0 0 0 0.06157
3.3959999 0.47799999 1.063 150 0 0 0 0.061579999
3.3940001 0.472 1.053 150 0 0 0 0.061590001
3.398 0.46700001 1.044 150 0 0 0 0.0616
3.4000001 0.461 1.035 150 0 0 0 0.061609998
3.3989999 0.45500001 1.025 150 0 0 0 0.061620001
3.4030001 0.44999999 1.016 150 0 0 0 0.061629999
3.4000001 0.44400001 1.005 150 0 0 0 0.061640002
3.401 0.43799999 0.995 150 0 0 0 0.061650001
3.402 0.43200001 0.986 150 0 0 0 0.061659999
3.398 0.426 0.97399998 150 0 0 0 0.061670002
3.4030001 0.421 0.96600002 150 0 0 0 0.06168
3.402 0.41499999 0.95599997 150 0 0 0 0.061689999
3.4000001 0.40900001 0.94499999 150 0 0 0 0.061700001
3.402 0.40400001 0.935 150 0 0 0 0.06171
3.3989999 0.398 0.92500001 150 0 0 0 0.061719999
3.4000001 0.39300001 0.91500002 150 0 0 0 0.061730001
3.4030001 0.38800001 0.90499997 150 0 0 0 0.06174
3.404 0.382 0.89600003 150 0 0 0 0.061749998
3.4070001 0.377 0.88599998 150 0 0 0 0.061760001
3.402 0.37099999 0.875 150 0 0 0 0.06177
3.4030001 0.366 0.86500001 150 0 0 0 0.061779998
3.3989999 0.36000001 0.85399997 150 0 0 0 0.061790001
3.4030001 0.35499999 0.84500003 150 0 0 0 0.061799999
3.4030001 0.34999999 0.83499998 150 0 0 0 0.061810002
3.402 0.34400001 0.824 150 0 0 0 0.06182
3.4030001 0.33899999 0.81400001 150 0 0 0 0.061829999
3.405 0.33399999 0.80500001 150 0 0 0 0.061840001
3.405 0.329 0.79500002 150 0 0 0 0.06185
3.4059999 0.324 0.78500003 150 0 0 0 0.061859999
3.4089999 0.31900001 0.77499998 150 0 0 0 0.061870001
3.404 0.31400001 0.764 150 0 0 0 0.06188
3.4059999 0.30899999 0.75400001 150 0 0 0 0.061889999
3.4059999 0.30399999 0.74400002 150 0 0 0 0.061900001
3.405 0.29899999 0.73400003 150 0 0 0 0.06191
3.4070001 0.294 0.72399998 150 0 0 0 0.061919998
3.4070001 0.289 0.71399999 150 0 0 0 0.061930001
3.4070001 0.28400001 0.704 150 0 0 0 0.061939999
3.408 0.27900001 0.69400001 150 0 0 0 0.061949998
3.4070001 0.27399999 0.68300003 150 0 0 0 0.061960001
3.411 0.26899999 0.67400002 150 0 0 0 0.061969999
3.4100001 0.26499999 0.66299999 150 0 0 0 0.061980002
3.4119999 0.25999999 0.653 150 0 0 0 0.06199
3.4119999 0.255 0.64300001 150 0 0 0 0.061999999
3.4130001 0.25 0.63300002 150 0 0 0 0.062010001
3.4100001 0.245 0.62199998 150 0 0 0 0.06202
3.4119999 0.241 0.61199999 150 0 0 0 0.062029999
3.4089999 0.236 0.602 150 0 0 0 0.062040001
3.4130001 0.23100001 0.59200001 150 0 0 0 0.06205
3.411 0.227 0.58099997 150 0 0 0 0.062059999
3.4089999 0.222 0.57099998 150 0 0 0 0.062070001
3.408 0.21699999 0.56 150 0 0 0 0.06208
3.4089999 0.213 0.55000001 150 0 0 0 0.062089998
3.4119999 0.208 0.54100001 150 0 0 0 0.062100001
3.4089999 0.20299999 0.52999997 150 0 0 0 0.062109999
3.411 0.199 0.51999998 150 0 0 0 0.062120002
3.4100001 0.19499999 0.509 150 0 0 0 0.06213
3.414 0.19 0.5 150 0 0 0 0.062139999
3.414 0.186 0.48899999 150 0 0 0 0.062150002
3.4159999 0.182 0.479 150 0 0 0 0.06216
3.415 0.177 0.46900001 151 0 0 0 0.062169999
3.411 0.17200001 0.458 150 0 0 0 0.062180001
3.4130001 0.168 0.44800001 151 0 0 0 0.06219
3.415 0.164 0.43799999 150 0 0 0 0.062199999
3.415 0.16 0.428 150 0 0 0 0.062210001
3.4119999 0.155 0.417 150 0 0 0 0.06222
3.4130001 0.15099999 0.40700001 150 0 0 0 0.062229998
3.4170001 0.147 0.39700001 151 0 0 0 0.062240001
3.4170001 0.14300001 0.38699999 151 0 0 0 0.062249999
3.418 0.139 0.377 151 0 0 0 0.062259998
3.411 0.134 0.366 151 0 0 0 0.062270001
3.4130001 0.13 0.35499999 151 0 0 0 0.062279999
3.414 0.126 0.345 151 0 0 0 0.062290002
3.4089999 0.122 0.33399999 151 0 0 0 0.0623
3.4159999 0.118 0.32499999 150 0 0 0 0.062309999
3.411 0.113 0.31400001 151 0 0 0 0.062320001
3.4130001 0.109 0.30399999 151 0 0 0 0.06233
3.414 0.105 0.294 151 0 0 0 0.062339999
3.415 0.101 0.28299999 151 0 0 0 0.062350001
3.411 0.097000003 0.273 151 0 0 0 0.06236
3.415 0.093000002 0.26199999 151 0 0 0 0.062369999
3.411 0.089000002 0.252 151 0 0 0 0.062380001
3.4119999 0.085000001 0.242 151 0 0 0 0.06239
3.4130001 0.081 0.23100001 151 0 0 0 0.062399998
3.4119999 0.078000002 0.221 151 0 0 0 0.062410001
3.4130001 0.074000001 0.20999999 151 0 0 0 0.062419999
3.4119999 0.07 0.2 151 0 0 0 0.062430002
3.411 0.066 0.19 151 0 0 0 0.06244
3.415 0.061999999 0.17900001 151 0 0 0 0.062449999
3.4119999 0.057999998 0.169 151 0 0 0 0.062460002
3.4170001 0.055 0.15899999 151 0 0 0 0.06247
3.415 0.050999999 0.148 151 0 0 0 0.062479999
3.4189999 0.046999998 0.138 151 0 0 0 0.062490001
3.4189999 0.043000001 0.127 151 0 0 0 0.0625
3.4200001 0.039999999 0.117 151 0 0 0 0.062509999
3.4200001 0.035999998 0.107 151 0 0 0 0.062519997
3.4189999 0.032000002 0.096000001 151 0 0 0 0.062530003
3.421 0.028999999 0.086000003 151 0 0 0 0.062540002
3.4200001 0.025 0.075000003 151 0 0 0 0.062550001
3.4170001 0.021 0.064999998 151 0 0 0 0.06256
3.4219999 0.017999999 0.054000001 151 0 0 0 0.062569998
3.421 0.014 0.044 151 0 0 0 0.062579997
3.421 0.0099999998 0.033 151 0 0 0 0.062590003
3.421 0.0070000002 0.023 151 0 0 0 0.062600002
3.415 0.003 0.012 151 0 0 0 0.06261
3.4159999 0 0.0020000001 151 0 0 0 0.062619999
3.4119999 -0.003 -0.0080000004 151 0 0 0 0.062629998
3.4170001 -0.0060000001 -0.017999999 151 0 0 0 0.062639996
3.4200001 -0.0099999998 -0.028999999 151 0 0 0 0.062650003
3.414 -0.013 -0.039000001 151 0 0 0 0.062660001
3.4159999 -0.017000001 -0.050000001 151 0 0 0 0.06267
3.4200001 -0.02 -0.059999999 151 0 0 0 0.062679999
3.418 -0.023 -0.071000002 151 0 0 0 0.062689997
3.4130001 -0.027000001 -0.081 151 0 0 0 0.062700003
3.415 -0.029999999 -0.092 151 0 0 0 0.062710002
3.4189999 -0.033 -0.102 151 0 0 0 0.062720001
3.418 -0.037 -0.113 151 0 0 0 0.062729999
3.418 -0.039999999 -0.124 151 0 0 0 0.062739998
3.418 -0.043000001 -0.134 151 0 0 0 0.062749997
3.4170001 -0.046999998 -0.145 151 0 0 0 0.062760003
3.424 -0.050000001 -0.156 150 0 0 0 0.062770002
3.4230001 -0.052999999 -0.16599999 151 0 0 0 0.06278
3.4219999 -0.056000002 -0.177 151 0 0 0 0.062789999
3.4230001 -0.059999999 -0.18700001 151 0 0 0 0.062799998
3.4219999 -0.063000001 -0.198 151 0 0 0 0.062809996
3.4260001 -0.066 -0.20900001 151 0 0 0 0.062820002
3.425 -0.068999998 -0.219 151 0 0 0 0.062830001
3.425 -0.071999997 -0.23 151 0 0 0 0.06284
3.424 -0.075000003 -0.241 150 0 0 0 0.062849998
3.4230001 -0.079000004 -0.25099999 150 0 0 0 0.062859997
3.4219999 -0.082000002 -0.26199999 150 0 0 0 0.062870003
3.425 -0.085000001 -0.273 150 0 0 0 0.062880002
3.4289999 -0.088 -0.28400001 150 0 0 0 0.062890001
3.4300001 -0.090999998 -0.29499999 150 0 0 0 0.062899999
3.427 -0.093999997 -0.30500001 151 0 0 0 0.062909998
3.431 -0.097000003 -0.31600001 151 0 0 0 0.062919997
3.428 -0.1 -0.32699999 150 0 0 0 0.062930003
3.4219999 -0.103 -0.33700001 150 0 0 0 0.062940001
3.427 -0.106 -0.34799999 150 0 0 0 0.06295
3.4260001 -0.109 -0.359 150 0 0 0 0.062959999
3.424 -0.111 -0.36899999 150 0 0 0 0.062969998
3.428 -0.115 -0.38100001 150 0 0 0 0.062980004
3.4260001 -0.117 -0.391 150 0 0 0 0.062990002
3.428 -0.12 -0.40200001 150 0 0 0 0.063000001
3.4260001 -0.123 -0.41299999 150 0 0 0 0.06301
3.428 -0.126 -0.42399999 150 0 0 0 0.063019998
3.4300001 -0.12899999 -0.435 150 0 0 0 0.063029997
3.4289999 -0.131 -0.44600001 150 0 0 0 0.063040003
3.428 -0.134 -0.45699999 150 0 0 0 0.063050002
3.425 -0.13699999 -0.46700001 150 0 0 0 0.063060001
3.4289999 -0.14 -0.479 150 0 0 0 0.063069999
3.428 -0.142 -0.48899999 150 0 0 0 0.063079998
3.4260001 -0.145 -0.5 150 0 0 0 0.063089997
3.428 -0.148 -0.51099998 150 0 0 0 0.063100003
3.427 -0.15000001 -0.52200001 150 0 0 0 0.063110001
3.4330001 -0.153 -0.53399998 150 0 0 0 0.06312
3.431 -0.156 -0.54500002 150 0 0 0 0.063129999
3.4289999 -0.15800001 -0.55500001 150 0 0 0 0.063139997
3.427 -0.161 -0.56599998 150 0 0 0 0.063150004
3.431 -0.163 -0.57800001 150 0 0 0 0.063160002
3.4300001 -0.16599999 -0.58899999 150 0 0 0 0.063170001
3.4300001 -0.168 -0.60000002 150 0 0 0 0.06318
3.4289999 -0.171 -0.611 150 0 0 0 0.063189998
3.427 -0.17299999 -0.62099999 150 0 0 0 0.063199997
3.428 -0.176 -0.63300002 150 0 0 0 0.063210003
3.427 -0.178 -0.64300001 151 0 0 0 0.063220002
3.428 -0.18000001 -0.65499997 151 0 0 0 0.06323
3.428 -0.183 -0.66600001 151 0 0 0 0.063239999
3.431 -0.185 -0.67799997 150 0 0 0 0.063249998
3.428 -0.18700001 -0.68800002 150 0 0 0 0.063259996
3.4189999 -0.189 -0.69700003 150 0 0 0 0.063270003
3.402 -0.19 -0.70499998 150 0 0 0 0.063280001
3.3840001 -0.192 -0.71200001 150 0 0 0 0.06329
3.3710001 -0.193 -0.72100002 150 0 0 0 0.063299999
3.369 -0.19499999 -0.73100001 150 0 0 0 0.063309997
3.3670001 -0.197 -0.74199998 150 0 0 0 0.063320003
3.3659999 -0.199 -0.75199997 150 0 0 0 0.063330002
3.365 -0.20100001 -0.76300001 150 0 0 0 0.063340001
3.3640001 -0.20299999 -0.77399999 150 0 0 0 0.063349999
3.3610001 -0.205 -0.78399998 150 0 0 0 0.063359998
3.365 -0.207 -0.796 150 0 0 0 0.063369997
3.368 -0.20999999 -0.80800003 150 0 0 0 0.063380003
3.359 -0.211 -0.81699997 150 0 0 0 0.063390002
3.365 -0.213 -0.82999998 150 0 0 0 0.0634
3.3610001 -0.215 -0.83999997 150 0 0 0 0.063409999
3.3329999 -0.215 -0.84399998 28 0 0 0 0.063419998
3.29 -0.214 -0.84399998 27 0 0 0 0.063429996
3.2449999 -0.213 -0.84299999 23 0 0 0 0.063440003
3.2019999 -0.212 -0.84200001 25 0 0 0 0.063450001
3.1659999 -0.211 -0.84299999 25 0 0 0 0.06346
3.131 -0.20999999 -0.84399998 25 0 0 0 0.063469999
3.092 -0.20900001 -0.84399998 25 0 0 0 0.063479997
3.0639999 -0.20900001 -0.847 25 0 0 0 0.063490003
3.029 -0.208 -0.847 26 0 0 0 0.063500002
2.9879999 -0.207 -0.84600002 25 0 0 0 0.063510001
2.9449999 -0.205 -0.84299999 25 0 0 0 0.063519999
2.9100001 -0.204 -0.84299999 25 0 0 0 0.063529998
2.8659999 -0.20200001 -0.83999997 23 0 0 0 0.063539997
2.8329999 -0.20100001 -0.83999997 23 0 0 0 0.063550003
2.7980001 -0.2 -0.83899999 24 0 0 0 0.063560002
2.7709999 -0.199 -0.83999997 23 0 0 0 0.06357
2.7390001 -0.198 -0.83899999 24 0 0 0 0.063579999
2.7079999 -0.197 -0.83899999 24 0 0 0 0.063589998
2.671 -0.19599999 -0.83600003 23 0 0 0 0.063600004
2.6429999 -0.19499999 -0.83700001 23 0 0 0 0.063610002
2.609 -0.193 -0.83499998 23 0 0 0 0.063620001
2.5880001 -0.193 -0.83700001 23 0 0 0 0.06363
2.5610001 -0.192 -0.83700001 23 0 0 0 0.063639998
2.526 -0.19 -0.83399999 24 0 0 0 0.063649997
2.5020001 -0.189 -0.83399999 24 0 0 0 0.063660003
2.4779999 -0.18799999 -0.83499998 22 0 0 0 0.063670002
2.4530001 -0.18700001 -0.83399999 23 0 0 0 0.063680001
2.4289999 -0.186 -0.83499998 22 0 0 0 0.063689999
2.4059999 -0.185 -0.83499998 23 0 0 0 0.063699998
2.3789999 -0.183 -0.83399999 22 0 0 0 0.063709997
2.358 -0.183 -0.83399999 21 0 0 0 0.063720003
2.3380001 -0.182 -0.83499998 20 0 0 0 0.063730001
2.316 -0.18099999 -0.83499998 20 0 0 0 0.06374
2.299 -0.18000001 -0.83700001 24 0 0 0 0.063749999
2.2720001 -0.178 -0.83499998 22 0 0 0 0.063759997
2.2590001 -0.178 -0.838 24 0 0 0 0.063770004
2.234 -0.176 -0.83600003 26 0 0 0 0.063780002
2.2119999 -0.175 -0.83499998 27 0 0 0 0.063790001
2.1800001 -0.17299999 -0.83099997 27 0 0 0 0.0638
2.168 -0.17299999 -0.83399999 28 0 0 0 0.063809998
2.148 -0.171 -0.833 28 0 0 0 0.063819997
2.1259999 -0.17 -0.83200002 28 0 0 0 0.063830003
2.109 -0.169 -0.83200002 28 0 0 0 0.063840002
2.0880001 -0.168 -0.83099997 28 0 0 0 0.063850001
2.0710001 -0.167 -0.83200002 28 0 0 0 0.063859999
2.0469999 -0.16500001 -0.829 28 0 0 0 0.063869998
2.0309999 -0.164 -0.829 29 0 0 0 0.063879997
2.0120001 -0.163 -0.829 28 0 0 0 0.063890003
1.998 -0.162 -0.829 28 0 0 0 0.063900001
1.978 -0.16 -0.82800001 29 0 0 0 0.06391
1.961 -0.15899999 -0.82700002 29 0 0 0 0.063919999
1.9450001 -0.15800001 -0.82700002 29 0 0 0 0.063929997
1.932 -0.15700001 -0.829 29 0 0 0 0.063940004
1.913 -0.155 -0.82700002 29 0 0 0 0.063950002
1.9 -0.154 -0.82800001 29 0 0 0 0.063960001
1.888 -0.153 -0.829 29 0 0 0 0.06397
1.869 -0.152 -0.82700002 31 0 0 0 0.063979998
1.858 -0.15099999 -0.82800001 30 0 0 0 0.063989997
1.845 -0.15000001 -0.829 31 0 0 0 0.064000003
1.8329999 -0.149 -0.829 32 0 0 0 0.064010002
1.819 -0.147 -0.829 33 0 0 0 0.06402
1.803 -0.146 -0.82800001 30 0 0 0 0.064029999
1.7869999 -0.14399999 -0.82700002 31 0 0 0 0.064039998
1.776 -0.14300001 -0.82800001 35 0 0 0 0.064049996
1.76 -0.142 -0.82599998 32 0 0 0 0.064060003
1.7460001 -0.141 -0.82599998 33 0 0 0 0.064070001
1.74 -0.14 -0.829 36 0 0 0 0.06408
1.729 -0.139 -0.829 12 0 0 0 0.064089999
1.716 -0.13699999 -0.829 12 0 0 0 0.064099997
1.71 -0.13699999 -0.83200002 12 0 0 0 0.064110003
1.696 -0.13500001 -0.82999998 12 0 0 0 0.064120002
1.686 -0.134 -0.83099997 12 0 0 0 0.064130001
1.666 -0.132 -0.82700002 12 0 0 0 0.064139999
1.66 -0.131 -0.829 12 0 0 0 0.064149998
1.649 -0.13 -0.829 12 0 0 0 0.064159997
1.638 -0.12800001 -0.829 12 0 0 0 0.064170003
1.627 -0.127 -0.829 12 0 0 0 0.064180002
1.619 -0.126 -0.82999998 13 0 0 0 0.06419
1.6109999 -0.125 -0.83099997 13 0 0 0 0.064199999
1.596 -0.123 -0.829 13 0 0 0 0.064209998
1.587 -0.122 -0.829 13 0 0 0 0.064219996
1.5779999 -0.121 -0.82999998 13 0 0 0 0.064230002
1.569 -0.119 -0.82999998 13 0 0 0 0.064240001
1.558 -0.118 -0.829 13 0 0 0 0.06425
1.5420001 -0.116 -0.82599998 14 0 0 0 0.064259999
1.53 -0.114 -0.824 13 0 0 0 0.064269997
1.522 -0.113 -0.82499999 13 0 0 0 0.064280003
1.516 -0.112 -0.82599998 13 0 0 0 0.064290002
1.505 -0.11 -0.82499999 13 0 0 0 0.064300001
1.499 -0.109 -0.82700002 13 0 0 0 0.064309999
1.488 -0.108 -0.82499999 13 0 0 0 0.064319998
1.477 -0.106 -0.824 14 0 0 0 0.064329997
1.475 -0.105 -0.82700002 13 0 0 0 0.064340003
1.464 -0.103 -0.82499999 12 0 0 0 0.064350002
1.4529999 -0.102 -0.824 12 0 0 0 0.06436
1.447 -0.101 -0.82499999 13 0 0 0 0.064369999
1.4349999 -0.098999999 -0.82200003 13 0 0 0 0.064379998
1.432 -0.097999997 -0.82499999 14 0 0 0 0.064390004
1.421 -0.096000001 -0.82300001 13 0 0 0 0.064400002
1.419 -0.094999999 -0.82599998 13 0 0 0 0.064410001
1.4119999 -0.093999997 -0.82599998 14 0 0 0 0.06442
1.4 -0.092 -0.82300001 14 0 0 0 0.064429998
1.3940001 -0.090000004 -0.82300001 14 0 0 0 0.064439997
1.388 -0.089000002 -0.824 14 0 0 0 0.064450003
1.38 -0.088 -0.82300001 13 0 0 0 0.064460002
1.377 -0.086000003 -0.82599998 14 0 0 0 0.064470001
1.369 -0.085000001 -0.824 14 0 0 0 0.064479999
1.3609999 -0.082999997 -0.824 14 0 0 0 0.064489998
1.357 -0.082000002 -0.82499999 14 0 0 0 0.064499997
1.354 -0.081 -0.82700002 14 0 0 0 0.064510003
1.344 -0.079000004 -0.824 14 0 0 0 0.064520001
1.335 -0.077 -0.82200003 14 0 0 0 0.06453
1.334 -0.075999998 -0.82499999 14 0 0 0 0.064539999
1.326 -0.074000001 -0.82300001 14 0 0 0 0.064549997
1.317 -0.072999999 -0.82200003 14 0 0 0 0.064560004
1.316 -0.071000002 -0.824 14 0 0 0 0.064570002
1.314 -0.07 -0.82599998 14 0 0 0 0.064580001
1.307 -0.068000004 -0.82499999 15 0 0 0 0.06459
1.301 -0.067000002 -0.824 15 0 0 0 0.064599998
1.2970001 -0.064999998 -0.82499999 14 0 0 0 0.064609997
1.29 -0.064000003 -0.824 14 0 0 0 0.064620003
1.285 -0.061999999 -0.824 14 0 0 0 0.064630002
1.2819999 -0.061000001 -0.82499999 14 0 0 0 0.06464
