# .PCD v0.7 - Point Cloud Data file format
VERSION 0.7
FIELDS x y z intensity normal_x normal_y normal_z curvature
SIZE 4 4 4 4 4 4 4 4
TYPE F F F F F F F F
COUNT 1 1 1 1 1 1 1 1
WIDTH 1066
HEIGHT 1
VIEWPOINT 0 0 0 1 0 0 0
POINTS 1066
DATA ascii
3.421 0.13500001 1.087 150 0 0 0 0.059610002
3.4230001 0.132 1.076 150 0 0 0 0.05962
3.421 0.12899999 1.064 150 0 0 0 0.059629999
3.4230001 0.127 1.054 150 0 0 0 0.059640002
3.428 0.125 1.044 150 0 0 0 0.05965
3.4219999 0.122 1.031 150 0 0 0 0.059659999
3.4260001 0.119 1.021 150 0 0 0 0.059670001
3.428 0.117 1.01 150 0 0 0 0.05968
3.425 0.115 0.99800003 150 0 0 0 0.059689999
3.428 0.112 0.98699999 150 0 0 0 0.059700001
3.4230001 0.11 0.97399998 150 0 0 0 0.05971
3.424 0.107 0.96399999 150 0 0 0 0.059719998
3.424 0.105 0.95200002 150 0 0 0 0.059730001
3.4260001 0.103 0.94099998 150 0 0 0 0.059739999
3.418 0.1 0.92799997 150 0 0 0 0.059749998
3.4260001 0.097999997 0.91900003 150 0 0 0 0.059760001
3.424 0.096000001 0.90700001 150 0 0 0 0.059769999
3.4219999 0.093999997 0.89499998 150 0 0 0 0.059780002
3.4189999 0.092 0.88300002 150 0 0 0 0.05979
3.4219999 0.090000004 0.87300003 150 0 0 0 0.059799999
3.4219999 0.088 0.861 150 0 0 0 0.059810001
3.421 0.086000003 0.85000002 150 0 0 0 0.05982
3.424 0.082999997 0.83899999 150 0 0 0 0.059829999
3.4219999 0.081 0.82800001 150 0 0 0 0.059840001
3.421 0.079999998 0.81599998 150 0 0 0 0.05985
3.4260001 0.078000002 0.80599999 150 0 0 0 0.059859999
3.424 0.075999998 0.79400003 150 0 0 0 0.059870001
3.4260001 0.074000001 0.78399998 150 0 0 0 0.05988
3.4260001 0.071999997 0.77200001 150 0 0 0 0.059889998
3.427 0.07 0.76099998 150 0 0 0 0.059900001
3.428 0.068000004 0.75 150 0 0 0 0.059909999
3.425 0.067000002 0.73799998 150 0 0 0 0.059920002
3.425 0.064999998 0.727 150 0 0 0 0.05993
3.424 0.063000001 0.71499997 150 0 0 0 0.059939999
3.425 0.061000001 0.704 150 0 0 0 0.059950002
3.4230001 0.059999999 0.69300002 150 0 0 0 0.05996
3.4230001 0.057999998 0.68199998 150 0 0 0 0.059969999
3.427 0.057 0.671 150 0 0 0 0.059980001
3.424 0.055 0.65899998 150 0 0 0 0.05999
3.4260001 0.052999999 0.64899999 150 0 0 0 0.059999999
3.4260001 0.052000001 0.63700002 150 0 0 0 0.060010001
3.427 0.050000001 0.62599999 150 0 0 0 0.06002
3.428 0.048999999 0.61500001 150 0 0 0 0.060029998
3.424 0.046999998 0.60299999 150 0 0 0 0.060040001
3.4260001 0.046 0.59299999 150 0 0 0 0.06005
3.4260001 0.044 0.58099997 150 0 0 0 0.060059998
3.424 0.043000001 0.56999999 150 0 0 0 0.060070001
3.4200001 0.041000001 0.55800003 150 0 0 0 0.060079999
3.425 0.039999999 0.54799998 150 0 0 0 0.060090002
3.4219999 0.039000001 0.53600001 150 0 0 0 0.0601
3.4200001 0.037999999 0.52499998 150 0 0 0 0.060109999
3.4219999 0.035999998 0.514 150 0 0 0 0.060120001
3.425 0.035 0.50300002 150 0 0 0 0.06013
3.418 0.034000002 0.491 150 0 0 0 0.060139999
3.4200001 0.032000002 0.47999999 150 0 0 0 0.060150001
3.4219999 0.030999999 0.46900001 150 0 0 0 0.06016
3.4230001 0.029999999 0.458 150 0 0 0 0.060169999
3.424 0.028999999 0.447 150 0 0 0 0.060180001
3.4260001 0.028000001 0.43599999 150 0 0 0 0.06019
3.4200001 0.027000001 0.42399999 150 0 0 0 0.060199998
3.421 0.026000001 0.41299999 150 0 0 0 0.060210001
3.4230001 0.024 0.403 150 0 0 0 0.060219999
3.4230001 0.023 0.391 150 0 0 0 0.060230002
3.424 0.022 0.38 150 0 0 0 0.06024
3.421 0.021 0.36899999 150 0 0 0 0.060249999
3.4200001 0.02 0.35800001 150 0 0 0 0.060260002
3.4189999 0.018999999 0.34599999 150 0 0 0 0.06027
3.425 0.017999999 0.336 150 0 0 0 0.060279999
3.421 0.017999999 0.324 150 0 0 0 0.060290001
3.418 0.017000001 0.31299999 150 0 0 0 0.0603
3.4200001 0.016000001 0.30199999 150 0 0 0 0.060309999
3.421 0.015 0.29100001 150 0 0 0 0.060320001
3.4219999 0.014 0.28 151 0 0 0 0.06033
3.4170001 0.013 0.26899999 150 0 0 0 0.060339998
3.4230001 0.012 0.25799999 151 0 0 0 0.060350001
3.425 0.012 0.24699999 151 0 0 0 0.06036
3.4189999 0.011 0.236 151 0 0 0 0.060369998
3.421 0.0099999998 0.22499999 150 0 0 0 0.060380001
3.4200001 0.0089999996 0.214 150 0 0 0 0.060389999
3.414 0.0089999996 0.20200001 151 0 0 0 0.060400002
3.4219999 0.0080000004 0.191 151 0 0 0 0.06041
3.4189999 0.0070000002 0.18000001 151 0 0 0 0.060419999
3.4159999 0.0070000002 0.169 151 0 0 0 0.060430001
3.415 0.0060000001 0.15800001 151 0 0 0 0.06044
3.4170001 0.0049999999 0.147 151 0 0 0 0.060449999
3.418 0.0049999999 0.13600001 151 0 0 0 0.060460001
3.418 0.0040000002 0.125 151 0 0 0 0.06047
3.4170001 0.0040000002 0.114 151 0 0 0 0.060479999
3.4219999 0.003 0.103 151 0 0 0 0.060490001
3.4170001 0.003 0.092 151 0 0 0 0.0605
3.418 0.0020000001 0.081 151 0 0 0 0.060509998
3.421 0.0020000001 0.07 151 0 0 0 0.060520001
3.4230001 0.001 0.057999998 151 0 0 0 0.060529999
3.4159999 0.001 0.046999998 151 0 0 0 0.060540002
3.4159999 0 0.035999998 151 0 0 0 0.060550001
3.4159999 0 0.025 151 0 0 0 0.060559999
3.4159999 0 0.014 151 0 0 0 0.060570002
3.4159999 0 0.003 151 0 0 0 0.06058
3.4170001 0 -0.0070000002 151 0 0 0 0.060589999
3.418 -0.001 -0.017999999 151 0 0 0 0.060600001
3.4159999 -0.001 -0.028999999 151 0 0 0 0.06061
3.415 -0.001 -0.039999999 151 0 0 0 0.060619999
3.4159999 -0.001 -0.050999999 151 0 0 0 0.060630001
3.418 -0.0020000001 -0.061999999 151 0 0 0 0.06064
3.4159999 -0.0020000001 -0.072999999 151 0 0 0 0.060649998
3.415 -0.0020000001 -0.083999999 151 0 0 0 0.060660001
3.4170001 -0.0020000001 -0.096000001 151 0 0 0 0.06067
3.4189999 -0.0020000001 -0.107 151 0 0 0 0.060679998
3.4159999 -0.003 -0.118 151 0 0 0 0.060690001
3.418 -0.003 -0.12899999 151 0 0 0 0.060699999
3.418 -0.003 -0.14 151 0 0 0 0.060710002
3.4170001 -0.003 -0.15099999 151 0 0 0 0.06072
3.4170001 -0.003 -0.162 151 0 0 0 0.060729999
3.4170001 -0.003 -0.17299999 151 0 0 0 0.060740001
3.414 -0.003 -0.184 151 0 0 0 0.06075
3.4159999 -0.003 -0.19499999 151 0 0 0 0.060759999
3.4159999 -0.003 -0.206 151 0 0 0 0.060770001
3.4159999 -0.003 -0.21699999 151 0 0 0 0.06078
3.4200001 -0.003 -0.228 151 0 0 0 0.060789999
3.4189999 -0.003 -0.23899999 150 0 0 0 0.060800001
3.418 -0.003 -0.25099999 150 0 0 0 0.06081
3.414 -0.003 -0.26100001 150 0 0 0 0.060819998
3.4170001 -0.003 -0.273 150 0 0 0 0.060830001
3.418 -0.003 -0.28400001 151 0 0 0 0.060839999
3.421 -0.003 -0.29499999 150 0 0 0 0.060849998
3.4219999 -0.0020000001 -0.30599999 151 0 0 0 0.060860001
3.418 -0.0020000001 -0.317 150 0 0 0 0.060869999
3.418 -0.0020000001 -0.32800001 151 0 0 0 0.060880002
3.4130001 -0.0020000001 -0.33899999 151 0 0 0 0.06089
3.4189999 -0.001 -0.35100001 151 0 0 0 0.060899999
3.4170001 -0.001 -0.36199999 151 0 0 0 0.060910001
3.418 -0.001 -0.373 150 0 0 0 0.06092
3.4170001 -0.001 -0.384 150 0 0 0 0.060929999
3.421 0 -0.396 151 0 0 0 0.060940001
3.414 0 -0.40599999 150 0 0 0 0.06095
3.4200001 0 -0.41800001 150 0 0 0 0.060959999
3.414 0 -0.428 150 0 0 0 0.060970001
3.4119999 0 -0.43900001 150 0 0 0 0.06098
3.4170001 0.001 -0.45100001 150 0 0 0 0.060989998
3.4200001 0.001 -0.463 151 0 0 0 0.061000001
3.421 0.0020000001 -0.47400001 150 0 0 0 0.061009999
3.4170001 0.0020000001 -0.48500001 150 0 0 0 0.061020002
3.418 0.003 -0.49599999 150 0 0 0 0.06103
3.421 0.003 -0.50800002 150 0 0 0 0.061039999
3.4189999 0.0040000002 -0.51800001 150 0 0 0 0.061050002
3.4159999 0.0040000002 -0.52899998 150 0 0 0 0.06106
3.4159999 0.0049999999 -0.54000002 150 0 0 0 0.061069999
3.4119999 0.0060000001 -0.551 150 0 0 0 0.061080001
3.4189999 0.0060000001 -0.56300002 150 0 0 0 0.06109
3.418 0.0070000002 -0.574 150 0 0 0 0.061099999
3.4159999 0.0080000004 -0.58499998 150 0 0 0 0.061110001
3.4159999 0.0080000004 -0.59600002 150 0 0 0 0.06112
3.4119999 0.0089999996 -0.60699999 150 0 0 0 0.061129998
3.4189999 0.0099999998 -0.61900002 150 0 0 0 0.061140001
3.4100001 0.011 -0.62900001 150 0 0 0 0.061149999
3.4119999 0.012 -0.64099997 150 0 0 0 0.061159998
3.4159999 0.012 -0.653 150 0 0 0 0.061170001
3.415 0.013 -0.66399997 150 0 0 0 0.061179999
3.418 0.014 -0.676 150 0 0 0 0.061190002
3.411 0.015 -0.685 150 0 0 0 0.0612
3.414 0.016000001 -0.69700003 150 0 0 0 0.061209999
3.415 0.017000001 -0.70899999 150 0 0 0 0.061220001
3.4119999 0.017999999 -0.72000003 150 0 0 0 0.06123
3.4089999 0.018999999 -0.73000002 150 0 0 0 0.061239999
3.411 0.02 -0.74199998 150 0 0 0 0.061250001
3.4070001 0.021 -0.75199997 150 0 0 0 0.06126
3.4119999 0.022 -0.764 150 0 0 0 0.061269999
3.4089999 0.023 -0.77499998 150 0 0 0 0.061280001
3.4130001 0.025 -0.787 150 0 0 0 0.06129
3.4089999 0.026000001 -0.79799998 150 0 0 0 0.061299998
3.408 0.027000001 -0.80900002 150 0 0 0 0.061310001
3.405 0.028000001 -0.81900001 150 0 0 0 0.061319999
3.408 0.028999999 -0.83200002 150 0 0 0 0.061330002
3.415 0.030999999 -0.84500003 66 0 0 0 0.06134
3.3959999 0.032000002 -0.85100001 28 0 0 0 0.061349999
3.358 0.033 -0.85299999 25 0 0 0 0.061360002
3.323 0.034000002 -0.85500002 27 0 0 0 0.06137
3.277 0.035 -0.85399997 27 0 0 0 0.061379999
3.24 0.035999998 -0.85500002 27 0 0 0 0.061390001
3.197 0.037 -0.85500002 26 0 0 0 0.0614
3.165 0.037999999 -0.85699999 27 0 0 0 0.061409999
3.135 0.039000001 -0.85900003 27 0 0 0 0.061420001
3.0899999 0.039000001 -0.85699999 27 0 0 0 0.06143
3.0450001 0.039999999 -0.85500002 26 0 0 0 0.061439998
3.0039999 0.041000001 -0.85299999 26 0 0 0 0.061450001
2.9649999 0.041999999 -0.852 25 0 0 0 0.06146
2.9319999 0.043000001 -0.852 26 0 0 0 0.061469998
2.8929999 0.044 -0.85000002 25 0 0 0 0.061480001
2.8499999 0.044 -0.847 25 0 0 0 0.061489999
2.819 0.045000002 -0.84799999 24 0 0 0 0.061500002
2.79 0.046 -0.84799999 23 0 0 0 0.06151
2.7579999 0.046999998 -0.847 23 0 0 0 0.061519999
2.7260001 0.048 -0.847 24 0 0 0 0.061530001
2.694 0.048999999 -0.84600002 23 0 0 0 0.06154
2.6630001 0.050000001 -0.84500003 23 0 0 0 0.061549999
2.635 0.050999999 -0.84500003 23 0 0 0 0.061560001
2.6059999 0.052000001 -0.84399998 24 0 0 0 0.06157
2.579 0.052999999 -0.84399998 23 0 0 0 0.061579999
2.5450001 0.054000001 -0.84200001 23 0 0 0 0.061590001
2.52 0.055 -0.84200001 24 0 0 0 0.0616
2.494 0.056000002 -0.84100002 25 0 0 0 0.061609998
2.4690001 0.057 -0.84100002 24 0 0 0 0.061620001
2.447 0.057999998 -0.84200001 24 0 0 0 0.061629999
2.4230001 0.059 -0.84200001 24 0 0 0 0.061640002
2.3929999 0.059999999 -0.83899999 24 0 0 0 0.061650001
2.369 0.061000001 -0.83899999 25 0 0 0 0.061659999
2.3469999 0.061999999 -0.83899999 25 0 0 0 0.061670002
2.3280001 0.063000001 -0.83999997 25 0 0 0 0.06168
2.303 0.064000003 -0.838 25 0 0 0 0.061689999
2.2909999 0.064999998 -0.84200001 25 0 0 0 0.061700001
2.2679999 0.066 -0.84100002 25 0 0 0 0.06171
2.247 0.067000002 -0.84100002 25 0 0 0 0.061719999
2.224 0.068000004 -0.83899999 25 0 0 0 0.061730001
2.207 0.068999998 -0.83999997 24 0 0 0 0.06174
2.181 0.07 -0.838 24 0 0 0 0.061749998
2.164 0.071000002 -0.838 24 0 0 0 0.061760001
2.145 0.071999997 -0.838 27 0 0 0 0.06177
2.1240001 0.072999999 -0.83700001 26 0 0 0 0.061779998
2.109 0.074000001 -0.838 29 0 0 0 0.061790001
2.0899999 0.075000003 -0.83700001 29 0 0 0 0.061799999
2.069 0.075999998 -0.83600003 29 0 0 0 0.061810002
2.053 0.077 -0.83600003 29 0 0 0 0.06182
2.0339999 0.078000002 -0.83499998 29 0 0 0 0.061829999
2.0209999 0.079999998 -0.83600003 29 0 0 0 0.061840001
2.0050001 0.081 -0.83700001 30 0 0 0 0.06185
1.988 0.082000002 -0.83600003 30 0 0 0 0.061859999
1.969 0.082999997 -0.83499998 29 0 0 0 0.061870001
1.9579999 0.083999999 -0.83600003 30 0 0 0 0.06188
1.939 0.085000001 -0.83399999 29 0 0 0 0.061889999
1.929 0.086999997 -0.83600003 30 0 0 0 0.061900001
1.91 0.086999997 -0.83499998 31 0 0 0 0.06191
1.898 0.089000002 -0.83499998 30 0 0 0 0.061919998
1.882 0.090000004 -0.83399999 31 0 0 0 0.061930001
1.867 0.090999998 -0.83399999 32 0 0 0 0.061939999
1.857 0.092 -0.83600003 32 0 0 0 0.061949998
1.842 0.093000002 -0.83499998 32 0 0 0 0.061960001
1.834 0.094999999 -0.83700001 34 0 0 0 0.061969999
1.811 0.094999999 -0.83200002 31 0 0 0 0.061980002
1.8 0.097000003 -0.833 38 0 0 0 0.06199
1.79 0.097999997 -0.83399999 31 0 0 0 0.061999999
1.776 0.098999999 -0.833 31 0 0 0 0.062010001
1.772 0.101 -0.83700001 13 0 0 0 0.06202
1.757 0.102 -0.83600003 12 0 0 0 0.062029999
1.743 0.103 -0.83499998 12 0 0 0 0.062040001
1.733 0.104 -0.83499998 13 0 0 0 0.06205
1.723 0.106 -0.83600003 13 0 0 0 0.062059999
1.706 0.107 -0.833 12 0 0 0 0.062070001
1.7 0.108 -0.83600003 12 0 0 0 0.06208
1.691 0.11 -0.83600003 12 0 0 0 0.062089998
1.681 0.111 -0.83700001 12 0 0 0 0.062100001
1.666 0.112 -0.83399999 12 0 0 0 0.062109999
1.655 0.113 -0.83399999 29 0 0 0 0.062120002
1.654 0.115 -0.83899999 10 0 0 0 0.06213
1.636 0.116 -0.83499998 4 0 0 0 0.062139999
1.622 0.117 -0.833 3 0 0 0 0.062150002
1.613 0.118 -0.833 3 0 0 0 0.06216
1.603 0.12 -0.83200002 17 0 0 0 0.062169999
1.601 0.121 -0.83600003 9 0 0 0 0.062180001
1.594 0.123 -0.838 11 0 0 0 0.06219
1.58 0.124 -0.83499998 11 0 0 0 0.062199999
1.576 0.126 -0.83700001 12 0 0 0 0.062210001
1.564 0.127 -0.83600003 12 0 0 0 0.06222
1.5549999 0.12800001 -0.83499998 12 0 0 0 0.062229998
1.538 0.12899999 -0.83099997 12 0 0 0 0.062240001
1.526 0.13 -0.829 12 0 0 0 0.062249999
1.521 0.132 -0.83099997 12 0 0 0 0.062259998
1.516 0.133 -0.83200002 12 0 0 0 0.062270001
1.508 0.134 -0.83200002 12 0 0 0 0.062279999
1.503 0.13600001 -0.83399999 12 0 0 0 0.062290002
1.4960001 0.138 -0.83399999 12 0 0 0 0.0623
1.488 0.139 -0.833 13 0 0 0 0.062309999
1.478 0.14 -0.83200002 13 0 0 0 0.062320001
1.473 0.142 -0.833 13 0 0 0 0.06233
1.465 0.14300001 -0.833 13 0 0 0 0.062339999
1.456 0.14399999 -0.83200002 12 0 0 0 0.062350001
1.454 0.146 -0.83499998 11 0 0 0 0.06236
1.444 0.147 -0.83200002 11 0 0 0 0.062369999
1.437 0.149 -0.83200002 11 0 0 0 0.062380001
1.431 0.15000001 -0.83200002 13 0 0 0 0.06239
1.425 0.152 -0.833 13 0 0 0 0.062399998
1.418 0.153 -0.83200002 13 0 0 0 0.062410001
1.411 0.155 -0.83200002 13 0 0 0 0.062419999
1.406 0.156 -0.83200002 13 0 0 0 0.062430002
1.398 0.15800001 -0.83099997 14 0 0 0 0.06244
1.392 0.15899999 -0.83099997 14 0 0 0 0.062449999
1.387 0.161 -0.83099997 14 0 0 0 0.062460002
1.38 0.162 -0.82999998 13 0 0 0 0.06247
1.374 0.164 -0.82999998 14 0 0 0 0.062479999
1.369 0.16500001 -0.82999998 14 0 0 0 0.062490001
1.3660001 0.167 -0.83200002 13 0 0 0 0.0625
1.362 0.169 -0.83200002 13 0 0 0 0.062509999
1.3559999 0.17 -0.83099997 13 0 0 0 0.062519997
1.349 0.171 -0.82999998 14 0 0 0 0.062530003
1.348 0.17299999 -0.83200002 14 0 0 0 0.062540002
1.34 0.175 -0.83099997 13 0 0 0 0.062550001
1.336 0.176 -0.83099997 13 0 0 0 0.06256
1.334 0.178 -0.83200002 14 0 0 0 0.062569998
1.326 0.17900001 -0.82999998 13 0 0 0 0.062579997
1.322 0.18099999 -0.82999998 13 0 0 0 0.062590003
1.3200001 0.183 -0.83200002 14 0 0 0 0.062600002
1.3150001 0.184 -0.83099997 14 0 0 0 0.06261
1.312 0.186 -0.83099997 14 0 0 0 0.062619999
1.307 0.18799999 -0.83099997 14 0 0 0 0.062629998
1.303 0.189 -0.82999998 14 0 0 0 0.062639996
1.295 0.19 -0.82700002 14 0 0 0 0.062650003
1.293 0.192 -0.829 14 0 0 0 0.062660001
1.2920001 0.19400001 -0.82999998 14 0 0 0 0.06267
1.289 0.19599999 -0.83099997 14 0 0 0 0.062679999
1.2869999 0.198 -0.83099997 14 0 0 0 0.062689997
1.283 0.199 -0.83099997 14 0 0 0 0.062700003
1.281 0.20100001 -0.83099997 15 0 0 0 0.062710002
1.278 0.20299999 -0.83099997 14 0 0 0 0.062720001
1.273 0.204 -0.82999998 14 0 0 0 0.062729999
1.274 0.206 -0.83200002 14 0 0 0 0.062739998
1.271 0.208 -0.83200002 15 0 0 0 0.062749997
1.266 0.20900001 -0.82999998 14 0 0 0 0.062760003
1.2640001 0.211 -0.83099997 14 0 0 0 0.062770002
1.263 0.213 -0.83200002 14 0 0 0 0.06278
1.262 0.215 -0.83200002 14 0 0 0 0.062789999
1.257 0.21600001 -0.82999998 14 0 0 0 0.062799998
1.256 0.21799999 -0.83099997 14 0 0 0 0.062809996
1.252 0.22 -0.82999998 14 0 0 0 0.062820002
1.251 0.222 -0.82999998 15 0 0 0 0.062830001
1.251 0.22400001 -0.83099997 14 0 0 0 0.06284
1.25 0.22499999 -0.83200002 14 0 0 0 0.062849998
1.249 0.227 -0.83200002 14 0 0 0 0.062859997
1.247 0.229 -0.83200002 66 0 0 0 0.062870003
1.245 0.23100001 -0.83200002 46 0 0 0 0.062880002
1.245 0.233 -0.83200002 45 0 0 0 0.062890001
1.244 0.235 -0.83200002 45 0 0 0 0.062899999
1.243 0.236 -0.83200002 46 0 0 0 0.062909998
1.243 0.23800001 -0.833 42 0 0 0 0.062919997
1.238 0.23899999 -0.82999998 44 0 0 0 0.062930003
1.227 0.23899999 -0.82300001 84 0 0 0 0.062940001
1.242 0.244 -0.833 43 0 0 0 0.06295
1.2410001 0.24600001 -0.833 47 0 0 0 0.062959999
1.238 0.24699999 -0.83200002 43 0 0 0 0.062969998
1.238 0.249 -0.83200002 41 0 0 0 0.062980004
1.24 0.25099999 -0.833 44 0 0 0 0.062990002
1.237 0.252 -0.83200002 41 0 0 0 0.063000001
1.24 0.255 -0.833 36 0 0 0 0.06301
1.239 0.257 -0.833 35 0 0 0 0.063019998
1.239 0.25799999 -0.833 42 0 0 0 0.063029997
1.228 0.25799999 -0.82499999 99 0 0 0 0.063040003
1.227 0.259 -0.824 99 0 0 0 0.063050002
1.24 0.264 -0.83200002 34 0 0 0 0.063060001
1.224 0.26199999 -0.82200003 102 0 0 0 0.063069999
1.2410001 0.26699999 -0.833 33 0 0 0 0.063079998
1.2410001 0.26899999 -0.83200002 38 0 0 0 0.063089997
1.229 0.26800001 -0.82300001 98 0 0 0 0.063100003
1.247 0.27399999 -0.83499998 40 0 0 0 0.063110001
1.2410001 0.27399999 -0.82999998 43 0 0 0 0.06312
1.245 0.27700001 -0.83200002 40 0 0 0 0.063129999
1.237 0.27599999 -0.82599998 92 0 0 0 0.063139997
1.237 0.278 -0.82499999 92 0 0 0 0.063150004
1.25 0.28200001 -0.833 37 0 0 0 0.063160002
1.252 0.28400001 -0.833 45 0 0 0 0.063170001
1.2539999 0.28600001 -0.833 39 0 0 0 0.06318
1.255 0.28799999 -0.833 30 0 0 0 0.063189998
1.258 0.28999999 -0.833 30 0 0 0 0.063199997
1.262 0.29300001 -0.83499998 35 0 0 0 0.063210003
1.262 0.294 -0.83399999 32 0 0 0 0.063220002
1.263 0.296 -0.833 32 0 0 0 0.06323
1.2640001 0.29699999 -0.83200002 42 0 0 0 0.063239999
1.2690001 0.30000001 -0.833 43 0 0 0 0.063249998
1.2690001 0.301 -0.83200002 43 0 0 0 0.063259996
1.275 0.30399999 -0.83399999 42 0 0 0 0.063270003
1.276 0.30500001 -0.833 43 0 0 0 0.063280001
1.2819999 0.308 -0.83600003 41 0 0 0 0.06329
1.283 0.30899999 -0.83399999 43 0 0 0 0.063299999
1.286 0.31099999 -0.83399999 62 0 0 0 0.063309997
1.288 0.31299999 -0.83399999 60 0 0 0 0.063320003
1.293 0.315 -0.83499998 15 0 0 0 0.063330002
1.296 0.317 -0.83499998 15 0 0 0 0.063340001
1.2970001 0.31799999 -0.833 15 0 0 0 0.063349999
1.3049999 0.32100001 -0.83499998 16 0 0 0 0.063359998
1.306 0.32300001 -0.83399999 16 0 0 0 0.063369997
1.313 0.32499999 -0.83600003 15 0 0 0 0.063380003
1.316 0.32699999 -0.83499998 15 0 0 0 0.063390002
1.316 0.32800001 -0.833 15 0 0 0 0.0634
1.321 0.33000001 -0.83399999 15 0 0 0 0.063409999
1.325 0.33199999 -0.83399999 15 0 0 0 0.063419998
1.334 0.33500001 -0.83700001 15 0 0 0 0.063429996
1.335 0.336 -0.83499998 15 0 0 0 0.063440003
1.342 0.338 -0.83600003 15 0 0 0 0.063450001
1.345 0.34 -0.83499998 15 0 0 0 0.06346
1.352 0.34200001 -0.83600003 15 0 0 0 0.063469999
1.357 0.34400001 -0.83700001 15 0 0 0 0.063479997
1.363 0.34599999 -0.83700001 15 0 0 0 0.063490003
1.3710001 0.34900001 -0.83899999 15 0 0 0 0.063500002
1.372 0.34999999 -0.83600003 15 0 0 0 0.063510001
1.376 0.35100001 -0.83499998 14 0 0 0 0.063519999
1.383 0.354 -0.83600003 15 0 0 0 0.063529998
1.388 0.35499999 -0.83600003 15 0 0 0 0.063539997
1.397 0.35800001 -0.838 15 0 0 0 0.063550003
1.401 0.36000001 -0.83700001 14 0 0 0 0.063560002
1.409 0.36199999 -0.83899999 14 0 0 0 0.06357
1.414 0.36399999 -0.838 14 0 0 0 0.063579999
1.424 0.366 -0.83999997 13 0 0 0 0.063589998
1.427 0.36700001 -0.838 13 0 0 0 0.063600004
1.434 0.36899999 -0.83899999 13 0 0 0 0.063610002
1.443 0.37200001 -0.83999997 14 0 0 0 0.063620001
1.448 0.373 -0.83899999 14 0 0 0 0.06363
1.4529999 0.375 -0.838 14 0 0 0 0.063639998
1.4630001 0.377 -0.83999997 14 0 0 0 0.063649997
1.4680001 0.37900001 -0.83899999 14 0 0 0 0.063660003
1.474 0.38 -0.83899999 14 0 0 0 0.063670002
1.477 0.38100001 -0.83600003 13 0 0 0 0.063680001
1.49 0.384 -0.83899999 15 0 0 0 0.063689999
1.506 0.38800001 -0.84399998 14 0 0 0 0.063699998
1.51 0.389 -0.84200001 14 0 0 0 0.063709997
1.525 0.39300001 -0.84600002 14 0 0 0 0.063720003
1.529 0.39399999 -0.84399998 14 0 0 0 0.063730001
1.5369999 0.396 -0.84399998 14 0 0 0 0.06374
1.546 0.398 -0.84399998 14 0 0 0 0.063749999
1.559 0.40000001 -0.84600002 15 0 0 0 0.063759997
1.564 0.40099999 -0.84500003 14 0 0 0 0.063770004
1.562 0.40000001 -0.83899999 56 0 0 0 0.063780002
1.572 0.403 -0.83999997 56 0 0 0 0.063790001
1.5829999 0.405 -0.84100002 58 0 0 0 0.0638
1.592 0.40700001 -0.84100002 58 0 0 0 0.063809998
1.6059999 0.41 -0.84399998 14 0 0 0 0.063819997
1.6160001 0.412 -0.84399998 15 0 0 0 0.063830003
1.617 0.41100001 -0.83999997 55 0 0 0 0.063840002
1.635 0.41499999 -0.84399998 15 0 0 0 0.063850001
1.648 0.41800001 -0.84500003 15 0 0 0 0.063859999
1.659 0.41999999 -0.84600002 15 0 0 0 0.063869998
1.669 0.42199999 -0.84600002 15 0 0 0 0.063879997
1.6799999 0.42300001 -0.84600002 15 0 0 0 0.063890003
1.687 0.42399999 -0.84500003 15 0 0 0 0.063900001
1.692 0.42500001 -0.84200001 50 0 0 0 0.06391
1.706 0.42699999 -0.84299999 49 0 0 0 0.063919999
1.719 0.42899999 -0.84399998 48 0 0 0 0.063929997
1.725 0.43000001 -0.84200001 46 0 0 0 0.063940004
1.739 0.43200001 -0.84299999 52 0 0 0 0.063950002
1.752 0.43399999 -0.84399998 42 0 0 0 0.063960001
1.765 0.43700001 -0.84399998 34 0 0 0 0.06397
1.777 0.43900001 -0.84500003 32 0 0 0 0.063979998
1.789 0.44 -0.84500003 39 0 0 0 0.063989997
1.801 0.442 -0.84399998 38 0 0 0 0.064000003
1.8099999 0.44299999 -0.84299999 41 0 0 0 0.064010002
1.832 0.447 -0.847 41 0 0 0 0.06402
1.841 0.44800001 -0.84600002 40 0 0 0 0.064029999
1.849 0.44800001 -0.84399998 40 0 0 0 0.064039998
1.8660001 0.44999999 -0.84500003 39 0 0 0 0.064049996
1.878 0.45199999 -0.84500003 35 0 0 0 0.064060003
1.891 0.45300001 -0.84399998 34 0 0 0 0.064070001
1.9069999 0.456 -0.84600002 35 0 0 0 0.06408
1.918 0.45699999 -0.84399998 35 0 0 0 0.064089999
1.937 0.45899999 -0.84600002 36 0 0 0 0.064099997
1.952 0.461 -0.847 35 0 0 0 0.064110003
1.966 0.463 -0.847 36 0 0 0 0.064120002
1.9809999 0.46399999 -0.84600002 36 0 0 0 0.064130001
1.9910001 0.465 -0.84399998 34 0 0 0 0.064139999
2.006 0.46599999 -0.84399998 35 0 0 0 0.064149998
2.0280001 0.46900001 -0.847 35 0 0 0 0.064159997
2.04 0.47 -0.84600002 34 0 0 0 0.064170003
2.062 0.47299999 -0.84799999 33 0 0 0 0.064180002
2.0769999 0.47499999 -0.847 33 0 0 0 0.06419
2.0929999 0.47600001 -0.847 30 0 0 0 0.064199999
2.108 0.477 -0.84600002 32 0 0 0 0.064209998
2.1199999 0.47799999 -0.84399998 36 0 0 0 0.064219996
2.1440001 0.48100001 -0.847 34 0 0 0 0.064230002
2.1600001 0.48199999 -0.84600002 34 0 0 0 0.064240001
2.181 0.484 -0.84799999 33 0 0 0 0.06425
2.1949999 0.48500001 -0.84600002 33 0 0 0 0.064259999
2.2130001 0.486 -0.84600002 33 0 0 0 0.064269997
2.2349999 0.48800001 -0.847 33 0 0 0 0.064280003
2.2579999 0.491 -0.84799999 33 0 0 0 0.064290002
2.2739999 0.49200001 -0.847 33 0 0 0 0.064300001
2.3 0.495 -0.85000002 34 0 0 0 0.064309999
2.313 0.495 -0.847 31 0 0 0 0.064319998
2.3340001 0.49599999 -0.847 30 0 0 0 0.064329997
2.3510001 0.49700001 -0.84600002 29 0 0 0 0.064340003
2.3789999 0.5 -0.84799999 29 0 0 0 0.064350002
2.4030001 0.50199997 -0.84899998 30 0 0 0 0.06436
2.421 0.50300002 -0.84799999 29 0 0 0 0.064369999
2.4430001 0.50400001 -0.84799999 29 0 0 0 0.064379998
2.467 0.50599998 -0.84799999 29 0 0 0 0.064390004
2.4920001 0.50800002 -0.84899998 29 0 0 0 0.064400002
2.5120001 0.509 -0.84799999 28 0 0 0 0.064410001
2.5409999 0.51099998 -0.85000002 29 0 0 0 0.06442
2.566 0.51300001 -0.85000002 30 0 0 0 0.064429998
2.586 0.51300001 -0.84899998 30 0 0 0 0.064439997
2.6129999 0.51499999 -0.84899998 29 0 0 0 0.064450003
2.641 0.51700002 -0.85000002 28 0 0 0 0.064460002
2.6700001 0.51899999 -0.85100001 29 0 0 0 0.064470001
2.6949999 0.51999998 -0.85100001 29 0 0 0 0.064479999
2.721 0.52200001 -0.85100001 29 0 0 0 0.064489998
2.747 0.523 -0.85000002 30 0 0 0 0.064499997
2.7809999 0.52600002 -0.852 28 0 0 0 0.064510003
2.813 0.528 -0.85299999 29 0 0 0 0.064520001
2.8410001 0.52899998 -0.85299999 28 0 0 0 0.06453
2.8729999 0.53100002 -0.85299999 28 0 0 0 0.064539999
2.9059999 0.53299999 -0.85399997 28 0 0 0 0.064549997
2.9400001 0.53500003 -0.85500002 28 0 0 0 0.064560004
2.977 0.537 -0.85699999 27 0 0 0 0.064570002
3.01 0.53899997 -0.85699999 28 0 0 0 0.064580001
3.0409999 0.54000002 -0.85699999 28 0 0 0 0.06459
3.073 0.54100001 -0.85600001 28 0 0 0 0.064599998
3.1140001 0.54400003 -0.85799998 32 0 0 0 0.064609997
3.1400001 0.54299998 -0.85600001 36 0 0 0 0.064620003
3.181 0.546 -0.85699999 30 0 0 0 0.064630002
3.2190001 0.54799998 -0.85799998 30 0 0 0 0.06464
3.257 0.54900002 -0.85799998 58 0 0 0 0.064649999
3.273 0.54699999 -0.852 150 0 0 0 0.064659998
3.2739999 0.542 -0.84299999 151 0 0 0 0.064669997
3.2780001 0.53799999 -0.83399999 150 0 0 0 0.064680003
3.28 0.53299999 -0.824 150 0 0 0 0.064690001
3.2750001 0.52700001 -0.81300002 150 0 0 0 0.0647
3.28 0.523 -0.80500001 150 0 0 0 0.064709999
3.2969999 0.51999998 -0.79900002 150 0 0 0 0.064719997
3.312 0.51700002 -0.79299998 151 0 0 0 0.064730003
3.309 0.51200002 -0.78200001 151 0 0 0 0.064740002
3.309 0.50599998 -0.77200001 151 0 0 0 0.064750001
3.3139999 0.50199997 -0.764 151 0 0 0 0.06476
3.3329999 0.49900001 -0.75800002 150 0 0 0 0.064769998
3.365 0.49900001 -0.755 151 0 0 0 0.064779997
3.375 0.495 -0.74800003 152 0 0 0 0.064790003
3.3800001 0.49000001 -0.73900002 151 0 0 0 0.064800002
3.382 0.48500001 -0.72899997 151 0 0 0 0.06481
3.3800001 0.479 -0.71899998 151 0 0 0 0.064819999
3.3800001 0.47400001 -0.70899999 151 0 0 0 0.064829998
3.382 0.46799999 -0.69999999 151 0 0 0 0.064839996
3.385 0.463 -0.69 151 0 0 0 0.064850003
3.382 0.45699999 -0.68000001 151 0 0 0 0.064860001
3.381 0.45199999 -0.67000002 151 0 0 0 0.06487
3.3840001 0.44600001 -0.66100001 151 0 0 0 0.064879999
3.3859999 0.44100001 -0.65100002 151 0 0 0 0.064889997
3.3840001 0.435 -0.64099997 151 0 0 0 0.064900003
3.3859999 0.43000001 -0.63200003 151 0 0 0 0.064910002
3.382 0.42300001 -0.62099999 151 0 0 0 0.064920001
3.3840001 0.41800001 -0.61199999 151 0 0 0 0.064929999
3.3859999 0.41299999 -0.60299999 151 0 0 0 0.064939998
3.3889999 0.40700001 -0.59399998 151 0 0 0 0.064949997
3.3859999 0.40099999 -0.58399999 151 0 0 0 0.064960003
3.388 0.396 -0.574 151 0 0 0 0.064970002
3.3900001 0.38999999 -0.565 151 0 0 0 0.06498
3.3929999 0.384 -0.55599999 151 0 0 0 0.064989999
3.391 0.37799999 -0.546 151 0 0 0 0.064999998
3.385 0.37200001 -0.53500003 151 0 0 0 0.065009996
3.391 0.36700001 -0.52700001 151 0 0 0 0.065020002
3.3929999 0.361 -0.51800001 151 0 0 0 0.065030001
3.388 0.35499999 -0.50700003 151 0 0 0 0.06504
3.3929999 0.34900001 -0.49900001 151 0 0 0 0.065049998
3.3940001 0.34299999 -0.48899999 151 0 0 0 0.065059997
3.3929999 0.33700001 -0.47999999 151 0 0 0 0.065070003
3.395 0.331 -0.47 151 0 0 0 0.065080002
3.3970001 0.32600001 -0.461 151 0 0 0 0.065090001
3.3989999 0.31999999 -0.45199999 151 0 0 0 0.065099999
3.3959999 0.31400001 -0.442 151 0 0 0 0.065109998
3.398 0.308 -0.433 151 0 0 0 0.065119997
3.4000001 0.30199999 -0.42399999 151 0 0 0 0.065130003
3.3959999 0.29499999 -0.414 151 0 0 0 0.065140001
3.3970001 0.289 -0.405 151 0 0 0 0.06515
3.3989999 0.28299999 -0.396 151 0 0 0 0.065159999
3.3989999 0.27700001 -0.38699999 151 0 0 0 0.065169998
3.3970001 0.271 -0.377 151 0 0 0 0.065180004
3.391 0.264 -0.36700001 151 0 0 0 0.065190002
3.4000001 0.259 -0.359 151 0 0 0 0.065200001
3.3959999 0.25299999 -0.34900001 151 0 0 0 0.06521
3.401 0.24699999 -0.34 151 0 0 0 0.065219998
3.401 0.23999999 -0.331 151 0 0 0 0.065229997
3.402 0.234 -0.322 152 0 0 0 0.065240003
3.405 0.228 -0.31299999 152 0 0 0 0.065250002
3.405 0.222 -0.30399999 152 0 0 0 0.065260001
3.405 0.21600001 -0.29499999 152 0 0 0 0.065269999
3.404 0.20900001 -0.28600001 152 0 0 0 0.065279998
3.4089999 0.20299999 -0.27700001 152 0 0 0 0.065289997
3.4070001 0.197 -0.26800001 152 0 0 0 0.065300003
3.4030001 0.19 -0.25799999 152 0 0 0 0.065310001
3.4089999 0.184 -0.25 152 0 0 0 0.06532
3.4130001 0.178 -0.241 152 0 0 0 0.065329999
3.4059999 0.17200001 -0.23100001 152 0 0 0 0.065339997
3.404 0.16500001 -0.222 153 0 0 0 0.065350004
3.402 0.15899999 -0.213 153 0 0 0 0.065360002
3.398 0.152 -0.204 153 0 0 0 0.065370001
3.3989999 0.146 -0.19499999 153 0 0 0 0.06538
3.4000001 0.139 -0.186 153 0 0 0 0.065389998
3.3970001 0.133 -0.177 154 0 0 0 0.065399997
3.3929999 0.126 -0.168 154 0 0 0 0.065410003
3.3970001 0.12 -0.15899999 154 0 0 0 0.065420002
3.3940001 0.113 -0.15000001 154 0 0 0 0.06543
3.395 0.107 -0.141 154 0 0 0 0.065439999
3.395 0.1 -0.132 153 0 0 0 0.065449998
3.401 0.093999997 -0.123 153 0 0 0 0.065459996
3.3959999 0.086999997 -0.114 154 0 0 0 0.065470003
3.3970001 0.081 -0.106 154 0 0 0 0.065480001
3.4000001 0.074000001 -0.097000003 154 0 0 0 0.06549
3.401 0.067000002 -0.088 153 0 0 0 0.065499999
3.4030001 0.061000001 -0.079000004 153 0 0 0 0.065509997
3.411 0.054000001 -0.071000002 153 0 0 0 0.065520003
3.4070001 0.048 -0.061999999 153 0 0 0 0.065530002
3.4070001 0.041000001 -0.052999999 153 0 0 0 0.065540001
3.4119999 0.034000002 -0.044 153 0 0 0 0.065549999
3.418 0.028000001 -0.035 152 0 0 0 0.065559998
3.421 0.021 -0.027000001 152 0 0 0 0.065569997
3.421 0.014 -0.017999999 151 0 0 0 0.065580003
3.4219999 0.0080000004 -0.0089999996 152 0 0 0 0.065590002
3.4219999 0.001 0 152 0 0 0 0.0656
3.4230001 -0.0049999999 0.0070000002 151 0 0 0 0.065609999
3.424 -0.012 0.016000001 151 0 0 0 0.065619998
3.424 -0.018999999 0.025 151 0 0 0 0.065629996
3.427 -0.026000001 0.034000002 152 0 0 0 0.065640002
3.427 -0.032000002 0.041999999 151 0 0 0 0.065650001
3.4260001 -0.039000001 0.050999999 151 0 0 0 0.06566
3.427 -0.046 0.059999999 151 0 0 0 0.065669999
3.4260001 -0.052999999 0.068000004 151 0 0 0 0.065679997
3.4300001 -0.059999999 0.077 151 0 0 0 0.065690003
3.4330001 -0.067000002 0.086000003 151 0 0 0 0.065700002
3.431 -0.074000001 0.094999999 151 0 0 0 0.065710001
3.4319999 -0.081 0.103 151 0 0 0 0.065719999
3.431 -0.088 0.112 151 0 0 0 0.065729998
3.4300001 -0.094999999 0.12 151 0 0 0 0.065739997
3.4360001 -0.102 0.12899999 151 0 0 0 0.065750003
3.4349999 -0.109 0.138 151 0 0 0 0.065760002
3.434 -0.116 0.146 151 0 0 0 0.06577
3.438 -0.123 0.155 151 0 0 0 0.065779999
3.438 -0.13 0.164 151 0 0 0 0.065789998
3.438 -0.138 0.17200001 151 0 0 0 0.065800004
3.4360001 -0.145 0.18099999 151 0 0 0 0.065810002
3.4360001 -0.152 0.189 151 0 0 0 0.065820001
3.438 -0.15899999 0.198 151 0 0 0 0.06583
3.4389999 -0.16599999 0.207 152 0 0 0 0.065839998
3.4400001 -0.17399999 0.215 151 0 0 0 0.065849997
3.3829999 -0.178 0.22 150 0 0 0 0.065860003
3.3740001 -0.184 0.228 151 0 0 0 0.065870002
3.3740001 -0.192 0.236 151 0 0 0 0.065880001
3.378 -0.199 0.245 152 0 0 0 0.065889999
3.369 -0.206 0.25299999 150 0 0 0 0.065899998
3.346 -0.211 0.259 150 0 0 0 0.065909997
3.346 -0.21799999 0.26699999 151 0 0 0 0.065920003
3.346 -0.226 0.27599999 151 0 0 0 0.065930001
3.342 -0.233 0.28299999 151 0 0 0 0.06594
3.342 -0.23999999 0.292 151 0 0 0 0.065949999
3.349 -0.24699999 0.30000001 152 0 0 0 0.065959997
3.3410001 -0.25400001 0.308 150 0 0 0 0.065970004
3.283 -0.257 0.31099999 43 0 0 0 0.065980002
3.2379999 -0.25999999 0.31400001 150 0 0 0 0.065990001
3.237 -0.26699999 0.322 151 0 0 0 0.066
3.2360001 -0.27399999 0.33000001 151 0 0 0 0.066009998
3.2379999 -0.28099999 0.338 151 0 0 0 0.066019997
3.2360001 -0.28799999 0.34599999 151 0 0 0 0.066030003
3.2360001 -0.29499999 0.35299999 151 0 0 0 0.066040002
3.2379999 -0.303 0.36199999 151 0 0 0 0.06605
3.2390001 -0.31 0.36899999 151 0 0 0 0.066059999
3.2190001 -0.315 0.375 150 0 0 0 0.066069998
3.214 -0.322 0.382 151 0 0 0 0.066079997
3.2119999 -0.329 0.38999999 151 0 0 0 0.066090003
3.2149999 -0.33700001 0.398 151 0 0 0 0.066100001
3.2119999 -0.34299999 0.405 151 0 0 0 0.06611
3.21 -0.34999999 0.41299999 151 0 0 0 0.066119999
3.2130001 -0.35800001 0.421 151 0 0 0 0.066129997
3.2019999 -0.36399999 0.42699999 151 0 0 0 0.066140004
2.8870001 -0.33500001 0.39199999 150 0 0 0 0.066150002
2.773 -0.32800001 0.38299999 96 0 0 0 0.066160001
2.5480001 -0.30700001 0.35800001 21 0 0 0 0.06617
2.507 -0.308 0.35800001 20 0 0 0 0.066179998
2.47 -0.30899999 0.359 18 0 0 0 0.066189997
2.4300001 -0.30899999 0.359 15 0 0 0 0.066200003
2.3929999 -0.31 0.359 25 0 0 0 0.066210002
2.3859999 -0.315 0.36399999 23 0 0 0 0.06622
2.3870001 -0.31999999 0.36899999 3 0 0 0 0.066229999
2.3970001 -0.32699999 0.377 0 0 0 0 0.066239998
2.404 -0.33399999 0.38299999 0 0 0 0 0.066249996
2.3900001 -0.33700001 0.38699999 0 0 0 0 0.066260003
2.3800001 -0.34200001 0.391 0 0 0 0 0.066270001
0 0 0 0 0 0 0 0.06628
0 0 0 0 0 0 0 0.066289999
0 0 0 0 0 0 0 0.066299997
0 0 0 0 0 0 0 0.066310003
0 0 0 0 0 0 0 0.066320002
0 0 0 0 0 0 0 0.066330001
0 0 0 0 0 0 0 0.066339999
0 0 0 0 0 0 0 0.066349998
0 0 0 0 0 0 0 0.066359997
0 0 0 0 0 0 0 0.066370003
0 0 0 0 0 0 0 0.066380002
0 0 0 0 0 0 0 0.06639
0 0 0 0 0 0 0 0.066399999
0 0 0 0 0 0 0 0.066409998
0 0 0 0 0 0 0 0.066419996
0 0 0 0 0 0 0 0.066430002
0 0 0 0 0 0 0 0.066440001
0 0 0 0 0 0 0 0.06645
0 0 0 0 0 0 0 0.066459998
0 0 0 0 0 0 0 0.066469997
0 0 0 0 0 0 0 0.066480003
0 0 0 0 0 0 0 0.066490002
0 0 0 0 0 0 0 0.066500001
0 0 0 0 0 0 0 0.066509999
0 0 0 0 0 0 0 0.066519998
0 0 0 0 0 0 0 0.066529997
0 0 0 0 0 0 0 0.066540003
0 0 0 0 0 0 0 0.066550002
0 0 0 0 0 0 0 0.06656
0 0 0 0 0 0 0 0.066569999
0 0 0 0 0 0 0 0.066579998
0 0 0 0 0 0 0 0.066590004
0 0 0 0 0 0 0 0.066600002
0 0 0 0 0 0 0 0.066610001
0 0 0 0 0 0 0 0.06662
0 0 0 0 0 0 0 0.066629998
0 0 0 0 0 0 0 0.066639997
0 0 0 0 0 0 0 0.066650003
2.451 -0.58999997 0.61900002 0 0 0 0 0.066660002
2.4030001 -0.58499998 0.61199999 0 0 0 0 0.066670001
2.4260001 -0.597 0.62300003 0 0 0 0 0.066679999
0 0 0 0 0 0 0 0.066689998
0 0 0 0 0 0 0 0.066699997
0 0 0 0 0 0 0 0.066710003
2.378 -0.61000001 0.63099998 0 0 0 0 0.066720001
2.444 -0.634 0.65399998 0 0 0 0 0.06673
2.3989999 -0.62900001 0.64700001 0 0 0 0 0.066739999
0 0 0 0 0 0 0 0.066749997
0 0 0 0 0 0 0 0.066760004
0 0 0 0 0 0 0 0.066770002
2.434 -0.66399997 0.67699999 0 0 0 0 0.066780001
0 0 0 0 0 0 0 0.06679
2.425 -0.67500001 0.68400002 0 0 0 0 0.066799998
0 0 0 0 0 0 0 0.066809997
2.3929999 -0.67900002 0.685 0 0 0 0 0.066820003
0 0 0 0 0 0 0 0.066830002
2.4130001 -0.69800001 0.69999999 0 0 0 0 0.06684
0 0 0 0 0 0 0 0.066849999
2.858 -0.84299999 0.84100002 0 0 0 0 0.066859998
2.3870001 -0.70999998 0.70700002 0 0 0 0 0.066869996
2.381 -0.71499997 0.70999998 0 0 0 0 0.066880003
2.7520001 -0.83499998 0.82599998 0 0 0 0 0.066890001
0 0 0 0 0 0 0 0.0669
2.441 -0.75400001 0.74199998 0 0 0 0 0.066909999
0 0 0 0 0 0 0 0.066919997
2.401 -0.755 0.73900002 0 0 0 0 0.066930003
2.4560001 -0.77899998 0.76099998 0 0 0 0 0.066940002
2.415 -0.773 0.75300002 0 0 0 0 0.066950001
0 0 0 0 0 0 0 0.06696
2.994 -0.97500002 0.94400001 0 0 0 0 0.066969998
2.3840001 -0.78299999 0.75599998 0 0 0 0 0.066979997
2.783 -0.92199999 0.88800001 0 0 0 0 0.066990003
2.9070001 -0.972 0.93300003 0 0 0 0 0.067000002
2.822 -0.95099998 0.91100001 0 0 0 0 0.06701
2.7820001 -0.94599998 0.903 0 0 0 0 0.067019999
2.7579999 -0.94599998 0.89999998 0 0 0 0 0.067029998
3.073 -1.062 1.008 0 0 0 0 0.067039996
4.1669998 -1.4529999 1.375 17 0 0 0 0.067050003
2.927 -1.029 0.97100002 0 0 0 0 0.067060001
4.1079998 -1.456 1.37 17 0 0 0 0.06707
4.0770001 -1.457 1.3660001 17 0 0 0 0.067079999
4.0560002 -1.461 1.3660001 17 0 0 0 0.067089997
4.0190001 -1.459 1.36 17 0 0 0 0.067100003
3.9979999 -1.4630001 1.36 18 0 0 0 0.067110002
3.967 -1.4630001 1.3559999 19 0 0 0 0.067120001
3.937 -1.464 1.352 20 0 0 0 0.067129999
3.9030001 -1.462 1.347 20 0 0 0 0.067139998
3.8740001 -1.4630001 1.3430001 23 0 0 0 0.067149997
3.8559999 -1.467 1.3430001 45 0 0 0 0.067160003
3.8510001 -1.476 1.347 24 0 0 0 0.067170002
3.776 -1.459 1.327 28 0 0 0 0.06718
3.668 -1.427 1.294 43 0 0 0 0.067189999
3.6670001 -1.438 1.299 61 0 0 0 0.067199998
3.668 -1.449 1.3049999 61 0 0 0 0.067209996
3.668 -1.459 1.311 61 0 0 0 0.067220002
3.668 -1.47 1.316 61 0 0 0 0.067230001
3.6689999 -1.4809999 1.322 60 0 0 0 0.06724
3.6689999 -1.492 1.327 61 0 0 0 0.067249998
3.671 -1.503 1.3329999 64 0 0 0 0.067259997
3.674 -1.515 1.339 65 0 0 0 0.067270003
3.671 -1.525 1.3430001 63 0 0 0 0.067280002
3.6789999 -1.538 1.351 64 0 0 0 0.067290001
3.675 -1.5470001 1.354 64 0 0 0 0.067299999
3.6760001 -1.559 1.359 70 0 0 0 0.067309998
3.6730001 -1.568 1.363 71 0 0 0 0.067319997
3.674 -1.579 1.368 70 0 0 0 0.067330003
3.6719999 -1.5880001 1.3710001 71 0 0 0 0.067340001
3.675 -1.6 1.377 73 0 0 0 0.06735
3.677 -1.612 1.382 70 0 0 0 0.067359999
3.6789999 -1.623 1.387 69 0 0 0 0.067369998
3.677 -1.633 1.391 66 0 0 0 0.067380004
3.681 -1.645 1.396 68 0 0 0 0.067390002
3.6819999 -1.656 1.4 68 0 0 0 0.067400001
3.678 -1.665 1.403 65 0 0 0 0.06741
3.6760001 -1.674 1.406 65 0 0 0 0.067419998
3.6819999 -1.687 1.4119999 65 0 0 0 0.067429997
3.6800001 -1.696 1.415 65 0 0 0 0.067440003
3.6830001 -1.7079999 1.419 66 0 0 0 0.067450002
3.684 -1.719 1.423 65 0 0 0 0.067460001
3.6860001 -1.73 1.427 65 0 0 0 0.067469999
3.6900001 -1.742 1.432 66 0 0 0 0.067479998
3.6900001 -1.752 1.4349999 66 0 0 0 0.067489997
3.707 -1.77 1.444 69 0 0 0 0.067500003
3.72 -1.7869999 1.4529999 71 0 0 0 0.067510001
3.7639999 -1.817 1.472 75 0 0 0 0.06752
3.882 -1.885 1.522 36 0 0 0 0.067529999
3.8829999 -1.896 1.525 32 0 0 0 0.067539997
3.8770001 -1.903 1.525 30 0 0 0 0.067550004
3.8699999 -1.91 1.525 30 0 0 0 0.067560002
3.868 -1.919 1.526 31 0 0 0 0.067570001
3.8570001 -1.924 1.524 28 0 0 0 0.06758
3.855 -1.933 1.525 30 0 0 0 0.067589998
3.8510001 -1.9400001 1.526 29 0 0 0 0.067599997
3.8469999 -1.948 1.526 29 0 0 0 0.067610003
3.845 -1.957 1.527 29 0 0 0 0.067620002
3.8429999 -1.966 1.528 30 0 0 0 0.06763
3.839 -1.973 1.528 29 0 0 0 0.067639999
3.836 -1.9809999 1.528 28 0 0 0 0.067649998
3.836 -1.99 1.529 28 0 0 0 0.067659996
3.829 -1.9960001 1.528 29 0 0 0 0.067670003
3.825 -2.003 1.527 30 0 0 0 0.067680001
3.822 -2.01 1.526 29 0 0 0 0.06769
3.822 -2.0190001 1.527 30 0 0 0 0.067699999
3.8210001 -2.0280001 1.527 30 0 0 0 0.067709997
3.822 -2.0369999 1.529 29 0 0 0 0.067720003
3.8169999 -2.043 1.527 29 0 0 0 0.067730002
3.8180001 -2.052 1.527 30 0 0 0 0.067740001
3.813 -2.0569999 1.525 29 0 0 0 0.067749999
3.8169999 -2.0680001 1.527 27 0 0 0 0.067759998
3.8139999 -2.075 1.526 27 0 0 0 0.067769997
3.8180001 -2.085 1.527 27 0 0 0 0.067780003
3.8150001 -2.0910001 1.525 27 0 0 0 0.067790002
3.8199999 -2.102 1.527 28 0 0 0 0.0678
3.8210001 -2.1099999 1.526 27 0 0 0 0.067809999
3.8239999 -2.1199999 1.527 26 0 0 0 0.067819998
3.8239999 -2.1270001 1.526 27 0 0 0 0.067829996
3.8310001 -2.138 1.527 26 0 0 0 0.067840002
3.8329999 -2.1470001 1.527 25 0 0 0 0.067850001
3.8369999 -2.1559999 1.527 25 0 0 0 0.06786
3.842 -2.1659999 1.528 24 0 0 0 0.067869999
3.845 -2.174 1.527 24 0 0 0 0.067879997
3.8510001 -2.184 1.528 24 0 0 0 0.067890003
3.8570001 -2.194 1.528 24 0 0 0 0.067900002
3.8570001 -2.201 1.526 24 0 0 0 0.067910001
3.8659999 -2.2119999 1.527 23 0 0 0 0.067919999
3.8710001 -2.221 1.527 23 0 0 0 0.067929998
3.8740001 -2.2279999 1.526 23 0 0 0 0.067939997
3.8840001 -2.24 1.527 23 0 0 0 0.067950003
3.8940001 -2.2509999 1.528 23 0 0 0 0.067960002
3.898 -2.2590001 1.527 23 0 0 0 0.06797
3.9100001 -2.2720001 1.529 24 0 0 0 0.067979999
3.918 -2.2820001 1.529 23 0 0 0 0.067989998
3.9230001 -2.29 1.528 23 0 0 0 0.068000004
3.9330001 -2.3010001 1.528 23 0 0 0 0.068010002
3.9400001 -2.309 1.527 22 0 0 0 0.068020001
3.95 -2.3199999 1.528 24 0 0 0 0.06803
3.9630001 -2.3310001 1.529 24 0 0 0 0.068039998
3.9690001 -2.339 1.527 25 0 0 0 0.068049997
3.983 -2.3510001 1.528 25 0 0 0 0.068060003
3.9949999 -2.362 1.529 24 0 0 0 0.068070002
4.0089998 -2.375 1.53 24 0 0 0 0.068080001
4.0159998 -2.382 1.528 24 0 0 0 0.068089999
4.0279999 -2.3929999 1.528 25 0 0 0 0.068099998
4.0440001 -2.405 1.529 25 0 0 0 0.068109997
4.0539999 -2.414 1.528 25 0 0 0 0.068120003
4.072 -2.428 1.529 25 0 0 0 0.068130001
4.086 -2.4389999 1.53 25 0 0 0 0.06814
4.0999999 -2.45 1.53 25 0 0 0 0.068149999
4.1129999 -2.46 1.529 24 0 0 0 0.068159997
4.131 -2.473 1.53 24 0 0 0 0.068170004
4.1500001 -2.4860001 1.531 25 0 0 0 0.068180002
4.1680002 -2.4979999 1.5319999 24 0 0 0 0.068190001
4.184 -2.51 1.5319999 25 0 0 0 0.0682
4.2020001 -2.5220001 1.5319999 24 0 0 0 0.068209998
4.2189999 -2.533 1.5319999 24 0 0 0 0.068219997
4.243 -2.5480001 1.534 25 0 0 0 0.068230003
4.2589998 -2.5580001 1.533 25 0 0 0 0.068240002
4.2800002 -2.5710001 1.534 24 0 0 0 0.06825
4.2940001 -2.5799999 1.5319999 25 0 0 0 0.068259999
4.3210001 -2.596 1.535 25 0 0 0 0.068269998
4.335 -2.605 1.533 24 0 0 0 0.068279997
4.362 -2.6210001 1.535 24 0 0 0 0.068290003
4.382 -2.632 1.535 24 0 0 0 0.068300001
4.4029999 -2.6440001 1.535 25 0 0 0 0.06831
4.4299998 -2.6589999 1.536 25 0 0 0 0.068319999
4.4510002 -2.671 1.536 25 0 0 0 0.068329997
2.4460001 -1.467 0.83999997 0 0 0 0 0.068340003
2.4820001 -1.487 0.84799999 0 0 0 0 0.068350002
4.5170002 -2.7049999 1.535 25 0 0 0 0.068360001
4.5419998 -2.7179999 1.535 25 0 0 0 0.06837
4.5710001 -2.733 1.536 25 0 0 0 0.068379998
4.5999999 -2.7479999 1.5369999 26 0 0 0 0.068389997
4.6209998 -2.7579999 1.536 25 0 0 0 0.068400003
2.4920001 -1.485 0.82300001 0 0 0 0 0.068410002
4.6750002 -2.7839999 1.536 27 0 0 0 0.06842
4.7080002 -2.8 1.538 32 0 0 0 0.068429999
4.7270002 -2.8080001 1.535 36 0 0 0 0.068439998
4.7319999 -2.8069999 1.528 40 0 0 0 0.068449996
4.7290001 -2.8010001 1.517 38 0 0 0 0.068460003
4.7379999 -2.802 1.511 34 0 0 0 0.068470001
4.73 -2.793 1.499 33 0 0 0 0.06848
4.7309999 -2.789 1.49 33 0 0 0 0.068489999
2.4790001 -1.459 0.77499998 0 0 0 0 0.068499997
2.5109999 -1.474 0.77999997 0 0 0 0 0.068510003
4.7290001 -2.7720001 1.46 35 0 0 0 0.068520002
4.7249999 -2.7639999 1.45 35 0 0 0 0.068530001
4.7259998 -2.7590001 1.4400001 35 0 0 0 0.068539999
4.7270002 -2.753 1.431 34 0 0 0 0.068549998
4.7270002 -2.7479999 1.421 35 0 0 0 0.068559997
4.723 -2.7390001 1.41 36 0 0 0 0.068570003
4.7179999 -2.73 1.399 35 0 0 0 0.068580002
4.724 -2.727 1.391 35 0 0 0 0.06859
4.7220001 -2.7190001 1.38 36 0 0 0 0.068599999
4.7249999 -2.7130001 1.3710001 35 0 0 0 0.068609998
4.7210002 -2.704 1.36 36 0 0 0 0.068619996
2.4860001 -1.42 0.71100003 0 0 0 0 0.068630002
2.487 -1.4170001 0.70599997 0 0 0 0 0.068640001
4.7220001 -2.6819999 1.33 33 0 0 0 0.06865
4.7210002 -2.6730001 1.3200001 34 0 0 0 0.068659998
4.7220001 -2.6659999 1.3099999 34 0 0 0 0.068669997
4.724 -2.6589999 1.301 33 0 0 0 0.068680003
4.7220001 -2.6489999 1.29 32 0 0 0 0.068690002
4.7220001 -2.641 1.28 32 0 0 0 0.068700001
4.724 -2.6340001 1.271 32 0 0 0 0.068709999
4.7179999 -2.6210001 1.2589999 34 0 0 0 0.068719998
4.7220001 -2.6140001 1.25 32 0 0 0 0.068729997
4.7210002 -2.605 1.24 32 0 0 0 0.068740003
4.7160001 -2.5929999 1.229 32 0 0 0 0.068750001
4.7179999 -2.585 1.219 32 0 0 0 0.06876
4.7179999 -2.575 1.209 30 0 0 0 0.068769999
4.7150002 -2.5639999 1.198 30 0 0 0 0.068779998
2.471 -1.3380001 0.62300003 0 0 0 0 0.068790004
2.526 -1.363 0.63099998 0 0 0 0 0.068800002
2.51 -1.349 0.62199998 0 0 0 0 0.068810001
2.5639999 -1.372 0.63 0 0 0 0 0.06882
2.4430001 -1.303 0.59500003 0 0 0 0 0.068829998
2.415 -1.2819999 0.583 0 0 0 0 0.068839997
2.454 -1.2970001 0.58700001 0 0 0 0 0.068850003
2.4389999 -1.284 0.579 0 0 0 0 0.068860002
2.451 -1.285 0.57700002 0 0 0 0 0.068870001
2.4549999 -1.281 0.57200003 0 0 0 0 0.068879999
2.506 -1.302 0.579 0 0 0 0 0.068889998
2.507 -1.2970001 0.574 0 0 0 0 0.068899997
2.4560001 -1.2640001 0.55699998 0 0 0 0 0.068910003
2.4749999 -1.268 0.55599999 0 0 0 0 0.068920001
2.4960001 -1.273 0.55599999 0 0 0 0 0.06893
2.4230001 -1.23 0.53500003 0 0 0 0 0.068939999
2.5050001 -1.265 0.54799998 0 0 0 0 0.068949997
2.4489999 -1.2309999 0.52999997 0 0 0 0 0.068960004
4.6999998 -2.3510001 1.0089999 33 0 0 0 0.068970002
4.6960001 -2.3369999 0.99800003 38 0 0 0 0.068980001
4.0320001 -1.9960001 0.84899998 151 0 0 0 0.06899
3.9089999 -1.925 0.815 151 0 0 0 0.068999998
3.7090001 -1.817 0.76599997 126 0 0 0 0.069009997
3.848 -1.876 0.787 150 0 0 0 0.069020003
4.0669999 -1.972 0.824 151 0 0 0 0.069030002
4.539 -2.1889999 0.91000003 150 0 0 0 0.06904
4.598 -2.2049999 0.91299999 150 0 0 0 0.069049999
4.6399999 -2.2130001 0.912 135 0 0 0 0.069059998
4.6750002 -2.217 0.91000003 56 0 0 0 0.069069996
2.437 -1.149 0.47 0 0 0 0 0.069080003
2.4519999 -1.15 0.46799999 0 0 0 0 0.069090001
2.448 -1.141 0.46200001 0 0 0 0 0.0691
4.6760001 -2.1670001 0.87400001 43 0 0 0 0.069109999
4.678 -2.155 0.866 36 0 0 0 0.069119997
2.4360001 -1.1160001 0.44600001 0 0 0 0 0.069130003
2.4089999 -1.096 0.43599999 0 0 0 0 0.069140002
2.4779999 -1.1210001 0.44400001 0 0 0 0 0.069150001
2.4449999 -1.099 0.43399999 0 0 0 0 0.069159999
2.398 -1.071 0.421 0 0 0 0 0.069169998
2.3770001 -1.0549999 0.41299999 0 0 0 0 0.069179997
2.493 -1.1 0.428 0 0 0 0 0.069190003
2.3710001 -1.039 0.403 0 0 0 0 0.069200002
2.4790001 -1.08 0.417 0 0 0 0 0.06921
2.437 -1.054 0.40599999 0 0 0 0 0.069219999
2.4590001 -1.057 0.405 0 0 0 0 0.069229998
2.4170001 -1.0319999 0.39300001 0 0 0 0 0.069239996
2.471 -1.048 0.398 0 0 0 0 0.069250003
2.48 -1.044 0.39500001 0 0 0 0 0.069260001
2.3859999 -0.99800003 0.37599999 0 0 0 0 0.06927
2.4189999 -1.0039999 0.377 0 0 0 0 0.069279999
0 0 0 0 0 0 0 0.069289997
2.405 -0.98400003 0.366 0 0 0 0 0.069300003
0 0 0 0 0 0 0 0.069310002
0 0 0 0 0 0 0 0.069320001
0 0 0 0 0 0 0 0.069329999
0 0 0 0 0 0 0 0.069339998
0 0 0 0 0 0 0 0.069349997
0 0 0 0 0 0 0 0.069360003
0 0 0 0 0 0 0 0.069370002
0 0 0 0 0 0 0 0.06938
0 0 0 0 0 0 0 0.069389999
0 0 0 0 0 0 0 0.069399998
2.4330001 -0.91600001 0.32499999 0 0 0 0 0.069410004
0 0 0 0 0 0 0 0.069420002
0 0 0 0 0 0 0 0.069430001
0 0 0 0 0 0 0 0.06944
0 0 0 0 0 0 0 0.069449998
0 0 0 0 0 0 0 0.069459997
0 0 0 0 0 0 0 0.069470003
2.411 -0.85699999 0.296 0 0 0 0 0.069480002
0 0 0 0 0 0 0 0.069490001
0 0 0 0 0 0 0 0.069499999
0 0 0 0 0 0 0 0.069509998
3.0109999 -1.033 0.35100001 0 0 0 0 0.069519997
0 0 0 0 0 0 0 0.069530003
0 0 0 0 0 0 0 0.069540001
0 0 0 0 0 0 0 0.06955
2.869 -0.949 0.317 0 0 0 0 0.069559999
2.822 -0.92500001 0.308 0 0 0 0 0.069569997
0 0 0 0 0 0 0 0.069580004
0 0 0 0 0 0 0 0.069590002
0 0 0 0 0 0 0 0.069600001
0 0 0 0 0 0 0 0.06961
0 0 0 0 0 0 0 0.069619998
0 0 0 0 0 0 0 0.069629997
0 0 0 0 0 0 0 0.069640003
0 0 0 0 0 0 0 0.069650002
0 0 0 0 0 0 0 0.069660001
0 0 0 0 0 0 0 0.069669999
0 0 0 0 0 0 0 0.069679998
0 0 0 0 0 0 0 0.069689997
0 0 0 0 0 0 0 0.069700003
0 0 0 0 0 0 0 0.069710001
0 0 0 0 0 0 0 0.06972
0 0 0 0 0 0 0 0.069729999
0 0 0 0 0 0 0 0.069739997
0 0 0 0 0 0 0 0.069750004
0 0 0 0 0 0 0 0.069760002
0 0 0 0 0 0 0 0.069770001
0 0 0 0 0 0 0 0.06978
0 0 0 0 0 0 0 0.069789998
0 0 0 0 0 0 0 0.069799997
0 0 0 0 0 0 0 0.069810003
0 0 0 0 0 0 0 0.069820002
0 0 0 0 0 0 0 0.06983
0 0 0 0 0 0 0 0.069839999
0 0 0 0 0 0 0 0.069849998
0 0 0 0 0 0 0 0.069859996
0 0 0 0 0 0 0 0.069870003
0 0 0 0 0 0 0 0.069880001
0 0 0 0 0 0 0 0.06989
0 0 0 0 0 0 0 0.069899999
0 0 0 0 0 0 0 0.069909997
0 0 0 0 0 0 0 0.069920003
0 0 0 0 0 0 0 0.069930002
0 0 0 0 0 0 0 0.069940001
0 0 0 0 0 0 0 0.069949999
0 0 0 0 0 0 0 0.069959998
0 0 0 0 0 0 0 0.069969997
0 0 0 0 0 0 0 0.069980003
0 0 0 0 0 0 0 0.069990002
0 0 0 0 0 0 0 0.07
0 0 0 0 0 0 0 0.070009999
2.3929999 -0.449 0.126 0 0 0 0 0.070019998
2.382 -0.44 0.123 2 0 0 0 0.070029996
2.382 -0.433 0.12 7 0 0 0 0.070040002
2.3740001 -0.42399999 0.117 14 0 0 0 0.070050001
2.3729999 -0.41600001 0.115 18 0 0 0 0.07006
2.3699999 -0.40799999 0.112 18 0 0 0 0.070069999
2.3659999 -0.40000001 0.109 20 0 0 0 0.070079997
2.3670001 -0.39300001 0.107 22 0 0 0 0.070090003
2.369 -0.38600001 0.105 21 0 0 0 0.070100002
2.368 -0.37799999 0.102 23 0 0 0 0.070110001
2.369 -0.37099999 0.1 21 0 0 0 0.070119999
2.3629999 -0.36199999 0.097000003 20 0 0 0 0.070129998
2.362 -0.35499999 0.094999999 16 0 0 0 0.070139997
2.365 -0.34799999 0.093000002 18 0 0 0 0.070150003
2.365 -0.34 0.090000004 18 0 0 0 0.070160002
2.365 -0.333 0.088 17 0 0 0 0.07017
2.369 -0.32600001 0.086000003 20 0 0 0 0.070179999
2.3840001 -0.32100001 0.083999999 15 0 0 0 0.070189998
2.421 -0.31799999 0.082999997 16 0 0 0 0.070200004
2.48 -0.31799999 0.082999997 20 0 0 0 0.070210002
2.5339999 -0.317 0.082000002 24 0 0 0 0.070220001
2.5769999 -0.31400001 0.081 22 0 0 0 0.07023
2.9260001 -0.34799999 0.089000002 150 0 0 0 0.070239998
3.2079999 -0.37099999 0.094999999 150 0 0 0 0.070249997
3.2090001 -0.36199999 0.092 150 0 0 0 0.070260003
