# .PCD v0.7 - Point Cloud Data file format
VERSION 0.7
FIELDS x y z intensity normal_x normal_y normal_z curvature
SIZE 4 4 4 4 4 4 4 4
TYPE F F F F F F F F
COUNT 1 1 1 1 1 1 1 1
WIDTH 1040
HEIGHT 1
VIEWPOINT 0 0 0 1 0 0 0
POINTS 1040
DATA ascii
3.299 0.57599998 1.557 150 0 0 0 0.059700001
3.3 0.56999999 1.548 150 0 0 0 0.05971
3.3010001 0.56400001 1.54 150 0 0 0 0.059719998
3.3050001 0.55900002 1.5319999 150 0 0 0 0.059730001
3.302 0.55199999 1.522 150 0 0 0 0.059739999
3.303 0.54699999 1.513 150 0 0 0 0.059749998
3.3050001 0.54100001 1.5039999 150 0 0 0 0.059760001
3.306 0.53600001 1.495 150 0 0 0 0.059769999
3.3039999 0.52899998 1.485 150 0 0 0 0.059780002
3.3080001 0.52399999 1.477 150 0 0 0 0.05979
3.3039999 0.51800001 1.466 150 0 0 0 0.059799999
3.3010001 0.51200002 1.455 150 0 0 0 0.059810001
3.303 0.50599998 1.446 150 0 0 0 0.05982
3.306 0.50099999 1.438 150 0 0 0 0.059829999
3.303 0.495 1.427 150 0 0 0 0.059840001
3.3080001 0.49000001 1.419 150 0 0 0 0.05985
3.306 0.484 1.409 150 0 0 0 0.059859999
3.3010001 0.47799999 1.397 150 0 0 0 0.059870001
3.306 0.47299999 1.3890001 150 0 0 0 0.05988
3.309 0.46799999 1.381 150 0 0 0 0.059889998
3.303 0.46200001 1.368 150 0 0 0 0.059900001
3.303 0.456 1.358 150 0 0 0 0.059909999
3.3069999 0.45199999 1.35 150 0 0 0 0.059920002
3.306 0.44600001 1.34 150 0 0 0 0.05993
3.3080001 0.44100001 1.33 150 0 0 0 0.059939999
3.3050001 0.435 1.319 150 0 0 0 0.059950002
3.3050001 0.43000001 1.309 150 0 0 0 0.05996
3.3069999 0.42500001 1.3 150 0 0 0 0.059969999
3.306 0.41999999 1.29 150 0 0 0 0.059980001
3.325 0.417 1.2869999 150 0 0 0 0.05999
3.3310001 0.41299999 1.279 150 0 0 0 0.059999999
3.345 0.40900001 1.274 150 0 0 0 0.060010001
3.339 0.40400001 1.262 150 0 0 0 0.06002
3.3499999 0.40000001 1.256 83 0 0 0 0.060029998
3.381 0.39899999 1.257 67 0 0 0 0.060040001
3.401 0.396 1.2539999 150 0 0 0 0.06005
3.408 0.391 1.2460001 150 0 0 0 0.060059998
3.405 0.38600001 1.234 150 0 0 0 0.060070001
3.4070001 0.38100001 1.225 150 0 0 0 0.060079999
3.4070001 0.37599999 1.214 150 0 0 0 0.060090002
3.411 0.37200001 1.205 150 0 0 0 0.0601
3.4100001 0.36700001 1.194 150 0 0 0 0.060109999
3.4059999 0.36199999 1.182 150 0 0 0 0.060120001
3.408 0.35699999 1.1720001 150 0 0 0 0.06013
3.4000001 0.352 1.159 150 0 0 0 0.060139999
3.411 0.34799999 1.152 150 0 0 0 0.060150001
3.4070001 0.34299999 1.14 150 0 0 0 0.06016
3.4100001 0.338 1.13 150 0 0 0 0.060169999
3.4100001 0.33399999 1.12 150 0 0 0 0.060180001
3.402 0.32800001 1.1059999 150 0 0 0 0.06019
3.4030001 0.324 1.096 150 0 0 0 0.060199998
3.4070001 0.31999999 1.087 150 0 0 0 0.060210001
3.408 0.315 1.077 150 0 0 0 0.060219999
3.4089999 0.31099999 1.066 150 0 0 0 0.060230002
3.408 0.30599999 1.0549999 150 0 0 0 0.06024
3.411 0.30199999 1.045 150 0 0 0 0.060249999
3.414 0.29800001 1.036 150 0 0 0 0.060260002
3.414 0.294 1.025 150 0 0 0 0.06027
3.411 0.289 1.013 150 0 0 0 0.060279999
3.414 0.285 1.003 150 0 0 0 0.060290001
3.415 0.28099999 0.99299997 150 0 0 0 0.0603
3.4130001 0.27700001 0.98199999 150 0 0 0 0.060309999
3.4100001 0.27200001 0.97000003 150 0 0 0 0.060320001
3.4119999 0.26800001 0.95999998 150 0 0 0 0.06033
3.4100001 0.264 0.949 150 0 0 0 0.060339998
3.4130001 0.25999999 0.93900001 150 0 0 0 0.060350001
3.4119999 0.25600001 0.92799997 150 0 0 0 0.06036
3.4100001 0.252 0.917 150 0 0 0 0.060369998
3.4089999 0.248 0.90600002 150 0 0 0 0.060380001
3.4089999 0.244 0.89499998 150 0 0 0 0.060389999
3.411 0.23999999 0.884 150 0 0 0 0.060400002
3.411 0.236 0.87400001 150 0 0 0 0.06041
3.411 0.23199999 0.86299998 150 0 0 0 0.060419999
3.4119999 0.228 0.852 150 0 0 0 0.060430001
3.4119999 0.22400001 0.84200001 150 0 0 0 0.06044
3.415 0.221 0.83099997 150 0 0 0 0.060449999
3.414 0.21699999 0.82099998 150 0 0 0 0.060460001
3.414 0.213 0.81 150 0 0 0 0.06047
3.4170001 0.20999999 0.80000001 150 0 0 0 0.060479999
3.4159999 0.206 0.78899997 150 0 0 0 0.060490001
3.4159999 0.20200001 0.778 150 0 0 0 0.0605
3.4189999 0.199 0.76800001 150 0 0 0 0.060509998
3.421 0.19499999 0.75700003 150 0 0 0 0.060520001
3.4119999 0.191 0.74400002 150 0 0 0 0.060529999
3.4130001 0.18799999 0.73400003 150 0 0 0 0.060540002
3.415 0.184 0.72399998 150 0 0 0 0.060550001
3.4189999 0.18099999 0.71399999 150 0 0 0 0.060559999
3.4189999 0.177 0.70300001 150 0 0 0 0.060570002
3.415 0.17399999 0.69099998 150 0 0 0 0.06058
3.4159999 0.17 0.68099999 150 0 0 0 0.060589999
3.418 0.167 0.67000002 150 0 0 0 0.060600001
3.4200001 0.164 0.66000003 150 0 0 0 0.06061
3.415 0.16 0.648 150 0 0 0 0.060619999
3.4189999 0.15700001 0.63800001 150 0 0 0 0.060630001
3.4230001 0.154 0.62800002 150 0 0 0 0.06064
3.4189999 0.15000001 0.616 150 0 0 0 0.060649998
3.418 0.147 0.60500002 150 0 0 0 0.060660001
3.4130001 0.14399999 0.59399998 150 0 0 0 0.06067
3.4170001 0.141 0.58399999 150 0 0 0 0.060679998
3.421 0.138 0.57300001 150 0 0 0 0.060690001
3.415 0.134 0.56199998 150 0 0 0 0.060699999
3.4159999 0.131 0.551 150 0 0 0 0.060710002
3.4189999 0.12800001 0.54100001 150 0 0 0 0.06072
3.4170001 0.125 0.52999997 150 0 0 0 0.060729999
3.4189999 0.122 0.51899999 150 0 0 0 0.060740001
3.4189999 0.119 0.50800002 150 0 0 0 0.06075
3.4189999 0.116 0.498 150 0 0 0 0.060759999
3.4170001 0.113 0.486 150 0 0 0 0.060770001
3.4189999 0.11 0.47600001 150 0 0 0 0.06078
3.421 0.107 0.465 150 0 0 0 0.060789999
3.415 0.104 0.454 150 0 0 0 0.060800001
3.4159999 0.101 0.44299999 150 0 0 0 0.06081
3.418 0.097999997 0.433 150 0 0 0 0.060819998
3.418 0.094999999 0.42199999 150 0 0 0 0.060830001
3.418 0.092 0.41100001 150 0 0 0 0.060839999
3.4200001 0.090000004 0.40000001 151 0 0 0 0.060849998
3.4200001 0.086999997 0.38999999 151 0 0 0 0.060860001
3.421 0.083999999 0.37900001 151 0 0 0 0.060869999
3.4189999 0.081 0.368 151 0 0 0 0.060880002
3.414 0.078000002 0.35699999 151 0 0 0 0.06089
3.415 0.075999998 0.34599999 150 0 0 0 0.060899999
3.4159999 0.072999999 0.33500001 150 0 0 0 0.060910001
3.4170001 0.07 0.324 151 0 0 0 0.06092
3.4230001 0.068000004 0.31400001 151 0 0 0 0.060929999
3.4189999 0.064999998 0.303 150 0 0 0 0.060940001
3.414 0.061999999 0.292 151 0 0 0 0.06095
3.4159999 0.059999999 0.28099999 151 0 0 0 0.060959999
3.4159999 0.057 0.27000001 151 0 0 0 0.060970001
3.4170001 0.055 0.25999999 151 0 0 0 0.06098
3.4130001 0.052000001 0.248 151 0 0 0 0.060989998
3.4200001 0.050000001 0.23800001 151 0 0 0 0.061000001
3.411 0.046999998 0.227 151 0 0 0 0.061009999
3.4130001 0.045000002 0.21600001 151 0 0 0 0.061020002
3.415 0.041999999 0.205 151 0 0 0 0.06103
3.415 0.039999999 0.19400001 151 0 0 0 0.061039999
3.4130001 0.037 0.184 151 0 0 0 0.061050002
3.4159999 0.035 0.17299999 151 0 0 0 0.06106
3.4219999 0.033 0.162 151 0 0 0 0.061069999
3.414 0.029999999 0.15099999 151 0 0 0 0.061080001
3.4170001 0.028000001 0.141 151 0 0 0 0.06109
3.4119999 0.025 0.13 151 0 0 0 0.061099999
3.4159999 0.023 0.119 151 0 0 0 0.061110001
3.4200001 0.021 0.108 151 0 0 0 0.06112
3.4200001 0.018999999 0.097000003 151 0 0 0 0.061129998
3.421 0.016000001 0.086999997 151 0 0 0 0.061140001
3.4159999 0.014 0.075999998 151 0 0 0 0.061149999
3.4159999 0.012 0.064999998 151 0 0 0 0.061159998
3.4159999 0.0099999998 0.054000001 151 0 0 0 0.061170001
3.421 0.0080000004 0.043000001 151 0 0 0 0.061179999
3.4219999 0.0049999999 0.032000002 151 0 0 0 0.061190002
3.4159999 0.003 0.021 151 0 0 0 0.0612
3.4219999 0.001 0.011 151 0 0 0 0.061209999
3.4130001 0 0 151 0 0 0 0.061220001
3.415 -0.0020000001 -0.0099999998 151 0 0 0 0.06123
3.4159999 -0.0040000002 -0.021 151 0 0 0 0.061239999
3.4170001 -0.0060000001 -0.032000002 151 0 0 0 0.061250001
3.4170001 -0.0080000004 -0.043000001 151 0 0 0 0.06126
3.4200001 -0.0099999998 -0.054000001 151 0 0 0 0.061269999
3.418 -0.012 -0.064999998 151 0 0 0 0.061280001
3.418 -0.014 -0.075999998 151 0 0 0 0.06129
3.414 -0.016000001 -0.086999997 151 0 0 0 0.061299998
3.4200001 -0.017999999 -0.097999997 151 0 0 0 0.061310001
3.4189999 -0.02 -0.108 151 0 0 0 0.061319999
3.418 -0.022 -0.119 151 0 0 0 0.061330002
3.4159999 -0.024 -0.13 151 0 0 0 0.06134
3.418 -0.026000001 -0.141 151 0 0 0 0.061349999
3.418 -0.027000001 -0.152 151 0 0 0 0.061360002
3.4219999 -0.028999999 -0.163 151 0 0 0 0.06137
3.4219999 -0.030999999 -0.17399999 151 0 0 0 0.061379999
3.421 -0.033 -0.185 151 0 0 0 0.061390001
3.4189999 -0.035 -0.19599999 151 0 0 0 0.0614
3.418 -0.035999998 -0.207 151 0 0 0 0.061409999
3.4200001 -0.037999999 -0.21799999 151 0 0 0 0.061420001
3.4200001 -0.039999999 -0.229 150 0 0 0 0.06143
3.4200001 -0.041000001 -0.23999999 151 0 0 0 0.061439998
3.4230001 -0.043000001 -0.25099999 150 0 0 0 0.061450001
3.4230001 -0.045000002 -0.26199999 151 0 0 0 0.06146
3.421 -0.046 -0.273 150 0 0 0 0.061469998
3.4200001 -0.048 -0.28400001 150 0 0 0 0.061480001
3.4219999 -0.050000001 -0.29499999 150 0 0 0 0.061489999
3.4219999 -0.050999999 -0.30599999 151 0 0 0 0.061500002
3.421 -0.052999999 -0.317 150 0 0 0 0.06151
3.427 -0.054000001 -0.32800001 150 0 0 0 0.061519999
3.421 -0.056000002 -0.33899999 150 0 0 0 0.061530001
3.425 -0.057 -0.34999999 150 0 0 0 0.06154
3.421 -0.059 -0.361 150 0 0 0 0.061549999
3.4200001 -0.059999999 -0.37200001 150 0 0 0 0.061560001
3.4230001 -0.061999999 -0.38299999 150 0 0 0 0.06157
3.4219999 -0.063000001 -0.39399999 150 0 0 0 0.061579999
3.421 -0.064999998 -0.405 150 0 0 0 0.061590001
3.428 -0.066 -0.417 150 0 0 0 0.0616
3.4230001 -0.067000002 -0.428 150 0 0 0 0.061609998
3.425 -0.068999998 -0.43900001 150 0 0 0 0.061620001
3.421 -0.07 -0.44999999 150 0 0 0 0.061629999
3.4219999 -0.071000002 -0.461 150 0 0 0 0.061640002
3.425 -0.072999999 -0.47299999 150 0 0 0 0.061650001
3.4230001 -0.074000001 -0.48300001 150 0 0 0 0.061659999
3.4230001 -0.075000003 -0.495 150 0 0 0 0.061670002
3.421 -0.075999998 -0.50599998 150 0 0 0 0.06168
3.424 -0.078000002 -0.51700002 150 0 0 0 0.061689999
3.4200001 -0.079000004 -0.528 150 0 0 0 0.061700001
3.4219999 -0.079999998 -0.53899997 150 0 0 0 0.06171
3.4219999 -0.081 -0.55000001 150 0 0 0 0.061719999
3.425 -0.082000002 -0.56199998 150 0 0 0 0.061730001
3.421 -0.082999997 -0.57300001 150 0 0 0 0.06174
3.421 -0.083999999 -0.58399999 150 0 0 0 0.061749998
3.425 -0.085000001 -0.59600002 150 0 0 0 0.061760001
3.4230001 -0.086000003 -0.60699999 150 0 0 0 0.06177
3.424 -0.086999997 -0.61799997 150 0 0 0 0.061779998
3.421 -0.088 -0.62900001 150 0 0 0 0.061790001
3.4189999 -0.089000002 -0.63999999 150 0 0 0 0.061799999
3.421 -0.090000004 -0.65100002 150 0 0 0 0.061810002
3.4200001 -0.090999998 -0.662 150 0 0 0 0.06182
3.4189999 -0.092 -0.67400002 150 0 0 0 0.061829999
3.424 -0.093000002 -0.68599999 150 0 0 0 0.061840001
3.4189999 -0.093999997 -0.69599998 150 0 0 0 0.06185
3.4200001 -0.093999997 -0.708 150 0 0 0 0.061859999
3.4200001 -0.094999999 -0.71899998 150 0 0 0 0.061870001
3.421 -0.096000001 -0.73000002 150 0 0 0 0.06188
3.421 -0.097000003 -0.74199998 150 0 0 0 0.061889999
3.421 -0.097000003 -0.75300002 150 0 0 0 0.061900001
3.424 -0.097999997 -0.76499999 150 0 0 0 0.06191
3.421 -0.098999999 -0.77600002 150 0 0 0 0.061919998
3.4219999 -0.098999999 -0.787 150 0 0 0 0.061930001
3.421 -0.1 -0.79900002 150 0 0 0 0.061939999
3.4189999 -0.101 -0.81 150 0 0 0 0.061949998
3.4200001 -0.101 -0.82099998 150 0 0 0 0.061960001
3.4219999 -0.102 -0.833 148 0 0 0 0.061969999
3.425 -0.102 -0.84500003 32 0 0 0 0.061980002
3.3870001 -0.102 -0.847 23 0 0 0 0.06199
3.3410001 -0.101 -0.847 24 0 0 0 0.061999999
3.302 -0.1 -0.84799999 27 0 0 0 0.062010001
3.26 -0.098999999 -0.84799999 26 0 0 0 0.06202
3.22 -0.097999997 -0.84899998 26 0 0 0 0.062029999
3.1800001 -0.097000003 -0.84899998 26 0 0 0 0.062040001
3.151 -0.097000003 -0.852 27 0 0 0 0.06205
3.1129999 -0.096000001 -0.852 27 0 0 0 0.062059999
3.0710001 -0.094999999 -0.85100001 26 0 0 0 0.062070001
3.027 -0.093999997 -0.84899998 25 0 0 0 0.06208
2.9860001 -0.093000002 -0.847 25 0 0 0 0.062089998
2.9430001 -0.090999998 -0.84500003 24 0 0 0 0.062100001
2.905 -0.090000004 -0.84399998 24 0 0 0 0.062109999
2.865 -0.089000002 -0.84200001 23 0 0 0 0.062120002
2.832 -0.088 -0.84200001 22 0 0 0 0.06213
2.799 -0.086999997 -0.84100002 23 0 0 0 0.062139999
2.7690001 -0.086000003 -0.84200001 23 0 0 0 0.062150002
2.7409999 -0.085000001 -0.84200001 26 0 0 0 0.06216
2.7090001 -0.083999999 -0.84200001 27 0 0 0 0.062169999
2.675 -0.082999997 -0.83999997 25 0 0 0 0.062180001
2.642 -0.082000002 -0.83899999 25 0 0 0 0.06219
2.6159999 -0.081 -0.83899999 26 0 0 0 0.062199999
2.5869999 -0.079999998 -0.83899999 25 0 0 0 0.062210001
2.556 -0.079000004 -0.83700001 25 0 0 0 0.06222
2.5280001 -0.078000002 -0.83700001 24 0 0 0 0.062229998
2.5009999 -0.077 -0.83700001 24 0 0 0 0.062240001
2.4760001 -0.075999998 -0.83700001 23 0 0 0 0.062249999
2.454 -0.075000003 -0.838 25 0 0 0 0.062259998
2.4260001 -0.074000001 -0.83600003 24 0 0 0 0.062270001
2.4000001 -0.072999999 -0.83499998 25 0 0 0 0.062279999
2.378 -0.071999997 -0.83600003 24 0 0 0 0.062290002
2.3540001 -0.071000002 -0.83600003 25 0 0 0 0.0623
2.3299999 -0.07 -0.83499998 24 0 0 0 0.062309999
2.3139999 -0.068999998 -0.83700001 25 0 0 0 0.062320001
2.293 -0.068000004 -0.83700001 24 0 0 0 0.06233
2.2650001 -0.067000002 -0.83499998 25 0 0 0 0.062339999
2.2509999 -0.066 -0.83700001 25 0 0 0 0.062350001
2.2260001 -0.064999998 -0.83499998 24 0 0 0 0.06236
2.2030001 -0.064000003 -0.83399999 24 0 0 0 0.062369999
2.1819999 -0.061999999 -0.83399999 24 0 0 0 0.062380001
2.1689999 -0.061999999 -0.83600003 25 0 0 0 0.06239
2.1440001 -0.059999999 -0.83399999 23 0 0 0 0.062399998
2.125 -0.059 -0.83399999 23 0 0 0 0.062410001
2.1029999 -0.057999998 -0.83200002 24 0 0 0 0.062419999
2.0840001 -0.057 -0.83200002 24 0 0 0 0.062430002
2.0699999 -0.056000002 -0.833 25 0 0 0 0.06244
2.0550001 -0.055 -0.83399999 24 0 0 0 0.062449999
2.0339999 -0.054000001 -0.833 25 0 0 0 0.062460002
2.0179999 -0.052999999 -0.833 25 0 0 0 0.06247
1.999 -0.052000001 -0.83200002 26 0 0 0 0.062479999
1.9809999 -0.050000001 -0.83099997 26 0 0 0 0.062490001
1.962 -0.048999999 -0.82999998 25 0 0 0 0.0625
1.951 -0.048 -0.83200002 26 0 0 0 0.062509999
1.934 -0.046999998 -0.83099997 26 0 0 0 0.062519997
1.916 -0.046 -0.82999998 26 0 0 0 0.062530003
1.904 -0.045000002 -0.83099997 26 0 0 0 0.062540002
1.892 -0.044 -0.83200002 28 0 0 0 0.062550001
1.8710001 -0.041999999 -0.829 27 0 0 0 0.06256
1.8609999 -0.041000001 -0.83099997 28 0 0 0 0.062569998
1.846 -0.039999999 -0.83099997 26 0 0 0 0.062579997
1.832 -0.039000001 -0.82999998 27 0 0 0 0.062590003
1.818 -0.037999999 -0.82999998 32 0 0 0 0.062600002
1.804 -0.037 -0.82999998 25 0 0 0 0.06261
1.79 -0.035 -0.82999998 35 0 0 0 0.062619999
1.78 -0.034000002 -0.83099997 40 0 0 0 0.062629998
1.767 -0.033 -0.82999998 40 0 0 0 0.062639996
1.75 -0.032000002 -0.82800001 42 0 0 0 0.062650003
1.7410001 -0.030999999 -0.82999998 40 0 0 0 0.062660001
1.729 -0.028999999 -0.82999998 14 0 0 0 0.06267
1.719 -0.028000001 -0.83099997 14 0 0 0 0.062679999
1.71 -0.027000001 -0.83200002 14 0 0 0 0.062689997
1.696 -0.026000001 -0.83099997 14 0 0 0 0.062700003
1.6900001 -0.025 -0.83399999 14 0 0 0 0.062710002
1.674 -0.023 -0.83099997 14 0 0 0 0.062720001
1.664 -0.022 -0.83200002 14 0 0 0 0.062729999
1.654 -0.021 -0.83200002 14 0 0 0 0.062739998
1.6440001 -0.018999999 -0.833 14 0 0 0 0.062749997
1.632 -0.017999999 -0.83200002 14 0 0 0 0.062760003
1.624 -0.017000001 -0.833 14 0 0 0 0.062770002
1.6160001 -0.016000001 -0.83399999 14 0 0 0 0.06278
1.597 -0.014 -0.829 14 0 0 0 0.062789999
1.589 -0.013 -0.82999998 13 0 0 0 0.062799998
1.584 -0.012 -0.833 13 0 0 0 0.062809996
1.576 -0.0099999998 -0.833 14 0 0 0 0.062820002
1.5599999 -0.0089999996 -0.82999998 13 0 0 0 0.062830001
1.546 -0.0080000004 -0.82700002 14 0 0 0 0.06284
1.541 -0.0060000001 -0.82999998 14 0 0 0 0.062849998
1.526 -0.0049999999 -0.82599998 13 0 0 0 0.062859997
1.52 -0.0040000002 -0.82800001 13 0 0 0 0.062870003
1.512 -0.0020000001 -0.82800001 13 0 0 0 0.062880002
1.503 -0.001 -0.82800001 13 0 0 0 0.062890001
1.497 0 -0.829 13 0 0 0 0.062899999
1.487 0.001 -0.82800001 13 0 0 0 0.062909998
1.478 0.0020000001 -0.82800001 14 0 0 0 0.062919997
1.47 0.003 -0.82800001 14 0 0 0 0.062930003
1.459 0.0049999999 -0.82599998 12 0 0 0 0.062940001
1.455 0.0060000001 -0.82800001 12 0 0 0 0.06295
1.449 0.0070000002 -0.829 12 0 0 0 0.062959999
1.434 0.0089999996 -0.824 14 0 0 0 0.062969998
1.4299999 0.0099999998 -0.82599998 14 0 0 0 0.062980004
1.428 0.012 -0.829 14 0 0 0 0.062990002
1.418 0.013 -0.82700002 14 0 0 0 0.063000001
1.409 0.014 -0.82599998 14 0 0 0 0.06301
1.404 0.016000001 -0.82700002 14 0 0 0 0.063019998
1.395 0.017000001 -0.82599998 14 0 0 0 0.063029997
1.388 0.018999999 -0.82599998 14 0 0 0 0.063040003
1.38 0.02 -0.82499999 14 0 0 0 0.063050002
1.376 0.022 -0.82599998 14 0 0 0 0.063060001
1.372 0.023 -0.82700002 13 0 0 0 0.063069999
1.367 0.025 -0.82800001 13 0 0 0 0.063079998
1.36 0.026000001 -0.82700002 13 0 0 0 0.063089997
1.352 0.027000001 -0.82599998 13 0 0 0 0.063100003
1.349 0.028999999 -0.82800001 14 0 0 0 0.063110001
1.34 0.029999999 -0.82599998 13 0 0 0 0.06312
1.3380001 0.032000002 -0.82800001 13 0 0 0 0.063129999
1.33 0.033 -0.82599998 14 0 0 0 0.063139997
1.323 0.035 -0.82499999 14 0 0 0 0.063150004
1.321 0.035999998 -0.82700002 14 0 0 0 0.063160002
1.3150001 0.037999999 -0.82599998 13 0 0 0 0.063170001
1.308 0.039000001 -0.82499999 14 0 0 0 0.06318
1.304 0.041000001 -0.82599998 14 0 0 0 0.063189998
1.299 0.043000001 -0.82599998 14 0 0 0 0.063199997
1.295 0.044 -0.82700002 14 0 0 0 0.063210003
1.29 0.046 -0.82599998 13 0 0 0 0.063220002
1.2869999 0.046999998 -0.82700002 13 0 0 0 0.06323
1.281 0.048999999 -0.82599998 14 0 0 0 0.063239999
1.28 0.050000001 -0.82800001 14 0 0 0 0.063249998
1.273 0.052000001 -0.82599998 13 0 0 0 0.063259996
1.272 0.052999999 -0.82800001 13 0 0 0 0.063270003
1.2690001 0.055 -0.829 14 0 0 0 0.063280001
1.266 0.057 -0.829 14 0 0 0 0.06329
1.258 0.057999998 -0.82700002 13 0 0 0 0.063299999
1.2539999 0.059999999 -0.82700002 14 0 0 0 0.063309997
1.252 0.061000001 -0.82800001 14 0 0 0 0.063320003
1.248 0.063000001 -0.82700002 14 0 0 0 0.063330002
1.243 0.064000003 -0.82599998 15 0 0 0 0.063340001
1.242 0.066 -0.82700002 15 0 0 0 0.063349999
1.24 0.068000004 -0.82800001 15 0 0 0 0.063359998
1.234 0.068999998 -0.82700002 14 0 0 0 0.063369997
1.235 0.071000002 -0.829 15 0 0 0 0.063380003
1.232 0.072999999 -0.829 15 0 0 0 0.063390002
1.227 0.074000001 -0.82800001 15 0 0 0 0.0634
1.222 0.075999998 -0.82599998 16 0 0 0 0.063409999
1.221 0.077 -0.82700002 16 0 0 0 0.063419998
1.217 0.079000004 -0.82599998 15 0 0 0 0.063429996
1.2180001 0.081 -0.82800001 16 0 0 0 0.063440003
1.212 0.082000002 -0.82599998 16 0 0 0 0.063450001
1.212 0.083999999 -0.82700002 15 0 0 0 0.06346
1.211 0.086000003 -0.82800001 16 0 0 0 0.063469999
1.209 0.086999997 -0.82800001 15 0 0 0 0.063479997
1.2130001 0.089000002 -0.83200002 13 0 0 0 0.063490003
1.211 0.090999998 -0.83200002 11 0 0 0 0.063500002
1.211 0.093000002 -0.833 9 0 0 0 0.063510001
1.2079999 0.093999997 -0.83200002 9 0 0 0 0.063519999
1.206 0.096000001 -0.83200002 9 0 0 0 0.063529998
1.206 0.097999997 -0.833 10 0 0 0 0.063539997
1.205 0.1 -0.833 11 0 0 0 0.063550003
1.2029999 0.101 -0.83200002 12 0 0 0 0.063560002
1.197 0.103 -0.82999998 14 0 0 0 0.06357
1.197 0.104 -0.82999998 16 0 0 0 0.063579999
1.192 0.106 -0.82700002 17 0 0 0 0.063589998
1.188 0.107 -0.82499999 18 0 0 0 0.063600004
1.192 0.109 -0.829 17 0 0 0 0.063610002
1.187 0.11 -0.82599998 18 0 0 0 0.063620001
1.187 0.112 -0.82599998 18 0 0 0 0.06363
1.1900001 0.114 -0.82800001 17 0 0 0 0.063639998
1.191 0.116 -0.829 17 0 0 0 0.063649997
1.191 0.118 -0.82999998 17 0 0 0 0.063660003
1.191 0.12 -0.82999998 18 0 0 0 0.063670002
1.191 0.121 -0.82999998 18 0 0 0 0.063680001
1.191 0.123 -0.829 17 0 0 0 0.063689999
1.191 0.125 -0.829 18 0 0 0 0.063699998
1.189 0.126 -0.82800001 17 0 0 0 0.063709997
1.1900001 0.12800001 -0.829 17 0 0 0 0.063720003
1.1900001 0.13 -0.829 17 0 0 0 0.063730001
1.191 0.131 -0.829 18 0 0 0 0.06374
1.1900001 0.133 -0.82800001 18 0 0 0 0.063749999
1.191 0.13500001 -0.82800001 17 0 0 0 0.063759997
1.191 0.13600001 -0.82800001 18 0 0 0 0.063770004
1.192 0.138 -0.82700002 17 0 0 0 0.063780002
1.1950001 0.14 -0.829 16 0 0 0 0.063790001
1.194 0.142 -0.82800001 17 0 0 0 0.0638
1.1950001 0.14300001 -0.82800001 17 0 0 0 0.063809998
1.196 0.145 -0.82700002 16 0 0 0 0.063819997
1.198 0.147 -0.82800001 17 0 0 0 0.063830003
1.198 0.148 -0.82700002 16 0 0 0 0.063840002
1.198 0.15000001 -0.82599998 16 0 0 0 0.063850001
1.204 0.152 -0.829 17 0 0 0 0.063859999
1.206 0.154 -0.82999998 17 0 0 0 0.063869998
1.207 0.155 -0.829 18 0 0 0 0.063879997
1.2079999 0.15700001 -0.82800001 16 0 0 0 0.063890003
1.209 0.15899999 -0.82700002 16 0 0 0 0.063900001
1.217 0.161 -0.83099997 17 0 0 0 0.06391
1.217 0.163 -0.82999998 16 0 0 0 0.063919999
1.219 0.164 -0.82999998 16 0 0 0 0.063929997
1.2180001 0.16599999 -0.82800001 16 0 0 0 0.063940004
1.225 0.168 -0.83099997 16 0 0 0 0.063950002
1.229 0.17 -0.83200002 16 0 0 0 0.063960001
1.227 0.171 -0.829 15 0 0 0 0.06397
1.233 0.17299999 -0.82999998 17 0 0 0 0.063979998
1.233 0.17399999 -0.829 16 0 0 0 0.063989997
1.2359999 0.176 -0.829 15 0 0 0 0.064000003
1.2410001 0.178 -0.82999998 15 0 0 0 0.064010002
1.243 0.18000001 -0.82999998 16 0 0 0 0.06402
1.247 0.182 -0.82999998 16 0 0 0 0.064029999
1.248 0.183 -0.829 16 0 0 0 0.064039998
1.257 0.185 -0.83200002 15 0 0 0 0.064049996
1.257 0.18700001 -0.82999998 16 0 0 0 0.064060003
1.261 0.18799999 -0.82999998 16 0 0 0 0.064070001
1.262 0.19 -0.82800001 16 0 0 0 0.06408
1.27 0.192 -0.83099997 16 0 0 0 0.064089999
1.271 0.193 -0.829 16 0 0 0 0.064099997
1.277 0.19499999 -0.82999998 16 0 0 0 0.064110003
1.2819999 0.197 -0.83099997 15 0 0 0 0.064120002
1.286 0.198 -0.82999998 16 0 0 0 0.064130001
1.289 0.2 -0.82999998 16 0 0 0 0.064139999
1.2920001 0.20100001 -0.829 16 0 0 0 0.064149998
1.3 0.204 -0.83099997 16 0 0 0 0.064159997
1.302 0.205 -0.829 15 0 0 0 0.064170003
1.306 0.206 -0.829 16 0 0 0 0.064180002
1.3150001 0.20900001 -0.83099997 16 0 0 0 0.06419
1.3200001 0.20999999 -0.83099997 15 0 0 0 0.064199999
1.325 0.212 -0.83099997 15 0 0 0 0.064209998
1.3329999 0.214 -0.833 16 0 0 0 0.064219996
1.339 0.21600001 -0.83399999 15 0 0 0 0.064230002
1.342 0.21699999 -0.83200002 15 0 0 0 0.064240001
1.347 0.219 -0.83200002 15 0 0 0 0.06425
1.35 0.22 -0.82999998 15 0 0 0 0.064259999
1.359 0.222 -0.83200002 15 0 0 0 0.064269997
1.367 0.22400001 -0.833 15 0 0 0 0.064280003
1.3710001 0.22499999 -0.83200002 15 0 0 0 0.064290002
1.378 0.227 -0.83200002 15 0 0 0 0.064300001
1.387 0.229 -0.83399999 15 0 0 0 0.064309999
1.393 0.23100001 -0.833 15 0 0 0 0.064319998
1.399 0.23199999 -0.83399999 15 0 0 0 0.064329997
1.4069999 0.234 -0.83399999 15 0 0 0 0.064340003
1.411 0.235 -0.833 15 0 0 0 0.064350002
1.421 0.237 -0.83499998 15 0 0 0 0.06436
1.428 0.23899999 -0.83499998 13 0 0 0 0.064369999
1.437 0.241 -0.83600003 13 0 0 0 0.064379998
1.446 0.243 -0.83700001 13 0 0 0 0.064390004
1.4529999 0.244 -0.83600003 15 0 0 0 0.064400002
1.461 0.24600001 -0.83700001 15 0 0 0 0.064410001
1.469 0.248 -0.83700001 15 0 0 0 0.06442
1.475 0.249 -0.83600003 15 0 0 0 0.064429998
1.483 0.25 -0.83600003 14 0 0 0 0.064439997
1.489 0.252 -0.83499998 14 0 0 0 0.064450003
1.498 0.25299999 -0.83600003 14 0 0 0 0.064460002
1.505 0.255 -0.83399999 14 0 0 0 0.064470001
1.518 0.257 -0.83700001 15 0 0 0 0.064479999
1.525 0.25799999 -0.83600003 15 0 0 0 0.064489998
1.541 0.26100001 -0.83999997 15 0 0 0 0.064499997
1.548 0.26199999 -0.83899999 15 0 0 0 0.064510003
1.554 0.26300001 -0.838 15 0 0 0 0.064520001
1.568 0.266 -0.83999997 15 0 0 0 0.06453
1.579 0.26800001 -0.84100002 15 0 0 0 0.064539999
1.586 0.26899999 -0.83999997 15 0 0 0 0.064549997
1.595 0.27000001 -0.83999997 15 0 0 0 0.064560004
1.608 0.27200001 -0.84100002 15 0 0 0 0.064570002
1.619 0.27399999 -0.84200001 15 0 0 0 0.064580001
1.625 0.27500001 -0.83999997 15 0 0 0 0.06459
1.636 0.27599999 -0.83999997 15 0 0 0 0.064599998
1.65 0.278 -0.84200001 15 0 0 0 0.064609997
1.65 0.278 -0.83700001 60 0 0 0 0.064620003
1.661 0.28 -0.83700001 55 0 0 0 0.064630002
1.677 0.28200001 -0.83899999 57 0 0 0 0.06464
1.683 0.28299999 -0.83700001 54 0 0 0 0.064649999
1.696 0.285 -0.838 55 0 0 0 0.064659998
1.71 0.28600001 -0.83899999 55 0 0 0 0.064669997
1.725 0.28799999 -0.84100002 15 0 0 0 0.064680003
1.737 0.28999999 -0.84100002 15 0 0 0 0.064690001
1.75 0.29100001 -0.84100002 15 0 0 0 0.0647
1.763 0.29300001 -0.84200001 16 0 0 0 0.064709999
1.777 0.29499999 -0.84299999 15 0 0 0 0.064719997
1.7920001 0.29699999 -0.84399998 15 0 0 0 0.064730003
1.799 0.29699999 -0.84100002 16 0 0 0 0.064740002
1.814 0.29899999 -0.84200001 16 0 0 0 0.064750001
1.827 0.30000001 -0.84200001 16 0 0 0 0.06476
1.839 0.30199999 -0.84200001 49 0 0 0 0.064769998
1.848 0.30199999 -0.83999997 45 0 0 0 0.064779997
1.869 0.30500001 -0.84299999 44 0 0 0 0.064790003
1.877 0.30500001 -0.83999997 42 0 0 0 0.064800002
1.891 0.30599999 -0.83999997 42 0 0 0 0.06481
1.905 0.308 -0.83999997 42 0 0 0 0.064819999
1.921 0.30899999 -0.84100002 41 0 0 0 0.064829998
1.9349999 0.31099999 -0.83999997 41 0 0 0 0.064839996
1.955 0.31299999 -0.84200001 40 0 0 0 0.064850003
1.9680001 0.31400001 -0.84200001 41 0 0 0 0.064860001
1.988 0.31600001 -0.84299999 41 0 0 0 0.06487
2 0.317 -0.84200001 40 0 0 0 0.064879999
2.017 0.31799999 -0.84200001 41 0 0 0 0.064889997
2.0320001 0.31900001 -0.84200001 34 0 0 0 0.064900003
2.05 0.32100001 -0.84200001 35 0 0 0 0.064910002
2.066 0.322 -0.84200001 34 0 0 0 0.064920001
2.0829999 0.32300001 -0.84200001 34 0 0 0 0.064929999
2.102 0.32499999 -0.84200001 31 0 0 0 0.064939998
2.1229999 0.32699999 -0.84399998 34 0 0 0 0.064949997
2.1389999 0.32800001 -0.84299999 35 0 0 0 0.064960003
2.161 0.329 -0.84399998 35 0 0 0 0.064970002
2.1789999 0.331 -0.84399998 34 0 0 0 0.06498
2.1960001 0.33199999 -0.84299999 34 0 0 0 0.064989999
2.2160001 0.333 -0.84399998 34 0 0 0 0.064999998
2.2360001 0.33399999 -0.84399998 34 0 0 0 0.065009996
2.2590001 0.336 -0.84500003 34 0 0 0 0.065020002
2.2780001 0.33700001 -0.84500003 34 0 0 0 0.065030001
2.302 0.33899999 -0.84600002 35 0 0 0 0.06504
2.3210001 0.34 -0.84500003 35 0 0 0 0.065049998
2.3410001 0.34099999 -0.84500003 35 0 0 0 0.065059997
2.365 0.34299999 -0.84600002 35 0 0 0 0.065070003
2.3870001 0.34400001 -0.84500003 34 0 0 0 0.065080002
2.415 0.34599999 -0.847 34 0 0 0 0.065090001
2.434 0.347 -0.84600002 34 0 0 0 0.065099999
2.4590001 0.34799999 -0.847 37 0 0 0 0.065109998
2.4860001 0.34999999 -0.847 38 0 0 0 0.065119997
2.51 0.35100001 -0.847 34 0 0 0 0.065130003
2.54 0.35299999 -0.84899998 37 0 0 0 0.065140001
2.566 0.354 -0.85000002 35 0 0 0 0.06515
2.5929999 0.35600001 -0.85000002 37 0 0 0 0.065159999
2.6170001 0.35600001 -0.84899998 35 0 0 0 0.065169998
2.6500001 0.359 -0.85100001 37 0 0 0 0.065180004
2.6789999 0.36000001 -0.852 38 0 0 0 0.065190002
2.7090001 0.361 -0.85299999 38 0 0 0 0.065200001
2.7349999 0.36199999 -0.852 36 0 0 0 0.06521
2.7620001 0.36300001 -0.85100001 36 0 0 0 0.065219998
2.799 0.36500001 -0.85399997 39 0 0 0 0.065229997
2.823 0.366 -0.852 40 0 0 0 0.065240003
2.8559999 0.36700001 -0.852 36 0 0 0 0.065250002
2.901 0.37 -0.85600001 36 0 0 0 0.065260001
2.931 0.37099999 -0.85600001 36 0 0 0 0.065269999
2.9690001 0.373 -0.85699999 36 0 0 0 0.065279998
3.0150001 0.37599999 -0.861 36 0 0 0 0.065289997
3.05 0.377 -0.861 36 0 0 0 0.065300003
3.0829999 0.37799999 -0.86000001 36 0 0 0 0.065310001
3.118 0.37900001 -0.86000001 36 0 0 0 0.06532
3.141 0.37799999 -0.85600001 35 0 0 0 0.065329999
3.1789999 0.37900001 -0.85600001 36 0 0 0 0.065339997
3.2260001 0.382 -0.85900003 37 0 0 0 0.065350004
3.267 0.38299999 -0.85900003 33 0 0 0 0.065360002
3.3050001 0.384 -0.85900003 32 0 0 0 0.065370001
3.339 0.384 -0.85699999 33 0 0 0 0.06538
3.388 0.38600001 -0.85900003 41 0 0 0 0.065389998
3.3840001 0.382 -0.847 150 0 0 0 0.065399997
3.385 0.37799999 -0.83600003 152 0 0 0 0.065410003
3.3840001 0.37400001 -0.82499999 151 0 0 0 0.065420002
3.3859999 0.37099999 -0.815 151 0 0 0 0.06543
3.3840001 0.36700001 -0.80400002 151 0 0 0 0.065439999
3.3859999 0.36300001 -0.79400003 151 0 0 0 0.065449998
3.3870001 0.359 -0.78299999 151 0 0 0 0.065459996
3.3900001 0.35600001 -0.773 151 0 0 0 0.065470003
3.3859999 0.35100001 -0.76200002 151 0 0 0 0.065480001
3.3870001 0.347 -0.75099999 151 0 0 0 0.06549
3.3889999 0.34400001 -0.741 151 0 0 0 0.065499999
3.392 0.34 -0.73100001 151 0 0 0 0.065509997
3.392 0.336 -0.72100002 151 0 0 0 0.065520003
3.3889999 0.33199999 -0.70999998 151 0 0 0 0.065530002
3.3900001 0.32800001 -0.699 151 0 0 0 0.065540001
3.392 0.324 -0.68900001 151 0 0 0 0.065549999
3.3959999 0.31999999 -0.67900002 151 0 0 0 0.065559998
3.395 0.31600001 -0.66900003 151 0 0 0 0.065569997
3.3929999 0.31099999 -0.65799999 151 0 0 0 0.065580003
3.3929999 0.30700001 -0.64700001 151 0 0 0 0.065590002
3.392 0.303 -0.63700002 151 0 0 0 0.0656
3.398 0.29899999 -0.62699997 151 0 0 0 0.065609999
3.3940001 0.29499999 -0.616 151 0 0 0 0.065619998
3.3940001 0.28999999 -0.60600001 151 0 0 0 0.065629996
3.3959999 0.28600001 -0.59600002 151 0 0 0 0.065640002
3.3959999 0.28200001 -0.58499998 151 0 0 0 0.065650001
3.4000001 0.278 -0.57599998 151 0 0 0 0.06566
3.3989999 0.27399999 -0.565 151 0 0 0 0.065669999
3.3959999 0.26899999 -0.55400002 151 0 0 0 0.065679997
3.3959999 0.26499999 -0.54400003 151 0 0 0 0.065690003
3.3959999 0.25999999 -0.53399998 151 0 0 0 0.065700002
3.398 0.25600001 -0.52399999 151 0 0 0 0.065710001
3.4000001 0.252 -0.514 151 0 0 0 0.065719999
3.4000001 0.24699999 -0.50400001 151 0 0 0 0.065729998
3.4000001 0.243 -0.493 151 0 0 0 0.065739997
3.402 0.23899999 -0.48300001 151 0 0 0 0.065750003
3.404 0.234 -0.47299999 151 0 0 0 0.065760002
3.402 0.23 -0.463 151 0 0 0 0.06577
3.402 0.22499999 -0.45300001 151 0 0 0 0.065779999
3.404 0.221 -0.44299999 151 0 0 0 0.065789998
3.405 0.21600001 -0.433 151 0 0 0 0.065800004
3.4070001 0.212 -0.42300001 151 0 0 0 0.065810002
3.4030001 0.207 -0.412 151 0 0 0 0.065820001
3.405 0.20200001 -0.40200001 151 0 0 0 0.06583
3.4059999 0.198 -0.39199999 151 0 0 0 0.065839998
3.408 0.193 -0.382 151 0 0 0 0.065849997
3.4070001 0.18799999 -0.37200001 151 0 0 0 0.065860003
3.405 0.184 -0.36199999 151 0 0 0 0.065870002
3.404 0.17900001 -0.35100001 151 0 0 0 0.065880001
3.4059999 0.17399999 -0.34200001 151 0 0 0 0.065889999
3.4070001 0.17 -0.33199999 151 0 0 0 0.065899998
3.408 0.16500001 -0.322 151 0 0 0 0.065909997
3.4059999 0.16 -0.31200001 152 0 0 0 0.065920003
3.4089999 0.155 -0.30199999 152 0 0 0 0.065930001
3.4089999 0.15000001 -0.292 152 0 0 0 0.06594
3.408 0.146 -0.28200001 152 0 0 0 0.065949999
3.4089999 0.141 -0.27200001 152 0 0 0 0.065959997
3.411 0.13600001 -0.26199999 152 0 0 0 0.065970004
3.418 0.131 -0.25299999 152 0 0 0 0.065980002
3.4159999 0.126 -0.242 152 0 0 0 0.065990001
3.4159999 0.122 -0.233 152 0 0 0 0.066
3.414 0.116 -0.222 152 0 0 0 0.066009998
3.4100001 0.111 -0.212 152 0 0 0 0.066019997
3.411 0.106 -0.20200001 152 0 0 0 0.066030003
3.4119999 0.102 -0.193 152 0 0 0 0.066040002
3.4119999 0.097000003 -0.183 153 0 0 0 0.06605
3.4130001 0.092 -0.17299999 153 0 0 0 0.066059999
3.4070001 0.086000003 -0.163 153 0 0 0 0.066069998
3.4030001 0.081 -0.153 153 0 0 0 0.066079997
3.404 0.075999998 -0.14300001 153 0 0 0 0.066090003
3.404 0.071000002 -0.133 153 0 0 0 0.066100001
3.405 0.066 -0.123 153 0 0 0 0.06611
3.405 0.061000001 -0.114 153 0 0 0 0.066119999
3.405 0.056000002 -0.104 153 0 0 0 0.066129997
3.4059999 0.050999999 -0.093999997 153 0 0 0 0.066140004
3.4059999 0.046 -0.083999999 153 0 0 0 0.066150002
3.4059999 0.039999999 -0.074000001 153 0 0 0 0.066160001
3.418 0.035 -0.064999998 153 0 0 0 0.06617
3.4230001 0.029999999 -0.055 152 0 0 0 0.066179998
3.4230001 0.025 -0.045000002 152 0 0 0 0.066189997
3.421 0.02 -0.035999998 152 0 0 0 0.066200003
3.4200001 0.014 -0.026000001 152 0 0 0 0.066210002
3.4219999 0.0089999996 -0.016000001 152 0 0 0 0.06622
3.4219999 0.0040000002 -0.0060000001 152 0 0 0 0.066229999
3.424 0 0.0020000001 151 0 0 0 0.066239998
3.4219999 -0.0060000001 0.012 151 0 0 0 0.066249996
3.424 -0.011 0.022 151 0 0 0 0.066260003
3.428 -0.017000001 0.030999999 152 0 0 0 0.066270001
3.425 -0.022 0.041000001 152 0 0 0 0.06628
3.425 -0.027000001 0.050999999 152 0 0 0 0.066289999
3.424 -0.033 0.059999999 151 0 0 0 0.066299997
3.427 -0.037999999 0.07 151 0 0 0 0.066310003
3.4289999 -0.044 0.079999998 151 0 0 0 0.066320002
3.4260001 -0.048999999 0.089000002 151 0 0 0 0.066330001
3.428 -0.055 0.098999999 151 0 0 0 0.066339999
3.4319999 -0.059999999 0.109 151 0 0 0 0.066349998
3.4319999 -0.066 0.118 151 0 0 0 0.066359997
3.431 -0.071000002 0.12800001 151 0 0 0 0.066370003
3.4349999 -0.077 0.138 151 0 0 0 0.066380002
3.4300001 -0.082000002 0.147 151 0 0 0 0.06639
3.4349999 -0.088 0.15700001 151 0 0 0 0.066399999
3.434 -0.093999997 0.167 151 0 0 0 0.066409998
3.434 -0.098999999 0.176 151 0 0 0 0.066419996
3.4360001 -0.105 0.186 151 0 0 0 0.066430002
3.4319999 -0.111 0.19499999 151 0 0 0 0.066440001
3.437 -0.117 0.205 151 0 0 0 0.06645
3.437 -0.122 0.215 151 0 0 0 0.066459998
3.437 -0.12800001 0.22400001 151 0 0 0 0.066469997
3.4360001 -0.134 0.234 151 0 0 0 0.066480003
3.438 -0.14 0.244 151 0 0 0 0.066490002
3.4349999 -0.145 0.25299999 151 0 0 0 0.066500001
3.4360001 -0.15099999 0.26300001 151 0 0 0 0.066509999
3.437 -0.15700001 0.27200001 151 0 0 0 0.066519998
3.4389999 -0.163 0.28200001 152 0 0 0 0.066529997
3.441 -0.169 0.292 151 0 0 0 0.066540003
3.3989999 -0.17299999 0.29699999 150 0 0 0 0.066550002
3.375 -0.177 0.30500001 151 0 0 0 0.06656
3.378 -0.183 0.31400001 151 0 0 0 0.066569999
3.3740001 -0.189 0.32300001 151 0 0 0 0.066579998
3.375 -0.19499999 0.333 151 0 0 0 0.066590004
3.3699999 -0.2 0.34099999 150 0 0 0 0.066600002
3.3499999 -0.205 0.34900001 150 0 0 0 0.066610001
3.345 -0.211 0.35699999 151 0 0 0 0.06662
3.3429999 -0.21699999 0.366 151 0 0 0 0.066629998
3.342 -0.222 0.375 151 0 0 0 0.066639997
3.348 -0.229 0.38499999 151 0 0 0 0.066650003
3.346 -0.235 0.39399999 151 0 0 0 0.066660002
3.3510001 -0.241 0.40400001 151 0 0 0 0.066670001
3.3469999 -0.24699999 0.41299999 150 0 0 0 0.066679999
3.3380001 -0.252 0.421 44 0 0 0 0.066689998
3.267 -0.252 0.421 44 0 0 0 0.066699997
3.237 -0.25600001 0.426 150 0 0 0 0.066710003
3.234 -0.26199999 0.43399999 151 0 0 0 0.066720001
3.2379999 -0.26800001 0.44400001 151 0 0 0 0.06673
3.2379999 -0.27399999 0.45300001 151 0 0 0 0.066739999
3.2349999 -0.27900001 0.461 151 0 0 0 0.066749997
3.243 -0.28600001 0.47099999 151 0 0 0 0.066760004
3.2409999 -0.292 0.47999999 150 0 0 0 0.066770002
3.243 -0.29800001 0.48899999 151 0 0 0 0.066780001
3.2409999 -0.30399999 0.49700001 151 0 0 0 0.06679
3.2249999 -0.30899999 0.50300002 150 0 0 0 0.066799998
3.2149999 -0.31400001 0.51099998 150 0 0 0 0.066809997
3.2160001 -0.31999999 0.51999998 151 0 0 0 0.066820003
3.2160001 -0.32600001 0.528 151 0 0 0 0.066830002
3.214 -0.33199999 0.537 151 0 0 0 0.06684
3.2149999 -0.338 0.54500002 151 0 0 0 0.066849999
3.2179999 -0.34400001 0.55500001 150 0 0 0 0.066859998
3.2179999 -0.35100001 0.56300002 151 0 0 0 0.066869996
3.2179999 -0.35699999 0.57200003 150 0 0 0 0.066880003
3.0150001 -0.34 0.54400003 151 0 0 0 0.066890001
2.8629999 -0.329 0.52399999 150 0 0 0 0.0669
2.5969999 -0.303 0.48300001 30 0 0 0 0.066909999
2.553 -0.303 0.48100001 28 0 0 0 0.066919997
2.5209999 -0.30399999 0.48199999 26 0 0 0 0.066930003
2.4790001 -0.30399999 0.48100001 23 0 0 0 0.066940002
2.4489999 -0.30500001 0.48100001 19 0 0 0 0.066950001
2.4119999 -0.30500001 0.48100001 23 0 0 0 0.06696
2.3929999 -0.30700001 0.48300001 30 0 0 0 0.066969998
2.3840001 -0.31099999 0.48800001 18 0 0 0 0.066979997
2.392 -0.317 0.49599999 0 0 0 0 0.066990003
2.405 -0.324 0.505 0 0 0 0 0.067000002
0 0 0 0 0 0 0 0.06701
0 0 0 0 0 0 0 0.067019999
0 0 0 0 0 0 0 0.067029998
0 0 0 0 0 0 0 0.067039996
0 0 0 0 0 0 0 0.067050003
0 0 0 0 0 0 0 0.067060001
0 0 0 0 0 0 0 0.06707
0 0 0 0 0 0 0 0.067079999
0 0 0 0 0 0 0 0.067089997
0 0 0 0 0 0 0 0.067100003
0 0 0 0 0 0 0 0.067110002
0 0 0 0 0 0 0 0.067120001
0 0 0 0 0 0 0 0.067129999
0 0 0 0 0 0 0 0.067139998
0 0 0 0 0 0 0 0.067149997
0 0 0 0 0 0 0 0.067160003
0 0 0 0 0 0 0 0.067170002
0 0 0 0 0 0 0 0.06718
0 0 0 0 0 0 0 0.067189999
0 0 0 0 0 0 0 0.067199998
0 0 0 0 0 0 0 0.067209996
0 0 0 0 0 0 0 0.067220002
0 0 0 0 0 0 0 0.067230001
0 0 0 0 0 0 0 0.06724
0 0 0 0 0 0 0 0.067249998
0 0 0 0 0 0 0 0.067259997
0 0 0 0 0 0 0 0.067270003
0 0 0 0 0 0 0 0.067280002
0 0 0 0 0 0 0 0.067290001
0 0 0 0 0 0 0 0.067299999
0 0 0 0 0 0 0 0.067309998
0 0 0 0 0 0 0 0.067319997
0 0 0 0 0 0 0 0.067330003
0 0 0 0 0 0 0 0.067340001
2.441 -0.51300001 0.73500001 0 0 0 0 0.06735
0 0 0 0 0 0 0 0.067359999
2.3870001 -0.51300001 0.73000002 0 0 0 0 0.067369998
2.448 -0.53200001 0.755 0 0 0 0 0.067380004
0 0 0 0 0 0 0 0.067390002
0 0 0 0 0 0 0 0.067400001
0 0 0 0 0 0 0 0.06741
2.4030001 -0.54400003 0.76499999 0 0 0 0 0.067419998
0 0 0 0 0 0 0 0.067429997
0 0 0 0 0 0 0 0.067440003
0 0 0 0 0 0 0 0.067450002
0 0 0 0 0 0 0 0.067460001
0 0 0 0 0 0 0 0.067469999
2.3970001 -0.57700002 0.79799998 0 0 0 0 0.067479998
0 0 0 0 0 0 0 0.067489997
0 0 0 0 0 0 0 0.067500003
2.4030001 -0.59600002 0.81800002 0 0 0 0 0.067510001
0 0 0 0 0 0 0 0.06752
0 0 0 0 0 0 0 0.067529999
0 0 0 0 0 0 0 0.067539997
0 0 0 0 0 0 0 0.067550004
0 0 0 0 0 0 0 0.067560002
0 0 0 0 0 0 0 0.067570001
0 0 0 0 0 0 0 0.06758
0 0 0 0 0 0 0 0.067589998
0 0 0 0 0 0 0 0.067599997
2.779 -0.759 1.011 0 0 0 0 0.067610003
0 0 0 0 0 0 0 0.067620002
0 0 0 0 0 0 0 0.06763
0 0 0 0 0 0 0 0.067639999
0 0 0 0 0 0 0 0.067649998
2.7460001 -0.78500003 1.03 0 0 0 0 0.067659996
4.2639999 -1.229 1.608 36 0 0 0 0.067670003
0 0 0 0 0 0 0 0.067680001
2.9100001 -0.85399997 1.11 0 0 0 0 0.06769
0 0 0 0 0 0 0 0.067699999
4.1729999 -1.2460001 1.61 36 0 0 0 0.067709997
4.145 -1.248 1.608 37 0 0 0 0.067720003
4.1220002 -1.252 1.608 36 0 0 0 0.067730002
4.1020002 -1.257 1.609 37 0 0 0 0.067740001
4.0840001 -1.261 1.61 39 0 0 0 0.067749999
4.0599999 -1.265 1.61 40 0 0 0 0.067759998
4.0419998 -1.27 1.6109999 39 0 0 0 0.067769997
4.0209999 -1.274 1.6109999 42 0 0 0 0.067780003
4.0009999 -1.278 1.6109999 41 0 0 0 0.067790002
3.98 -1.281 1.61 39 0 0 0 0.0678
3.9619999 -1.286 1.6109999 39 0 0 0 0.067809999
3.9389999 -1.289 1.61 40 0 0 0 0.067819998
3.925 -1.295 1.612 40 0 0 0 0.067829996
3.9070001 -1.299 1.612 41 0 0 0 0.067840002
3.8959999 -1.3049999 1.614 41 0 0 0 0.067850001
3.875 -1.309 1.614 43 0 0 0 0.06786
3.8559999 -1.313 1.613 41 0 0 0 0.067869999
3.842 -1.318 1.614 38 0 0 0 0.067879997
3.8299999 -1.324 1.6160001 39 0 0 0 0.067890003
3.8099999 -1.327 1.614 37 0 0 0 0.067900002
3.793 -1.331 1.614 38 0 0 0 0.067910001
3.773 -1.334 1.612 38 0 0 0 0.067919999
3.767 -1.342 1.617 40 0 0 0 0.067929998
3.7460001 -1.344 1.614 37 0 0 0 0.067939997
3.73 -1.349 1.614 39 0 0 0 0.067950003
3.721 -1.355 1.6160001 40 0 0 0 0.067960002
3.704 -1.359 1.615 41 0 0 0 0.06797
3.6860001 -1.362 1.613 39 0 0 0 0.067979999
3.6800001 -1.369 1.6160001 41 0 0 0 0.067989998
3.664 -1.373 1.615 39 0 0 0 0.068000004
3.6559999 -1.3789999 1.618 40 0 0 0 0.068010002
3.6440001 -1.3839999 1.618 40 0 0 0 0.068020001
3.6300001 -1.3890001 1.617 40 0 0 0 0.06803
3.622 -1.395 1.619 41 0 0 0 0.068039998
3.6099999 -1.4 1.619 46 0 0 0 0.068049997
3.596 -1.404 1.618 49 0 0 0 0.068060003
3.585 -1.409 1.618 47 0 0 0 0.068070002
3.576 -1.415 1.619 46 0 0 0 0.068080001
3.5550001 -1.416 1.614 37 0 0 0 0.068089999
3.5409999 -1.42 1.613 37 0 0 0 0.068099998
3.523 -1.421 1.609 27 0 0 0 0.068109997
3.506 -1.424 1.6059999 23 0 0 0 0.068120003
3.483 -1.423 1.6 22 0 0 0 0.068130001
3.4679999 -1.426 1.597 22 0 0 0 0.06814
3.4430001 -1.425 1.59 21 0 0 0 0.068149999
3.428 -1.427 1.587 21 0 0 0 0.068159997
3.4130001 -1.4299999 1.584 22 0 0 0 0.068170004
3.3940001 -1.4299999 1.579 21 0 0 0 0.068180002
3.3789999 -1.432 1.575 22 0 0 0 0.068190001
3.3599999 -1.433 1.5700001 22 0 0 0 0.0682
3.3340001 -1.4299999 1.561 20 0 0 0 0.068209998
3.323 -1.433 1.559 21 0 0 0 0.068219997
3.3099999 -1.436 1.556 20 0 0 0 0.068230003
3.2869999 -1.434 1.548 20 0 0 0 0.068240002
3.273 -1.436 1.544 21 0 0 0 0.06825
3.2579999 -1.437 1.54 22 0 0 0 0.068259999
3.2390001 -1.436 1.533 21 0 0 0 0.068269998
3.2279999 -1.439 1.531 21 0 0 0 0.068279997
3.2149999 -1.441 1.527 22 0 0 0 0.068290003
3.1989999 -1.441 1.521 22 0 0 0 0.068300001
3.1819999 -1.441 1.515 23 0 0 0 0.06831
3.1689999 -1.443 1.511 23 0 0 0 0.068319999
3.1570001 -1.444 1.508 23 0 0 0 0.068329997
3.145 -1.446 1.503 25 0 0 0 0.068340003
3.1259999 -1.444 1.4960001 24 0 0 0 0.068350002
3.1140001 -1.446 1.4910001 25 0 0 0 0.068360001
3.102 -1.447 1.487 23 0 0 0 0.06837
3.0899999 -1.448 1.483 24 0 0 0 0.068379998
3.073 -1.447 1.475 23 0 0 0 0.068389997
3.0610001 -1.448 1.471 25 0 0 0 0.068400003
3.0510001 -1.449 1.467 26 0 0 0 0.068410002
3.0409999 -1.451 1.4630001 27 0 0 0 0.06842
3.029 -1.452 1.457 27 0 0 0 0.068429999
3.0239999 -1.455 1.456 30 0 0 0 0.068439998
3.02 -1.46 1.454 30 0 0 0 0.068449996
3.0239999 -1.467 1.456 31 0 0 0 0.068460003
3.0250001 -1.474 1.456 34 0 0 0 0.068470001
3.0239999 -1.479 1.456 31 0 0 0 0.06848
3.026 -1.4859999 1.457 29 0 0 0 0.068489999
3.0239999 -1.4910001 1.456 29 0 0 0 0.068499997
3.0220001 -1.495 1.455 30 0 0 0 0.068510003
3.0250001 -1.502 1.455 31 0 0 0 0.068520002
3.0250001 -1.507 1.455 30 0 0 0 0.068530001
3.0250001 -1.513 1.454 28 0 0 0 0.068539999
3.0280001 -1.52 1.455 29 0 0 0 0.068549998
3.033 -1.527 1.456 30 0 0 0 0.068559997
3.0369999 -1.534 1.457 29 0 0 0 0.068570003
3.0369999 -1.539 1.456 28 0 0 0 0.068580002
3.0420001 -1.546 1.457 29 0 0 0 0.06859
3.043 -1.551 1.456 28 0 0 0 0.068599999
3.0450001 -1.557 1.455 29 0 0 0 0.068609998
3.052 -1.5650001 1.457 27 0 0 0 0.068619996
3.056 -1.571 1.457 28 0 0 0 0.068630002
3.059 -1.577 1.457 29 0 0 0 0.068640001
3.0680001 -1.586 1.459 27 0 0 0 0.06865
3.0680001 -1.59 1.457 27 0 0 0 0.068659998
3.0769999 -1.599 1.459 27 0 0 0 0.068669997
3.0880001 -1.608 1.461 29 0 0 0 0.068680003
3.089 -1.612 1.459 26 0 0 0 0.068690002
3.096 -1.62 1.46 28 0 0 0 0.068700001
3.1040001 -1.627 1.461 28 0 0 0 0.068709999
3.1029999 -1.63 1.457 27 0 0 0 0.068719998
3.1159999 -1.64 1.46 28 0 0 0 0.068729997
3.122 -1.646 1.46 27 0 0 0 0.068740003
3.1240001 -1.65 1.4579999 27 0 0 0 0.068750001
3.1329999 -1.658 1.4579999 27 0 0 0 0.06876
3.1440001 -1.666 1.46 26 0 0 0 0.068769999
3.151 -1.673 1.459 26 0 0 0 0.068779998
3.158 -1.679 1.459 26 0 0 0 0.068790004
3.1700001 -1.687 1.46 25 0 0 0 0.068800002
3.177 -1.693 1.459 25 0 0 0 0.068810001
3.1860001 -1.7 1.459 25 0 0 0 0.06882
3.2019999 -1.711 1.4630001 28 0 0 0 0.068829998
3.256 -1.742 1.483 53 0 0 0 0.068839997
3.3199999 -1.777 1.507 62 0 0 0 0.068850003
3.3710001 -1.806 1.525 50 0 0 0 0.068860002
3.4000001 -1.824 1.534 34 0 0 0 0.068870001
3.414 -1.832 1.534 32 0 0 0 0.068879999
3.4260001 -1.84 1.535 30 0 0 0 0.068889998
3.431 -1.8430001 1.5319999 30 0 0 0 0.068899997
3.4460001 -1.853 1.533 30 0 0 0 0.068910003
3.4619999 -1.862 1.534 30 0 0 0 0.068920001
3.474 -1.869 1.534 30 0 0 0 0.06893
3.487 -1.876 1.534 29 0 0 0 0.068939999
3.5009999 -1.8839999 1.534 29 0 0 0 0.068949997
3.5139999 -1.891 1.533 28 0 0 0 0.068960004
3.53 -1.9 1.534 29 0 0 0 0.068970002
3.543 -1.906 1.533 29 0 0 0 0.068980001
3.556 -1.913 1.5319999 28 0 0 0 0.06899
3.5739999 -1.9220001 1.533 29 0 0 0 0.068999998
3.592 -1.931 1.534 28 0 0 0 0.069009997
3.6040001 -1.937 1.5319999 27 0 0 0 0.069020003
3.6210001 -1.9450001 1.533 28 0 0 0 0.069030002
3.642 -1.955 1.534 28 0 0 0 0.06904
3.6600001 -1.964 1.535 29 0 0 0 0.069049999
3.6719999 -1.969 1.533 28 0 0 0 0.069059998
3.6919999 -1.978 1.533 27 0 0 0 0.069069996
3.707 -1.984 1.5319999 26 0 0 0 0.069080003
3.7279999 -1.994 1.533 27 0 0 0 0.069090001
3.747 -2.0009999 1.533 26 0 0 0 0.0691
3.7709999 -2.0120001 1.535 26 0 0 0 0.069109999
3.786 -2.017 1.533 28 0 0 0 0.069119997
3.8069999 -2.026 1.534 26 0 0 0 0.069130003
3.826 -2.033 1.533 27 0 0 0 0.069140002
3.845 -2.0409999 1.5319999 27 0 0 0 0.069150001
3.8659999 -2.0480001 1.5319999 27 0 0 0 0.069159999
3.8840001 -2.0550001 1.531 26 0 0 0 0.069169998
3.911 -2.066 1.533 26 0 0 0 0.069179997
3.9349999 -2.075 1.533 25 0 0 0 0.069190003
3.9489999 -2.0780001 1.53 25 0 0 0 0.069200002
3.9760001 -2.089 1.531 25 0 0 0 0.06921
3.9990001 -2.0969999 1.531 25 0 0 0 0.069219999
4.026 -2.1059999 1.5319999 25 0 0 0 0.069229998
4.0409999 -2.1099999 1.529 24 0 0 0 0.069239996
4.0710001 -2.1199999 1.53 25 0 0 0 0.069250003
4.0929999 -2.1270001 1.529 24 0 0 0 0.069260001
4.1209998 -2.1359999 1.53 25 0 0 0 0.06927
4.1459999 -2.145 1.53 26 0 0 0 0.069279999
2.5190001 -1.3 0.92299998 0 0 0 0 0.069289997
4.1999998 -2.161 1.53 25 0 0 0 0.069300003
4.23 -2.171 1.531 25 0 0 0 0.069310002
4.2540002 -2.178 1.53 25 0 0 0 0.069320001
4.2820001 -2.1860001 1.53 24 0 0 0 0.069329999
4.3179998 -2.198 1.5319999 25 0 0 0 0.069339998
4.3439999 -2.2049999 1.531 25 0 0 0 0.069349997
4.375 -2.214 1.5319999 25 0 0 0 0.069360003
4.4089999 -2.224 1.533 25 0 0 0 0.069370002
4.4429998 -2.234 1.534 26 0 0 0 0.06938
4.4679999 -2.24 1.5319999 25 0 0 0 0.069389999
4.5050001 -2.2509999 1.534 25 0 0 0 0.069399998
4.533 -2.2579999 1.5319999 25 0 0 0 0.069410004
4.5710001 -2.2679999 1.534 25 0 0 0 0.069420002
4.605 -2.2780001 1.535 25 0 0 0 0.069430001
4.6430001 -2.2880001 1.536 26 0 0 0 0.06944
4.6729999 -2.2950001 1.534 35 0 0 0 0.069449998
4.2059999 -2.0580001 1.3710001 151 0 0 0 0.069459997
3.7509999 -1.8279999 1.214 150 0 0 0 0.069470003
3.7090001 -1.801 1.191 48 0 0 0 0.069480002
3.687 -1.783 1.175 55 0 0 0 0.069490001
3.687 -1.776 1.166 57 0 0 0 0.069499999
3.6849999 -1.768 1.156 57 0 0 0 0.069509998
3.684 -1.76 1.147 57 0 0 0 0.069519997
3.684 -1.753 1.138 57 0 0 0 0.069530003
3.678 -1.743 1.127 56 0 0 0 0.069540001
3.6819999 -1.737 1.12 56 0 0 0 0.06955
3.6819999 -1.73 1.1109999 57 0 0 0 0.069559999
3.6819999 -1.723 1.102 57 0 0 0 0.069569997
3.681 -1.714 1.0930001 57 0 0 0 0.069580004
3.6819999 -1.707 1.084 56 0 0 0 0.069590002
3.681 -1.699 1.075 56 0 0 0 0.069600001
3.6819999 -1.691 1.066 56 0 0 0 0.06961
3.6830001 -1.684 1.058 56 0 0 0 0.069619998
3.678 -1.673 1.048 55 0 0 0 0.069629997
3.681 -1.666 1.04 56 0 0 0 0.069640003
3.675 -1.656 1.029 56 0 0 0 0.069650002
3.677 -1.648 1.021 56 0 0 0 0.069660001
3.6789999 -1.641 1.013 55 0 0 0 0.069669999
3.678 -1.632 1.0039999 56 0 0 0 0.069679998
3.6760001 -1.622 0.995 55 0 0 0 0.069689997
3.677 -1.614 0.986 55 0 0 0 0.069700003
3.6730001 -1.604 0.977 55 0 0 0 0.069710001
3.6719999 -1.595 0.96799999 55 0 0 0 0.06972
3.675 -1.5880001 0.95999998 55 0 0 0 0.069729999
3.6730001 -1.5779999 0.95099998 55 0 0 0 0.069739997
3.6670001 -1.567 0.94099998 54 0 0 0 0.069750004
3.6719999 -1.5599999 0.93400002 54 0 0 0 0.069760002
3.671 -1.551 0.92500001 51 0 0 0 0.069770001
3.6719999 -1.5420001 0.917 51 0 0 0 0.06978
3.6700001 -1.5319999 0.90799999 53 0 0 0 0.069789998
3.6659999 -1.521 0.89899999 53 0 0 0 0.069799997
3.6700001 -1.5140001 0.89099997 52 0 0 0 0.069810003
3.671 -1.505 0.88300002 53 0 0 0 0.069820002
3.664 -1.493 0.87300003 54 0 0 0 0.06983
3.665 -1.484 0.86500001 54 0 0 0 0.069839999
3.665 -1.475 0.85699999 55 0 0 0 0.069849998
3.661 -1.464 0.84799999 55 0 0 0 0.069859996
3.6570001 -1.4529999 0.838 55 0 0 0 0.069870003
3.661 -1.446 0.83200002 48 0 0 0 0.069880001
3.7279999 -1.462 0.838 22 0 0 0 0.06989
3.8180001 -1.488 0.85000002 17 0 0 0 0.069899999
3.8399999 -1.4859999 0.84600002 16 0 0 0 0.069909997
3.829 -1.472 0.83600003 12 0 0 0 0.069920003
3.8239999 -1.46 0.82700002 11 0 0 0 0.069930002
3.8180001 -1.448 0.81699997 11 0 0 0 0.069940001
3.8199999 -1.439 0.80900002 11 0 0 0 0.069949999
3.8440001 -1.437 0.80599999 8 0 0 0 0.069959998
3.9449999 -1.465 0.81900001 8 0 0 0 0.069969997
4.0180001 -1.4809999 0.82499999 18 0 0 0 0.069980003
4.0349998 -1.477 0.81999999 18 0 0 0 0.069990002
4.0009999 -1.454 0.80500001 50 0 0 0 0.07
3.9979999 -1.442 0.796 26 0 0 0 0.070009999
4.0310001 -1.443 0.79299998 14 0 0 0 0.070019998
4.0570002 -1.441 0.79000002 14 0 0 0 0.070029996
4.0809999 -1.439 0.78600001 14 0 0 0 0.070040002
4.099 -1.434 0.78100002 15 0 0 0 0.070050001
4.1220002 -1.431 0.77700001 16 0 0 0 0.07006
4.1440001 -1.427 0.773 16 0 0 0 0.070069999
4.1599998 -1.421 0.76700002 16 0 0 0 0.070079997
0 0 0 0 0 0 0 0.070090003
