# .PCD v0.7 - Point Cloud Data file format
VERSION 0.7
FIELDS x y z intensity normal_x normal_y normal_z curvature
SIZE 4 4 4 4 4 4 4 4
TYPE F F F F F F F F
COUNT 1 1 1 1 1 1 1 1
WIDTH 1038
HEIGHT 1
VIEWPOINT 0 0 0 1 0 0 0
POINTS 1038
DATA ascii
2.362 -0.338 -0.071000002 18 0 0 0 0.041299999
2.3599999 -0.33000001 -0.07 19 0 0 0 0.041310001
2.3729999 -0.32499999 -0.068999998 22 0 0 0 0.04132
2.405 -0.32100001 -0.068000004 20 0 0 0 0.041329999
2.4460001 -0.31900001 -0.068000004 23 0 0 0 0.041340001
2.517 -0.31999999 -0.068999998 31 0 0 0 0.04135
2.573 -0.31900001 -0.068999998 32 0 0 0 0.041359998
2.8329999 -0.34200001 -0.074000001 121 0 0 0 0.041370001
3.1210001 -0.36700001 -0.079999998 150 0 0 0 0.041379999
3.211 -0.36700001 -0.079999998 150 0 0 0 0.041390002
3.21 -0.35699999 -0.079000004 150 0 0 0 0.0414
3.2060001 -0.34599999 -0.077 150 0 0 0 0.041409999
3.214 -0.336 -0.075000003 150 0 0 0 0.041420002
3.2079999 -0.32600001 -0.072999999 150 0 0 0 0.04143
3.23 -0.317 -0.071000002 151 0 0 0 0.041439999
3.237 -0.308 -0.068999998 151 0 0 0 0.041450001
3.237 -0.29699999 -0.067000002 151 0 0 0 0.04146
3.2349999 -0.287 -0.064999998 151 0 0 0 0.041469999
3.237 -0.27700001 -0.063000001 151 0 0 0 0.041480001
3.2379999 -0.26699999 -0.061000001 152 0 0 0 0.04149
3.2869999 -0.25999999 -0.059999999 107 0 0 0 0.041499998
3.349 -0.25400001 -0.059 152 0 0 0 0.041510001
3.3429999 -0.243 -0.056000002 152 0 0 0 0.04152
3.3440001 -0.233 -0.054000001 152 0 0 0 0.041529998
3.345 -0.222 -0.052000001 152 0 0 0 0.041540001
3.3570001 -0.212 -0.050000001 151 0 0 0 0.041549999
3.3740001 -0.20299999 -0.048 152 0 0 0 0.041560002
3.3770001 -0.192 -0.045000002 151 0 0 0 0.04157
3.3789999 -0.182 -0.043000001 150 0 0 0 0.041579999
3.405 -0.17200001 -0.041000001 154 0 0 0 0.041590001
3.4360001 -0.163 -0.039000001 150 0 0 0 0.0416
3.4330001 -0.152 -0.035999998 150 0 0 0 0.041609999
3.4330001 -0.141 -0.034000002 150 0 0 0 0.041620001
3.4360001 -0.13 -0.032000002 150 0 0 0 0.04163
3.4319999 -0.119 -0.028999999 150 0 0 0 0.041639999
3.434 -0.108 -0.026000001 150 0 0 0 0.041650001
3.4300001 -0.097000003 -0.024 150 0 0 0 0.04166
3.431 -0.086999997 -0.021 150 0 0 0 0.041669998
3.4289999 -0.075999998 -0.018999999 150 0 0 0 0.041680001
3.4289999 -0.064999998 -0.016000001 150 0 0 0 0.041689999
3.424 -0.054000001 -0.014 150 0 0 0 0.041700002
3.424 -0.043000001 -0.011 150 0 0 0 0.04171
3.428 -0.033 -0.0080000004 150 0 0 0 0.041719999
3.4189999 -0.022 -0.0060000001 150 0 0 0 0.041730002
3.4189999 -0.011 -0.003 150 0 0 0 0.04174
3.424 0 0 150 0 0 0 0.041749999
3.4189999 0.0089999996 0.0020000001 151 0 0 0 0.041760001
3.418 0.02 0.0040000002 151 0 0 0 0.04177
3.424 0.030999999 0.0070000002 151 0 0 0 0.041779999
3.4200001 0.041999999 0.0099999998 152 0 0 0 0.041790001
3.4230001 0.052000001 0.013 152 0 0 0 0.0418
3.4230001 0.063000001 0.015 152 0 0 0 0.041809998
3.4070001 0.072999999 0.017999999 153 0 0 0 0.041820001
3.401 0.083999999 0.021 154 0 0 0 0.04183
3.4059999 0.094999999 0.024 153 0 0 0 0.041839998
3.398 0.105 0.027000001 154 0 0 0 0.041850001
3.3859999 0.115 0.028999999 154 0 0 0 0.041859999
3.3870001 0.126 0.032000002 154 0 0 0 0.041870002
3.382 0.13600001 0.035 155 0 0 0 0.04188
3.381 0.147 0.037999999 155 0 0 0 0.041889999
3.3800001 0.15700001 0.041000001 156 0 0 0 0.041900001
3.3789999 0.168 0.044 156 0 0 0 0.04191
3.375 0.178 0.046999998 156 0 0 0 0.041919999
3.375 0.189 0.050000001 156 0 0 0 0.041930001
3.375 0.199 0.052999999 156 0 0 0 0.04194
3.3740001 0.20999999 0.056000002 157 0 0 0 0.041949999
3.3740001 0.22 0.059 157 0 0 0 0.041960001
3.372 0.23100001 0.061999999 156 0 0 0 0.04197
3.3710001 0.241 0.064999998 156 0 0 0 0.041979998
3.3699999 0.25099999 0.068000004 156 0 0 0 0.041990001
3.3699999 0.26199999 0.071000002 156 0 0 0 0.041999999
3.372 0.273 0.074000001 156 0 0 0 0.042010002
3.3729999 0.28299999 0.078000002 156 0 0 0 0.042020001
3.3710001 0.294 0.081 156 0 0 0 0.042029999
3.3699999 0.30399999 0.083999999 155 0 0 0 0.042040002
3.3759999 0.315 0.086999997 154 0 0 0 0.04205
3.375 0.32499999 0.090999998 154 0 0 0 0.042059999
3.3729999 0.336 0.093999997 154 0 0 0 0.042070001
3.3800001 0.347 0.097000003 154 0 0 0 0.04208
3.3870001 0.35800001 0.101 154 0 0 0 0.042089999
3.3970001 0.37 0.104 153 0 0 0 0.042100001
3.395 0.38 0.108 153 0 0 0 0.04211
3.3989999 0.391 0.111 153 0 0 0 0.042119998
3.3970001 0.40200001 0.115 152 0 0 0 0.042130001
3.3970001 0.412 0.118 152 0 0 0 0.04214
3.3900001 0.42199999 0.121 152 0 0 0 0.042149998
3.392 0.433 0.125 151 0 0 0 0.042160001
3.3870001 0.44299999 0.12800001 151 0 0 0 0.042169999
3.3859999 0.45300001 0.132 151 0 0 0 0.042180002
3.3870001 0.463 0.13500001 151 0 0 0 0.04219
3.3889999 0.47400001 0.139 152 0 0 0 0.042199999
3.388 0.48500001 0.142 150 0 0 0 0.042210001
3.3900001 0.495 0.146 146 0 0 0 0.04222
3.3870001 0.505 0.15000001 151 0 0 0 0.042229999
3.3889999 0.51599997 0.153 151 0 0 0 0.042240001
3.326 0.51700002 0.154 150 0 0 0 0.04225
3.316 0.52600002 0.15700001 151 0 0 0 0.042259999
3.3210001 0.537 0.161 150 0 0 0 0.042270001
3.289 0.542 0.163 151 0 0 0 0.04228
3.289 0.55199999 0.167 152 0 0 0 0.042289998
3.2920001 0.56300002 0.171 151 0 0 0 0.042300001
3.2869999 0.57200003 0.17399999 151 0 0 0 0.042309999
3.286 0.58200002 0.178 150 0 0 0 0.042319998
3.266 0.58899999 0.18000001 30 0 0 0 0.042330001
3.2249999 0.59100002 0.182 25 0 0 0 0.042339999
3.168 0.59100002 0.182 28 0 0 0 0.042350002
3.095 0.58700001 0.182 28 0 0 0 0.04236
3.033 0.58399999 0.182 29 0 0 0 0.042369999
2.971 0.58200002 0.18099999 30 0 0 0 0.042380001
2.914 0.579 0.18099999 33 0 0 0 0.04239
2.8800001 0.58200002 0.183 36 0 0 0 0.042399999
2.793 0.57300001 0.18000001 35 0 0 0 0.042410001
2.6719999 0.55599999 0.176 30 0 0 0 0.04242
2.589 0.54699999 0.17299999 27 0 0 0 0.042429999
2.5039999 0.537 0.171 22 0 0 0 0.042440001
2.441 0.53100002 0.169 21 0 0 0 0.04245
2.395 0.528 0.169 21 0 0 0 0.042459998
2.346 0.52499998 0.169 21 0 0 0 0.042470001
2.263 0.51300001 0.16599999 150 0 0 0 0.042479999
2.253 0.51800001 0.168 151 0 0 0 0.042490002
2.2539999 0.52499998 0.171 151 0 0 0 0.0425
2.2550001 0.53200001 0.17399999 151 0 0 0 0.042509999
2.2390001 0.53500003 0.175 150 0 0 0 0.042520002
2.2290001 0.54000002 0.177 151 0 0 0 0.04253
2.2290001 0.54699999 0.18000001 151 0 0 0 0.042539999
2.2279999 0.55299997 0.183 151 0 0 0 0.042550001
2.2279999 0.56 0.186 151 0 0 0 0.04256
2.2249999 0.56599998 0.189 151 0 0 0 0.042569999
2.2309999 0.57499999 0.192 151 0 0 0 0.042580001
2.2260001 0.57999998 0.19499999 151 0 0 0 0.04259
2.2219999 0.58600003 0.197 151 0 0 0 0.042599998
2.23 0.59500003 0.20100001 151 0 0 0 0.042610001
2.2460001 0.60600001 0.206 150 0 0 0 0.042619999
2.2590001 0.61699998 0.20999999 150 0 0 0 0.042629998
2.2579999 0.62300003 0.213 150 0 0 0 0.042640001
2.2420001 0.62599999 0.215 150 0 0 0 0.042649999
2.2309999 0.63 0.21699999 150 0 0 0 0.042660002
2.2290001 0.63599998 0.22 151 0 0 0 0.04267
2.2880001 0.66000003 0.229 150 0 0 0 0.042679999
2.4400001 0.71100003 0.248 150 0 0 0 0.042690001
2.4860001 0.73199999 0.25600001 150 0 0 0 0.0427
2.4909999 0.741 0.25999999 150 0 0 0 0.042709999
2.4849999 0.74699998 0.26300001 150 0 0 0 0.042720001
2.483 0.75400001 0.266 150 0 0 0 0.04273
2.3900001 0.73299998 0.25999999 150 0 0 0 0.042739999
2.3 0.71200001 0.25400001 150 0 0 0 0.042750001
1.498 0.46799999 0.167 8 0 0 0 0.04276
1.476 0.46599999 0.167 1 0 0 0 0.042769998
1.465 0.46700001 0.168 1 0 0 0 0.042780001
1.442 0.46399999 0.168 1 0 0 0 0.042789999
1.431 0.465 0.168 1 0 0 0 0.042800002
1.415 0.46399999 0.169 1 0 0 0 0.04281
1.39 0.46000001 0.168 1 0 0 0 0.042819999
1.352 0.45199999 0.16500001 4 0 0 0 0.042830002
1.359 0.458 0.168 5 0 0 0 0.04284
1.344 0.45699999 0.169 4 0 0 0 0.042849999
1.327 0.45500001 0.169 10 0 0 0 0.042860001
1.309 0.45300001 0.168 59 0 0 0 0.04287
1.298 0.45300001 0.169 136 0 0 0 0.042879999
1.294 0.456 0.171 150 0 0 0 0.042890001
1.2920001 0.45899999 0.17299999 150 0 0 0 0.0429
1.296 0.46399999 0.175 147 0 0 0 0.042909998
1.2970001 0.46799999 0.177 150 0 0 0 0.042920001
1.295 0.47099999 0.17900001 150 0 0 0 0.04293
1.294 0.47499999 0.18099999 136 0 0 0 0.042939998
1.293 0.47799999 0.183 144 0 0 0 0.042950001
1.291 0.48100001 0.185 139 0 0 0 0.042959999
1.295 0.48699999 0.18799999 150 0 0 0 0.042970002
1.29 0.48899999 0.19 139 0 0 0 0.04298
1.296 0.495 0.193 119 0 0 0 0.042989999
1.304 0.50199997 0.19599999 45 0 0 0 0.043000001
1.296 0.50300002 0.197 11 0 0 0 0.04301
1.272 0.49700001 0.19599999 6 0 0 0 0.043019999
1.2539999 0.493 0.19499999 0 0 0 0 0.043030001
3.3169999 1.316 0.523 1 0 0 0 0.04304
3.329 1.33 0.53100002 3 0 0 0 0.043049999
3.3280001 1.339 0.53600001 5 0 0 0 0.043060001
3.3239999 1.347 0.542 6 0 0 0 0.04307
3.3210001 1.3559999 0.54699999 4 0 0 0 0.043079998
3.3039999 1.358 0.551 3 0 0 0 0.043090001
3.2820001 1.359 0.55299997 2 0 0 0 0.043099999
3.2720001 1.364 0.55699998 3 0 0 0 0.043110002
3.277 1.375 0.56400001 3 0 0 0 0.043120001
3.2650001 1.3789999 0.56800002 3 0 0 0 0.043129999
3.2550001 1.3839999 0.57300001 3 0 0 0 0.043140002
3.2550001 1.393 0.579 3 0 0 0 0.04315
3.2390001 1.396 0.58200002 3 0 0 0 0.043159999
3.243 1.406 0.58899999 3 0 0 0 0.043170001
3.2390001 1.414 0.59399998 3 0 0 0 0.04318
3.243 1.424 0.60100001 3 0 0 0 0.043189999
3.233 1.429 0.60600001 3 0 0 0 0.043200001
3.2249999 1.4349999 0.611 2 0 0 0 0.04321
3.207 1.4349999 0.61299998 1 0 0 0 0.043219998
3.1670001 1.426 0.61199999 0 0 0 0 0.043230001
3.1470001 1.426 0.61400002 0 0 0 0 0.04324
3.102 1.413 0.61199999 1 0 0 0 0.043249998
3.1059999 1.424 0.61799997 2 0 0 0 0.043260001
3.125 1.441 0.62900001 3 0 0 0 0.043269999
3.118 1.446 0.63300002 3 0 0 0 0.043280002
3.1240001 1.457 0.64099997 3 0 0 0 0.04329
3.122 1.464 0.64700001 2 0 0 0 0.043299999
3.1140001 1.469 0.65100002 2 0 0 0 0.043310001
3.086 1.4630001 0.65200001 2 0 0 0 0.04332
3.1029999 1.48 0.662 2 0 0 0 0.043329999
3.0799999 1.476 0.66299999 2 0 0 0 0.043340001
3.0940001 1.4910001 0.67199999 2 0 0 0 0.04335
3.0899999 1.497 0.67799997 2 0 0 0 0.043359999
3.076 1.498 0.68099999 2 0 0 0 0.043370001
3.0810001 1.508 0.68900001 2 0 0 0 0.04338
3.0739999 1.512 0.69400001 2 0 0 0 0.043389998
3.0840001 1.525 0.70200002 2 0 0 0 0.043400001
3.0769999 1.529 0.70700002 1 0 0 0 0.043409999
3.0810001 1.538 0.71499997 1 0 0 0 0.043419998
3.086 1.548 0.722 0 0 0 0 0.043430001
3.161 1.5930001 0.74599999 0 0 0 0 0.043439999
0.91399997 0.463 0.21699999 0 0 0 0 0.043450002
0.90700001 0.461 0.21799999 3 0 0 0 0.04346
0.91600001 0.46799999 0.222 5 0 0 0 0.043469999
0.912 0.46799999 0.223 5 0 0 0 0.043480001
0.90899998 0.46900001 0.22400001 6 0 0 0 0.04349
0.91000003 0.47099999 0.226 6 0 0 0 0.043499999
0.90700001 0.472 0.228 6 0 0 0 0.043510001
0.91399997 0.477 0.23100001 6 0 0 0 0.04352
0.92199999 0.48300001 0.235 7 0 0 0 0.043529999
0.91799998 0.48300001 0.236 6 0 0 0 0.043540001
1.3660001 0.722 0.35499999 9 0 0 0 0.04355
0 0 0 0 0 0 0 0.043559998
0 0 0 0 0 0 0 0.043570001
0 0 0 0 0 0 0 0.043579999
0 0 0 0 0 0 0 0.043590002
0 0 0 0 0 0 0 0.0436
0 0 0 0 0 0 0 0.043609999
1.247 0.67699999 0.34299999 0 0 0 0 0.043620002
0 0 0 0 0 0 0 0.04363
0 0 0 0 0 0 0 0.043639999
0 0 0 0 0 0 0 0.043650001
0 0 0 0 0 0 0 0.04366
0 0 0 0 0 0 0 0.043669999
0 0 0 0 0 0 0 0.043680001
1.0880001 0.60399997 0.31600001 0 0 0 0 0.04369
0 0 0 0 0 0 0 0.043699998
1.069 0.597 0.315 0 0 0 0 0.043710001
0 0 0 0 0 0 0 0.043719999
0 0 0 0 0 0 0 0.043729998
0 0 0 0 0 0 0 0.043740001
0 0 0 0 0 0 0 0.043749999
0 0 0 0 0 0 0 0.043760002
0 0 0 0 0 0 0 0.04377
0 0 0 0 0 0 0 0.043779999
0 0 0 0 0 0 0 0.043790001
0 0 0 0 0 0 0 0.0438
0 0 0 0 0 0 0 0.043809999
0 0 0 0 0 0 0 0.043820001
0 0 0 0 0 0 0 0.04383
0 0 0 0 0 0 0 0.043839999
0 0 0 0 0 0 0 0.043850001
0 0 0 0 0 0 0 0.04386
0 0 0 0 0 0 0 0.043869998
1.385 0.80400002 0.45699999 0 0 0 0 0.043880001
1.42 0.82599998 0.472 0 0 0 0 0.043889999
1.355 0.78899997 0.45300001 0 0 0 0 0.043900002
1.341 0.78299999 0.45100001 0 0 0 0 0.04391
1.335 0.77999997 0.45199999 1 0 0 0 0.043919999
1.332 0.77899998 0.45300001 1 0 0 0 0.043930002
1.3200001 0.773 0.45199999 1 0 0 0 0.04394
1.313 0.76999998 0.45199999 2 0 0 0 0.043949999
1.306 0.76700002 0.45199999 3 0 0 0 0.043960001
1.294 0.76099998 0.44999999 6 0 0 0 0.04397
1.2589999 0.741 0.44 9 0 0 0 0.043979999
0 0 0 0 0 0 0 0.043990001
0 0 0 0 0 0 0 0.044
1.221 0.72000003 0.43399999 0 0 0 0 0.044009998
1.221 0.72000003 0.43599999 1 0 0 0 0.044020001
1.225 0.72299999 0.44 1 0 0 0 0.04403
1.226 0.72399998 0.442 1 0 0 0 0.044039998
1.221 0.722 0.44299999 1 0 0 0 0.044050001
1.222 0.722 0.44499999 1 0 0 0 0.044059999
1.221 0.722 0.447 1 0 0 0 0.044070002
1.221 0.722 0.449 1 0 0 0 0.04408
1.221 0.722 0.45100001 9 0 0 0 0.044089999
1.219 0.72100002 0.45199999 21 0 0 0 0.044100001
1.222 0.72299999 0.45500001 6 0 0 0 0.04411
1.222 0.722 0.45699999 1 0 0 0 0.044119999
1.215 0.71799999 0.456 0 0 0 0 0.044130001
1.21 0.71499997 0.456 0 0 0 0 0.04414
0 0 0 0 0 0 0 0.044149999
0 0 0 0 0 0 0 0.044160001
0 0 0 0 0 0 0 0.04417
0 0 0 0 0 0 0 0.044179998
0 0 0 0 0 0 0 0.044190001
0 0 0 0 0 0 0 0.044199999
0 0 0 0 0 0 0 0.044210002
0 0 0 0 0 0 0 0.044220001
0 0 0 0 0 0 0 0.044229999
0 0 0 0 0 0 0 0.044240002
0 0 0 0 0 0 0 0.04425
0 0 0 0 0 0 0 0.044259999
0 0 0 0 0 0 0 0.044270001
0 0 0 0 0 0 0 0.04428
0 0 0 0 0 0 0 0.044289999
0 0 0 0 0 0 0 0.044300001
0 0 0 0 0 0 0 0.04431
0 0 0 0 0 0 0 0.044319998
0 0 0 0 0 0 0 0.044330001
0 0 0 0 0 0 0 0.04434
0 0 0 0 0 0 0 0.044349998
0 0 0 0 0 0 0 0.044360001
0 0 0 0 0 0 0 0.044369999
0 0 0 0 0 0 0 0.044380002
0 0 0 0 0 0 0 0.04439
0 0 0 0 0 0 0 0.044399999
0 0 0 0 0 0 0 0.044410001
0 0 0 0 0 0 0 0.04442
0 0 0 0 0 0 0 0.044429999
0 0 0 0 0 0 0 0.044440001
0 0 0 0 0 0 0 0.04445
0 0 0 0 0 0 0 0.044459999
0 0 0 0 0 0 0 0.044470001
0 0 0 0 0 0 0 0.04448
0 0 0 0 0 0 0 0.044489998
0 0 0 0 0 0 0 0.044500001
0 0 0 0 0 0 0 0.044509999
0 0 0 0 0 0 0 0.044520002
0 0 0 0 0 0 0 0.044530001
0 0 0 0 0 0 0 0.044539999
0 0 0 0 0 0 0 0.044550002
0 0 0 0 0 0 0 0.04456
0 0 0 0 0 0 0 0.044569999
0 0 0 0 0 0 0 0.044580001
0 0 0 0 0 0 0 0.04459
1.105 0.58899999 0.458 5 0 0 0 0.044599999
0.96399999 0.51200002 0.39899999 6 0 0 0 0.044610001
0.935 0.49399999 0.38699999 10 0 0 0 0.04462
0.91299999 0.48100001 0.37799999 19 0 0 0 0.044629999
0.90399998 0.47400001 0.37400001 25 0 0 0 0.044640001
0.89700001 0.46799999 0.37099999 29 0 0 0 0.04465
0.89099997 0.463 0.368 36 0 0 0 0.044659998
0.89399999 0.463 0.36899999 30 0 0 0 0.044670001
0.898 0.463 0.37099999 28 0 0 0 0.044679999
0.90100002 0.46200001 0.37200001 17 0 0 0 0.044690002
0.90700001 0.463 0.37400001 8 0 0 0 0.0447
0.912 0.463 0.37599999 0 0 0 0 0.044709999
0.92400002 0.46700001 0.38 0 0 0 0 0.044720002
0.92799997 0.46700001 0.382 0 0 0 0 0.04473
0.93000001 0.46599999 0.382 0 0 0 0 0.044739999
0.935 0.465 0.38299999 0 0 0 0 0.044750001
0.94700003 0.46900001 0.38800001 0 0 0 0 0.04476
0.95200002 0.47 0.38999999 0 0 0 0 0.044769999
0.95700002 0.46900001 0.391 0 0 0 0 0.044780001
0.96399999 0.47 0.39300001 0 0 0 0 0.04479
0.96700001 0.46900001 0.39399999 0 0 0 0 0.044799998
0.97100002 0.46900001 0.39500001 0 0 0 0 0.044810001
0.97799999 0.47 0.39700001 0 0 0 0 0.044819999
0.98799998 0.472 0.40000001 0 0 0 0 0.044829998
0.99000001 0.47 0.40000001 0 0 0 0 0.044840001
1.001 0.47299999 0.40400001 0 0 0 0 0.044849999
1.005 0.472 0.405 0 0 0 0 0.044860002
1.016 0.47400001 0.40799999 0 0 0 0 0.04487
1.0190001 0.47299999 0.40900001 0 0 0 0 0.044879999
1.029 0.47499999 0.412 0 0 0 0 0.044890001
1.035 0.47499999 0.41299999 0 0 0 0 0.0449
1.039 0.47400001 0.414 0 0 0 0 0.044909999
1.043 0.472 0.414 0 0 0 0 0.044920001
1.054 0.47499999 0.41800001 0 0 0 0 0.04493
1.062 0.47600001 0.41999999 0 0 0 0 0.044939999
1.0700001 0.47600001 0.42199999 0 0 0 0 0.044950001
1.08 0.477 0.42399999 0 0 0 0 0.04496
1.085 0.477 0.42500001 0 0 0 0 0.044969998
1.09 0.47600001 0.426 0 0 0 0 0.044980001
1.103 0.47799999 0.42899999 0 0 0 0 0.044989999
1.11 0.47799999 0.43099999 0 0 0 0 0.045000002
1.117 0.47799999 0.43200001 0 0 0 0 0.04501
1.1289999 0.47999999 0.43599999 0 0 0 0 0.045019999
1.1390001 0.48100001 0.43799999 0 0 0 0 0.045030002
1.145 0.47999999 0.43900001 0 0 0 0 0.04504
1.155 0.48100001 0.44100001 0 0 0 0 0.045049999
1.161 0.48100001 0.442 0 0 0 0 0.045060001
1.174 0.48300001 0.44499999 0 0 0 0 0.04507
1.181 0.48199999 0.44600001 0 0 0 0 0.045079999
1.193 0.48300001 0.449 0 0 0 0 0.045090001
1.21 0.48699999 0.454 0 0 0 0 0.0451
1.228 0.49000001 0.45899999 0 0 0 0 0.045109998
1.212 0.48100001 0.45100001 119 0 0 0 0.045120001
1.22 0.48100001 0.45199999 142 0 0 0 0.04513
1.232 0.48199999 0.45500001 150 0 0 0 0.045139998
1.256 0.48800001 0.46200001 150 0 0 0 0.045150001
1.2460001 0.47999999 0.456 150 0 0 0 0.045159999
1.2460001 0.47600001 0.454 150 0 0 0 0.045170002
1.25 0.47499999 0.454 150 0 0 0 0.04518
1.249 0.47099999 0.45100001 150 0 0 0 0.045189999
1.251 0.46799999 0.44999999 150 0 0 0 0.045200001
1.25 0.46399999 0.447 150 0 0 0 0.04521
1.244 0.458 0.44299999 150 0 0 0 0.045219999
1.253 0.458 0.44400001 150 0 0 0 0.045230001
1.247 0.45199999 0.44 150 0 0 0 0.04524
1.248 0.449 0.43799999 150 0 0 0 0.045249999
1.247 0.44499999 0.43599999 150 0 0 0 0.045260001
1.249 0.442 0.43399999 150 0 0 0 0.04527
1.251 0.43900001 0.433 150 0 0 0 0.045279998
1.267 0.44100001 0.43599999 150 0 0 0 0.045290001
1.285 0.44400001 0.44 67 0 0 0 0.045299999
1.3049999 0.447 0.44400001 16 0 0 0 0.045310002
1.326 0.44999999 0.449 13 0 0 0 0.04532
1.3380001 0.45100001 0.45100001 12 0 0 0 0.045329999
0 0 0 0 0 0 0 0.045340002
1.393 0.461 0.46399999 9 0 0 0 0.04535
1.392 0.45699999 0.461 13 0 0 0 0.045359999
1.405 0.45699999 0.463 14 0 0 0 0.045370001
1.4450001 0.46599999 0.47299999 10 0 0 0 0.04538
1.454 0.465 0.47299999 10 0 0 0 0.045389999
1.4680001 0.46599999 0.47499999 10 0 0 0 0.045400001
1.484 0.46700001 0.47799999 11 0 0 0 0.04541
4.0019999 1.248 1.28 6 0 0 0 0.045419998
1.4960001 0.46200001 0.47499999 4 0 0 0 0.045430001
1.489 0.456 0.47 0 0 0 0 0.04544
4.0139999 1.2180001 1.261 57 0 0 0 0.045449998
4.013 1.206 1.252 61 0 0 0 0.045460001
4.0149999 1.196 1.245 61 0 0 0 0.045469999
4.0190001 1.186 1.238 56 0 0 0 0.045480002
0 0 0 0 0 0 0 0.04549
0 0 0 0 0 0 0 0.045499999
2.2320001 0.64099997 0.67400002 151 0 0 0 0.045510001
2.2309999 0.634 0.66799998 151 0 0 0 0.04552
2.233 0.62900001 0.66500002 151 0 0 0 0.045529999
2.2349999 0.62300003 0.66000003 151 0 0 0 0.045540001
2.233 0.616 0.65499997 151 0 0 0 0.04555
2.2349999 0.611 0.65100002 150 0 0 0 0.045559999
2.2279999 0.60299999 0.64399999 150 0 0 0 0.045570001
2.2260001 0.597 0.639 150 0 0 0 0.04558
2.2249999 0.58999997 0.634 151 0 0 0 0.045589998
2.224 0.58399999 0.62900001 151 0 0 0 0.045600001
2.2249999 0.579 0.62400001 151 0 0 0 0.045609999
2.2260001 0.57300001 0.62 151 0 0 0 0.045620002
2.2260001 0.56699997 0.61500001 150 0 0 0 0.045630001
2.2320001 0.56300002 0.61199999 151 0 0 0 0.045639999
2.2260001 0.55599999 0.60600001 150 0 0 0 0.045650002
2.2279999 0.55000001 0.60100001 151 0 0 0 0.04566
2.23 0.54500002 0.597 151 0 0 0 0.045669999
2.2360001 0.54000002 0.59299999 150 0 0 0 0.045680001
2.2539999 0.53899997 0.59299999 151 0 0 0 0.04569
2.263 0.53500003 0.59100002 151 0 0 0 0.045699999
2.2650001 0.52999997 0.58600003 151 0 0 0 0.045710001
2.2609999 0.523 0.57999998 151 0 0 0 0.04572
2.267 0.51899999 0.57700002 150 0 0 0 0.045729998
2.296 0.51899999 0.579 21 0 0 0 0.045740001
2.369 0.52999997 0.59200001 17 0 0 0 0.04575
2.404 0.53200001 0.59500003 17 0 0 0 0.045759998
2.447 0.53500003 0.60000002 18 0 0 0 0.045770001
2.494 0.53899997 0.60600001 21 0 0 0 0.045779999
2.5469999 0.54400003 0.61299998 22 0 0 0 0.045790002
2.5940001 0.54699999 0.61900002 22 0 0 0 0.0458
2.642 0.551 0.62400001 23 0 0 0 0.045809999
2.701 0.55699998 0.63200003 24 0 0 0 0.045820002
2.7620001 0.56199998 0.63999999 24 0 0 0 0.04583
2.8239999 0.56800002 0.648 23 0 0 0 0.045839999
2.8840001 0.57300001 0.65499997 24 0 0 0 0.045850001
2.9460001 0.57800001 0.662 24 0 0 0 0.04586
3.016 0.58399999 0.671 25 0 0 0 0.045869999
3.069 0.58700001 0.676 25 0 0 0 0.045880001
3.1389999 0.59299999 0.68300003 25 0 0 0 0.04589
3.198 0.59600002 0.68900001 25 0 0 0 0.045899998
3.2379999 0.59600002 0.69 25 0 0 0 0.045910001
3.279 0.59500003 0.69099998 36 0 0 0 0.045919999
3.289 0.58899999 0.68599999 150 0 0 0 0.045929998
3.286 0.58099997 0.67699999 150 0 0 0 0.045940001
3.289 0.57300001 0.67000002 150 0 0 0 0.045949999
3.2869999 0.565 0.662 150 0 0 0 0.045960002
3.2920001 0.55800003 0.65499997 150 0 0 0 0.04597
3.2920001 0.55000001 0.64700001 150 0 0 0 0.045979999
3.316 0.54699999 0.64399999 150 0 0 0 0.045990001
3.3280001 0.54100001 0.639 150 0 0 0 0.046
3.3269999 0.53299999 0.63 150 0 0 0 0.046009999
3.325 0.52399999 0.62199998 150 0 0 0 0.046020001
3.368 0.523 0.62199998 150 0 0 0 0.04603
3.392 0.51899999 0.61799997 151 0 0 0 0.046039999
3.392 0.51099998 0.61000001 150 0 0 0 0.046050001
3.395 0.50400001 0.60299999 150 0 0 0 0.04606
3.3900001 0.495 0.59399998 150 0 0 0 0.046069998
3.3929999 0.48800001 0.58600003 150 0 0 0 0.046080001
3.398 0.48100001 0.579 150 0 0 0 0.046089999
3.3959999 0.47299999 0.56999999 150 0 0 0 0.046100002
3.3940001 0.465 0.56199998 150 0 0 0 0.04611
3.3940001 0.45699999 0.55400002 150 0 0 0 0.046119999
3.395 0.449 0.54500002 150 0 0 0 0.046130002
3.3970001 0.442 0.537 150 0 0 0 0.04614
3.395 0.43399999 0.52899998 150 0 0 0 0.046149999
3.3959999 0.42699999 0.52100003 150 0 0 0 0.046160001
3.398 0.419 0.51300001 150 0 0 0 0.04617
3.3970001 0.412 0.50400001 150 0 0 0 0.046179999
3.3989999 0.40400001 0.49599999 150 0 0 0 0.046190001
3.401 0.39700001 0.48800001 150 0 0 0 0.0462
3.398 0.389 0.47999999 150 0 0 0 0.046209998
3.4000001 0.382 0.472 150 0 0 0 0.046220001
3.402 0.37400001 0.463 150 0 0 0 0.04623
3.402 0.36700001 0.45500001 150 0 0 0 0.046239998
3.405 0.36000001 0.447 150 0 0 0 0.046250001
3.404 0.352 0.43900001 150 0 0 0 0.046259999
3.4059999 0.345 0.43099999 150 0 0 0 0.046270002
3.398 0.33700001 0.421 150 0 0 0 0.04628
3.4000001 0.33000001 0.41299999 150 0 0 0 0.046289999
3.4059999 0.32300001 0.405 150 0 0 0 0.046300001
3.401 0.315 0.396 150 0 0 0 0.04631
3.402 0.308 0.38800001 151 0 0 0 0.046319999
3.402 0.301 0.37900001 150 0 0 0 0.046330001
3.4030001 0.29300001 0.37099999 150 0 0 0 0.04634
3.401 0.28600001 0.36199999 151 0 0 0 0.046349999
3.4070001 0.27900001 0.35499999 150 0 0 0 0.046360001
3.404 0.27200001 0.34599999 150 0 0 0 0.04637
3.4089999 0.26499999 0.338 150 0 0 0 0.046379998
3.4070001 0.25799999 0.329 151 0 0 0 0.046390001
3.4000001 0.25 0.31999999 151 0 0 0 0.046399999
3.4059999 0.244 0.31200001 151 0 0 0 0.046410002
3.402 0.236 0.303 151 0 0 0 0.04642
3.4089999 0.229 0.29499999 150 0 0 0 0.046429999
3.405 0.222 0.28600001 151 0 0 0 0.046440002
3.401 0.215 0.278 151 0 0 0 0.04645
3.401 0.208 0.26899999 151 0 0 0 0.046459999
3.4100001 0.20100001 0.26100001 151 0 0 0 0.046470001
3.4119999 0.19400001 0.252 151 0 0 0 0.04648
3.405 0.18700001 0.243 151 0 0 0 0.046489999
3.4059999 0.18000001 0.235 151 0 0 0 0.046500001
3.4119999 0.17299999 0.227 151 0 0 0 0.04651
3.4070001 0.16599999 0.21799999 151 0 0 0 0.046519998
3.408 0.15899999 0.20900001 151 0 0 0 0.046530001
3.411 0.152 0.20100001 151 0 0 0 0.04654
3.4119999 0.146 0.192 151 0 0 0 0.046549998
3.4089999 0.139 0.183 151 0 0 0 0.046560001
3.414 0.132 0.175 151 0 0 0 0.046569999
3.4100001 0.125 0.16599999 151 0 0 0 0.046580002
3.4119999 0.118 0.15700001 151 0 0 0 0.04659
3.411 0.111 0.148 151 0 0 0 0.046599999
3.4100001 0.105 0.14 151 0 0 0 0.046610001
3.4170001 0.097999997 0.131 151 0 0 0 0.04662
3.415 0.090999998 0.122 152 0 0 0 0.046629999
3.421 0.083999999 0.114 152 0 0 0 0.046640001
3.415 0.078000002 0.105 152 0 0 0 0.04665
3.415 0.071000002 0.096000001 152 0 0 0 0.046659999
3.4219999 0.064000003 0.086999997 152 0 0 0 0.046670001
3.4219999 0.057999998 0.078000002 152 0 0 0 0.04668
3.4159999 0.050999999 0.068999998 152 0 0 0 0.046689998
3.4230001 0.044 0.061000001 152 0 0 0 0.046700001
3.4170001 0.037999999 0.052000001 152 0 0 0 0.046709999
3.418 0.030999999 0.043000001 151 0 0 0 0.046720002
3.4159999 0.024 0.034000002 151 0 0 0 0.046730001
3.4159999 0.017999999 0.025 151 0 0 0 0.046739999
3.421 0.011 0.016000001 151 0 0 0 0.046750002
3.415 0.0049999999 0.0070000002 151 0 0 0 0.04676
3.418 -0.001 -0.001 151 0 0 0 0.046769999
3.414 -0.0070000002 -0.0099999998 151 0 0 0 0.046780001
3.4159999 -0.014 -0.018999999 151 0 0 0 0.04679
3.4200001 -0.02 -0.027000001 151 0 0 0 0.046799999
3.421 -0.027000001 -0.035999998 151 0 0 0 0.046810001
3.4159999 -0.033 -0.045000002 151 0 0 0 0.04682
3.4200001 -0.039999999 -0.054000001 151 0 0 0 0.046829998
3.418 -0.046 -0.063000001 151 0 0 0 0.046840001
3.418 -0.052999999 -0.071999997 151 0 0 0 0.04685
3.424 -0.059 -0.082000002 151 0 0 0 0.046859998
3.4260001 -0.066 -0.090999998 151 0 0 0 0.046870001
3.425 -0.071999997 -0.1 151 0 0 0 0.046879999
3.4219999 -0.078000002 -0.109 151 0 0 0 0.046890002
3.425 -0.085000001 -0.118 151 0 0 0 0.0469
3.424 -0.090999998 -0.127 150 0 0 0 0.046909999
3.428 -0.097999997 -0.13600001 151 0 0 0 0.046920002
3.428 -0.104 -0.145 150 0 0 0 0.04693
3.427 -0.11 -0.155 150 0 0 0 0.046939999
3.427 -0.117 -0.164 150 0 0 0 0.046950001
3.4300001 -0.123 -0.17299999 150 0 0 0 0.04696
3.4289999 -0.12899999 -0.182 150 0 0 0 0.046969999
3.4349999 -0.13600001 -0.192 150 0 0 0 0.046980001
3.4330001 -0.142 -0.20100001 150 0 0 0 0.04699
3.434 -0.148 -0.20999999 150 0 0 0 0.046999998
3.4349999 -0.154 -0.219 150 0 0 0 0.047010001
3.4319999 -0.16 -0.229 150 0 0 0 0.047019999
3.434 -0.167 -0.23800001 150 0 0 0 0.047029998
3.431 -0.17299999 -0.24699999 151 0 0 0 0.047040001
3.4349999 -0.17900001 -0.257 151 0 0 0 0.047049999
3.395 -0.183 -0.26300001 150 0 0 0 0.047060002
3.3659999 -0.18799999 -0.27000001 150 0 0 0 0.04707
3.368 -0.19400001 -0.27900001 151 0 0 0 0.047079999
3.3659999 -0.2 -0.28799999 151 0 0 0 0.047090001
3.3699999 -0.206 -0.29800001 151 0 0 0 0.0471
3.3670001 -0.212 -0.30700001 151 0 0 0 0.047109999
3.362 -0.21699999 -0.315 150 0 0 0 0.047120001
3.3399999 -0.222 -0.322 150 0 0 0 0.04713
3.3340001 -0.227 -0.331 150 0 0 0 0.047139999
3.335 -0.233 -0.34 151 0 0 0 0.047150001
3.332 -0.23899999 -0.34900001 151 0 0 0 0.04716
3.332 -0.245 -0.359 151 0 0 0 0.047169998
3.336 -0.25099999 -0.368 151 0 0 0 0.047180001
3.3410001 -0.257 -0.37799999 151 0 0 0 0.047189999
3.3380001 -0.26199999 -0.38699999 150 0 0 0 0.047200002
3.335 -0.26800001 -0.396 46 0 0 0 0.04721
3.2539999 -0.26699999 -0.39500001 53 0 0 0 0.047219999
3.237 -0.271 -0.40200001 150 0 0 0 0.047230002
3.2349999 -0.27599999 -0.41100001 150 0 0 0 0.04724
3.2309999 -0.28200001 -0.41999999 150 0 0 0 0.047249999
3.23 -0.287 -0.42899999 150 0 0 0 0.047260001
3.2290001 -0.292 -0.43799999 150 0 0 0 0.04727
3.2360001 -0.29899999 -0.44800001 150 0 0 0 0.047279999
3.2379999 -0.30399999 -0.45699999 150 0 0 0 0.047290001
3.234 -0.30899999 -0.46599999 150 0 0 0 0.0473
3.2360001 -0.315 -0.47499999 150 0 0 0 0.047309998
3.2379999 -0.32100001 -0.48500001 151 0 0 0 0.047320001
3.237 -0.32600001 -0.49399999 150 0 0 0 0.04733
3.217 -0.329 -0.5 150 0 0 0 0.047339998
3.2079999 -0.33399999 -0.50800002 150 0 0 0 0.047350001
3.2049999 -0.33899999 -0.51599997 150 0 0 0 0.047359999
3.2049999 -0.34400001 -0.52600002 150 0 0 0 0.047370002
3.204 -0.34900001 -0.53500003 150 0 0 0 0.04738
3.2079999 -0.35499999 -0.54500002 150 0 0 0 0.047389999
3.2090001 -0.36000001 -0.55400002 150 0 0 0 0.047400001
3.211 -0.366 -0.56400001 150 0 0 0 0.04741
3.207 -0.37 -0.57200003 150 0 0 0 0.047419999
3.211 -0.37599999 -0.58200002 150 0 0 0 0.047430001
3.21 -0.38100001 -0.59100002 150 0 0 0 0.04744
3.0139999 -0.36300001 -0.56400001 150 0 0 0 0.047449999
2.8629999 -0.34900001 -0.54400003 150 0 0 0 0.047460001
2.7869999 -0.34400001 -0.53799999 108 0 0 0 0.04747
2.5539999 -0.31999999 -0.5 19 0 0 0 0.047479998
2.5350001 -0.32100001 -0.50400001 19 0 0 0 0.047490001
2.516 -0.32300001 -0.50700003 18 0 0 0 0.047499999
2.493 -0.324 -0.50999999 17 0 0 0 0.047510002
2.47 -0.32499999 -0.51300001 17 0 0 0 0.04752
2.451 -0.32600001 -0.51599997 16 0 0 0 0.047529999
2.425 -0.32600001 -0.51800001 15 0 0 0 0.047540002
2.404 -0.32699999 -0.51999998 15 0 0 0 0.04755
2.3859999 -0.32800001 -0.523 14 0 0 0 0.047559999
2.368 -0.33000001 -0.52700001 14 0 0 0 0.047570001
2.3610001 -0.33199999 -0.53200001 17 0 0 0 0.04758
2.3599999 -0.336 -0.53899997 18 0 0 0 0.047589999
2.3570001 -0.33899999 -0.54500002 17 0 0 0 0.047600001
2.3599999 -0.34299999 -0.55299997 16 0 0 0 0.04761
2.3610001 -0.347 -0.56 15 0 0 0 0.047619998
2.362 -0.34999999 -0.56800002 15 0 0 0 0.047630001
2.3570001 -0.35299999 -0.574 15 0 0 0 0.04764
2.358 -0.35699999 -0.58099997 15 0 0 0 0.047649998
2.358 -0.36000001 -0.588 15 0 0 0 0.047660001
2.358 -0.36399999 -0.59500003 16 0 0 0 0.047669999
2.3599999 -0.36700001 -0.60299999 17 0 0 0 0.047680002
2.3599999 -0.37099999 -0.61000001 17 0 0 0 0.04769
2.3559999 -0.37400001 -0.616 19 0 0 0 0.047699999
2.358 -0.37799999 -0.62400001 18 0 0 0 0.047710001
2.3610001 -0.38100001 -0.63200003 19 0 0 0 0.04772
2.358 -0.384 -0.639 19 0 0 0 0.047729999
2.3629999 -0.38800001 -0.64700001 20 0 0 0 0.047740001
2.3570001 -0.391 -0.653 22 0 0 0 0.04775
2.358 -0.39399999 -0.66000003 21 0 0 0 0.047759999
2.358 -0.398 -0.66799998 20 0 0 0 0.047770001
2.3559999 -0.40099999 -0.67500001 17 0 0 0 0.04778
2.3570001 -0.40400001 -0.68199998 16 0 0 0 0.047789998
2.358 -0.40700001 -0.69 16 0 0 0 0.047800001
2.359 -0.41100001 -0.69800001 16 0 0 0 0.047809999
2.359 -0.414 -0.70499998 16 0 0 0 0.047820002
2.358 -0.417 -0.71200001 21 0 0 0 0.047830001
2.362 -0.421 -0.72000003 24 0 0 0 0.047839999
2.358 -0.42300001 -0.727 25 0 0 0 0.047850002
2.3570001 -0.426 -0.73400003 26 0 0 0 0.04786
2.3610001 -0.43000001 -0.74299997 27 0 0 0 0.047869999
2.3610001 -0.433 -0.75 26 0 0 0 0.047880001
2.3599999 -0.43599999 -0.75700003 24 0 0 0 0.04789
2.362 -0.44 -0.76499999 22 0 0 0 0.047899999
2.362 -0.44299999 -0.773 21 0 0 0 0.047910001
2.358 -0.44499999 -0.77899998 20 0 0 0 0.04792
2.3599999 -0.44800001 -0.787 20 0 0 0 0.047929998
2.359 -0.45100001 -0.79400003 20 0 0 0 0.047940001
2.3640001 -0.45500001 -0.80299997 21 0 0 0 0.04795
2.362 -0.45699999 -0.81 19 0 0 0 0.047959998
2.3599999 -0.46000001 -0.81699997 22 0 0 0 0.047970001
2.358 -0.46200001 -0.824 31 0 0 0 0.047979999
2.342 -0.46200001 -0.82599998 28 0 0 0 0.047990002
2.325 -0.461 -0.82700002 28 0 0 0 0.048
2.3039999 -0.46000001 -0.82700002 27 0 0 0 0.048009999
2.2839999 -0.45899999 -0.82700002 27 0 0 0 0.048020002
2.2609999 -0.45699999 -0.82599998 26 0 0 0 0.04803
2.2420001 -0.45500001 -0.82599998 26 0 0 0 0.048039999
2.223 -0.454 -0.82599998 27 0 0 0 0.048050001
2.204 -0.45199999 -0.82700002 27 0 0 0 0.04806
2.1800001 -0.44999999 -0.82499999 30 0 0 0 0.048069999
2.1659999 -0.449 -0.82599998 28 0 0 0 0.048080001
2.1470001 -0.44800001 -0.82599998 26 0 0 0 0.04809
2.1270001 -0.44600001 -0.82499999 27 0 0 0 0.048099998
2.109 -0.44400001 -0.82499999 27 0 0 0 0.048110001
2.089 -0.442 -0.824 28 0 0 0 0.048119999
2.072 -0.44100001 -0.824 27 0 0 0 0.048129998
2.0550001 -0.43900001 -0.824 27 0 0 0 0.048140001
2.0380001 -0.43700001 -0.824 28 0 0 0 0.048149999
2.0220001 -0.43599999 -0.824 27 0 0 0 0.048160002
2.0079999 -0.435 -0.82499999 27 0 0 0 0.04817
1.9859999 -0.43200001 -0.82200003 28 0 0 0 0.048179999
1.976 -0.43200001 -0.824 28 0 0 0 0.048190001
1.959 -0.43000001 -0.824 29 0 0 0 0.0482
1.939 -0.42699999 -0.82099998 28 0 0 0 0.048209999
1.926 -0.426 -0.82200003 28 0 0 0 0.048220001
1.915 -0.42500001 -0.824 28 0 0 0 0.04823
1.898 -0.42300001 -0.82300001 28 0 0 0 0.048239999
1.885 -0.42199999 -0.82300001 28 0 0 0 0.048250001
1.869 -0.41999999 -0.82200003 28 0 0 0 0.04826
1.858 -0.419 -0.82300001 29 0 0 0 0.048269998
1.842 -0.417 -0.82200003 30 0 0 0 0.048280001
1.825 -0.414 -0.82099998 30 0 0 0 0.048289999
1.814 -0.41299999 -0.82099998 30 0 0 0 0.048300002
1.808 -0.41299999 -0.824 32 0 0 0 0.04831
1.789 -0.41 -0.82200003 33 0 0 0 0.048319999
1.773 -0.40799999 -0.81999999 33 0 0 0 0.048330002
1.763 -0.40700001 -0.82099998 35 0 0 0 0.04834
1.75 -0.405 -0.82099998 33 0 0 0 0.048349999
1.738 -0.40400001 -0.82099998 35 0 0 0 0.048360001
1.725 -0.40099999 -0.81999999 34 0 0 0 0.04837
1.716 -0.40099999 -0.82099998 34 0 0 0 0.048379999
1.7029999 -0.39899999 -0.82099998 37 0 0 0 0.048390001
1.6950001 -0.398 -0.82200003 37 0 0 0 0.0484
1.678 -0.39500001 -0.81900001 37 0 0 0 0.048409998
1.674 -0.39500001 -0.82200003 13 0 0 0 0.048420001
1.666 -0.39399999 -0.824 13 0 0 0 0.04843
1.661 -0.39300001 -0.82700002 13 0 0 0 0.048439998
1.637 -0.38800001 -0.81999999 13 0 0 0 0.048450001
1.633 -0.38800001 -0.82300001 13 0 0 0 0.048459999
1.625 -0.38699999 -0.824 13 0 0 0 0.048470002
1.6160001 -0.38600001 -0.82499999 13 0 0 0 0.04848
1.605 -0.384 -0.824 13 0 0 0 0.048489999
1.5930001 -0.382 -0.82300001 13 0 0 0 0.048500001
1.587 -0.38100001 -0.824 13 0 0 0 0.04851
1.575 -0.37799999 -0.82300001 13 0 0 0 0.048519999
1.569 -0.377 -0.82499999 13 0 0 0 0.048530001
1.556 -0.375 -0.82300001 13 0 0 0 0.04854
1.549 -0.37400001 -0.824 13 0 0 0 0.048549999
1.5369999 -0.37099999 -0.82200003 12 0 0 0 0.048560001
1.533 -0.37 -0.824 13 0 0 0 0.04857
1.52 -0.368 -0.82200003 13 0 0 0 0.048579998
1.5140001 -0.36700001 -0.82300001 13 0 0 0 0.048590001
1.493 -0.36199999 -0.81699997 12 0 0 0 0.048599999
1.4910001 -0.361 -0.81999999 12 0 0 0 0.048610002
1.49 -0.361 -0.82300001 11 0 0 0 0.04862
1.474 -0.35800001 -0.81900001 11 0 0 0 0.048629999
1.4680001 -0.35699999 -0.81999999 12 0 0 0 0.048640002
1.459 -0.354 -0.81900001 13 0 0 0 0.04865
1.455 -0.35299999 -0.82099998 13 0 0 0 0.048659999
1.448 -0.352 -0.82099998 13 0 0 0 0.048670001
1.4400001 -0.34999999 -0.82099998 13 0 0 0 0.04868
1.4299999 -0.347 -0.81900001 14 0 0 0 0.048689999
1.428 -0.347 -0.82200003 14 0 0 0 0.048700001
1.42 -0.345 -0.82099998 14 0 0 0 0.04871
1.41 -0.34200001 -0.81900001 14 0 0 0 0.048719998
1.408 -0.34200001 -0.82200003 14 0 0 0 0.048730001
1.403 -0.34 -0.82200003 14 0 0 0 0.04874
1.392 -0.33700001 -0.81999999 14 0 0 0 0.048749998
1.388 -0.336 -0.82099998 14 0 0 0 0.048760001
1.381 -0.33399999 -0.81999999 14 0 0 0 0.048769999
1.374 -0.33199999 -0.81999999 14 0 0 0 0.048780002
1.369 -0.33000001 -0.82099998 14 0 0 0 0.04879
1.363 -0.32800001 -0.81999999 14 0 0 0 0.048799999
1.357 -0.32699999 -0.81999999 14 0 0 0 0.048810001
1.353 -0.32499999 -0.82099998 14 0 0 0 0.04882
1.346 -0.32300001 -0.81999999 14 0 0 0 0.048829999
1.3380001 -0.32100001 -0.81800002 14 0 0 0 0.048840001
1.335 -0.31900001 -0.81999999 14 0 0 0 0.04885
1.331 -0.31799999 -0.81999999 14 0 0 0 0.048859999
1.326 -0.31600001 -0.81999999 14 0 0 0 0.048870001
1.319 -0.31400001 -0.81900001 14 0 0 0 0.04888
1.318 -0.31299999 -0.82099998 14 0 0 0 0.048889998
1.3099999 -0.31 -0.81900001 14 0 0 0 0.048900001
1.306 -0.308 -0.81900001 14 0 0 0 0.048909999
1.3049999 -0.30700001 -0.82099998 14 0 0 0 0.048920002
1.296 -0.30500001 -0.81900001 14 0 0 0 0.048930001
1.2920001 -0.303 -0.81900001 15 0 0 0 0.048939999
1.291 -0.30199999 -0.82099998 15 0 0 0 0.048950002
1.286 -0.30000001 -0.81999999 15 0 0 0 0.04896
1.283 -0.29800001 -0.82099998 15 0 0 0 0.048969999
1.278 -0.296 -0.81999999 16 0 0 0 0.048980001
1.273 -0.294 -0.81900001 15 0 0 0 0.04899
1.2690001 -0.292 -0.81900001 15 0 0 0 0.048999999
1.271 -0.29100001 -0.82200003 15 0 0 0 0.049010001
1.265 -0.289 -0.81999999 14 0 0 0 0.04902
1.263 -0.287 -0.82099998 15 0 0 0 0.049029998
1.257 -0.285 -0.81900001 14 0 0 0 0.049040001
1.253 -0.28299999 -0.81900001 15 0 0 0 0.04905
1.252 -0.28099999 -0.81999999 15 0 0 0 0.049059998
1.252 -0.28 -0.82200003 15 0 0 0 0.049070001
1.248 -0.278 -0.82099998 15 0 0 0 0.049079999
1.242 -0.27599999 -0.81900001 14 0 0 0 0.049090002
1.2410001 -0.27399999 -0.81999999 14 0 0 0 0.0491
1.24 -0.273 -0.82099998 15 0 0 0 0.049109999
1.2410001 -0.271 -0.82300001 15 0 0 0 0.049120001
1.235 -0.26899999 -0.82099998 15 0 0 0 0.04913
1.234 -0.26699999 -0.82099998 15 0 0 0 0.049139999
1.232 -0.26499999 -0.82099998 14 0 0 0 0.049150001
1.2309999 -0.264 -0.82200003 14 0 0 0 0.04916
1.229 -0.26199999 -0.82200003 15 0 0 0 0.049169999
1.225 -0.25999999 -0.81999999 14 0 0 0 0.049180001
1.222 -0.257 -0.81900001 15 0 0 0 0.04919
1.22 -0.25600001 -0.81900001 14 0 0 0 0.049199998
1.225 -0.255 -0.82300001 14 0 0 0 0.049210001
1.222 -0.25299999 -0.82200003 12 0 0 0 0.049219999
1.223 -0.252 -0.824 11 0 0 0 0.049229998
1.222 -0.25 -0.824 10 0 0 0 0.049240001
1.227 -0.249 -0.82800001 9 0 0 0 0.049249999
1.225 -0.24699999 -0.82700002 9 0 0 0 0.049260002
1.221 -0.245 -0.82499999 9 0 0 0 0.04927
1.221 -0.243 -0.82499999 10 0 0 0 0.049279999
1.219 -0.241 -0.824 11 0 0 0 0.049290001
1.217 -0.23899999 -0.82300001 12 0 0 0 0.0493
1.216 -0.237 -0.82300001 14 0 0 0 0.049309999
1.216 -0.235 -0.82300001 14 0 0 0 0.049320001
1.216 -0.233 -0.824 14 0 0 0 0.04933
1.214 -0.23100001 -0.82200003 15 0 0 0 0.049339999
1.214 -0.23 -0.82200003 15 0 0 0 0.049350001
1.214 -0.228 -0.82300001 15 0 0 0 0.04936
1.215 -0.226 -0.82300001 15 0 0 0 0.049369998
1.217 -0.22499999 -0.824 15 0 0 0 0.049380001
1.215 -0.222 -0.82300001 15 0 0 0 0.049389999
1.215 -0.221 -0.82200003 14 0 0 0 0.049400002
1.2180001 -0.219 -0.824 16 0 0 0 0.04941
1.2180001 -0.21699999 -0.824 16 0 0 0 0.049419999
1.2180001 -0.21600001 -0.82300001 16 0 0 0 0.049430002
1.219 -0.214 -0.82300001 16 0 0 0 0.04944
1.2180001 -0.212 -0.82200003 16 0 0 0 0.049449999
1.222 -0.20999999 -0.824 16 0 0 0 0.049460001
1.221 -0.208 -0.82300001 16 0 0 0 0.04947
1.228 -0.208 -0.82700002 16 0 0 0 0.049479999
1.222 -0.205 -0.82200003 16 0 0 0 0.049490001
1.225 -0.20299999 -0.82300001 16 0 0 0 0.0495
1.225 -0.20100001 -0.82200003 16 0 0 0 0.049509998
1.2309999 -0.2 -0.82499999 16 0 0 0 0.049520001
1.227 -0.197 -0.82099998 16 0 0 0 0.049529999
1.233 -0.19599999 -0.82300001 16 0 0 0 0.049539998
1.237 -0.19499999 -0.82499999 16 0 0 0 0.049550001
1.237 -0.193 -0.824 16 0 0 0 0.049559999
1.238 -0.191 -0.82300001 16 0 0 0 0.049570002
1.239 -0.189 -0.82200003 16 0 0 0 0.04958
1.2410001 -0.18799999 -0.82200003 15 0 0 0 0.049589999
1.249 -0.18700001 -0.82599998 16 0 0 0 0.049600001
1.25 -0.185 -0.82499999 16 0 0 0 0.04961
1.251 -0.183 -0.824 16 0 0 0 0.049619999
1.251 -0.18099999 -0.82200003 16 0 0 0 0.049630001
1.258 -0.18000001 -0.82499999 16 0 0 0 0.04964
1.2589999 -0.178 -0.824 16 0 0 0 0.049649999
1.261 -0.176 -0.82300001 16 0 0 0 0.049660001
1.266 -0.175 -0.82499999 16 0 0 0 0.04967
1.268 -0.17299999 -0.824 16 0 0 0 0.049679998
1.272 -0.171 -0.824 16 0 0 0 0.049690001
1.275 -0.17 -0.824 16 0 0 0 0.049699999
1.277 -0.168 -0.82300001 16 0 0 0 0.049710002
1.28 -0.16599999 -0.82300001 16 0 0 0 0.04972
1.2869999 -0.16500001 -0.82499999 16 0 0 0 0.049729999
1.288 -0.163 -0.82300001 16 0 0 0 0.049740002
1.293 -0.162 -0.824 16 0 0 0 0.04975
1.294 -0.16 -0.82200003 16 0 0 0 0.049759999
1.299 -0.15800001 -0.82300001 16 0 0 0 0.049770001
1.303 -0.156 -0.82200003 16 0 0 0 0.04978
1.311 -0.155 -0.82499999 16 0 0 0 0.049789999
1.313 -0.154 -0.82300001 16 0 0 0 0.049800001
1.319 -0.152 -0.82499999 16 0 0 0 0.04981
1.326 -0.15099999 -0.82599998 16 0 0 0 0.049819998
1.325 -0.149 -0.82200003 16 0 0 0 0.049830001
1.3329999 -0.147 -0.824 16 0 0 0 0.04984
1.339 -0.146 -0.82499999 17 0 0 0 0.049849998
1.34 -0.14399999 -0.82300001 16 0 0 0 0.049860001
1.35 -0.14300001 -0.82599998 16 0 0 0 0.049869999
1.357 -0.142 -0.82700002 16 0 0 0 0.049880002
1.359 -0.14 -0.824 16 0 0 0 0.04989
1.364 -0.138 -0.82499999 17 0 0 0 0.049899999
1.369 -0.13699999 -0.824 16 0 0 0 0.049910001
1.374 -0.13500001 -0.824 17 0 0 0 0.04992
1.381 -0.134 -0.82499999 16 0 0 0 0.049929999
1.3890001 -0.133 -0.82599998 17 0 0 0 0.049940001
1.3940001 -0.131 -0.82499999 17 0 0 0 0.04995
1.403 -0.13 -0.82700002 17 0 0 0 0.049959999
1.41 -0.12800001 -0.82700002 17 0 0 0 0.049970001
1.416 -0.127 -0.82700002 16 0 0 0 0.04998
1.42 -0.125 -0.82599998 17 0 0 0 0.049989998
1.428 -0.124 -0.82599998 17 0 0 0 0.050000001
1.434 -0.122 -0.82599998 16 0 0 0 0.050009999
1.437 -0.121 -0.824 16 0 0 0 0.050020002
1.448 -0.119 -0.82599998 16 0 0 0 0.050030001
1.456 -0.118 -0.82700002 14 0 0 0 0.050039999
1.464 -0.117 -0.82700002 14 0 0 0 0.050050002
1.475 -0.116 -0.829 15 0 0 0 0.05006
1.476 -0.114 -0.82599998 16 0 0 0 0.050069999
1.488 -0.113 -0.82800001 16 0 0 0 0.050080001
1.4960001 -0.111 -0.82800001 16 0 0 0 0.05009
1.503 -0.11 -0.82800001 16 0 0 0 0.050099999
1.5089999 -0.108 -0.82700002 16 0 0 0 0.050110001
1.516 -0.107 -0.82599998 13 0 0 0 0.05012
1.522 -0.105 -0.82499999 13 0 0 0 0.050129998
1.543 -0.105 -0.83200002 14 0 0 0 0.050140001
1.546 -0.103 -0.829 14 0 0 0 0.05015
1.563 -0.102 -0.833 14 0 0 0 0.050159998
1.568 -0.101 -0.83099997 13 0 0 0 0.050170001
1.577 -0.098999999 -0.83099997 13 0 0 0 0.050179999
1.59 -0.097999997 -0.833 13 0 0 0 0.050190002
1.6 -0.097000003 -0.833 14 0 0 0 0.0502
1.609 -0.096000001 -0.833 14 0 0 0 0.050209999
1.62 -0.093999997 -0.83399999 14 0 0 0 0.050220001
1.628 -0.093000002 -0.833 14 0 0 0 0.05023
1.643 -0.092 -0.83600003 14 0 0 0 0.050239999
1.638 -0.090000004 -0.82800001 55 0 0 0 0.050250001
1.654 -0.089000002 -0.83099997 13 0 0 0 0.05026
1.673 -0.088 -0.83499998 14 0 0 0 0.050269999
1.679 -0.086999997 -0.833 14 0 0 0 0.050280001
1.686 -0.085000001 -0.83099997 14 0 0 0 0.05029
1.701 -0.083999999 -0.833 14 0 0 0 0.050299998
1.711 -0.082999997 -0.83200002 14 0 0 0 0.050310001
1.724 -0.082000002 -0.833 14 0 0 0 0.050319999
1.739 -0.081 -0.83499998 14 0 0 0 0.050330002
1.747 -0.079000004 -0.833 14 0 0 0 0.050340001
1.76 -0.078000002 -0.83399999 14 0 0 0 0.050349999
1.774 -0.077 -0.83499998 14 0 0 0 0.050360002
1.79 -0.075999998 -0.83600003 14 0 0 0 0.05037
1.799 -0.074000001 -0.83499998 14 0 0 0 0.050379999
1.806 -0.072999999 -0.83200002 42 0 0 0 0.050390001
1.823 -0.071999997 -0.83399999 15 0 0 0 0.0504
1.837 -0.071000002 -0.83399999 14 0 0 0 0.050409999
1.846 -0.068999998 -0.83200002 45 0 0 0 0.050420001
1.863 -0.068000004 -0.83399999 45 0 0 0 0.05043
1.874 -0.067000002 -0.833 45 0 0 0 0.050439999
1.891 -0.066 -0.83399999 42 0 0 0 0.050450001
1.903 -0.064999998 -0.833 38 0 0 0 0.05046
1.9119999 -0.064000003 -0.83099997 38 0 0 0 0.050469998
1.932 -0.063000001 -0.833 36 0 0 0 0.050480001
1.948 -0.061999999 -0.833 36 0 0 0 0.050489999
1.965 -0.059999999 -0.83399999 36 0 0 0 0.050500002
1.985 -0.059 -0.83600003 36 0 0 0 0.05051
1.995 -0.057999998 -0.83399999 36 0 0 0 0.050519999
2.016 -0.057 -0.83600003 35 0 0 0 0.050530002
2.0320001 -0.056000002 -0.83600003 34 0 0 0 0.05054
2.046 -0.055 -0.83499998 36 0 0 0 0.050549999
2.063 -0.054000001 -0.83499998 34 0 0 0 0.050560001
2.0810001 -0.052999999 -0.83499998 32 0 0 0 0.05057
2.102 -0.052000001 -0.83700001 31 0 0 0 0.050579999
2.1210001 -0.050999999 -0.83700001 30 0 0 0 0.050590001
2.1459999 -0.050000001 -0.83999997 30 0 0 0 0.0506
2.1570001 -0.048999999 -0.83700001 32 0 0 0 0.050609998
2.1760001 -0.046999998 -0.83700001 29 0 0 0 0.050620001
2.204 -0.046999998 -0.83999997 31 0 0 0 0.050629999
2.2160001 -0.045000002 -0.83700001 31 0 0 0 0.050639998
2.2409999 -0.044 -0.83899999 32 0 0 0 0.050650001
2.2620001 -0.043000001 -0.83999997 32 0 0 0 0.050659999
2.283 -0.041999999 -0.83999997 32 0 0 0 0.050670002
2.3069999 -0.041000001 -0.84100002 33 0 0 0 0.05068
2.3280001 -0.039999999 -0.84100002 31 0 0 0 0.050689999
2.3469999 -0.039000001 -0.83999997 32 0 0 0 0.050700001
2.368 -0.037999999 -0.83899999 32 0 0 0 0.05071
2.392 -0.037 -0.83999997 32 0 0 0 0.050719999
2.4159999 -0.035999998 -0.83999997 31 0 0 0 0.050730001
2.4430001 -0.035 -0.84100002 32 0 0 0 0.05074
2.4649999 -0.034000002 -0.84100002 31 0 0 0 0.050749999
2.4920001 -0.033 -0.84100002 32 0 0 0 0.050760001
2.513 -0.032000002 -0.83999997 33 0 0 0 0.05077
2.546 -0.030999999 -0.84299999 33 0 0 0 0.050779998
2.5780001 -0.029999999 -0.84500003 34 0 0 0 0.050790001
2.608 -0.028999999 -0.84500003 34 0 0 0 0.050799999
2.631 -0.028000001 -0.84399998 33 0 0 0 0.050810002
2.6600001 -0.028000001 -0.84500003 32 0 0 0 0.05082
2.6919999 -0.027000001 -0.84600002 34 0 0 0 0.050829999
2.7279999 -0.026000001 -0.84799999 30 0 0 0 0.050840002
2.756 -0.025 -0.847 31 0 0 0 0.05085
2.7809999 -0.024 -0.84600002 30 0 0 0 0.050859999
2.8080001 -0.023 -0.84500003 28 0 0 0 0.050870001
2.8499999 -0.022 -0.84799999 30 0 0 0 0.05088
2.888 -0.021 -0.84899998 30 0 0 0 0.050889999
2.9300001 -0.02 -0.852 30 0 0 0 0.050900001
2.9679999 -0.018999999 -0.85299999 29 0 0 0 0.05091
3.007 -0.017999999 -0.85399997 29 0 0 0 0.050919998
3.0539999 -0.017000001 -0.85699999 31 0 0 0 0.050930001
3.095 -0.017000001 -0.85799998 31 0 0 0 0.05094
3.1359999 -0.016000001 -0.85900003 31 0 0 0 0.050949998
3.164 -0.015 -0.85699999 29 0 0 0 0.050960001
3.197 -0.014 -0.85500002 29 0 0 0 0.050969999
3.2420001 -0.013 -0.85600001 30 0 0 0 0.050980002
3.2850001 -0.012 -0.85600001 30 0 0 0 0.05099
3.325 -0.011 -0.85500002 30 0 0 0 0.050999999
3.3629999 -0.0099999998 -0.85399997 31 0 0 0 0.051010001
3.4000001 -0.0089999996 -0.852 32 0 0 0 0.05102
3.415 -0.0080000004 -0.84399998 106 0 0 0 0.051029999
3.4089999 -0.0070000002 -0.83200002 150 0 0 0 0.051040001
3.4100001 -0.0060000001 -0.81999999 151 0 0 0 0.05105
3.4100001 -0.0049999999 -0.80900002 151 0 0 0 0.051059999
3.4100001 -0.0040000002 -0.79799998 151 0 0 0 0.051070001
3.4119999 -0.0040000002 -0.787 151 0 0 0 0.05108
3.414 -0.003 -0.77600002 151 0 0 0 0.051089998
3.4130001 -0.0020000001 -0.76499999 151 0 0 0 0.051100001
3.414 -0.001 -0.75300002 151 0 0 0 0.051109999
3.4159999 0 -0.74199998 151 0 0 0 0.051120002
3.411 0 -0.73000002 151 0 0 0 0.051130001
3.4130001 0 -0.71899998 151 0 0 0 0.051139999
3.414 0.001 -0.708 151 0 0 0 0.051150002
3.4159999 0.001 -0.69700003 151 0 0 0 0.05116
3.414 0.0020000001 -0.68599999 151 0 0 0 0.051169999
3.415 0.003 -0.67400002 151 0 0 0 0.051180001
3.414 0.003 -0.66299999 151 0 0 0 0.05119
3.4170001 0.0040000002 -0.65200001 151 0 0 0 0.051199999
3.4170001 0.0040000002 -0.64099997 151 0 0 0 0.051210001
3.4189999 0.0049999999 -0.63 151 0 0 0 0.05122
3.4159999 0.0060000001 -0.61799997 151 0 0 0 0.051229998
3.411 0.0060000001 -0.60600001 151 0 0 0 0.051240001
3.4159999 0.0060000001 -0.59600002 151 0 0 0 0.05125
3.4189999 0.0070000002 -0.58499998 151 0 0 0 0.051259998
3.418 0.0070000002 -0.57300001 151 0 0 0 0.051270001
3.4170001 0.0080000004 -0.56199998 151 0 0 0 0.051279999
3.415 0.0080000004 -0.551 151 0 0 0 0.051290002
3.4170001 0.0080000004 -0.54000002 151 0 0 0 0.0513
3.4189999 0.0089999996 -0.52899998 151 0 0 0 0.051309999
3.4200001 0.0089999996 -0.51800001 151 0 0 0 0.051320001
3.4189999 0.0089999996 -0.50599998 151 0 0 0 0.05133
3.4159999 0.0089999996 -0.495 151 0 0 0 0.051339999
3.4170001 0.0099999998 -0.484 151 0 0 0 0.051350001
3.4170001 0.0099999998 -0.472 151 0 0 0 0.05136
3.4200001 0.0099999998 -0.46200001 151 0 0 0 0.051369999
3.4159999 0.0099999998 -0.44999999 151 0 0 0 0.051380001
3.4170001 0.0099999998 -0.43900001 151 0 0 0 0.05139
3.4189999 0.011 -0.428 151 0 0 0 0.051399998
3.4200001 0.011 -0.417 151 0 0 0 0.051410001
3.415 0.011 -0.405 151 0 0 0 0.051419999
3.4170001 0.011 -0.39399999 151 0 0 0 0.051430002
3.4130001 0.011 -0.38299999 151 0 0 0 0.051440001
3.414 0.011 -0.37200001 151 0 0 0 0.051449999
3.4159999 0.011 -0.361 151 0 0 0 0.051460002
3.4200001 0.011 -0.34999999 151 0 0 0 0.05147
3.418 0.011 -0.33899999 152 0 0 0 0.051479999
3.4200001 0.011 -0.32800001 151 0 0 0 0.051490001
3.4200001 0.011 -0.317 151 0 0 0 0.0515
3.421 0.011 -0.30500001 151 0 0 0 0.051509999
3.4159999 0.0099999998 -0.294 151 0 0 0 0.051520001
3.4219999 0.0099999998 -0.28299999 151 0 0 0 0.05153
3.4170001 0.0099999998 -0.27200001 151 0 0 0 0.051539999
3.418 0.0099999998 -0.26100001 151 0 0 0 0.051550001
3.418 0.0099999998 -0.25 151 0 0 0 0.05156
3.4189999 0.0089999996 -0.23899999 151 0 0 0 0.051569998
3.418 0.0089999996 -0.227 151 0 0 0 0.051580001
3.4189999 0.0089999996 -0.21600001 151 0 0 0 0.051589999
3.418 0.0089999996 -0.205 151 0 0 0 0.051600002
3.4200001 0.0080000004 -0.19400001 151 0 0 0 0.05161
3.421 0.0080000004 -0.183 151 0 0 0 0.051619999
3.4200001 0.0080000004 -0.17200001 151 0 0 0 0.051630002
3.4200001 0.0070000002 -0.161 151 0 0 0 0.05164
3.4219999 0.0070000002 -0.15000001 151 0 0 0 0.051649999
3.4219999 0.0070000002 -0.139 152 0 0 0 0.051660001
3.4189999 0.0060000001 -0.12800001 151 0 0 0 0.05167
