# .PCD v0.7 - Point Cloud Data file format
VERSION 0.7
FIELDS x y z intensity normal_x normal_y normal_z curvature
SIZE 4 4 4 4 4 4 4 4
TYPE F F F F F F F F
COUNT 1 1 1 1 1 1 1 1
WIDTH 1093
HEIGHT 1
VIEWPOINT 0 0 0 1 0 0 0
POINTS 1093
DATA ascii
3.677 -1.4069999 1.572 17 0 0 0 0.01014
3.6919999 -1.409 1.568 17 0 0 0 0.01015
3.698 -1.406 1.5599999 16 0 0 0 0.01016
3.7149999 -1.408 1.557 17 0 0 0 0.01017
3.7260001 -1.4069999 1.551 17 0 0 0 0.01018
3.7320001 -1.404 1.5420001 16 0 0 0 0.01019
3.75 -1.406 1.539 16 0 0 0 0.0102
3.763 -1.405 1.533 16 0 0 0 0.01021
3.7739999 -1.404 1.527 16 0 0 0 0.01022
3.786 -1.403 1.521 16 0 0 0 0.01023
3.799 -1.403 1.516 16 0 0 0 0.01024
3.8180001 -1.404 1.512 17 0 0 0 0.01025
3.826 -1.401 1.5039999 17 0 0 0 0.01026
3.8410001 -1.401 1.499 17 0 0 0 0.01027
3.855 -1.4 1.493 16 0 0 0 0.01028
3.8729999 -1.4 1.489 17 0 0 0 0.01029
3.8859999 -1.399 1.483 17 0 0 0 0.0103
3.902 -1.398 1.478 17 0 0 0 0.01031
3.9159999 -1.397 1.472 17 0 0 0 0.01032
3.9349999 -1.398 1.4680001 17 0 0 0 0.01033
3.944 -1.395 1.46 17 0 0 0 0.01034
3.964 -1.395 1.456 18 0 0 0 0.01035
3.9809999 -1.3940001 1.451 17 0 0 0 0.01036
3.994 -1.392 1.444 17 0 0 0 0.01037
4.013 -1.392 1.4400001 16 0 0 0 0.01038
4.0279999 -1.39 1.433 16 0 0 0 0.01039
4.0469999 -1.39 1.429 17 0 0 0 0.0104
4.0689998 -1.39 1.425 17 0 0 0 0.01041
4.092 -1.391 1.421 17 0 0 0 0.01042
4.1230001 -1.3940001 1.42 18 0 0 0 0.01043
4.1599998 -1.399 1.421 17 0 0 0 0.01044
4.1900001 -1.401 1.42 16 0 0 0 0.01045
4.2280002 -1.406 1.42 17 0 0 0 0.01046
4.2610002 -1.409 1.419 17 0 0 0 0.01047
4.2989998 -1.414 1.42 18 0 0 0 0.01048
0 0 0 0 0 0 0 0.01049
2.9449999 -0.95700002 0.95599997 0 0 0 0 0.0105
2.4519999 -0.792 0.78899997 0 0 0 0 0.01051
0 0 0 0 0 0 0 0.01052
0 0 0 0 0 0 0 0.01053
2.484 -0.78799999 0.77899998 0 0 0 0 0.01054
2.4690001 -0.77899998 0.76700002 0 0 0 0 0.01055
2.4679999 -0.773 0.75999999 0 0 0 0 0.01056
2.4719999 -0.76999998 0.75400001 0 0 0 0 0.01057
2.487 -0.76999998 0.75199997 0 0 0 0 0.01058
0 0 0 0 0 0 0 0.01059
2.391 -0.73100001 0.70999998 0 0 0 0 0.0106
0 0 0 0 0 0 0 0.01061
0 0 0 0 0 0 0 0.01062
2.4909999 -0.74599999 0.71799999 0 0 0 0 0.01063
0 0 0 0 0 0 0 0.01064
0 0 0 0 0 0 0 0.01065
0 0 0 0 0 0 0 0.01066
0 0 0 0 0 0 0 0.01067
0 0 0 0 0 0 0 0.01068
0 0 0 0 0 0 0 0.01069
0 0 0 0 0 0 0 0.0107
0 0 0 0 0 0 0 0.01071
0 0 0 0 0 0 0 0.01072
0 0 0 0 0 0 0 0.01073
0 0 0 0 0 0 0 0.01074
0 0 0 0 0 0 0 0.01075
0 0 0 0 0 0 0 0.01076
0 0 0 0 0 0 0 0.01077
0 0 0 0 0 0 0 0.01078
0 0 0 0 0 0 0 0.01079
0 0 0 0 0 0 0 0.0108
0 0 0 0 0 0 0 0.01081
0 0 0 0 0 0 0 0.01082
0 0 0 0 0 0 0 0.01083
0 0 0 0 0 0 0 0.01084
0 0 0 0 0 0 0 0.01085
0 0 0 0 0 0 0 0.01086
0 0 0 0 0 0 0 0.01087
0 0 0 0 0 0 0 0.01088
0 0 0 0 0 0 0 0.01089
0 0 0 0 0 0 0 0.0109
0 0 0 0 0 0 0 0.01091
0 0 0 0 0 0 0 0.01092
0 0 0 0 0 0 0 0.01093
0 0 0 0 0 0 0 0.01094
0 0 0 0 0 0 0 0.01095
0 0 0 0 0 0 0 0.01096
0 0 0 0 0 0 0 0.01097
0 0 0 0 0 0 0 0.01098
0 0 0 0 0 0 0 0.01099
0 0 0 0 0 0 0 0.011
0 0 0 0 0 0 0 0.01101
0 0 0 0 0 0 0 0.01102
0 0 0 0 0 0 0 0.01103
0 0 0 0 0 0 0 0.01104
0 0 0 0 0 0 0 0.01105
0 0 0 0 0 0 0 0.01106
0 0 0 0 0 0 0 0.01107
0 0 0 0 0 0 0 0.01108
0 0 0 0 0 0 0 0.01109
0 0 0 0 0 0 0 0.0111
0 0 0 0 0 0 0 0.01111
0 0 0 0 0 0 0 0.01112
0 0 0 0 0 0 0 0.01113
0 0 0 0 0 0 0 0.01114
0 0 0 0 0 0 0 0.01115
0 0 0 0 0 0 0 0.01116
0 0 0 0 0 0 0 0.01117
0 0 0 0 0 0 0 0.01118
0 0 0 0 0 0 0 0.01119
0 0 0 0 0 0 0 0.0112
2.4030001 -0.40599999 0.34200001 0 0 0 0 0.01121
2.4230001 -0.403 0.33899999 0 0 0 0 0.01122
0 0 0 0 0 0 0 0.01123
0 0 0 0 0 0 0 0.01124
0 0 0 0 0 0 0 0.01125
0 0 0 0 0 0 0 0.01126
0 0 0 0 0 0 0 0.01127
0 0 0 0 0 0 0 0.01128
0 0 0 0 0 0 0 0.01129
2.414 -0.35499999 0.294 0 0 0 0 0.0113
2.402 -0.34799999 0.287 0 0 0 0 0.01131
2.4260001 -0.345 0.28400001 0 0 0 0 0.01132
2.4130001 -0.33700001 0.27700001 0 0 0 0 0.01133
2.3789999 -0.32699999 0.26800001 0 0 0 0 0.01134
2.3699999 -0.31999999 0.26199999 0 0 0 0 0.01135
2.381 -0.31600001 0.25799999 13 0 0 0 0.01136
2.3870001 -0.31 0.25299999 20 0 0 0 0.01137
2.431 -0.31 0.25299999 13 0 0 0 0.01138
2.47 -0.30899999 0.25099999 15 0 0 0 0.01139
2.503 -0.30700001 0.249 16 0 0 0 0.0114
2.546 -0.30599999 0.248 17 0 0 0 0.01141
2.829 -0.333 0.26899999 79 0 0 0 0.01142
2.9849999 -0.34400001 0.278 150 0 0 0 0.01143
3.2160001 -0.36300001 0.292 150 0 0 0 0.01144
3.2090001 -0.354 0.285 150 0 0 0 0.01145
3.211 -0.347 0.278 150 0 0 0 0.01146
3.2119999 -0.33899999 0.271 150 0 0 0 0.01147
3.2130001 -0.331 0.264 150 0 0 0 0.01148
3.21 -0.32300001 0.257 150 0 0 0 0.01149
3.2160001 -0.315 0.25099999 150 0 0 0 0.0115
3.2390001 -0.31 0.24600001 150 0 0 0 0.01151
3.2409999 -0.30199999 0.23899999 150 0 0 0 0.01152
3.2349999 -0.29300001 0.23199999 150 0 0 0 0.01153
3.234 -0.285 0.22499999 150 0 0 0 0.01154
3.2309999 -0.27700001 0.21799999 150 0 0 0 0.01155
3.2360001 -0.26899999 0.212 150 0 0 0 0.01156
3.2390001 -0.26100001 0.205 150 0 0 0 0.01157
3.277 -0.25600001 0.20100001 31 0 0 0 0.01158
3.3429999 -0.25299999 0.198 150 0 0 0 0.01159
3.3440001 -0.244 0.191 151 0 0 0 0.0116
3.3340001 -0.235 0.183 150 0 0 0 0.01161
3.3399999 -0.227 0.177 150 0 0 0 0.01162
3.3410001 -0.219 0.17 150 0 0 0 0.01163
3.3429999 -0.211 0.163 150 0 0 0 0.01164
3.3699999 -0.204 0.15800001 150 0 0 0 0.01165
3.3759999 -0.19599999 0.15099999 151 0 0 0 0.01166
3.372 -0.18700001 0.14399999 150 0 0 0 0.01167
3.3759999 -0.17900001 0.13699999 150 0 0 0 0.01168
3.4360001 -0.17299999 0.133 151 0 0 0 0.01169
3.4389999 -0.16500001 0.126 151 0 0 0 0.0117
3.438 -0.156 0.119 150 0 0 0 0.01171
3.4400001 -0.147 0.112 150 0 0 0 0.01172
3.4389999 -0.138 0.105 150 0 0 0 0.01173
3.437 -0.13 0.097999997 150 0 0 0 0.01174
3.4349999 -0.121 0.090999998 150 0 0 0 0.01175
3.4319999 -0.112 0.083999999 150 0 0 0 0.01176
3.4300001 -0.103 0.077 150 0 0 0 0.01177
3.4319999 -0.093999997 0.071000002 150 0 0 0 0.01178
3.4330001 -0.085000001 0.064000003 150 0 0 0 0.01179
3.4300001 -0.075999998 0.057 150 0 0 0 0.0118
3.431 -0.068000004 0.050000001 150 0 0 0 0.01181
3.4289999 -0.059 0.044 150 0 0 0 0.01182
3.428 -0.050000001 0.037 150 0 0 0 0.01183
3.428 -0.041000001 0.029999999 150 0 0 0 0.01184
3.428 -0.032000002 0.023 150 0 0 0 0.01185
3.424 -0.023 0.017000001 150 0 0 0 0.01186
3.4230001 -0.014 0.0099999998 150 0 0 0 0.01187
3.4189999 -0.0060000001 0.003 150 0 0 0 0.01188
3.4230001 0.0020000001 -0.0020000001 150 0 0 0 0.01189
3.418 0.011 -0.0089999996 150 0 0 0 0.0119
3.414 0.02 -0.015 150 0 0 0 0.01191
3.421 0.028999999 -0.022 151 0 0 0 0.01192
3.418 0.037999999 -0.028000001 152 0 0 0 0.01193
3.4230001 0.046999998 -0.035 152 0 0 0 0.01194
3.4170001 0.056000002 -0.041000001 152 0 0 0 0.01195
3.4119999 0.064999998 -0.048 153 0 0 0 0.01196
3.4059999 0.072999999 -0.054000001 153 0 0 0 0.01197
3.4030001 0.082000002 -0.061000001 153 0 0 0 0.01198
3.4059999 0.090999998 -0.067000002 153 0 0 0 0.01199
3.3970001 0.1 -0.072999999 153 0 0 0 0.012
3.3889999 0.109 -0.079999998 154 0 0 0 0.01201
3.3800001 0.117 -0.086000003 154 0 0 0 0.01202
3.3829999 0.126 -0.092 154 0 0 0 0.01203
3.382 0.13500001 -0.097999997 154 0 0 0 0.01204
3.3789999 0.14399999 -0.105 154 0 0 0 0.01205
3.3800001 0.153 -0.111 155 0 0 0 0.01206
3.3789999 0.162 -0.117 155 0 0 0 0.01207
3.378 0.171 -0.124 154 0 0 0 0.01208
3.3770001 0.18000001 -0.13 155 0 0 0 0.01209
3.3770001 0.189 -0.13600001 155 0 0 0 0.0121
3.3740001 0.198 -0.142 155 0 0 0 0.01211
3.3729999 0.207 -0.148 155 0 0 0 0.01212
3.3740001 0.21600001 -0.154 155 0 0 0 0.01213
3.3740001 0.22499999 -0.161 155 0 0 0 0.01214
3.372 0.234 -0.167 155 0 0 0 0.01215
3.3740001 0.244 -0.17299999 154 0 0 0 0.01216
3.372 0.25299999 -0.17900001 154 0 0 0 0.01217
3.3759999 0.26199999 -0.185 154 0 0 0 0.01218
3.3829999 0.27200001 -0.192 154 0 0 0 0.01219
3.3870001 0.28099999 -0.198 153 0 0 0 0.0122
3.3889999 0.28999999 -0.204 153 0 0 0 0.01221
3.388 0.30000001 -0.20999999 153 0 0 0 0.01222
3.3940001 0.30899999 -0.21699999 152 0 0 0 0.01223
3.398 0.31900001 -0.223 152 0 0 0 0.01224
3.398 0.32800001 -0.229 151 0 0 0 0.01225
3.3970001 0.338 -0.235 151 0 0 0 0.01226
3.3970001 0.347 -0.241 151 0 0 0 0.01227
3.3889999 0.35499999 -0.24600001 151 0 0 0 0.01228
3.3889999 0.36500001 -0.25299999 151 0 0 0 0.01229
3.3829999 0.373 -0.25799999 151 0 0 0 0.0123
3.388 0.38299999 -0.264 150 0 0 0 0.01231
3.385 0.39199999 -0.27000001 150 0 0 0 0.01232
3.385 0.40200001 -0.27599999 150 0 0 0 0.01233
3.3829999 0.41100001 -0.28200001 150 0 0 0 0.01234
3.3859999 0.421 -0.28799999 150 0 0 0 0.01235
3.388 0.43000001 -0.294 150 0 0 0 0.01236
3.3870001 0.44 -0.29899999 150 0 0 0 0.01237
3.3840001 0.449 -0.30500001 150 0 0 0 0.01238
3.3840001 0.458 -0.31099999 150 0 0 0 0.01239
3.3829999 0.46799999 -0.317 150 0 0 0 0.0124
3.382 0.477 -0.322 150 0 0 0 0.01241
3.3800001 0.486 -0.32800001 150 0 0 0 0.01242
3.382 0.49599999 -0.33399999 150 0 0 0 0.01243
3.3729999 0.50400001 -0.33899999 150 0 0 0 0.01244
3.3139999 0.505 -0.338 150 0 0 0 0.01245
3.3150001 0.514 -0.34400001 151 0 0 0 0.01246
3.313 0.52399999 -0.34900001 151 0 0 0 0.01247
3.289 0.52899998 -0.352 150 0 0 0 0.01248
3.28 0.537 -0.35699999 151 0 0 0 0.01249
3.283 0.54699999 -0.36300001 151 0 0 0 0.0125
3.277 0.55599999 -0.36700001 151 0 0 0 0.01251
3.28 0.56599998 -0.373 151 0 0 0 0.01252
3.2620001 0.57200003 -0.377 43 0 0 0 0.01253
3.2079999 0.57200003 -0.37599999 22 0 0 0 0.01254
3.145 0.56900001 -0.373 23 0 0 0 0.01255
3.0799999 0.56699997 -0.37099999 23 0 0 0 0.01256
3.027 0.565 -0.36899999 23 0 0 0 0.01257
2.9590001 0.56099999 -0.366 23 0 0 0 0.01258
2.878 0.55400002 -0.36000001 22 0 0 0 0.01259
2.7909999 0.546 -0.354 21 0 0 0 0.0126
2.7160001 0.53899997 -0.34900001 19 0 0 0 0.01261
2.648 0.53299999 -0.34400001 18 0 0 0 0.01262
2.579 0.52700001 -0.33899999 17 0 0 0 0.01263
2.5350001 0.52499998 -0.338 17 0 0 0 0.01264
2.4760001 0.51999998 -0.33399999 16 0 0 0 0.01265
2.428 0.51700002 -0.331 15 0 0 0 0.01266
2.3800001 0.514 -0.32800001 15 0 0 0 0.01267
2.326 0.50999999 -0.324 17 0 0 0 0.01268
2.266 0.50300002 -0.31999999 134 0 0 0 0.01269
2.2539999 0.50700003 -0.32100001 151 0 0 0 0.0127
2.2550001 0.514 -0.32499999 151 0 0 0 0.01271
2.2520001 0.51999998 -0.32800001 151 0 0 0 0.01272
2.227 0.52100003 -0.32800001 150 0 0 0 0.01273
2.221 0.52600002 -0.33000001 150 0 0 0 0.01274
2.2190001 0.53200001 -0.33399999 151 0 0 0 0.01275
2.2249999 0.54100001 -0.338 150 0 0 0 0.01276
2.2249999 0.54699999 -0.34099999 151 0 0 0 0.01277
2.223 0.55299997 -0.34400001 151 0 0 0 0.01278
2.2219999 0.56 -0.347 151 0 0 0 0.01279
2.2219999 0.56699997 -0.35100001 151 0 0 0 0.0128
2.2190001 0.57300001 -0.354 151 0 0 0 0.01281
2.2219999 0.57999998 -0.35699999 151 0 0 0 0.01282
2.2260001 0.588 -0.361 151 0 0 0 0.01283
2.23 0.59600002 -0.36500001 151 0 0 0 0.01284
2.2290001 0.60299999 -0.368 151 0 0 0 0.01285
2.227 0.60900003 -0.37099999 151 0 0 0 0.01286
2.227 0.61500001 -0.37400001 151 0 0 0 0.01287
2.227 0.62300003 -0.377 151 0 0 0 0.01288
2.28 0.64499998 -0.38999999 150 0 0 0 0.01289
2.4330001 0.69499999 -0.419 150 0 0 0 0.0129
2.4779999 0.71600002 -0.43099999 150 0 0 0 0.01291
2.483 0.72500002 -0.435 150 0 0 0 0.01292
2.4809999 0.73199999 -0.43799999 150 0 0 0 0.01293
2.4749999 0.73799998 -0.44 150 0 0 0 0.01294
2.358 0.70999998 -0.42300001 150 0 0 0 0.01295
2.289 0.69700003 -0.41299999 150 0 0 0 0.01296
1.4859999 0.45699999 -0.27000001 10 0 0 0 0.01297
1.4680001 0.456 -0.26899999 6 0 0 0 0.01298
1.447 0.454 -0.26699999 6 0 0 0 0.01299
1.434 0.454 -0.266 5 0 0 0 0.013
1.4170001 0.45300001 -0.26499999 5 0 0 0 0.01301
1.3940001 0.44999999 -0.26300001 3 0 0 0 0.01302
1.3789999 0.44999999 -0.26199999 3 0 0 0 0.01303
1.363 0.449 -0.25999999 3 0 0 0 0.01304
1.341 0.44600001 -0.25799999 5 0 0 0 0.01305
1.325 0.44499999 -0.257 11 0 0 0 0.01306
1.296 0.43900001 -0.252 98 0 0 0 0.01307
1.285 0.44 -0.252 150 0 0 0 0.01308
1.284 0.44400001 -0.25299999 150 0 0 0 0.01309
1.283 0.447 -0.255 150 0 0 0 0.0131
1.281 0.45100001 -0.25600001 150 0 0 0 0.01311
1.28 0.454 -0.257 150 0 0 0 0.01312
1.283 0.45899999 -0.259 150 0 0 0 0.01313
1.2819999 0.463 -0.26100001 150 0 0 0 0.01314
1.283 0.46799999 -0.26199999 150 0 0 0 0.01315
1.284 0.472 -0.264 150 0 0 0 0.01316
1.2819999 0.47600001 -0.26499999 150 0 0 0 0.01317
1.284 0.47999999 -0.26699999 150 0 0 0 0.01318
1.288 0.486 -0.26899999 84 0 0 0 0.01319
1.2819999 0.48800001 -0.27000001 14 0 0 0 0.0132
1.25 0.47999999 -0.264 0 0 0 0 0.01321
1.226 0.47499999 -0.25999999 5 0 0 0 0.01322
1.211 0.47299999 -0.25799999 3 0 0 0 0.01323
1.196 0.47 -0.25600001 4 0 0 0 0.01324
1.186 0.47099999 -0.25600001 4 0 0 0 0.01325
1.174 0.46900001 -0.25400001 0 0 0 0 0.01326
1.163 0.46900001 -0.25299999 0 0 0 0 0.01327
1.152 0.46799999 -0.252 0 0 0 0 0.01328
1.146 0.46900001 -0.252 4 0 0 0 0.01329
1.1289999 0.46599999 -0.249 4 0 0 0 0.0133
1.125 0.46799999 -0.249 0 0 0 0 0.01331
1.1109999 0.46599999 -0.24699999 0 0 0 0 0.01332
1.105 0.46700001 -0.24699999 0 0 0 0 0.01333
1.097 0.46700001 -0.24600001 4 0 0 0 0.01334
1.084 0.465 -0.244 0 0 0 0 0.01335
1.072 0.46399999 -0.242 0 0 0 0 0.01336
1.066 0.46399999 -0.242 0 0 0 0 0.01337
1.062 0.46599999 -0.242 0 0 0 0 0.01338
1.048 0.463 -0.23999999 0 0 0 0 0.01339
1.0369999 0.46200001 -0.23800001 0 0 0 0 0.0134
1.033 0.463 -0.23800001 0 0 0 0 0.01341
1.024 0.463 -0.237 3 0 0 0 0.01342
1.016 0.46200001 -0.235 0 0 0 0 0.01343
0.99400002 0.45500001 -0.23100001 0 0 0 0 0.01344
0.991 0.45699999 -0.23100001 0 0 0 0 0.01345
0.98000002 0.45500001 -0.229 0 0 0 0 0.01346
0.972 0.45500001 -0.228 0 0 0 0 0.01347
0.96799999 0.456 -0.228 0 0 0 0 0.01348
0.96100003 0.456 -0.227 0 0 0 0 0.01349
0.954 0.456 -0.226 0 0 0 0 0.0135
0.94499999 0.454 -0.22400001 0 0 0 0 0.01351
0.93699998 0.45300001 -0.223 0 0 0 0 0.01352
0.92900002 0.45300001 -0.222 0 0 0 0 0.01353
0.92699999 0.45500001 -0.222 0 0 0 0 0.01354
0.917 0.45300001 -0.22 0 0 0 0 0.01355
0.91600001 0.45500001 -0.22 4 0 0 0 0.01356
0.90799999 0.454 -0.219 8 0 0 0 0.01357
0.90799999 0.456 -0.219 14 0 0 0 0.01358
0.90600002 0.45899999 -0.219 22 0 0 0 0.01359
0.89999998 0.458 -0.21799999 18 0 0 0 0.0136
0.90100002 0.461 -0.219 15 0 0 0 0.01361
0.90799999 0.46799999 -0.221 9 0 0 0 0.01362
0.90799999 0.47099999 -0.221 8 0 0 0 0.01363
0.91500002 0.477 -0.223 8 0 0 0 0.01364
0.91299999 0.479 -0.223 7 0 0 0 0.01365
0.91299999 0.48199999 -0.223 6 0 0 0 0.01366
0.90399998 0.47999999 -0.221 4 0 0 0 0.01367
0.90899998 0.48500001 -0.223 0 0 0 0 0.01368
0.94 0.50400001 -0.23100001 0 0 0 0 0.01369
0.96200001 0.51899999 -0.236 0 0 0 0 0.0137
0.98100001 0.53200001 -0.241 0 0 0 0 0.01371
0.986 0.53799999 -0.243 0 0 0 0 0.01372
0.991 0.54400003 -0.244 0 0 0 0 0.01373
0.98100001 0.54100001 -0.242 0 0 0 0 0.01374
0.977 0.542 -0.241 0 0 0 0 0.01375
0.97600001 0.54400003 -0.241 0 0 0 0 0.01376
0.963 0.54000002 -0.23800001 0 0 0 0 0.01377
0.96700001 0.54400003 -0.23899999 0 0 0 0 0.01378
0.96700001 0.54699999 -0.23899999 0 0 0 0 0.01379
0.958 0.54500002 -0.236 0 0 0 0 0.0138
0.954 0.54500002 -0.236 0 0 0 0 0.01381
0.95599997 0.54900002 -0.236 0 0 0 0 0.01382
0.94700003 0.546 -0.234 0 0 0 0 0.01383
0.94700003 0.54900002 -0.234 0 0 0 0 0.01384
0.94800001 0.55199999 -0.234 0 0 0 0 0.01385
0.94700003 0.55400002 -0.233 0 0 0 0 0.01386
0.93199998 0.54799998 -0.229 0 0 0 0 0.01387
0.94499999 0.55800003 -0.233 0 0 0 0 0.01388
0.93099999 0.55199999 -0.229 0 0 0 0 0.01389
0.92699999 0.55199999 -0.228 0 0 0 0 0.0139
0.90600002 0.542 -0.222 0 0 0 0 0.01391
0.898 0.53899997 -0.22 0 0 0 0 0.01392
0.89600003 0.54000002 -0.219 1 0 0 0 0.01393
0.889 0.53799999 -0.21699999 0 0 0 0 0.01394
0.91000003 0.55299997 -0.222 0 0 0 0 0.01395
0.92799997 0.56599998 -0.226 1 0 0 0 0.01396
0.92699999 0.56800002 -0.22499999 1 0 0 0 0.01397
0.94300002 0.57999998 -0.229 1 0 0 0 0.01398
0.93199998 0.57499999 -0.226 1 0 0 0 0.01399
0.94400001 0.58499998 -0.228 1 0 0 0 0.014
0.92900002 0.57800001 -0.22400001 1 0 0 0 0.01401
0.92000002 0.574 -0.222 2 0 0 0 0.01402
0.92299998 0.57800001 -0.222 3 0 0 0 0.01403
0.91500002 0.57499999 -0.219 4 0 0 0 0.01404
0.926 0.58399999 -0.222 4 0 0 0 0.01405
0.926 0.58499998 -0.221 5 0 0 0 0.01406
0.92900002 0.58899999 -0.221 5 0 0 0 0.01407
0.92699999 0.58999997 -0.22 5 0 0 0 0.01408
0.92400002 0.58899999 -0.21799999 5 0 0 0 0.01409
0.92000002 0.58899999 -0.21699999 5 0 0 0 0.0141
0.91299999 0.58600003 -0.215 5 0 0 0 0.01411
0.91500002 0.58899999 -0.214 6 0 0 0 0.01412
0.91299999 0.58899999 -0.213 6 0 0 0 0.01413
0.90600002 0.58600003 -0.211 7 0 0 0 0.01414
0.90899998 0.58999997 -0.211 7 0 0 0 0.01415
0.90399998 0.588 -0.20900001 7 0 0 0 0.01416
0.903 0.588 -0.208 7 0 0 0 0.01417
0.90200001 0.58999997 -0.207 7 0 0 0 0.01418
0.90200001 0.59100002 -0.206 7 0 0 0 0.01419
0.90100002 0.59200001 -0.205 7 0 0 0 0.0142
0.90600002 0.59600002 -0.205 8 0 0 0 0.01421
0.89999998 0.59299999 -0.20299999 7 0 0 0 0.01422
0.90499997 0.59799999 -0.20299999 7 0 0 0 0.01423
0.91299999 0.60399997 -0.204 6 0 0 0 0.01424
0.91900003 0.60900003 -0.204 6 0 0 0 0.01425
0.92299998 0.61299998 -0.204 6 0 0 0 0.01426
0.92500001 0.61500001 -0.20299999 5 0 0 0 0.01427
0.93400002 0.62199998 -0.204 4 0 0 0 0.01428
1.051 0.70099998 -0.229 4 0 0 0 0.01429
1.05 0.70200002 -0.227 2 0 0 0 0.0143
1.046 0.69999999 -0.22499999 2 0 0 0 0.01431
1.0549999 0.70700002 -0.226 1 0 0 0 0.01432
1.05 0.704 -0.223 1 0 0 0 0.01433
1.049 0.704 -0.222 0 0 0 0 0.01434
1.044 0.70200002 -0.219 0 0 0 0 0.01435
1.043 0.70099998 -0.21799999 1 0 0 0 0.01436
1.0470001 0.70499998 -0.21699999 3 0 0 0 0.01437
1.0420001 0.70200002 -0.215 6 0 0 0 0.01438
1.051 0.708 -0.215 7 0 0 0 0.01439
1.041 0.70200002 -0.212 8 0 0 0 0.0144
1.0470001 0.70599997 -0.211 9 0 0 0 0.01441
1.044 0.70499998 -0.20900001 10 0 0 0 0.01442
1.049 0.70899999 -0.20900001 11 0 0 0 0.01443
1.039 0.70200002 -0.206 10 0 0 0 0.01444
1.0319999 0.69800001 -0.20299999 9 0 0 0 0.01445
0.98299998 0.66500002 -0.192 9 0 0 0 0.01446
0.94700003 0.63999999 -0.183 9 0 0 0 0.01447
0.93800002 0.634 -0.18000001 9 0 0 0 0.01448
0.91799998 0.62 -0.175 7 0 0 0 0.01449
0.91000003 0.61500001 -0.17200001 7 0 0 0 0.0145
0.90600002 0.61199999 -0.17 6 0 0 0 0.01451
0.90200001 0.60900003 -0.168 6 0 0 0 0.01452
0.90100002 0.60900003 -0.16599999 6 0 0 0 0.01453
0.898 0.60600001 -0.164 6 0 0 0 0.01454
0.90200001 0.60799998 -0.163 6 0 0 0 0.01455
0.90200001 0.60799998 -0.162 6 0 0 0 0.01456
0.90399998 0.60900003 -0.161 6 0 0 0 0.01457
0.89700001 0.60399997 -0.15800001 7 0 0 0 0.01458
0.89600003 0.60299999 -0.15700001 8 0 0 0 0.01459
0.89700001 0.60299999 -0.156 8 0 0 0 0.0146
0.89999998 0.60399997 -0.154 8 0 0 0 0.01461
0.89600003 0.60000002 -0.152 8 0 0 0 0.01462
0.89499998 0.59899998 -0.15099999 8 0 0 0 0.01463
0.89700001 0.60000002 -0.15000001 8 0 0 0 0.01464
0.89700001 0.59899998 -0.148 8 0 0 0 0.01465
0.898 0.59899998 -0.147 8 0 0 0 0.01466
0.89999998 0.59899998 -0.146 6 0 0 0 0.01467
0.91100001 0.60500002 -0.146 5 0 0 0 0.01468
1.026 0.68099999 -0.163 2 0 0 0 0.01469
1.073 0.71100003 -0.169 3 0 0 0 0.0147
1.085 0.71700001 -0.169 2 0 0 0 0.01471
1.12 0.73900002 -0.17200001 2 0 0 0 0.01472
1.1619999 0.76499999 -0.177 2 0 0 0 0.01473
1.1720001 0.76999998 -0.176 3 0 0 0 0.01474
1.1799999 0.77399999 -0.176 3 0 0 0 0.01475
1.179 0.77100003 -0.17399999 1 0 0 0 0.01476
1.131 0.73799998 -0.16500001 1 0 0 0 0.01477
0 0 0 0 0 0 0 0.01478
1.145 0.74400002 -0.163 1 0 0 0 0.01479
1.146 0.74299997 -0.161 3 0 0 0 0.0148
2.6470001 1.712 -0.368 8 0 0 0 0.01481
2.6630001 1.7180001 -0.366 8 0 0 0 0.01482
2.6919999 1.732 -0.366 9 0 0 0 0.01483
2.6570001 1.705 -0.35600001 8 0 0 0 0.01484
2.6340001 1.6849999 -0.34900001 9 0 0 0 0.01485
2.635 1.681 -0.345 7 0 0 0 0.01486
1.189 0.75599998 -0.153 1 0 0 0 0.01487
2.602 1.65 -0.33199999 6 0 0 0 0.01488
1.22 0.77100003 -0.154 1 0 0 0 0.01489
2.6619999 1.678 -0.331 7 0 0 0 0.0149
1.212 0.76099998 -0.149 9 0 0 0 0.01491
1.204 0.75300002 -0.146 8 0 0 0 0.01492
2.6589999 1.659 -0.31799999 7 0 0 0 0.01493
2.632 1.636 -0.31099999 6 0 0 0 0.01494
2.628 1.628 -0.30599999 6 0 0 0 0.01495
2.6589999 1.642 -0.30599999 6 0 0 0 0.01496
2.668 1.641 -0.30199999 7 0 0 0 0.01497
2.6429999 1.619 -0.29499999 6 0 0 0 0.01498
2.645 1.615 -0.29100001 6 0 0 0 0.01499
2.674 1.626 -0.28999999 7 0 0 0 0.015
2.661 1.612 -0.285 6 0 0 0 0.01501
2.6670001 1.609 -0.28099999 6 0 0 0 0.01502
1.069 0.64200002 -0.111 2 0 0 0 0.01503
1.0700001 0.64099997 -0.109 2 0 0 0 0.01504
1.069 0.63700002 -0.108 1 0 0 0 0.01505
1.079 0.63999999 -0.107 1 0 0 0 0.01506
1.067 0.63 -0.104 1 0 0 0 0.01507
1.076 0.63300002 -0.104 1 0 0 0 0.01508
1.073 0.62800002 -0.102 1 0 0 0 0.01509
1.09 0.63599998 -0.102 1 0 0 0 0.0151
3.221 1.87 -0.29699999 3 0 0 0 0.01511
3.244 1.874 -0.294 7 0 0 0 0.01512
3.26 1.875 -0.29100001 14 0 0 0 0.01513
3.2639999 1.868 -0.287 13 0 0 0 0.01514
3.2550001 1.854 -0.28099999 7 0 0 0 0.01515
3.2690001 1.853 -0.278 2 0 0 0 0.01516
1.087 0.61299998 -0.090999998 0 0 0 0 0.01517
3.293 1.848 -0.271 1 0 0 0 0.01518
3.2379999 1.808 -0.26199999 4 0 0 0 0.01519
3.2539999 1.808 -0.259 9 0 0 0 0.0152
3.2520001 1.7970001 -0.25400001 12 0 0 0 0.01521
3.244 1.783 -0.249 10 0 0 0 0.01522
3.2390001 1.771 -0.245 11 0 0 0 0.01523
3.2449999 1.765 -0.241 15 0 0 0 0.01524
3.2479999 1.757 -0.237 15 0 0 0 0.01525
3.2509999 1.749 -0.233 13 0 0 0 0.01526
3.26 1.744 -0.23 11 0 0 0 0.01527
3.25 1.729 -0.22499999 11 0 0 0 0.01528
0 0 0 0 0 0 0 0.01529
3.2119999 1.6900001 -0.214 1 0 0 0 0.0153
1.4960001 0.78200001 -0.097999997 12 0 0 0 0.01531
0.91399997 0.47499999 -0.057999998 2 0 0 0 0.01532
0.90899998 0.47 -0.057 0 0 0 0 0.01533
0.91399997 0.47 -0.056000002 4 0 0 0 0.01534
0.90700001 0.463 -0.055 4 0 0 0 0.01535
0.91100001 0.46200001 -0.054000001 4 0 0 0 0.01536
0.90899998 0.458 -0.052999999 4 0 0 0 0.01537
0.912 0.45699999 -0.052000001 0 0 0 0 0.01538
0.91000003 0.45300001 -0.050999999 0 0 0 0 0.01539
3.0780001 1.524 -0.169 1 0 0 0 0.0154
3.063 1.507 -0.16500001 2 0 0 0 0.01541
3.0639999 1.498 -0.162 2 0 0 0 0.01542
3.0799999 1.4960001 -0.15899999 2 0 0 0 0.01543
3.072 1.482 -0.156 2 0 0 0 0.01544
3.076 1.474 -0.153 2 0 0 0 0.01545
3.0869999 1.47 -0.15000001 2 0 0 0 0.01546
3.096 1.464 -0.147 2 0 0 0 0.01547
3.102 1.457 -0.145 4 0 0 0 0.01548
3.1029999 1.447 -0.141 4 0 0 0 0.01549
3.1289999 1.449 -0.139 3 0 0 0 0.0155
3.122 1.436 -0.13600001 3 0 0 0 0.01551
3.122 1.425 -0.133 3 0 0 0 0.01552
3.1010001 1.406 -0.12899999 2 0 0 0 0.01553
3.098 1.3940001 -0.126 2 0 0 0 0.01554
3.158 1.411 -0.126 1 0 0 0 0.01555
3.1849999 1.413 -0.124 1 0 0 0 0.01556
3.227 1.421 -0.123 3 0 0 0 0.01557
3.214 1.404 -0.119 5 0 0 0 0.01558
3.211 1.393 -0.116 5 0 0 0 0.01559
3.2160001 1.3839999 -0.114 5 0 0 0 0.0156
3.2190001 1.375 -0.111 4 0 0 0 0.01561
3.227 1.367 -0.109 4 0 0 0 0.01562
3.243 1.363 -0.107 5 0 0 0 0.015629999
3.2460001 1.354 -0.104 5 0 0 0 0.01564
3.2520001 1.346 -0.102 4 0 0 0 0.01565
3.2869999 1.349 -0.1 3 0 0 0 0.015659999
3.313 1.349 -0.097999997 7 0 0 0 0.01567
3.3210001 1.342 -0.096000001 11 0 0 0 0.01568
3.3210001 1.33 -0.093000002 9 0 0 0 0.015690001
3.3110001 1.3150001 -0.090999998 6 0 0 0 0.015699999
3.322 1.309 -0.088 3 0 0 0 0.01571
1.242 0.48500001 -0.032000002 0 0 0 0 0.01572
1.257 0.48699999 -0.030999999 5 0 0 0 0.015729999
1.294 0.49700001 -0.030999999 10 0 0 0 0.01574
1.294 0.49200001 -0.029999999 60 0 0 0 0.01575
1.286 0.48500001 -0.028999999 150 0 0 0 0.015760001
1.2869999 0.48100001 -0.028999999 150 0 0 0 0.015769999
1.289 0.477 -0.028000001 150 0 0 0 0.01578
1.2869999 0.472 -0.027000001 150 0 0 0 0.015790001
1.289 0.46900001 -0.026000001 150 0 0 0 0.015799999
1.29 0.465 -0.025 150 0 0 0 0.01581
1.288 0.46000001 -0.024 150 0 0 0 0.01582
1.289 0.456 -0.024 150 0 0 0 0.015830001
1.29 0.45199999 -0.023 150 0 0 0 0.01584
1.288 0.447 -0.022 150 0 0 0 0.01585
1.2970001 0.44600001 -0.022 150 0 0 0 0.015860001
1.313 0.447 -0.021 24 0 0 0 0.015869999
1.3380001 0.45100001 -0.021 3 0 0 0 0.01588
1.342 0.447 -0.02 1 0 0 0 0.01589
1.3789999 0.45500001 -0.02 1 0 0 0 0.015900001
1.398 0.45699999 -0.018999999 2 0 0 0 0.01591
1.421 0.45899999 -0.018999999 2 0 0 0 0.01592
1.427 0.45699999 -0.017999999 4 0 0 0 0.015930001
1.446 0.458 -0.017999999 6 0 0 0 0.015939999
1.467 0.46000001 -0.017000001 6 0 0 0 0.01595
1.49 0.46200001 -0.017000001 22 0 0 0 0.01596
2.2539999 0.69099998 -0.025 150 0 0 0 0.015969999
2.378 0.722 -0.025 150 0 0 0 0.01598
2.4849999 0.74599999 -0.025 150 0 0 0 0.01599
2.487 0.73799998 -0.024 150 0 0 0 0.016000001
2.484 0.72799999 -0.023 150 0 0 0 0.016009999
2.484 0.72000003 -0.022 150 0 0 0 0.01602
2.3010001 0.65899998 -0.018999999 150 0 0 0 0.016030001
2.2379999 0.634 -0.017999999 151 0 0 0 0.016039999
2.22 0.62099999 -0.017000001 151 0 0 0 0.01605
2.223 0.61500001 -0.016000001 151 0 0 0 0.01606
2.2249999 0.60799998 -0.015 151 0 0 0 0.016070001
2.227 0.60100001 -0.014 151 0 0 0 0.01608
2.2279999 0.59399998 -0.013 151 0 0 0 0.01609
2.2290001 0.58700001 -0.013 151 0 0 0 0.016100001
2.221 0.57700002 -0.012 151 0 0 0 0.016109999
2.221 0.56999999 -0.011 151 0 0 0 0.01612
2.227 0.56400001 -0.0099999998 151 0 0 0 0.01613
2.2260001 0.55599999 -0.0099999998 151 0 0 0 0.016140001
2.2249999 0.54900002 -0.0089999996 151 0 0 0 0.01615
2.2260001 0.542 -0.0080000004 151 0 0 0 0.01616
2.2219999 0.53299999 -0.0080000004 151 0 0 0 0.016170001
2.2360001 0.52899998 -0.0070000002 150 0 0 0 0.016179999
2.2360001 0.52200001 -0.0060000001 152 0 0 0 0.01619
2.2379999 0.51499999 -0.0060000001 152 0 0 0 0.0162
2.2490001 0.50999999 -0.0049999999 151 0 0 0 0.016209999
2.2880001 0.51099998 -0.0049999999 127 0 0 0 0.01622
2.3829999 0.52399999 -0.0040000002 28 0 0 0 0.01623
2.4360001 0.528 -0.0040000002 26 0 0 0 0.016240001
2.4949999 0.53200001 -0.003 25 0 0 0 0.016249999
2.563 0.53799999 -0.003 26 0 0 0 0.01626
2.6459999 0.54699999 -0.0020000001 28 0 0 0 0.01627
2.7490001 0.55900002 -0.0020000001 30 0 0 0 0.016279999
2.8570001 0.57200003 -0.001 33 0 0 0 0.01629
2.9360001 0.57800001 -0.001 28 0 0 0 0.0163
2.9690001 0.57499999 0 27 0 0 0 0.016310001
3.046 0.579 0 26 0 0 0 0.016319999
3.109 0.58099997 0 26 0 0 0 0.01633
3.1819999 0.58399999 0.001 25 0 0 0 0.016340001
3.2420001 0.58499998 0.001 25 0 0 0 0.016349999
3.28 0.58099997 0.0020000001 150 0 0 0 0.01636
3.256 0.56599998 0.0020000001 154 0 0 0 0.01637
3.267 0.55699998 0.003 153 0 0 0 0.016380001
3.2490001 0.54299998 0.003 155 0 0 0 0.01639
3.28 0.53799999 0.0040000002 153 0 0 0 0.0164
3.312 0.53200001 0.0040000002 151 0 0 0 0.016410001
3.3139999 0.52100003 0.0040000002 153 0 0 0 0.016419999
3.335 0.514 0.0049999999 152 0 0 0 0.01643
3.362 0.50700003 0.0049999999 154 0 0 0 0.01644
3.3870001 0.5 0.0060000001 152 0 0 0 0.016450001
3.388 0.48899999 0.0060000001 152 0 0 0 0.01646
3.3929999 0.47799999 0.0060000001 152 0 0 0 0.01647
3.385 0.46599999 0.0070000002 152 0 0 0 0.016480001
3.382 0.45500001 0.0070000002 153 0 0 0 0.016489999
3.3829999 0.44400001 0.0070000002 153 0 0 0 0.0165
3.3800001 0.43200001 0.0070000002 153 0 0 0 0.01651
3.365 0.419 0.0070000002 154 0 0 0 0.016519999
3.362 0.40799999 0.0080000004 154 0 0 0 0.01653
3.3599999 0.39700001 0.0080000004 155 0 0 0 0.01654
3.3599999 0.38600001 0.0080000004 155 0 0 0 0.016550001
3.3529999 0.37400001 0.0080000004 157 0 0 0 0.016559999
3.352 0.36300001 0.0080000004 157 0 0 0 0.01657
3.3499999 0.352 0.0080000004 159 0 0 0 0.016580001
3.349 0.34099999 0.0080000004 158 0 0 0 0.016589999
3.3540001 0.33000001 0.0080000004 157 0 0 0 0.0166
3.3510001 0.31900001 0.0080000004 158 0 0 0 0.01661
3.3499999 0.308 0.0080000004 160 0 0 0 0.016620001
3.352 0.29699999 0.0080000004 161 0 0 0 0.01663
3.355 0.287 0.0080000004 161 0 0 0 0.01664
3.3570001 0.27599999 0.0080000004 161 0 0 0 0.016650001
3.3529999 0.26499999 0.0080000004 161 0 0 0 0.016659999
3.358 0.25400001 0.0080000004 162 0 0 0 0.01667
3.3599999 0.243 0.0080000004 163 0 0 0 0.01668
3.3540001 0.23199999 0.0080000004 161 0 0 0 0.016690001
3.359 0.222 0.0070000002 162 0 0 0 0.0167
3.3599999 0.211 0.0070000002 161 0 0 0 0.01671
3.3610001 0.2 0.0070000002 161 0 0 0 0.016720001
3.3570001 0.189 0.0070000002 160 0 0 0 0.016729999
3.3659999 0.178 0.0070000002 160 0 0 0 0.01674
3.3629999 0.167 0.0060000001 159 0 0 0 0.01675
3.365 0.156 0.0060000001 160 0 0 0 0.016759999
3.3710001 0.146 0.0060000001 158 0 0 0 0.01677
3.378 0.13500001 0.0049999999 157 0 0 0 0.01678
3.378 0.124 0.0049999999 156 0 0 0 0.016790001
3.3829999 0.113 0.0049999999 155 0 0 0 0.016799999
3.3840001 0.102 0.0040000002 154 0 0 0 0.01681
3.395 0.092 0.0040000002 154 0 0 0 0.01682
3.404 0.081 0.0040000002 154 0 0 0 0.016829999
3.404 0.07 0.003 154 0 0 0 0.01684
3.4119999 0.059 0.003 153 0 0 0 0.01685
3.418 0.048 0.0020000001 153 0 0 0 0.016860001
3.4260001 0.037 0.0020000001 152 0 0 0 0.016869999
3.4230001 0.026000001 0.001 151 0 0 0 0.01688
3.4200001 0.015 0.001 151 0 0 0 0.016890001
3.4200001 0.0040000002 0 151 0 0 0 0.016899999
3.418 -0.0060000001 0 151 0 0 0 0.01691
3.418 -0.017000001 0 151 0 0 0 0.01692
3.421 -0.028000001 -0.001 151 0 0 0 0.016930001
3.4189999 -0.039000001 -0.001 151 0 0 0 0.01694
3.424 -0.050000001 -0.0020000001 151 0 0 0 0.01695
3.425 -0.061000001 -0.0020000001 151 0 0 0 0.016960001
3.427 -0.072999999 -0.003 151 0 0 0 0.016969999
3.431 -0.083999999 -0.0040000002 151 0 0 0 0.01698
3.4319999 -0.094999999 -0.0049999999 151 0 0 0 0.01699
3.4319999 -0.106 -0.0049999999 151 0 0 0 0.017000001
3.431 -0.117 -0.0060000001 151 0 0 0 0.01701
3.4360001 -0.12800001 -0.0070000002 151 0 0 0 0.01702
3.434 -0.139 -0.0080000004 151 0 0 0 0.017030001
3.4330001 -0.15000001 -0.0080000004 151 0 0 0 0.017039999
3.4400001 -0.162 -0.0089999996 151 0 0 0 0.01705
3.405 -0.171 -0.0099999998 155 0 0 0 0.01706
3.3770001 -0.18000001 -0.011 150 0 0 0 0.017069999
3.3699999 -0.191 -0.012 152 0 0 0 0.01708
3.3729999 -0.20200001 -0.013 153 0 0 0 0.01709
3.3540001 -0.212 -0.013 151 0 0 0 0.017100001
3.346 -0.222 -0.014 152 0 0 0 0.017109999
3.3429999 -0.233 -0.015 152 0 0 0 0.01712
3.3429999 -0.244 -0.016000001 152 0 0 0 0.017130001
3.346 -0.255 -0.017000001 152 0 0 0 0.017139999
3.253 -0.25799999 -0.017999999 150 0 0 0 0.01715
3.2179999 -0.266 -0.018999999 153 0 0 0 0.01716
3.237 -0.278 -0.02 153 0 0 0 0.017170001
3.2360001 -0.28799999 -0.021 152 0 0 0 0.01718
3.2379999 -0.29899999 -0.022 152 0 0 0 0.01719
3.2279999 -0.308 -0.023 153 0 0 0 0.017200001
3.221 -0.31799999 -0.024 152 0 0 0 0.017209999
3.2079999 -0.32699999 -0.025 151 0 0 0 0.01722
3.2090001 -0.338 -0.026000001 151 0 0 0 0.01723
3.2119999 -0.34799999 -0.027000001 151 0 0 0 0.017240001
3.211 -0.359 -0.028000001 151 0 0 0 0.01725
3.2119999 -0.36899999 -0.028999999 151 0 0 0 0.01726
2.9289999 -0.34599999 -0.028000001 150 0 0 0 0.017270001
2.592 -0.315 -0.026000001 28 0 0 0 0.017279999
2.5599999 -0.31900001 -0.026000001 32 0 0 0 0.01729
2.4879999 -0.31799999 -0.026000001 31 0 0 0 0.0173
2.4200001 -0.317 -0.027000001 22 0 0 0 0.017309999
2.382 -0.31999999 -0.027000001 42 0 0 0 0.01732
2.3629999 -0.32499999 -0.028000001 25 0 0 0 0.01733
2.359 -0.33199999 -0.028999999 23 0 0 0 0.017340001
2.3640001 -0.34099999 -0.029999999 23 0 0 0 0.017349999
2.3610001 -0.34799999 -0.030999999 22 0 0 0 0.01736
2.3640001 -0.35600001 -0.032000002 19 0 0 0 0.01737
2.3640001 -0.36399999 -0.033 17 0 0 0 0.017379999
2.3629999 -0.37099999 -0.034000002 17 0 0 0 0.01739
2.368 -0.38 -0.035 22 0 0 0 0.0174
2.3659999 -0.38699999 -0.035999998 27 0 0 0 0.017410001
2.365 -0.39500001 -0.037 25 0 0 0 0.017419999
2.3640001 -0.40200001 -0.039000001 25 0 0 0 0.01743
2.3629999 -0.41 -0.039999999 28 0 0 0 0.017440001
2.369 -0.419 -0.041000001 28 0 0 0 0.017449999
2.3640001 -0.426 -0.041999999 21 0 0 0 0.01746
2.3729999 -0.435 -0.043000001 21 0 0 0 0.01747
2.375 -0.44299999 -0.045000002 20 0 0 0 0.017480001
2.3729999 -0.44999999 -0.046 17 0 0 0 0.01749
2.378 -0.45899999 -0.046999998 16 0 0 0 0.0175
2.3759999 -0.46599999 -0.048 17 0 0 0 0.017510001
2.3759999 -0.47400001 -0.050000001 18 0 0 0 0.017519999
2.3710001 -0.48100001 -0.050999999 20 0 0 0 0.01753
2.3710001 -0.48899999 -0.052000001 24 0 0 0 0.01754
2.3699999 -0.49599999 -0.054000001 25 0 0 0 0.017550001
2.3670001 -0.50300002 -0.055 26 0 0 0 0.01756
2.372 -0.51200002 -0.056000002 23 0 0 0 0.01757
2.3740001 -0.51999998 -0.057999998 18 0 0 0 0.017580001
2.3759999 -0.52899998 -0.059 19 0 0 0 0.017589999
2.3800001 -0.537 -0.061000001 20 0 0 0 0.0176
2.375 -0.54400003 -0.061999999 22 0 0 0 0.01761
2.378 -0.55299997 -0.064000003 22 0 0 0 0.017619999
2.3759999 -0.56 -0.064999998 20 0 0 0 0.01763
2.3770001 -0.56800002 -0.067000002 20 0 0 0 0.01764
2.3729999 -0.574 -0.068000004 20 0 0 0 0.017650001
2.3759999 -0.583 -0.07 19 0 0 0 0.017659999
2.3800001 -0.59200001 -0.071000002 21 0 0 0 0.01767
2.3800001 -0.60000002 -0.072999999 21 0 0 0 0.017680001
2.3800001 -0.60699999 -0.074000001 22 0 0 0 0.017689999
2.3800001 -0.61500001 -0.075999998 24 0 0 0 0.0177
2.378 -0.62199998 -0.078000002 27 0 0 0 0.01771
2.381 -0.63099998 -0.079000004 25 0 0 0 0.017720001
2.382 -0.639 -0.081 23 0 0 0 0.017729999
2.3859999 -0.648 -0.082999997 24 0 0 0 0.01774
2.382 -0.65499997 -0.085000001 21 0 0 0 0.017750001
2.3800001 -0.662 -0.086000003 20 0 0 0 0.017759999
2.3840001 -0.671 -0.088 24 0 0 0 0.01777
2.385 -0.67900002 -0.090000004 28 0 0 0 0.01778
2.3870001 -0.68699998 -0.092 29 0 0 0 0.017790001
2.3889999 -0.69599998 -0.093999997 29 0 0 0 0.0178
2.3870001 -0.70300001 -0.096000001 28 0 0 0 0.01781
2.3859999 -0.71100003 -0.097000003 27 0 0 0 0.017820001
2.3859999 -0.71899998 -0.098999999 25 0 0 0 0.017829999
2.3840001 -0.72600001 -0.101 21 0 0 0 0.01784
2.3870001 -0.73500001 -0.103 22 0 0 0 0.01785
2.388 -0.74299997 -0.105 24 0 0 0 0.017859999
2.3889999 -0.75099999 -0.107 20 0 0 0 0.01787
2.385 -0.75800002 -0.109 21 0 0 0 0.01788
2.391 -0.76700002 -0.111 23 0 0 0 0.017890001
2.391 -0.77499998 -0.114 23 0 0 0 0.017899999
2.391 -0.78299999 -0.116 24 0 0 0 0.01791
2.388 -0.79000002 -0.118 28 0 0 0 0.01792
2.3940001 -0.80000001 -0.12 29 0 0 0 0.017929999
2.392 -0.80699998 -0.122 25 0 0 0 0.01794
2.3900001 -0.81400001 -0.124 23 0 0 0 0.01795
2.392 -0.82300001 -0.126 28 0 0 0 0.017960001
2.3940001 -0.83099997 -0.12899999 30 0 0 0 0.017969999
2.3959999 -0.83999997 -0.131 27 0 0 0 0.01798
2.3929999 -0.84600002 -0.133 28 0 0 0 0.017990001
2.395 -0.85500002 -0.13500001 26 0 0 0 0.017999999
2.391 -0.861 -0.138 27 0 0 0 0.01801
2.3889999 -0.86900002 -0.14 26 0 0 0 0.01802
2.3929999 -0.87800002 -0.14300001 28 0 0 0 0.018030001
2.3940001 -0.88599998 -0.145 28 0 0 0 0.01804
2.3959999 -0.89399999 -0.147 27 0 0 0 0.01805
2.3989999 -0.90399998 -0.15000001 26 0 0 0 0.018060001
2.4000001 -0.912 -0.153 23 0 0 0 0.018069999
2.3970001 -0.91799998 -0.155 21 0 0 0 0.01808
2.3959999 -0.926 -0.15700001 20 0 0 0 0.01809
2.405 -0.93699998 -0.161 19 0 0 0 0.018100001
2.4070001 -0.94599998 -0.163 19 0 0 0 0.01811
2.402 -0.95200002 -0.16599999 21 0 0 0 0.01812
2.382 -0.95099998 -0.167 39 0 0 0 0.018130001
2.4070001 -0.96899998 -0.171 48 0 0 0 0.018139999
2.346 -0.95200002 -0.17 150 0 0 0 0.01815
2.348 -0.95999998 -0.17200001 109 0 0 0 0.01816
2.155 -0.88800001 -0.161 27 0 0 0 0.018169999
0.99000001 -0.41100001 -0.075000003 0 0 0 0 0.01818
0.977 -0.40900001 -0.075000003 0 0 0 0 0.01819
0.98900002 -0.417 -0.077 0 0 0 0 0.018200001
0.98400003 -0.41800001 -0.078000002 0 0 0 0 0.018209999
0.98299998 -0.421 -0.079000004 0 0 0 0 0.01822
1.015 -0.43799999 -0.082999997 0 0 0 0 0.018230001
2.3770001 -1.033 -0.197 38 0 0 0 0.018239999
0 0 0 0 0 0 0 0.01825
2.3629999 -1.0420001 -0.20200001 150 0 0 0 0.01826
2.362 -1.049 -0.205 150 0 0 0 0.018270001
2.3670001 -1.059 -0.208 150 0 0 0 0.018279999
2.3559999 -1.061 -0.20999999 150 0 0 0 0.01829
2.313 -1.049 -0.20900001 150 0 0 0 0.018300001
1.148 -0.52399999 -0.105 14 0 0 0 0.018309999
1.15 -0.52899998 -0.107 3 0 0 0 0.01832
1.15 -0.53200001 -0.108 2 0 0 0 0.01833
1.151 -0.53600001 -0.11 1 0 0 0 0.018340001
1.154 -0.54100001 -0.112 1 0 0 0 0.01835
1.155 -0.54500002 -0.114 1 0 0 0 0.01836
1.155 -0.54900002 -0.115 1 0 0 0 0.018370001
1.164 -0.55599999 -0.118 1 0 0 0 0.018379999
1.163 -0.56 -0.119 1 0 0 0 0.01839
1.163 -0.56300002 -0.121 1 0 0 0 0.0184
1.165 -0.56699997 -0.123 1 0 0 0 0.018409999
1.163 -0.56999999 -0.124 1 0 0 0 0.01842
1.165 -0.57499999 -0.126 1 0 0 0 0.01843
1.1670001 -0.579 -0.12800001 2 0 0 0 0.018440001
1.165 -0.58099997 -0.12899999 2 0 0 0 0.018449999
1.166 -0.58600003 -0.131 1 0 0 0 0.01846
1.165 -0.58899999 -0.133 2 0 0 0 0.01847
1.166 -0.59200001 -0.13500001 2 0 0 0 0.018479999
1.1670001 -0.59600002 -0.13600001 1 0 0 0 0.01849
1.166 -0.59899998 -0.138 2 0 0 0 0.0185
1.169 -0.60399997 -0.14 2 0 0 0 0.018510001
1.166 -0.60600001 -0.142 2 0 0 0 0.018519999
1.1670001 -0.61000001 -0.14399999 2 0 0 0 0.01853
1.171 -0.61500001 -0.146 2 0 0 0 0.018540001
1.17 -0.61799997 -0.148 2 0 0 0 0.018549999
1.1670001 -0.62 -0.149 2 0 0 0 0.01856
1.169 -0.62400001 -0.15099999 2 0 0 0 0.01857
1.166 -0.62599999 -0.153 2 0 0 0 0.018580001
1.169 -0.63099998 -0.155 2 0 0 0 0.01859
1.166 -0.63200003 -0.156 2 0 0 0 0.0186
1.168 -0.63599998 -0.15899999 2 0 0 0 0.018610001
1.164 -0.63700002 -0.16 2 0 0 0 0.018619999
1.169 -0.64300001 -0.163 2 0 0 0 0.01863
1.163 -0.64300001 -0.164 2 0 0 0 0.01864
1.17 -0.64999998 -0.167 2 0 0 0 0.018650001
1.17 -0.653 -0.169 2 0 0 0 0.01866
1.1670001 -0.65399998 -0.17 2 0 0 0 0.01867
1.168 -0.65799999 -0.17200001 2 0 0 0 0.018680001
1.169 -0.66100001 -0.17399999 2 0 0 0 0.018689999
1.1670001 -0.66299999 -0.176 2 0 0 0 0.0187
1.1670001 -0.66600001 -0.178 2 0 0 0 0.01871
1.168 -0.66900003 -0.18000001 2 0 0 0 0.018719999
1.1670001 -0.671 -0.182 2 0 0 0 0.01873
1.17 -0.676 -0.185 2 0 0 0 0.01874
1.171 -0.68000001 -0.18700001 2 0 0 0 0.018750001
1.17 -0.68199998 -0.189 2 0 0 0 0.018759999
1.166 -0.68199998 -0.19 2 0 0 0 0.01877
1.169 -0.68699998 -0.193 3 0 0 0 0.018780001
1.171 -0.69 -0.19499999 2 0 0 0 0.018789999
1.171 -0.69300002 -0.197 3 0 0 0 0.0188
1.169 -0.69400001 -0.199 2 0 0 0 0.01881
1.169 -0.69700003 -0.20100001 2 0 0 0 0.018820001
1.171 -0.69999999 -0.20299999 2 0 0 0 0.018829999
1.171 -0.70300001 -0.206 2 0 0 0 0.01884
1.1670001 -0.70300001 -0.207 3 0 0 0 0.018850001
1.171 -0.708 -0.20999999 2 0 0 0 0.018859999
1.171 -0.71100003 -0.212 2 0 0 0 0.01887
1.166 -0.70899999 -0.213 2 0 0 0 0.01888
1.165 -0.71100003 -0.215 2 0 0 0 0.018890001
1.168 -0.71499997 -0.21799999 2 0 0 0 0.0189
1.169 -0.71799999 -0.22 2 0 0 0 0.01891
1.169 -0.72000003 -0.222 3 0 0 0 0.018920001
1.168 -0.722 -0.22400001 2 0 0 0 0.018929999
1.165 -0.722 -0.226 2 0 0 0 0.01894
1.164 -0.72299999 -0.227 2 0 0 0 0.01895
1.168 -0.72799999 -0.23 2 0 0 0 0.018959999
1.1619999 -0.72600001 -0.23100001 2 0 0 0 0.01897
1.1670001 -0.73100001 -0.234 2 0 0 0 0.01898
1.168 -0.73299998 -0.237 3 0 0 0 0.018990001
1.1670001 -0.73400003 -0.23899999 3 0 0 0 0.018999999
1.161 -0.73199999 -0.23899999 3 0 0 0 0.01901
1.166 -0.73699999 -0.243 2 0 0 0 0.01902
1.164 -0.73699999 -0.244 3 0 0 0 0.019029999
1.164 -0.73900002 -0.24600001 3 0 0 0 0.01904
1.1619999 -0.73900002 -0.248 3 0 0 0 0.01905
1.163 -0.74199998 -0.25 3 0 0 0 0.019060001
1.1619999 -0.74199998 -0.252 3 0 0 0 0.019069999
1.1619999 -0.74400002 -0.25400001 3 0 0 0 0.01908
1.165 -0.74699998 -0.257 3 0 0 0 0.019090001
1.1619999 -0.74599999 -0.25799999 3 0 0 0 0.019099999
1.1619999 -0.74699998 -0.25999999 3 0 0 0 0.01911
1.164 -0.75 -0.26300001 3 0 0 0 0.01912
1.158 -0.74699998 -0.264 4 0 0 0 0.019130001
1.16 -0.74900001 -0.266 4 0 0 0 0.01914
1.16 -0.75 -0.26800001 3 0 0 0 0.01915
1.159 -0.75099999 -0.27000001 3 0 0 0 0.019160001
1.16 -0.75199997 -0.27200001 3 0 0 0 0.019169999
1.1619999 -0.75400001 -0.27500001 3 0 0 0 0.01918
1.1619999 -0.755 -0.27700001 4 0 0 0 0.01919
1.1569999 -0.75199997 -0.27700001 3 0 0 0 0.019200001
1.159 -0.75400001 -0.28 3 0 0 0 0.01921
1.1569999 -0.75300002 -0.28099999 3 0 0 0 0.01922
1.16 -0.75599998 -0.28400001 4 0 0 0 0.019230001
1.16 -0.75599998 -0.285 4 0 0 0 0.019239999
1.159 -0.75599998 -0.287 4 0 0 0 0.01925
1.159 -0.75599998 -0.289 4 0 0 0 0.01926
1.159 -0.75599998 -0.29100001 4 0 0 0 0.019269999
1.16 -0.75700003 -0.29300001 3 0 0 0 0.01928
1.158 -0.75599998 -0.294 4 0 0 0 0.01929
1.158 -0.75599998 -0.296 4 0 0 0 0.019300001
1.1569999 -0.755 -0.29800001 4 0 0 0 0.019309999
1.1569999 -0.75599998 -0.29899999 4 0 0 0 0.01932
1.1569999 -0.755 -0.301 4 0 0 0 0.019330001
1.158 -0.75599998 -0.303 4 0 0 0 0.019339999
1.159 -0.75599998 -0.30500001 3 0 0 0 0.01935
1.158 -0.755 -0.30599999 3 0 0 0 0.01936
1.156 -0.75300002 -0.30700001 4 0 0 0 0.019370001
1.153 -0.75099999 -0.308 4 0 0 0 0.019379999
1.153 -0.75099999 -0.31 4 0 0 0 0.01939
1.155 -0.75199997 -0.31200001 4 0 0 0 0.019400001
1.153 -0.75 -0.31299999 4 0 0 0 0.019409999
1.153 -0.74900001 -0.31400001 4 0 0 0 0.01942
1.154 -0.74900001 -0.31600001 4 0 0 0 0.01943
1.152 -0.74699998 -0.317 4 0 0 0 0.019440001
1.152 -0.74599999 -0.31900001 4 0 0 0 0.01945
1.152 -0.745 -0.31999999 4 0 0 0 0.01946
1.153 -0.745 -0.322 4 0 0 0 0.019470001
1.153 -0.74400002 -0.32300001 4 0 0 0 0.019479999
1.154 -0.74299997 -0.32499999 4 0 0 0 0.01949
1.152 -0.741 -0.32499999 4 0 0 0 0.0195
1.153 -0.741 -0.32699999 5 0 0 0 0.019509999
1.151 -0.73799998 -0.32800001 5 0 0 0 0.01952
1.151 -0.73699999 -0.329 4 0 0 0 0.01953
1.145 -0.73199999 -0.32800001 4 0 0 0 0.019540001
1.15 -0.73299998 -0.331 4 0 0 0 0.019549999
1.145 -0.72899997 -0.331 6 0 0 0 0.01956
1.151 -0.73100001 -0.333 4 0 0 0 0.01957
1.148 -0.72799999 -0.333 5 0 0 0 0.019579999
1.151 -0.72799999 -0.336 4 0 0 0 0.01959
1.148 -0.72399998 -0.33500001 4 0 0 0 0.0196
1.1440001 -0.72000003 -0.33500001 5 0 0 0 0.019610001
1.143 -0.71799999 -0.336 5 0 0 0 0.019619999
1.148 -0.71899998 -0.338 5 0 0 0 0.01963
1.142 -0.71399999 -0.33700001 6 0 0 0 0.019640001
1.141 -0.71100003 -0.338 6 0 0 0 0.019649999
1.1440001 -0.71100003 -0.34 5 0 0 0 0.01966
1.142 -0.708 -0.34 6 0 0 0 0.01967
1.143 -0.70599997 -0.34099999 5 0 0 0 0.019680001
1.1440001 -0.70499998 -0.34200001 6 0 0 0 0.01969
1.1440001 -0.70300001 -0.34299999 5 0 0 0 0.0197
1.1440001 -0.70099998 -0.34299999 5 0 0 0 0.019710001
1.142 -0.69700003 -0.34299999 5 0 0 0 0.019719999
1.146 -0.69700003 -0.345 5 0 0 0 0.01973
1.142 -0.69300002 -0.34400001 5 0 0 0 0.01974
1.14 -0.68900001 -0.34400001 5 0 0 0 0.019750001
1.141 -0.68699998 -0.345 5 0 0 0 0.01976
1.141 -0.685 -0.345 6 0 0 0 0.01977
1.14 -0.68199998 -0.345 6 0 0 0 0.019780001
1.142 -0.68099999 -0.347 6 0 0 0 0.019789999
1.141 -0.67699999 -0.347 6 0 0 0 0.0198
1.1390001 -0.67299998 -0.34599999 6 0 0 0 0.01981
1.14 -0.671 -0.347 6 0 0 0 0.019819999
1.1390001 -0.66799998 -0.347 6 0 0 0 0.01983
1.142 -0.667 -0.34799999 6 0 0 0 0.01984
1.138 -0.662 -0.347 6 0 0 0 0.019850001
1.138 -0.65899998 -0.347 6 0 0 0 0.019859999
1.137 -0.65600002 -0.347 6 0 0 0 0.01987
1.14 -0.65499997 -0.34799999 5 0 0 0 0.019880001
1.133 -0.648 -0.34599999 5 0 0 0 0.019889999
1.137 -0.64700001 -0.347 5 0 0 0 0.0199
1.137 -0.64499998 -0.347 5 0 0 0 0.01991
1.136 -0.64099997 -0.347 5 0 0 0 0.019920001
1.138 -0.639 -0.347 5 0 0 0 0.019929999
1.137 -0.63599998 -0.347 5 0 0 0 0.01994
1.1339999 -0.63099998 -0.34599999 5 0 0 0 0.019950001
1.1339999 -0.62800002 -0.345 5 0 0 0 0.019959999
1.135 -0.62599999 -0.34599999 5 0 0 0 0.01997
1.135 -0.62199998 -0.345 5 0 0 0 0.01998
1.136 -0.62 -0.345 5 0 0 0 0.019990001
1.131 -0.61400002 -0.34400001 5 0 0 0 0.02
1.126 -0.60799998 -0.34200001 5 0 0 0 0.02001
1.131 -0.60799998 -0.34299999 5 0 0 0 0.020020001
1.1289999 -0.60399997 -0.34200001 5 0 0 0 0.020029999
1.126 -0.59899998 -0.34099999 4 0 0 0 0.02004
1.128 -0.59600002 -0.34099999 5 0 0 0 0.02005
1.128 -0.59299999 -0.34 5 0 0 0 0.020059999
1.125 -0.588 -0.33899999 5 0 0 0 0.02007
1.126 -0.58600003 -0.33899999 5 0 0 0 0.02008
1.13 -0.58399999 -0.33899999 4 0 0 0 0.020090001
1.126 -0.579 -0.338 5 0 0 0 0.020099999
1.124 -0.57499999 -0.336 5 0 0 0 0.02011
1.128 -0.57300001 -0.33700001 4 0 0 0 0.02012
1.1210001 -0.56599998 -0.33399999 4 0 0 0 0.020129999
1.123 -0.56400001 -0.33399999 3 0 0 0 0.02014
1.122 -0.56 -0.333 2 0 0 0 0.02015
1.117 -0.55400002 -0.331 3 0 0 0 0.020160001
1.118 -0.551 -0.33000001 4 0 0 0 0.020169999
1.113 -0.546 -0.32800001 5 0 0 0 0.02018
1.108 -0.54000002 -0.32600001 5 0 0 0 0.020190001
1.11 -0.537 -0.32600001 6 0 0 0 0.020199999
1.11 -0.53399998 -0.32499999 6 0 0 0 0.02021
1.112 -0.53200001 -0.32499999 6 0 0 0 0.02022
1.115 -0.52999997 -0.32499999 64 0 0 0 0.020230001
2.2969999 -1.085 -0.667 150 0 0 0 0.02024
2.3050001 -1.081 -0.66799998 150 0 0 0 0.02025
2.398 -1.118 -0.69300002 4 0 0 0 0.020260001
2.408 -1.115 -0.69400001 20 0 0 0 0.020269999
2.404 -1.105 -0.69 19 0 0 0 0.02028
2.4070001 -1.099 -0.68900001 24 0 0 0 0.02029
2.401 -1.089 -0.685 26 0 0 0 0.020300001
2.4030001 -1.0829999 -0.68300003 24 0 0 0 0.02031
2.4030001 -1.075 -0.68099999 21 0 0 0 0.02032
2.402 -1.067 -0.67799997 23 0 0 0 0.020330001
2.3989999 -1.058 -0.67500001 24 0 0 0 0.020339999
2.401 -1.052 -0.67299998 24 0 0 0 0.02035
2.4030001 -1.045 -0.671 25 0 0 0 0.02036
2.401 -1.0369999 -0.66799998 30 0 0 0 0.020369999
2.4000001 -1.029 -0.66500002 28 0 0 0 0.02038
2.401 -1.022 -0.66299999 24 0 0 0 0.02039
2.3989999 -1.013 -0.65899998 28 0 0 0 0.020400001
2.402 -1.007 -0.65700001 29 0 0 0 0.020409999
2.398 -0.99800003 -0.65399998 26 0 0 0 0.02042
2.398 -0.991 -0.65100002 26 0 0 0 0.02043
2.398 -0.98299998 -0.648 28 0 0 0 0.020439999
2.4000001 -0.97600001 -0.64600003 26 0 0 0 0.02045
2.398 -0.96799999 -0.64200002 28 0 0 0 0.02046
2.395 -0.95899999 -0.639 28 0 0 0 0.020470001
2.398 -0.95300001 -0.63599998 25 0 0 0 0.020479999
2.392 -0.94300002 -0.63200003 23 0 0 0 0.02049
2.3970001 -0.93800002 -0.63 19 0 0 0 0.020500001
2.3989999 -0.93099999 -0.62699997 18 0 0 0 0.020509999
2.3940001 -0.921 -0.62300003 20 0 0 0 0.02052
2.398 -0.91500002 -0.62099999 20 0 0 0 0.02053
2.3929999 -0.90600002 -0.616 23 0 0 0 0.020540001
2.3929999 -0.898 -0.61299998 25 0 0 0 0.02055
2.3959999 -0.89200002 -0.611 28 0 0 0 0.02056
2.3929999 -0.884 -0.60699999 26 0 0 0 0.020570001
2.3859999 -0.87400001 -0.602 24 0 0 0 0.020579999
2.3940001 -0.86900002 -0.60000002 23 0 0 0 0.02059
2.392 -0.861 -0.59600002 22 0 0 0 0.0206
2.392 -0.85399997 -0.59299999 21 0 0 0 0.020609999
2.3929999 -0.847 -0.58999997 20 0 0 0 0.02062
2.392 -0.83899999 -0.58600003 25 0 0 0 0.02063
2.3900001 -0.83099997 -0.58200002 26 0 0 0 0.020640001
2.3929999 -0.824 -0.579 25 0 0 0 0.020649999
2.392 -0.81699997 -0.57599998 27 0 0 0 0.02066
2.382 -0.80599999 -0.56999999 25 0 0 0 0.02067
2.3870001 -0.80000001 -0.56699997 22 0 0 0 0.020679999
2.3859999 -0.79299998 -0.56300002 20 0 0 0 0.02069
2.385 -0.78500003 -0.55900002 19 0 0 0 0.0207
2.3889999 -0.77899998 -0.55699998 18 0 0 0 0.020710001
2.388 -0.77200001 -0.55299997 16 0 0 0 0.020719999
2.3840001 -0.76300001 -0.54799998 14 0 0 0 0.02073
2.385 -0.75599998 -0.54500002 19 0 0 0 0.020740001
2.3840001 -0.74800003 -0.54100001 22 0 0 0 0.020749999
2.3870001 -0.74199998 -0.53799999 19 0 0 0 0.02076
2.3840001 -0.73400003 -0.53299999 17 0 0 0 0.02077
2.388 -0.72799999 -0.52999997 21 0 0 0 0.020780001
2.381 -0.71899998 -0.52499998 24 0 0 0 0.02079
2.378 -0.71100003 -0.51999998 22 0 0 0 0.0208
2.385 -0.70599997 -0.51800001 18 0 0 0 0.020810001
2.3859999 -0.699 -0.514 15 0 0 0 0.020819999
2.3970001 -0.69499999 -0.51200002 13 0 0 0 0.02083
2.392 -0.68599999 -0.50700003 15 0 0 0 0.02084
2.3900001 -0.67900002 -0.50300002 17 0 0 0 0.020850001
2.382 -0.66900003 -0.49700001 19 0 0 0 0.02086
2.3759999 -0.66100001 -0.49200001 20 0 0 0 0.02087
2.378 -0.65399998 -0.48899999 24 0 0 0 0.020880001
2.3759999 -0.64700001 -0.484 24 0 0 0 0.020889999
2.3789999 -0.63999999 -0.48100001 26 0 0 0 0.0209
2.3759999 -0.63300002 -0.47600001 22 0 0 0 0.02091
2.3740001 -0.625 -0.47099999 19 0 0 0 0.020919999
2.378 -0.61900002 -0.46799999 18 0 0 0 0.02093
2.381 -0.61299998 -0.465 16 0 0 0 0.02094
2.3740001 -0.60399997 -0.45899999 19 0 0 0 0.020950001
2.3740001 -0.59799999 -0.45500001 19 0 0 0 0.020959999
2.3699999 -0.58999997 -0.44999999 19 0 0 0 0.02097
2.3699999 -0.583 -0.44600001 20 0 0 0 0.02098
2.3740001 -0.57700002 -0.442 22 0 0 0 0.020989999
2.3740001 -0.56999999 -0.43799999 22 0 0 0 0.021
2.3710001 -0.56300002 -0.433 24 0 0 0 0.02101
2.372 -0.55599999 -0.42899999 24 0 0 0 0.021020001
2.3710001 -0.54900002 -0.42500001 21 0 0 0 0.021029999
2.3699999 -0.542 -0.41999999 18 0 0 0 0.02104
2.3740001 -0.53600001 -0.417 17 0 0 0 0.021050001
2.3710001 -0.52899998 -0.412 15 0 0 0 0.021059999
