# .PCD v0.7 - Point Cloud Data file format
VERSION 0.7
FIELDS x y z intensity normal_x normal_y normal_z curvature
SIZE 4 4 4 4 4 4 4 4
TYPE F F F F F F F F
COUNT 1 1 1 1 1 1 1 1
WIDTH 1004
HEIGHT 1
VIEWPOINT 0 0 0 1 0 0 0
POINTS 1004
DATA ascii
1.178 -0.71200001 -0.162 4 0 0 0 0.05381
1.1799999 -0.70999998 -0.163 3 0 0 0 0.053819999
1.179 -0.70599997 -0.164 4 0 0 0 0.053830002
1.178 -0.70200002 -0.164 4 0 0 0 0.05384
1.174 -0.69599998 -0.164 4 0 0 0 0.053849999
1.175 -0.69300002 -0.16500001 3 0 0 0 0.053860001
1.177 -0.69099998 -0.16500001 4 0 0 0 0.05387
1.178 -0.68800002 -0.16599999 4 0 0 0 0.053879999
1.1720001 -0.68199998 -0.16599999 3 0 0 0 0.053890001
1.1720001 -0.67799997 -0.16599999 3 0 0 0 0.0539
1.174 -0.67500001 -0.167 3 0 0 0 0.053909998
1.173 -0.67199999 -0.167 3 0 0 0 0.053920001
1.171 -0.667 -0.167 3 0 0 0 0.053929999
1.173 -0.66399997 -0.167 3 0 0 0 0.053939998
1.173 -0.66100001 -0.168 4 0 0 0 0.053950001
1.171 -0.65600002 -0.168 4 0 0 0 0.053959999
1.17 -0.65200001 -0.168 4 0 0 0 0.053970002
1.173 -0.64999998 -0.168 4 0 0 0 0.05398
1.1670001 -0.64300001 -0.168 3 0 0 0 0.053989999
1.169 -0.63999999 -0.168 3 0 0 0 0.054000001
1.1670001 -0.63599998 -0.168 3 0 0 0 0.05401
1.166 -0.63200003 -0.168 3 0 0 0 0.054019999
1.165 -0.62699997 -0.168 3 0 0 0 0.054030001
1.1670001 -0.625 -0.169 3 0 0 0 0.05404
1.164 -0.61900002 -0.168 3 0 0 0 0.054049999
1.163 -0.61500001 -0.168 4 0 0 0 0.054060001
1.163 -0.611 -0.168 3 0 0 0 0.05407
1.1619999 -0.60699999 -0.168 3 0 0 0 0.054079998
1.164 -0.60399997 -0.168 3 0 0 0 0.054090001
1.163 -0.60000002 -0.168 3 0 0 0 0.054099999
1.165 -0.597 -0.169 3 0 0 0 0.054110002
1.161 -0.59100002 -0.168 3 0 0 0 0.05412
1.1569999 -0.58600003 -0.167 3 0 0 0 0.054129999
1.156 -0.58099997 -0.167 3 0 0 0 0.054140002
1.154 -0.57700002 -0.167 3 0 0 0 0.05415
1.155 -0.57300001 -0.167 3 0 0 0 0.054159999
1.154 -0.56900001 -0.16599999 3 0 0 0 0.054170001
1.154 -0.565 -0.16599999 3 0 0 0 0.05418
1.15 -0.55900002 -0.16500001 2 0 0 0 0.054189999
1.149 -0.55500001 -0.16500001 1 0 0 0 0.054200001
1.1440001 -0.54900002 -0.164 1 0 0 0 0.05421
1.143 -0.54400003 -0.164 2 0 0 0 0.054219998
1.138 -0.53799999 -0.163 4 0 0 0 0.054230001
1.138 -0.53399998 -0.162 5 0 0 0 0.05424
1.142 -0.53299999 -0.163 5 0 0 0 0.054249998
1.149 -0.53200001 -0.163 144 0 0 0 0.054260001
2.392 -1.1 -0.34 150 0 0 0 0.054269999
2.3959999 -1.094 -0.33899999 33 0 0 0 0.054280002
2.4100001 -1.092 -0.34099999 15 0 0 0 0.05429
2.411 -1.084 -0.34 21 0 0 0 0.054299999
2.408 -1.075 -0.33899999 20 0 0 0 0.054310001
2.408 -1.067 -0.338 24 0 0 0 0.05432
2.408 -1.059 -0.33700001 28 0 0 0 0.054329999
2.4070001 -1.05 -0.336 26 0 0 0 0.054340001
2.408 -1.043 -0.33500001 23 0 0 0 0.05435
2.4059999 -1.034 -0.33399999 24 0 0 0 0.054359999
2.405 -1.025 -0.333 20 0 0 0 0.054370001
2.405 -1.017 -0.331 24 0 0 0 0.05438
2.401 -1.007 -0.33000001 24 0 0 0 0.054389998
2.4030001 -1 -0.329 26 0 0 0 0.054400001
2.401 -0.991 -0.32800001 27 0 0 0 0.054409999
2.404 -0.98400003 -0.32699999 25 0 0 0 0.054420002
2.4000001 -0.97399998 -0.32499999 25 0 0 0 0.05443
2.402 -0.96700001 -0.324 22 0 0 0 0.054439999
2.398 -0.95700002 -0.322 20 0 0 0 0.054450002
2.3959999 -0.949 -0.32100001 19 0 0 0 0.05446
2.4000001 -0.94199997 -0.31999999 19 0 0 0 0.054469999
2.3970001 -0.93199998 -0.31799999 21 0 0 0 0.054480001
2.398 -0.92500001 -0.317 22 0 0 0 0.05449
2.3970001 -0.91600001 -0.315 25 0 0 0 0.054499999
2.395 -0.90799999 -0.31299999 24 0 0 0 0.054510001
2.4000001 -0.90100002 -0.31299999 22 0 0 0 0.05452
2.3959999 -0.89200002 -0.31099999 23 0 0 0 0.054529998
2.398 -0.88499999 -0.30899999 23 0 0 0 0.054540001
2.3989999 -0.87699997 -0.308 20 0 0 0 0.05455
2.3970001 -0.86799997 -0.30599999 19 0 0 0 0.054559998
2.395 -0.85900003 -0.30399999 18 0 0 0 0.054570001
2.3940001 -0.85100001 -0.30199999 20 0 0 0 0.054579999
2.3929999 -0.84299999 -0.301 25 0 0 0 0.054590002
2.388 -0.833 -0.29800001 27 0 0 0 0.0546
2.3889999 -0.82599998 -0.29699999 25 0 0 0 0.054609999
2.3929999 -0.81900001 -0.29499999 24 0 0 0 0.054620001
2.391 -0.81 -0.29300001 23 0 0 0 0.05463
2.385 -0.80000001 -0.29100001 26 0 0 0 0.054639999
2.3859999 -0.79299998 -0.289 23 0 0 0 0.054650001
2.3889999 -0.78600001 -0.28799999 24 0 0 0 0.05466
2.3900001 -0.778 -0.28600001 20 0 0 0 0.054669999
2.392 -0.77100003 -0.28400001 16 0 0 0 0.054680001
2.3859999 -0.76099998 -0.28200001 17 0 0 0 0.05469
2.388 -0.75400001 -0.28 17 0 0 0 0.054699998
2.3829999 -0.745 -0.278 17 0 0 0 0.054710001
2.3900001 -0.73900002 -0.27599999 20 0 0 0 0.054719999
2.381 -0.72799999 -0.273 22 0 0 0 0.054730002
2.382 -0.72000003 -0.27200001 22 0 0 0 0.054740001
2.3840001 -0.713 -0.27000001 20 0 0 0 0.054749999
2.388 -0.70700002 -0.26800001 19 0 0 0 0.054760002
2.385 -0.69800001 -0.266 21 0 0 0 0.05477
2.3840001 -0.69 -0.264 23 0 0 0 0.054779999
2.3840001 -0.68199998 -0.26199999 25 0 0 0 0.054790001
2.381 -0.67400002 -0.259 24 0 0 0 0.0548
2.3800001 -0.66500002 -0.257 22 0 0 0 0.054809999
2.3800001 -0.65799999 -0.255 22 0 0 0 0.054820001
2.3829999 -0.65100002 -0.25299999 23 0 0 0 0.05483
2.382 -0.64300001 -0.25099999 23 0 0 0 0.054839998
2.381 -0.63499999 -0.248 21 0 0 0 0.054850001
2.382 -0.62699997 -0.24600001 22 0 0 0 0.05486
2.3789999 -0.61900002 -0.244 19 0 0 0 0.054869998
2.3770001 -0.611 -0.241 16 0 0 0 0.054880001
2.3859999 -0.60500002 -0.23999999 17 0 0 0 0.054889999
2.378 -0.59600002 -0.237 22 0 0 0 0.054900002
2.378 -0.588 -0.234 22 0 0 0 0.05491
2.3759999 -0.57999998 -0.23199999 22 0 0 0 0.054919999
2.3759999 -0.57200003 -0.229 28 0 0 0 0.054930001
2.3759999 -0.56400001 -0.227 29 0 0 0 0.05494
2.3770001 -0.55699998 -0.22499999 26 0 0 0 0.054949999
2.375 -0.54900002 -0.222 24 0 0 0 0.054960001
2.3800001 -0.54299998 -0.22 22 0 0 0 0.05497
2.3789999 -0.53500003 -0.21799999 18 0 0 0 0.054979999
2.3759999 -0.52700001 -0.215 17 0 0 0 0.054990001
2.3699999 -0.51800001 -0.212 19 0 0 0 0.055
2.375 -0.51099998 -0.20999999 17 0 0 0 0.055009998
2.3740001 -0.50400001 -0.207 18 0 0 0 0.055020001
2.375 -0.49700001 -0.205 23 0 0 0 0.055029999
2.375 -0.48899999 -0.20299999 23 0 0 0 0.055039998
2.3800001 -0.48199999 -0.2 21 0 0 0 0.055050001
2.3859999 -0.47600001 -0.198 20 0 0 0 0.055059999
2.3870001 -0.46900001 -0.19599999 18 0 0 0 0.055070002
2.385 -0.461 -0.193 15 0 0 0 0.05508
2.385 -0.454 -0.19 15 0 0 0 0.055089999
2.3789999 -0.44499999 -0.18700001 16 0 0 0 0.055100001
2.3759999 -0.43700001 -0.184 19 0 0 0 0.05511
2.3670001 -0.428 -0.18099999 23 0 0 0 0.055119999
2.369 -0.421 -0.17900001 22 0 0 0 0.055130001
2.365 -0.41299999 -0.176 21 0 0 0 0.05514
2.3670001 -0.40599999 -0.17299999 22 0 0 0 0.055149999
2.3670001 -0.39899999 -0.171 23 0 0 0 0.055160001
2.365 -0.391 -0.168 23 0 0 0 0.05517
2.3699999 -0.384 -0.16500001 23 0 0 0 0.055179998
2.3659999 -0.37599999 -0.162 19 0 0 0 0.055190001
2.3670001 -0.36899999 -0.16 19 0 0 0 0.055199999
2.365 -0.36199999 -0.15700001 18 0 0 0 0.055210002
2.3640001 -0.354 -0.154 15 0 0 0 0.05522
2.362 -0.347 -0.15099999 16 0 0 0 0.055229999
2.3610001 -0.33899999 -0.148 16 0 0 0 0.055240002
2.3610001 -0.33199999 -0.145 18 0 0 0 0.05525
2.3659999 -0.32499999 -0.14300001 19 0 0 0 0.055259999
2.401 -0.32300001 -0.142 17 0 0 0 0.055270001
2.437 -0.31999999 -0.141 20 0 0 0 0.05528
2.497 -0.32100001 -0.142 25 0 0 0 0.055289999
2.5369999 -0.31799999 -0.141 22 0 0 0 0.055300001
2.573 -0.315 -0.14 20 0 0 0 0.05531
2.904 -0.34599999 -0.154 150 0 0 0 0.055319998
3.207 -0.373 -0.167 150 0 0 0 0.055330001
3.207 -0.36300001 -0.163 150 0 0 0 0.055339999
3.207 -0.35299999 -0.15899999 150 0 0 0 0.055349998
3.207 -0.34400001 -0.155 150 0 0 0 0.055360001
3.2090001 -0.33399999 -0.15099999 150 0 0 0 0.055369999
3.2119999 -0.32499999 -0.147 150 0 0 0 0.055380002
3.237 -0.31799999 -0.14399999 151 0 0 0 0.05539
3.2390001 -0.308 -0.14 151 0 0 0 0.055399999
3.2349999 -0.29800001 -0.13600001 151 0 0 0 0.055410001
3.2390001 -0.289 -0.132 151 0 0 0 0.05542
3.234 -0.27900001 -0.12800001 151 0 0 0 0.055429999
3.2349999 -0.26899999 -0.124 151 0 0 0 0.055440001
3.2609999 -0.26100001 -0.12 150 0 0 0 0.05545
3.346 -0.25799999 -0.119 151 0 0 0 0.055459999
3.345 -0.248 -0.115 152 0 0 0 0.055470001
3.3440001 -0.23800001 -0.11 152 0 0 0 0.05548
3.3440001 -0.228 -0.106 151 0 0 0 0.055489998
3.349 -0.219 -0.102 151 0 0 0 0.055500001
3.3740001 -0.20999999 -0.097999997 151 0 0 0 0.055509999
3.375 -0.2 -0.093999997 151 0 0 0 0.055520002
3.3710001 -0.19 -0.089000002 151 0 0 0 0.05553
3.3989999 -0.18099999 -0.085000001 150 0 0 0 0.055539999
3.4070001 -0.17200001 -0.081 154 0 0 0 0.055550002
3.4360001 -0.163 -0.077 150 0 0 0 0.05556
3.4330001 -0.153 -0.071999997 150 0 0 0 0.055569999
3.4349999 -0.14300001 -0.068000004 150 0 0 0 0.055580001
3.434 -0.133 -0.063000001 150 0 0 0 0.05559
3.4300001 -0.122 -0.057999998 150 0 0 0 0.055599999
3.4330001 -0.112 -0.054000001 150 0 0 0 0.055610001
3.431 -0.102 -0.048999999 150 0 0 0 0.05562
3.431 -0.092 -0.044 150 0 0 0 0.055629998
3.428 -0.082000002 -0.039999999 150 0 0 0 0.055640001
3.4289999 -0.071999997 -0.035 150 0 0 0 0.05565
3.424 -0.061999999 -0.029999999 150 0 0 0 0.055659998
3.4219999 -0.052000001 -0.025 150 0 0 0 0.055670001
3.424 -0.041999999 -0.021 150 0 0 0 0.055679999
3.4230001 -0.032000002 -0.016000001 151 0 0 0 0.055690002
3.424 -0.022 -0.011 150 0 0 0 0.0557
3.424 -0.012 -0.0060000001 150 0 0 0 0.055709999
3.418 -0.0020000001 -0.001 151 0 0 0 0.055720001
3.421 0.0070000002 0.003 151 0 0 0 0.05573
3.418 0.017000001 0.0070000002 151 0 0 0 0.055739999
3.418 0.027000001 0.012 151 0 0 0 0.055750001
3.4200001 0.037 0.017000001 152 0 0 0 0.05576
3.421 0.046999998 0.022 152 0 0 0 0.055769999
3.4230001 0.056000002 0.027000001 152 0 0 0 0.055780001
3.418 0.066 0.032000002 152 0 0 0 0.05579
3.4119999 0.075999998 0.037 153 0 0 0 0.055799998
3.4059999 0.086000003 0.041999999 153 0 0 0 0.055810001
3.411 0.096000001 0.046999998 153 0 0 0 0.055819999
3.402 0.105 0.052000001 154 0 0 0 0.055830002
3.3970001 0.115 0.057 154 0 0 0 0.055840001
3.3970001 0.125 0.061999999 154 0 0 0 0.055849999
3.3959999 0.134 0.067000002 154 0 0 0 0.055860002
3.388 0.14399999 0.071999997 154 0 0 0 0.05587
3.3870001 0.154 0.077 154 0 0 0 0.055879999
3.3840001 0.163 0.082000002 154 0 0 0 0.055890001
3.3859999 0.17299999 0.086999997 154 0 0 0 0.0559
3.3929999 0.183 0.092 154 0 0 0 0.055909999
3.382 0.192 0.097000003 154 0 0 0 0.055920001
3.3840001 0.20200001 0.102 154 0 0 0 0.05593
3.3800001 0.212 0.107 154 0 0 0 0.055939998
3.382 0.221 0.113 154 0 0 0 0.055950001
3.3900001 0.23100001 0.118 154 0 0 0 0.05596
3.392 0.241 0.123 154 0 0 0 0.055969998
3.3929999 0.25099999 0.12899999 154 0 0 0 0.055980001
3.392 0.26100001 0.134 154 0 0 0 0.055989999
3.3989999 0.271 0.14 153 0 0 0 0.056000002
3.401 0.28099999 0.145 153 0 0 0 0.05601
3.4030001 0.29100001 0.15099999 153 0 0 0 0.056019999
3.401 0.30000001 0.156 153 0 0 0 0.056030001
3.404 0.31 0.161 152 0 0 0 0.05604
3.3970001 0.31900001 0.16599999 152 0 0 0 0.056049999
3.398 0.329 0.17200001 151 0 0 0 0.056060001
3.3989999 0.33899999 0.177 151 0 0 0 0.05607
3.3989999 0.34799999 0.183 152 0 0 0 0.056079999
3.3989999 0.35800001 0.18799999 152 0 0 0 0.056090001
3.3940001 0.36700001 0.19400001 151 0 0 0 0.0561
3.392 0.377 0.199 151 0 0 0 0.056109998
3.391 0.38600001 0.205 151 0 0 0 0.056120001
3.398 0.396 0.20999999 151 0 0 0 0.056129999
3.3959999 0.40599999 0.21600001 150 0 0 0 0.056139998
3.3889999 0.41499999 0.221 150 0 0 0 0.056150001
3.3699999 0.42199999 0.22499999 52 0 0 0 0.056159999
3.3429999 0.428 0.229 150 0 0 0 0.056170002
3.3640001 0.44 0.236 133 0 0 0 0.05618
3.385 0.45199999 0.243 150 0 0 0 0.056189999
3.3970001 0.46399999 0.25 150 0 0 0 0.056200001
3.3929999 0.47299999 0.25600001 151 0 0 0 0.05621
3.3870001 0.48100001 0.26100001 151 0 0 0 0.056219999
3.392 0.491 0.26699999 150 0 0 0 0.056230001
3.3870001 0.5 0.27200001 151 0 0 0 0.05624
3.3889999 0.50999999 0.278 151 0 0 0 0.056249999
3.385 0.51899999 0.28400001 151 0 0 0 0.056260001
3.3269999 0.51899999 0.285 150 0 0 0 0.05627
3.325 0.52899998 0.28999999 151 0 0 0 0.056279998
3.3199999 0.537 0.296 151 0 0 0 0.056290001
3.2980001 0.54299998 0.29899999 150 0 0 0 0.056299999
3.2909999 0.551 0.30500001 151 0 0 0 0.056310002
3.2880001 0.55900002 0.31 150 0 0 0 0.05632
3.2869999 0.56800002 0.31600001 151 0 0 0 0.056329999
3.289 0.57800001 0.322 151 0 0 0 0.056340002
3.2820001 0.58600003 0.32699999 150 0 0 0 0.05635
3.2639999 0.59200001 0.331 28 0 0 0 0.056359999
3.2149999 0.59200001 0.33199999 26 0 0 0 0.056370001
3.177 0.59399998 0.33399999 27 0 0 0 0.05638
3.095 0.58700001 0.331 27 0 0 0 0.056389999
3.0179999 0.58099997 0.32800001 25 0 0 0 0.056400001
2.9419999 0.574 0.32499999 25 0 0 0 0.05641
2.8670001 0.56800002 0.322 24 0 0 0 0.056419998
2.803 0.56300002 0.31999999 24 0 0 0 0.056430001
2.7390001 0.55699998 0.31799999 23 0 0 0 0.056439999
2.6919999 0.55500001 0.317 24 0 0 0 0.056449998
2.6389999 0.55199999 0.31600001 24 0 0 0 0.056460001
2.576 0.546 0.31299999 22 0 0 0 0.056469999
2.5120001 0.53899997 0.31 19 0 0 0 0.056480002
2.4519999 0.53299999 0.308 17 0 0 0 0.05649
2.4100001 0.52999997 0.30700001 17 0 0 0 0.056499999
2.3629999 0.52700001 0.30500001 17 0 0 0 0.056510001
2.2920001 0.51700002 0.30000001 26 0 0 0 0.05652
2.2650001 0.51700002 0.301 150 0 0 0 0.056529999
2.2639999 0.523 0.30500001 151 0 0 0 0.056540001
2.256 0.52700001 0.30899999 151 0 0 0 0.05655
2.26 0.53500003 0.31400001 151 0 0 0 0.056559999
2.2449999 0.537 0.31600001 150 0 0 0 0.056570001
2.2320001 0.54000002 0.31900001 150 0 0 0 0.05658
2.2309999 0.546 0.32300001 151 0 0 0 0.056589998
2.2290001 0.55199999 0.32699999 151 0 0 0 0.056600001
2.227 0.55699998 0.331 151 0 0 0 0.056609999
2.227 0.56300002 0.336 151 0 0 0 0.056620002
2.2290001 0.56999999 0.34 151 0 0 0 0.05663
2.227 0.57499999 0.345 151 0 0 0 0.056639999
2.2279999 0.58200002 0.34900001 151 0 0 0 0.056650002
2.224 0.58700001 0.35299999 151 0 0 0 0.05666
2.2219999 0.59200001 0.35699999 151 0 0 0 0.056669999
2.2290001 0.60000002 0.36300001 151 0 0 0 0.056680001
2.2320001 0.60699999 0.368 151 0 0 0 0.05669
2.237 0.61400002 0.37400001 151 0 0 0 0.056699999
2.2279999 0.61799997 0.377 151 0 0 0 0.056710001
2.2379999 0.62599999 0.38299999 151 0 0 0 0.05672
2.233 0.63099998 0.38699999 151 0 0 0 0.056729998
2.234 0.63700002 0.39199999 151 0 0 0 0.056740001
2.247 0.64700001 0.39899999 150 0 0 0 0.05675
2.3180001 0.67400002 0.41600001 150 0 0 0 0.056759998
2.5239999 0.74000001 0.45899999 150 0 0 0 0.056770001
2.552 0.755 0.46900001 151 0 0 0 0.056779999
2.6270001 0.78399998 0.48800001 152 0 0 0 0.056790002
2.704 0.815 0.509 152 0 0 0 0.0568
3.9719999 1.207 0.75599998 151 0 0 0 0.056809999
4.0110002 1.229 0.77200001 58 0 0 0 0.056820001
3.9949999 1.235 0.778 32 0 0 0 0.05683
3.9879999 1.243 0.78500003 8 0 0 0 0.056839999
0 0 0 0 0 0 0 0.056850001
1.479 0.46900001 0.29699999 7 0 0 0 0.05686
1.4680001 0.46900001 0.29800001 5 0 0 0 0.056869999
1.451 0.46700001 0.29800001 6 0 0 0 0.056880001
1.4400001 0.46799999 0.29899999 6 0 0 0 0.05689
1.424 0.46599999 0.29899999 6 0 0 0 0.056899998
1.411 0.465 0.29899999 6 0 0 0 0.056910001
1.398 0.465 0.30000001 3 0 0 0 0.056919999
1.387 0.465 0.301 4 0 0 0 0.056930002
1.3710001 0.463 0.30000001 2 0 0 0 0.056940001
1.354 0.46000001 0.30000001 2 0 0 0 0.056949999
1.346 0.461 0.301 3 0 0 0 0.056960002
1.3279999 0.458 0.30000001 9 0 0 0 0.05697
1.3099999 0.45500001 0.29899999 33 0 0 0 0.056979999
1.298 0.454 0.29899999 92 0 0 0 0.056990001
1.294 0.456 0.301 150 0 0 0 0.057
1.291 0.458 0.30399999 150 0 0 0 0.057009999
1.2920001 0.46200001 0.30700001 150 0 0 0 0.057020001
1.291 0.465 0.31 150 0 0 0 0.05703
1.289 0.46700001 0.31200001 150 0 0 0 0.057039998
1.291 0.47099999 0.31600001 150 0 0 0 0.057050001
1.294 0.47499999 0.31999999 150 0 0 0 0.05706
1.295 0.479 0.32300001 150 0 0 0 0.057069998
1.294 0.48199999 0.32600001 150 0 0 0 0.057080001
1.2920001 0.484 0.32800001 150 0 0 0 0.057089999
1.29 0.48699999 0.331 150 0 0 0 0.057100002
1.291 0.49000001 0.33399999 150 0 0 0 0.05711
1.289 0.49200001 0.33700001 150 0 0 0 0.057119999
1.291 0.49599999 0.34099999 150 0 0 0 0.057130001
1.2920001 0.49900001 0.34400001 135 0 0 0 0.05714
1.295 0.50400001 0.34799999 65 0 0 0 0.057149999
1.295 0.50700003 0.35100001 18 0 0 0 0.057160001
1.274 0.50199997 0.34900001 9 0 0 0 0.05717
1.2589999 0.498 0.34799999 9 0 0 0 0.057179999
1.25 0.49700001 0.34799999 0 0 0 0 0.057190001
1.229 0.49200001 0.345 0 0 0 0 0.0572
3.3529999 1.351 0.95099998 3 0 0 0 0.057209998
3.3299999 1.349 0.95300001 5 0 0 0 0.057220001
3.3299999 1.3559999 0.96100003 5 0 0 0 0.057229999
3.3510001 1.372 0.97600001 4 0 0 0 0.057240002
3.326 1.369 0.97600001 3 0 0 0 0.057250001
3.3169999 1.373 0.98199999 3 0 0 0 0.057259999
3.2939999 1.37 0.98400003 2 0 0 0 0.057270002
3.2850001 1.373 0.98900002 3 0 0 0 0.05728
3.2809999 1.3789999 0.99599999 3 0 0 0 0.057289999
3.2809999 1.386 1.0039999 4 0 0 0 0.057300001
3.2839999 1.3940001 1.0140001 4 0 0 0 0.05731
3.267 1.393 1.017 3 0 0 0 0.057319999
3.263 1.398 1.024 3 0 0 0 0.057330001
3.257 1.403 1.03 3 0 0 0 0.05734
3.247 1.405 1.035 3 0 0 0 0.057349999
3.2509999 1.413 1.045 3 0 0 0 0.057360001
3.243 1.416 1.051 3 0 0 0 0.05737
3.2490001 1.425 1.061 4 0 0 0 0.057379998
3.253 1.433 1.0700001 4 0 0 0 0.057390001
3.243 1.4349999 1.075 3 0 0 0 0.057399999
3.2420001 1.441 1.0829999 3 0 0 0 0.057410002
3.2449999 1.448 1.0930001 3 0 0 0 0.05742
3.2190001 1.442 1.092 2 0 0 0 0.057429999
3.223 1.45 1.102 1 0 0 0 0.057440002
3.188 1.4400001 1.098 1 0 0 0 0.05745
1.046 0.47400001 0.36300001 0 0 0 0 0.057459999
3.1440001 1.431 1.099 0 0 0 0 0.057470001
3.1270001 1.429 1.101 1 0 0 0 0.05748
3.1559999 1.448 1.119 1 0 0 0 0.057489999
3.1429999 1.447 1.123 2 0 0 0 0.057500001
3.1270001 1.4450001 1.125 3 0 0 0 0.05751
3.118 1.446 1.13 3 0 0 0 0.057519998
1.0089999 0.46900001 0.368 0 0 0 0 0.057530001
1.002 0.46799999 0.368 0 0 0 0 0.057539999
0.995 0.46599999 0.368 0 0 0 0 0.057549998
1.008 0.47400001 0.375 0 0 0 0 0.057560001
0.99299997 0.46799999 0.37200001 0 0 0 0 0.057569999
0.99199998 0.46900001 0.37400001 0 0 0 0 0.057580002
0.986 0.46799999 0.375 0 0 0 0 0.05759
0.97899997 0.46599999 0.37400001 0 0 0 0 0.057599999
0.98000002 0.46700001 0.377 0 0 0 0 0.057610001
0.977 0.46700001 0.37799999 0 0 0 0 0.05762
0.96700001 0.46399999 0.377 0 0 0 0 0.057629999
0.96899998 0.46599999 0.38 0 0 0 0 0.057640001
0.96899998 0.46700001 0.38299999 0 0 0 0 0.05765
0.96200001 0.465 0.382 0 0 0 0 0.057659999
0.96399999 0.46700001 0.38499999 0 0 0 0 0.057670001
0.95499998 0.46399999 0.384 0 0 0 0 0.05768
0.95700002 0.46599999 0.38800001 0 0 0 0 0.057689998
0.95499998 0.46599999 0.389 0 0 0 0 0.057700001
0.95200002 0.46599999 0.38999999 0 0 0 0 0.057709999
0.95099998 0.46599999 0.39199999 0 0 0 0 0.057720002
0.94999999 0.46700001 0.39399999 0 0 0 0 0.05773
0.94499999 0.465 0.39399999 0 0 0 0 0.057739999
0.94499999 0.46599999 0.396 0 0 0 0 0.057750002
0.94099998 0.465 0.39700001 0 0 0 0 0.05776
0.93699998 0.46399999 0.39700001 0 0 0 0 0.057769999
0.93199998 0.46200001 0.39700001 0 0 0 0 0.057780001
0.93400002 0.46399999 0.40000001 0 0 0 0 0.05779
0.93300003 0.46399999 0.40200001 0 0 0 0 0.057799999
0.93199998 0.46399999 0.40400001 0 0 0 0 0.057810001
0.92799997 0.463 0.40400001 0 0 0 0 0.05782
0.92900002 0.46399999 0.40599999 0 0 0 0 0.057829998
0.92199999 0.461 0.40599999 0 0 0 0 0.057840001
0.92199999 0.461 0.40700001 0 0 0 0 0.05785
0.92400002 0.463 0.41 0 0 0 0 0.057859998
0.91900003 0.461 0.41 0 0 0 0 0.057870001
0.917 0.46000001 0.41100001 0 0 0 0 0.057879999
0.92000002 0.46200001 0.41499999 0 0 0 0 0.057890002
0.921 0.463 0.417 0 0 0 0 0.0579
0.917 0.461 0.417 0 0 0 0 0.057909999
0.917 0.461 0.419 0 0 0 0 0.057920001
0.91600001 0.461 0.41999999 0 0 0 0 0.05793
0.92799997 0.46700001 0.42699999 0 0 0 0 0.057939999
0.93000001 0.46799999 0.43000001 0 0 0 0 0.057950001
0.926 0.46700001 0.43099999 0 0 0 0 0.05796
0.926 0.46700001 0.43200001 0 0 0 0 0.057969999
0.92500001 0.46599999 0.433 0 0 0 0 0.057980001
0.92500001 0.46599999 0.435 0 0 0 0 0.05799
0.92400002 0.46599999 0.43599999 0 0 0 0 0.057999998
0.92900002 0.46799999 0.44 0 0 0 0 0.058010001
0.92900002 0.46799999 0.442 0 0 0 0 0.058019999
0.93000001 0.46799999 0.44400001 0 0 0 0 0.058030002
0.93199998 0.46900001 0.447 0 0 0 0 0.05804
0.92900002 0.46700001 0.447 0 0 0 0 0.058049999
0.94199997 0.47400001 0.45500001 0 0 0 0 0.058060002
0.93699998 0.47099999 0.45300001 0 0 0 0 0.05807
0.935 0.46900001 0.454 6 0 0 0 0.058079999
0.93400002 0.46799999 0.45500001 6 0 0 0 0.058090001
0.93199998 0.46700001 0.45500001 7 0 0 0 0.0581
0.93000001 0.465 0.456 9 0 0 0 0.058109999
0.935 0.46799999 0.46000001 9 0 0 0 0.058120001
0.93199998 0.46599999 0.46000001 10 0 0 0 0.05813
0.93000001 0.46399999 0.46000001 9 0 0 0 0.058139998
0.93199998 0.46399999 0.46200001 7 0 0 0 0.058150001
0.93599999 0.46599999 0.465 6 0 0 0 0.05816
0.93800002 0.46599999 0.46700001 6 0 0 0 0.058169998
0.94199997 0.46700001 0.47099999 5 0 0 0 0.058180001
0.93900001 0.465 0.47 5 0 0 0 0.058189999
0.94599998 0.46799999 0.47499999 0 0 0 0 0.058200002
0.94300002 0.465 0.47400001 0 0 0 0 0.05821
0.94800001 0.46700001 0.47799999 0 0 0 0 0.058219999
0.96600002 0.47499999 0.48800001 0 0 0 0 0.058230001
1.034 0.50700003 0.523 0 0 0 0 0.05824
1.136 0.55599999 0.57599998 62 0 0 0 0.058249999
1.166 0.56900001 0.59200001 101 0 0 0 0.058260001
1.184 0.57700002 0.602 127 0 0 0 0.05827
1.205 0.58499998 0.61400002 150 0 0 0 0.058279999
1.22 0.59100002 0.62199998 150 0 0 0 0.058290001
1.243 0.60100001 0.63499999 150 0 0 0 0.0583
1.267 0.611 0.64899999 150 0 0 0 0.058309998
1.262 0.60699999 0.64700001 150 0 0 0 0.058320001
1.262 0.60500002 0.64700001 150 0 0 0 0.058329999
1.2640001 0.60399997 0.64899999 150 0 0 0 0.058340002
1.263 0.602 0.64899999 150 0 0 0 0.058350001
1.267 0.602 0.65200001 150 0 0 0 0.058359999
1.266 0.59899998 0.65200001 150 0 0 0 0.058370002
1.266 0.597 0.65200001 150 0 0 0 0.05838
1.2690001 0.597 0.65399998 150 0 0 0 0.058389999
1.2690001 0.59500003 0.65499997 150 0 0 0 0.058400001
1.267 0.59200001 0.65399998 150 0 0 0 0.05841
1.266 0.58899999 0.65399998 150 0 0 0 0.058419999
1.268 0.588 0.65499997 150 0 0 0 0.058430001
1.262 0.583 0.65200001 150 0 0 0 0.05844
1.263 0.58099997 0.653 150 0 0 0 0.058449998
1.2640001 0.579 0.653 150 0 0 0 0.058460001
1.265 0.57700002 0.65399998 150 0 0 0 0.05847
1.265 0.57499999 0.65399998 150 0 0 0 0.058479998
1.261 0.57099998 0.65200001 150 0 0 0 0.058490001
1.267 0.57099998 0.65499997 150 0 0 0 0.058499999
1.265 0.56800002 0.65399998 150 0 0 0 0.058510002
1.2640001 0.565 0.653 150 0 0 0 0.05852
1.267 0.56400001 0.65399998 150 0 0 0 0.058529999
1.265 0.56099999 0.653 150 0 0 0 0.058540002
1.2640001 0.55800003 0.65200001 150 0 0 0 0.05855
1.265 0.55500001 0.65200001 150 0 0 0 0.058559999
1.266 0.55299997 0.65200001 150 0 0 0 0.058570001
1.267 0.551 0.65100002 150 0 0 0 0.05858
1.263 0.54699999 0.64899999 150 0 0 0 0.058589999
1.267 0.546 0.64999998 150 0 0 0 0.058600001
1.266 0.542 0.64899999 150 0 0 0 0.05861
1.262 0.53799999 0.64600003 150 0 0 0 0.058619998
1.263 0.53600001 0.64600003 150 0 0 0 0.058630001
1.2640001 0.53299999 0.64600003 150 0 0 0 0.058639999
1.263 0.52999997 0.64399999 150 0 0 0 0.058649998
1.266 0.52899998 0.64499998 150 0 0 0 0.058660001
1.262 0.52399999 0.64200002 150 0 0 0 0.058669999
1.2640001 0.52200001 0.64200002 150 0 0 0 0.058680002
1.265 0.51899999 0.64099997 150 0 0 0 0.05869
1.261 0.51499999 0.63800001 150 0 0 0 0.058699999
1.262 0.51300001 0.63700002 150 0 0 0 0.058710001
1.261 0.509 0.63599998 150 0 0 0 0.05872
1.262 0.50700003 0.63499999 150 0 0 0 0.058729999
1.266 0.505 0.63599998 150 0 0 0 0.058740001
1.265 0.50199997 0.634 150 0 0 0 0.05875
1.262 0.498 0.63099998 150 0 0 0 0.058759999
1.2640001 0.495 0.63 150 0 0 0 0.058770001
1.262 0.49200001 0.62800002 150 0 0 0 0.05878
1.2640001 0.48899999 0.62699997 150 0 0 0 0.058789998
1.265 0.48699999 0.62599999 150 0 0 0 0.058800001
1.2640001 0.48300001 0.62400001 150 0 0 0 0.058809999
1.26 0.479 0.62099999 150 0 0 0 0.058820002
1.262 0.47600001 0.62 150 0 0 0 0.05883
1.263 0.47400001 0.61799997 150 0 0 0 0.058839999
1.255 0.46700001 0.61299998 150 0 0 0 0.058850002
1.256 0.465 0.611 150 0 0 0 0.05886
1.258 0.46200001 0.611 150 0 0 0 0.058869999
1.26 0.46000001 0.60900003 150 0 0 0 0.058880001
1.2589999 0.456 0.60699999 150 0 0 0 0.05889
1.26 0.454 0.60600001 150 0 0 0 0.058899999
1.262 0.45100001 0.60500002 150 0 0 0 0.058910001
1.258 0.447 0.60100001 150 0 0 0 0.05892
1.267 0.44600001 0.60299999 150 0 0 0 0.058929998
1.28 0.44800001 0.60699999 150 0 0 0 0.058940001
1.2920001 0.449 0.611 65 0 0 0 0.05895
1.311 0.45199999 0.61699998 15 0 0 0 0.058959998
1.331 0.456 0.62400001 11 0 0 0 0.058970001
1.3430001 0.456 0.62800002 10 0 0 0 0.058979999
1.355 0.45699999 0.63099998 11 0 0 0 0.058990002
1.376 0.461 0.63800001 12 0 0 0 0.059
1.3890001 0.46200001 0.64099997 13 0 0 0 0.059009999
1.399 0.461 0.64300001 14 0 0 0 0.059020001
1.414 0.463 0.64700001 14 0 0 0 0.05903
1.428 0.46399999 0.65100002 14 0 0 0 0.059039999
1.444 0.465 0.65600002 15 0 0 0 0.059050001
1.462 0.46799999 0.66100001 15 0 0 0 0.05906
1.476 0.46799999 0.66500002 16 0 0 0 0.059069999
0.061999999 0.018999999 0.027000001 0 0 0 0 0.059080001
0.061000001 0.018999999 0.027000001 0 0 0 0 0.05909
0.044 0.013 0.018999999 0 0 0 0 0.059099998
3.5 1.076 1.5470001 65 0 0 0 0.059110001
3.5190001 1.073 1.548 68 0 0 0 0.059119999
3.536 1.0700001 1.548 69 0 0 0 0.059130002
3.5539999 1.066 1.549 68 0 0 0 0.05914
3.5710001 1.062 1.548 70 0 0 0 0.059149999
2.4760001 0.73000002 1.069 152 0 0 0 0.059160002
2.3310001 0.68199998 1 152 0 0 0 0.05917
2.2409999 0.64999998 0.95700002 151 0 0 0 0.059179999
2.2379999 0.64399999 0.95099998 150 0 0 0 0.059190001
2.2360001 0.63800001 0.94499999 150 0 0 0 0.0592
2.2360001 0.63200003 0.94 150 0 0 0 0.059209999
2.24 0.62800002 0.93699998 150 0 0 0 0.059220001
2.2420001 0.62300003 0.93199998 150 0 0 0 0.05923
2.243 0.61799997 0.92799997 150 0 0 0 0.059239998
2.234 0.61000001 0.91900003 150 0 0 0 0.059250001
2.23 0.60299999 0.912 150 0 0 0 0.05926
2.233 0.59899998 0.90799999 150 0 0 0 0.059269998
2.23 0.59299999 0.90200001 150 0 0 0 0.059280001
2.2320001 0.588 0.89700001 150 0 0 0 0.059289999
2.2320001 0.583 0.89200002 150 0 0 0 0.059300002
2.2279999 0.57599998 0.88499999 150 0 0 0 0.05931
2.233 0.57200003 0.88200003 150 0 0 0 0.059319999
2.234 0.56699997 0.87699997 150 0 0 0 0.059330001
2.2309999 0.56099999 0.87 150 0 0 0 0.05934
2.234 0.55599999 0.86500001 150 0 0 0 0.059349999
2.234 0.551 0.86000001 150 0 0 0 0.059360001
2.234 0.546 0.85500002 150 0 0 0 0.05937
2.253 0.546 0.85600001 150 0 0 0 0.059379999
2.267 0.54400003 0.85600001 151 0 0 0 0.059390001
2.2620001 0.537 0.84899998 151 0 0 0 0.0594
2.266 0.53299999 0.84399998 151 0 0 0 0.059409998
2.2620001 0.52700001 0.83700001 150 0 0 0 0.059420001
2.277 0.52499998 0.83700001 150 0 0 0 0.059429999
2.3010001 0.52499998 0.83999997 21 0 0 0 0.059440002
2.3599999 0.53299999 0.85500002 18 0 0 0 0.059450001
2.395 0.53600001 0.86199999 17 0 0 0 0.059459999
2.431 0.53799999 0.86900002 19 0 0 0 0.059470002
2.4690001 0.54100001 0.87599999 20 0 0 0 0.05948
2.5109999 0.54500002 0.884 21 0 0 0 0.059489999
2.55 0.54799998 0.89200002 22 0 0 0 0.059500001
2.596 0.55199999 0.90100002 23 0 0 0 0.05951
2.641 0.55599999 0.91000003 21 0 0 0 0.059519999
2.6989999 0.56199998 0.92299998 23 0 0 0 0.059530001
2.7490001 0.56599998 0.93199998 24 0 0 0 0.05954
2.803 0.57099998 0.94300002 25 0 0 0 0.059549998
2.8840001 0.58099997 0.963 27 0 0 0 0.059560001
2.9619999 0.59100002 0.98100001 29 0 0 0 0.05957
3.0150001 0.59500003 0.991 29 0 0 0 0.059579998
3.056 0.59600002 0.99599999 29 0 0 0 0.059590001
3.099 0.59799999 1.002 28 0 0 0 0.059599999
3.1559999 0.602 1.012 28 0 0 0 0.059610002
3.211 0.60600001 1.021 28 0 0 0 0.05962
3.2490001 0.60600001 1.025 29 0 0 0 0.059629999
3.273 0.60399997 1.023 30 0 0 0 0.059640002
3.2909999 0.60000002 1.02 114 0 0 0 0.05965
3.293 0.59399998 1.012 150 0 0 0 0.059659999
3.2939999 0.58700001 1.003 150 0 0 0 0.059670001
3.2969999 0.58099997 0.995 150 0 0 0 0.05968
3.2939999 0.574 0.98500001 150 0 0 0 0.059689999
3.2939999 0.56699997 0.977 150 0 0 0 0.059700001
3.2980001 0.56099999 0.96899998 150 0 0 0 0.05971
3.3 0.55400002 0.95999998 150 0 0 0 0.059719998
3.325 0.55199999 0.95899999 150 0 0 0 0.059730001
3.3280001 0.546 0.94999999 150 0 0 0 0.059739999
3.3269999 0.53899997 0.94099998 150 0 0 0 0.059749998
3.329 0.53299999 0.93199998 150 0 0 0 0.059760001
3.355 0.52999997 0.93000001 150 0 0 0 0.059769999
3.3829999 0.528 0.92900002 150 0 0 0 0.059780002
3.3940001 0.523 0.92299998 150 0 0 0 0.05979
3.3889999 0.51499999 0.912 150 0 0 0 0.059799999
3.391 0.509 0.903 150 0 0 0 0.059810001
3.3940001 0.50300002 0.89399999 150 0 0 0 0.05982
3.3940001 0.49599999 0.88499999 150 0 0 0 0.059829999
3.3940001 0.49000001 0.87599999 150 0 0 0 0.059840001
3.391 0.48300001 0.866 150 0 0 0 0.05985
3.3970001 0.477 0.85799998 150 0 0 0 0.059859999
3.398 0.47099999 0.84799999 150 0 0 0 0.059870001
3.392 0.463 0.83700001 150 0 0 0 0.05988
3.395 0.45699999 0.829 150 0 0 0 0.059889998
3.3940001 0.45100001 0.81900001 150 0 0 0 0.059900001
3.3970001 0.44499999 0.81 150 0 0 0 0.059909999
3.395 0.43799999 0.80000001 150 0 0 0 0.059920002
3.398 0.43200001 0.79100001 150 0 0 0 0.05993
3.398 0.426 0.78200001 150 0 0 0 0.059939999
3.398 0.41999999 0.773 150 0 0 0 0.059950002
3.4000001 0.414 0.76300001 150 0 0 0 0.05996
3.402 0.40799999 0.75400001 150 0 0 0 0.059969999
3.4059999 0.40200001 0.745 150 0 0 0 0.059980001
3.3970001 0.39500001 0.73400003 150 0 0 0 0.05999
3.3989999 0.389 0.72500002 150 0 0 0 0.059999999
3.401 0.38299999 0.71600002 150 0 0 0 0.060010001
3.4000001 0.377 0.70599997 150 0 0 0 0.06002
3.4000001 0.37099999 0.69599998 150 0 0 0 0.060029998
3.402 0.36500001 0.68699998 150 0 0 0 0.060040001
3.402 0.359 0.67799997 150 0 0 0 0.06005
3.401 0.35299999 0.66799998 150 0 0 0 0.060059998
3.404 0.34799999 0.65899998 150 0 0 0 0.060070001
3.4059999 0.34200001 0.64999998 150 0 0 0 0.060079999
3.408 0.336 0.63999999 150 0 0 0 0.060090002
3.402 0.33000001 0.62900001 150 0 0 0 0.0601
3.4030001 0.324 0.62 150 0 0 0 0.060109999
3.4059999 0.31900001 0.611 150 0 0 0 0.060120001
3.405 0.31299999 0.60100001 150 0 0 0 0.06013
3.405 0.30700001 0.59100002 150 0 0 0 0.060139999
3.4000001 0.301 0.58099997 150 0 0 0 0.060150001
3.4030001 0.29499999 0.57200003 150 0 0 0 0.06016
3.405 0.28999999 0.56199998 150 0 0 0 0.060169999
3.4030001 0.28400001 0.55199999 150 0 0 0 0.060180001
3.4059999 0.278 0.54299998 150 0 0 0 0.06019
3.4070001 0.273 0.53299999 150 0 0 0 0.060199998
3.4070001 0.26699999 0.52399999 150 0 0 0 0.060210001
3.405 0.26100001 0.514 150 0 0 0 0.060219999
3.405 0.25600001 0.50400001 150 0 0 0 0.060230002
3.4089999 0.25099999 0.495 150 0 0 0 0.06024
3.4100001 0.245 0.48500001 150 0 0 0 0.060249999
3.4100001 0.23999999 0.47499999 150 0 0 0 0.060260002
3.4059999 0.234 0.465 150 0 0 0 0.06027
3.415 0.229 0.456 150 0 0 0 0.060279999
3.4089999 0.223 0.44600001 150 0 0 0 0.060290001
3.411 0.21799999 0.43599999 150 0 0 0 0.0603
3.4119999 0.213 0.42699999 150 0 0 0 0.060309999
3.4070001 0.207 0.41600001 151 0 0 0 0.060320001
3.4130001 0.20200001 0.40700001 150 0 0 0 0.06033
3.4100001 0.19599999 0.39700001 150 0 0 0 0.060339998
3.4089999 0.191 0.38699999 150 0 0 0 0.060350001
3.4100001 0.186 0.377 150 0 0 0 0.06036
3.4089999 0.18099999 0.36700001 150 0 0 0 0.060369998
3.4100001 0.175 0.35800001 150 0 0 0 0.060380001
3.4119999 0.17 0.34799999 151 0 0 0 0.060389999
3.4130001 0.16500001 0.338 151 0 0 0 0.060400002
3.405 0.15899999 0.32800001 150 0 0 0 0.06041
3.415 0.155 0.31900001 151 0 0 0 0.060419999
3.4170001 0.15000001 0.30899999 151 0 0 0 0.060430001
3.4119999 0.14399999 0.29899999 151 0 0 0 0.06044
3.4119999 0.139 0.289 151 0 0 0 0.060449999
3.4070001 0.134 0.27900001 151 0 0 0 0.060460001
3.4070001 0.12899999 0.26899999 151 0 0 0 0.06047
3.4089999 0.124 0.259 151 0 0 0 0.060479999
3.4100001 0.119 0.249 151 0 0 0 0.060490001
3.411 0.114 0.23999999 151 0 0 0 0.0605
3.4130001 0.109 0.23 151 0 0 0 0.060509998
3.4119999 0.104 0.22 151 0 0 0 0.060520001
3.414 0.098999999 0.20999999 151 0 0 0 0.060529999
3.4130001 0.093999997 0.2 151 0 0 0 0.060540002
3.418 0.089000002 0.19 151 0 0 0 0.060550001
3.414 0.083999999 0.18000001 151 0 0 0 0.060559999
3.4159999 0.079999998 0.17 151 0 0 0 0.060570002
3.418 0.075000003 0.161 152 0 0 0 0.06058
3.4159999 0.07 0.15099999 151 0 0 0 0.060589999
3.4159999 0.064999998 0.14 152 0 0 0 0.060600001
3.418 0.059999999 0.131 151 0 0 0 0.06061
3.418 0.055 0.121 151 0 0 0 0.060619999
3.418 0.050999999 0.111 151 0 0 0 0.060630001
3.4219999 0.046 0.101 151 0 0 0 0.06064
3.4170001 0.041000001 0.090999998 151 0 0 0 0.060649998
3.4170001 0.035999998 0.081 152 0 0 0 0.060660001
3.4170001 0.032000002 0.071000002 151 0 0 0 0.06067
3.418 0.027000001 0.061000001 152 0 0 0 0.060679998
3.4189999 0.022 0.050000001 151 0 0 0 0.060690001
3.421 0.017999999 0.041000001 151 0 0 0 0.060699999
3.414 0.013 0.029999999 151 0 0 0 0.060710002
3.414 0.0080000004 0.02 151 0 0 0 0.06072
3.4159999 0.0040000002 0.0099999998 151 0 0 0 0.060729999
3.4119999 0 0 151 0 0 0 0.060740001
3.4159999 -0.0040000002 -0.0089999996 151 0 0 0 0.06075
3.4200001 -0.0089999996 -0.018999999 151 0 0 0 0.060759999
3.418 -0.013 -0.028999999 151 0 0 0 0.060770001
3.4159999 -0.017999999 -0.039000001 151 0 0 0 0.06078
3.418 -0.022 -0.048999999 151 0 0 0 0.060789999
3.418 -0.027000001 -0.059 151 0 0 0 0.060800001
3.4200001 -0.030999999 -0.068999998 151 0 0 0 0.06081
3.4189999 -0.035999998 -0.079999998 151 0 0 0 0.060819998
3.4189999 -0.039999999 -0.090000004 151 0 0 0 0.060830001
3.421 -0.045000002 -0.1 151 0 0 0 0.060839999
3.4159999 -0.048999999 -0.11 150 0 0 0 0.060849998
3.418 -0.052999999 -0.12 151 0 0 0 0.060860001
3.4170001 -0.057999998 -0.13 151 0 0 0 0.060869999
3.425 -0.061999999 -0.141 151 0 0 0 0.060880002
3.4230001 -0.066 -0.15099999 151 0 0 0 0.06089
3.4230001 -0.071000002 -0.161 151 0 0 0 0.060899999
3.4170001 -0.075000003 -0.171 150 0 0 0 0.060910001
3.4230001 -0.079000004 -0.182 151 0 0 0 0.06092
3.4219999 -0.083999999 -0.192 151 0 0 0 0.060929999
3.425 -0.088 -0.20299999 151 0 0 0 0.060940001
3.4260001 -0.092 -0.213 151 0 0 0 0.06095
3.425 -0.096000001 -0.223 151 0 0 0 0.060959999
3.424 -0.101 -0.233 151 0 0 0 0.060970001
3.4260001 -0.105 -0.244 150 0 0 0 0.06098
3.4319999 -0.109 -0.255 150 0 0 0 0.060989998
3.431 -0.113 -0.26499999 150 0 0 0 0.061000001
3.4319999 -0.118 -0.27500001 150 0 0 0 0.061009999
3.4319999 -0.122 -0.28600001 151 0 0 0 0.061020002
3.431 -0.126 -0.296 150 0 0 0 0.06103
3.4289999 -0.13 -0.30599999 150 0 0 0 0.061039999
3.428 -0.134 -0.317 150 0 0 0 0.061050002
3.428 -0.138 -0.32699999 150 0 0 0 0.06106
3.4319999 -0.142 -0.338 150 0 0 0 0.061069999
3.4330001 -0.146 -0.34799999 150 0 0 0 0.061080001
3.4319999 -0.15000001 -0.359 150 0 0 0 0.06109
3.4300001 -0.154 -0.36899999 150 0 0 0 0.061099999
3.4289999 -0.15800001 -0.37900001 150 0 0 0 0.061110001
3.428 -0.162 -0.38999999 150 0 0 0 0.06112
3.4330001 -0.16599999 -0.40099999 150 0 0 0 0.061129998
3.431 -0.17 -0.41100001 150 0 0 0 0.061140001
3.4319999 -0.17399999 -0.421 151 0 0 0 0.061149999
3.4330001 -0.178 -0.43200001 151 0 0 0 0.061159998
3.4360001 -0.182 -0.44299999 151 0 0 0 0.061170001
3.425 -0.185 -0.45199999 150 0 0 0 0.061179999
3.398 -0.18700001 -0.45899999 150 0 0 0 0.061190002
3.3710001 -0.189 -0.46599999 150 0 0 0 0.0612
3.3659999 -0.193 -0.47600001 150 0 0 0 0.061209999
3.362 -0.19599999 -0.48500001 150 0 0 0 0.061220001
3.3629999 -0.2 -0.49599999 150 0 0 0 0.06123
3.3629999 -0.204 -0.50599998 151 0 0 0 0.061239999
3.365 -0.207 -0.51700002 151 0 0 0 0.061250001
3.362 -0.211 -0.52700001 151 0 0 0 0.06126
3.3670001 -0.215 -0.53799999 151 0 0 0 0.061269999
3.358 -0.21799999 -0.54799998 150 0 0 0 0.061280001
3.3469999 -0.221 -0.55599999 150 0 0 0 0.06129
3.3369999 -0.22400001 -0.565 150 0 0 0 0.061299998
3.3310001 -0.227 -0.574 150 0 0 0 0.061310001
3.3310001 -0.23 -0.58499998 150 0 0 0 0.061319999
3.3310001 -0.234 -0.59500003 150 0 0 0 0.061330002
3.329 -0.237 -0.60500002 150 0 0 0 0.06134
3.3299999 -0.23999999 -0.616 150 0 0 0 0.061349999
3.332 -0.244 -0.62699997 150 0 0 0 0.061360002
3.3329999 -0.24699999 -0.63800001 150 0 0 0 0.06137
3.332 -0.25099999 -0.648 150 0 0 0 0.061379999
3.332 -0.25400001 -0.65899998 150 0 0 0 0.061390001
3.329 -0.257 -0.66900003 151 0 0 0 0.0614
3.3269999 -0.25999999 -0.67900002 151 0 0 0 0.061409999
3.326 -0.26300001 -0.68900001 150 0 0 0 0.061420001
3.329 -0.26699999 -0.69999999 150 0 0 0 0.06143
3.3269999 -0.27000001 -0.70999998 66 0 0 0 0.061439998
3.309 -0.27200001 -0.71700001 30 0 0 0 0.061450001
3.2639999 -0.271 -0.71799999 38 0 0 0 0.06146
3.2390001 -0.27200001 -0.72299999 67 0 0 0 0.061469998
3.2309999 -0.27399999 -0.73100001 150 0 0 0 0.061480001
3.2320001 -0.27700001 -0.74199998 150 0 0 0 0.061489999
3.23 -0.28 -0.75199997 150 0 0 0 0.061500002
3.2290001 -0.28299999 -0.76200002 150 0 0 0 0.06151
3.2349999 -0.287 -0.77399999 150 0 0 0 0.061519999
3.2320001 -0.289 -0.78299999 150 0 0 0 0.061530001
3.2349999 -0.29300001 -0.79500002 150 0 0 0 0.06154
3.2279999 -0.29499999 -0.80299997 150 0 0 0 0.061549999
3.2309999 -0.29800001 -0.815 150 0 0 0 0.061560001
3.2309999 -0.301 -0.82499999 150 0 0 0 0.06157
3.2279999 -0.303 -0.83499998 134 0 0 0 0.061579999
3.2049999 -0.30399999 -0.83899999 30 0 0 0 0.061590001
3.165 -0.303 -0.83899999 23 0 0 0 0.0616
3.125 -0.30199999 -0.83899999 21 0 0 0 0.061609998
3.096 -0.301 -0.84100002 24 0 0 0 0.061620001
3.066 -0.301 -0.84299999 25 0 0 0 0.061629999
3.0309999 -0.30000001 -0.84299999 24 0 0 0 0.061640002
2.994 -0.29899999 -0.84299999 24 0 0 0 0.061650001
2.954 -0.29699999 -0.84100002 27 0 0 0 0.061659999
2.915 -0.296 -0.83999997 27 0 0 0 0.061670002
2.8729999 -0.294 -0.83700001 26 0 0 0 0.06168
2.8399999 -0.29300001 -0.83700001 26 0 0 0 0.061689999
2.8150001 -0.292 -0.838 26 0 0 0 0.061700001
2.7820001 -0.29100001 -0.838 26 0 0 0 0.06171
2.7520001 -0.28999999 -0.838 28 0 0 0 0.061719999
2.7130001 -0.28799999 -0.83499998 26 0 0 0 0.061730001
2.681 -0.28600001 -0.83399999 26 0 0 0 0.06174
2.6500001 -0.285 -0.833 26 0 0 0 0.061749998
2.6240001 -0.28400001 -0.83399999 26 0 0 0 0.061760001
2.5999999 -0.28299999 -0.83499998 27 0 0 0 0.06177
2.5699999 -0.28200001 -0.83399999 26 0 0 0 0.061779998
2.5369999 -0.28 -0.83200002 26 0 0 0 0.061790001
2.5120001 -0.27900001 -0.83200002 26 0 0 0 0.061799999
2.484 -0.27700001 -0.83099997 25 0 0 0 0.061810002
2.4649999 -0.27700001 -0.833 25 0 0 0 0.06182
2.4360001 -0.27500001 -0.83099997 25 0 0 0 0.061829999
2.4130001 -0.27399999 -0.83099997 25 0 0 0 0.061840001
2.3889999 -0.273 -0.83099997 26 0 0 0 0.06185
2.365 -0.27200001 -0.83099997 25 0 0 0 0.061859999
2.345 -0.271 -0.83099997 26 0 0 0 0.061870001
2.3210001 -0.26899999 -0.83099997 26 0 0 0 0.06188
2.3010001 -0.26800001 -0.83099997 26 0 0 0 0.061889999
2.2839999 -0.26800001 -0.833 25 0 0 0 0.061900001
2.26 -0.266 -0.83099997 26 0 0 0 0.06191
2.2379999 -0.26499999 -0.83099997 26 0 0 0 0.061919998
2.2179999 -0.264 -0.83099997 26 0 0 0 0.061930001
2.198 -0.26300001 -0.83099997 25 0 0 0 0.061939999
2.1670001 -0.25999999 -0.82599998 26 0 0 0 0.061949998
2.1530001 -0.259 -0.82800001 26 0 0 0 0.061960001
2.135 -0.25799999 -0.829 25 0 0 0 0.061969999
2.1159999 -0.257 -0.829 26 0 0 0 0.061980002
2.0929999 -0.255 -0.82599998 29 0 0 0 0.06199
2.0769999 -0.25400001 -0.82700002 29 0 0 0 0.061999999
2.059 -0.25299999 -0.82700002 29 0 0 0 0.062010001
2.0420001 -0.252 -0.82700002 29 0 0 0 0.06202
2.029 -0.25099999 -0.829 30 0 0 0 0.062029999
2.01 -0.25 -0.82800001 29 0 0 0 0.062040001
1.992 -0.248 -0.82700002 29 0 0 0 0.06205
1.971 -0.24600001 -0.82499999 29 0 0 0 0.062059999
1.957 -0.245 -0.82599998 29 0 0 0 0.062070001
1.944 -0.244 -0.82700002 30 0 0 0 0.06208
1.926 -0.243 -0.82599998 28 0 0 0 0.062089998
1.914 -0.242 -0.82700002 29 0 0 0 0.062100001
1.898 -0.241 -0.82700002 28 0 0 0 0.062109999
1.888 -0.23999999 -0.829 30 0 0 0 0.062120002
1.862 -0.237 -0.82300001 30 0 0 0 0.06213
1.851 -0.236 -0.82499999 30 0 0 0 0.062139999
1.841 -0.236 -0.82700002 30 0 0 0 0.062150002
1.83 -0.235 -0.82800001 32 0 0 0 0.06216
1.8099999 -0.23199999 -0.82499999 30 0 0 0 0.062169999
1.794 -0.23100001 -0.824 29 0 0 0 0.062180001
1.784 -0.23 -0.82499999 35 0 0 0 0.06219
1.77 -0.228 -0.82499999 31 0 0 0 0.062199999
1.757 -0.227 -0.82499999 34 0 0 0 0.062210001
1.7410001 -0.22499999 -0.82300001 33 0 0 0 0.06222
1.728 -0.22400001 -0.82300001 33 0 0 0 0.062229998
1.724 -0.22400001 -0.82700002 34 0 0 0 0.062240001
1.712 -0.222 -0.82700002 11 0 0 0 0.062249999
1.707 -0.222 -0.829 10 0 0 0 0.062259998
1.6950001 -0.22 -0.82999998 7 0 0 0 0.062270001
1.681 -0.219 -0.82800001 7 0 0 0 0.062279999
1.67 -0.21799999 -0.82800001 7 0 0 0 0.062290002
1.66 -0.21600001 -0.829 10 0 0 0 0.0623
1.646 -0.214 -0.82700002 10 0 0 0 0.062309999
1.633 -0.213 -0.82599998 11 0 0 0 0.062320001
1.623 -0.211 -0.82599998 11 0 0 0 0.06233
1.615 -0.20999999 -0.82800001 12 0 0 0 0.062339999
1.604 -0.20900001 -0.82700002 12 0 0 0 0.062350001
1.598 -0.208 -0.829 12 0 0 0 0.06236
1.584 -0.206 -0.82700002 13 0 0 0 0.062369999
1.573 -0.205 -0.82599998 13 0 0 0 0.062380001
1.571 -0.204 -0.82999998 13 0 0 0 0.06239
1.556 -0.20200001 -0.82800001 13 0 0 0 0.062399998
1.546 -0.2 -0.82700002 13 0 0 0 0.062410001
1.524 -0.197 -0.81999999 13 0 0 0 0.062419999
1.52 -0.197 -0.82300001 12 0 0 0 0.062430002
1.512 -0.19499999 -0.82300001 13 0 0 0 0.06244
1.5039999 -0.19400001 -0.824 13 0 0 0 0.062449999
1.4960001 -0.193 -0.824 13 0 0 0 0.062460002
1.484 -0.191 -0.82200003 14 0 0 0 0.06247
1.48 -0.19 -0.82499999 13 0 0 0 0.062479999
1.471 -0.18799999 -0.824 12 0 0 0 0.062490001
1.461 -0.186 -0.82300001 12 0 0 0 0.0625
1.454 -0.185 -0.82300001 14 0 0 0 0.062509999
1.447 -0.184 -0.824 14 0 0 0 0.062519997
1.437 -0.182 -0.82200003 14 0 0 0 0.062530003
1.432 -0.18099999 -0.824 13 0 0 0 0.062540002
1.424 -0.17900001 -0.82300001 14 0 0 0 0.062550001
1.414 -0.177 -0.82200003 14 0 0 0 0.06256
1.411 -0.176 -0.82499999 14 0 0 0 0.062569998
1.402 -0.175 -0.82300001 14 0 0 0 0.062579997
1.393 -0.17299999 -0.82200003 14 0 0 0 0.062590003
1.3890001 -0.17200001 -0.824 13 0 0 0 0.062600002
1.382 -0.17 -0.82300001 14 0 0 0 0.06261
1.374 -0.168 -0.82300001 14 0 0 0 0.062619999
1.3660001 -0.167 -0.82200003 14 0 0 0 0.062629998
1.359 -0.16500001 -0.82099998 14 0 0 0 0.062639996
1.357 -0.164 -0.824 14 0 0 0 0.062650003
1.351 -0.162 -0.824 14 0 0 0 0.062660001
1.3430001 -0.161 -0.82300001 14 0 0 0 0.06267
1.337 -0.15899999 -0.82200003 14 0 0 0 0.062679999
1.335 -0.15800001 -0.82499999 14 0 0 0 0.062689997
1.3279999 -0.156 -0.824 14 0 0 0 0.062700003
1.325 -0.155 -0.82499999 13 0 0 0 0.062710002
1.3150001 -0.153 -0.82300001 14 0 0 0 0.062720001
1.308 -0.15099999 -0.82200003 14 0 0 0 0.062729999
1.303 -0.15000001 -0.82200003 14 0 0 0 0.062739998
1.299 -0.148 -0.82200003 14 0 0 0 0.062749997
1.295 -0.147 -0.82300001 15 0 0 0 0.062760003
1.289 -0.145 -0.82300001 13 0 0 0 0.062770002
1.286 -0.14399999 -0.824 14 0 0 0 0.06278
1.28 -0.142 -0.82300001 15 0 0 0 0.062789999
1.277 -0.141 -0.824 14 0 0 0 0.062799998
1.273 -0.139 -0.824 14 0 0 0 0.062809996
1.266 -0.13699999 -0.82300001 14 0 0 0 0.062820002
1.2640001 -0.13600001 -0.824 14 0 0 0 0.062830001
1.261 -0.134 -0.824 14 0 0 0 0.06284
1.256 -0.132 -0.824 15 0 0 0 0.062849998
1.253 -0.131 -0.82499999 14 0 0 0 0.062859997
1.25 -0.12899999 -0.82499999 14 0 0 0 0.062870003
1.244 -0.12800001 -0.824 14 0 0 0 0.062880002
1.243 -0.126 -0.82499999 14 0 0 0 0.062890001
1.2359999 -0.124 -0.82300001 14 0 0 0 0.062899999
1.234 -0.123 -0.824 14 0 0 0 0.062909998
1.232 -0.121 -0.82499999 15 0 0 0 0.062919997
1.23 -0.12 -0.82599998 14 0 0 0 0.062930003
1.226 -0.118 -0.82599998 15 0 0 0 0.062940001
1.217 -0.116 -0.82200003 15 0 0 0 0.06295
1.217 -0.114 -0.82300001 15 0 0 0 0.062959999
1.2130001 -0.113 -0.82300001 15 0 0 0 0.062969998
1.212 -0.111 -0.824 15 0 0 0 0.062980004
1.21 -0.11 -0.824 15 0 0 0 0.062990002
1.205 -0.108 -0.82300001 15 0 0 0 0.063000001
1.205 -0.106 -0.824 15 0 0 0 0.06301
1.202 -0.105 -0.824 15 0 0 0 0.063019998
1.201 -0.103 -0.82499999 15 0 0 0 0.063029997
1.2 -0.101 -0.82599998 16 0 0 0 0.063040003
1.196 -0.1 -0.82499999 16 0 0 0 0.063050002
1.196 -0.097999997 -0.82599998 16 0 0 0 0.063060001
1.193 -0.096000001 -0.82499999 16 0 0 0 0.063069999
1.193 -0.094999999 -0.82599998 16 0 0 0 0.063079998
1.1900001 -0.093000002 -0.82499999 16 0 0 0 0.063089997
1.186 -0.090999998 -0.824 16 0 0 0 0.063100003
1.186 -0.090000004 -0.82499999 16 0 0 0 0.063110001
1.184 -0.088 -0.824 16 0 0 0 0.06312
1.183 -0.086000003 -0.824 17 0 0 0 0.063129999
1.181 -0.085000001 -0.824 16 0 0 0 0.063139997
1.1799999 -0.082999997 -0.824 17 0 0 0 0.063150004
1.181 -0.081 -0.82599998 17 0 0 0 0.063160002
1.181 -0.079999998 -0.82599998 17 0 0 0 0.063170001
1.1799999 -0.078000002 -0.82700002 17 0 0 0 0.06318
1.177 -0.075999998 -0.82499999 16 0 0 0 0.063189998
1.178 -0.075000003 -0.82599998 16 0 0 0 0.063199997
1.176 -0.072999999 -0.82499999 17 0 0 0 0.063210003
1.177 -0.071000002 -0.82599998 17 0 0 0 0.063220002
1.176 -0.07 -0.82599998 17 0 0 0 0.06323
1.177 -0.068000004 -0.82700002 17 0 0 0 0.063239999
1.176 -0.066 -0.82599998 16 0 0 0 0.063249998
1.175 -0.064000003 -0.82499999 18 0 0 0 0.063259996
1.176 -0.063000001 -0.82599998 17 0 0 0 0.063270003
1.173 -0.061000001 -0.824 17 0 0 0 0.063280001
1.175 -0.059 -0.82499999 17 0 0 0 0.06329
1.175 -0.057999998 -0.82499999 17 0 0 0 0.063299999
1.178 -0.056000002 -0.82700002 17 0 0 0 0.063309997
1.178 -0.054000001 -0.82700002 17 0 0 0 0.063320003
1.178 -0.052999999 -0.82700002 17 0 0 0 0.063330002
1.179 -0.050999999 -0.82599998 17 0 0 0 0.063340001
1.179 -0.048999999 -0.82599998 17 0 0 0 0.063349999
1.1799999 -0.048 -0.82599998 17 0 0 0 0.063359998
1.1799999 -0.046 -0.82599998 17 0 0 0 0.063369997
1.182 -0.045000002 -0.82700002 17 0 0 0 0.063380003
1.181 -0.043000001 -0.82499999 17 0 0 0 0.063390002
1.181 -0.041000001 -0.82499999 17 0 0 0 0.0634
1.1849999 -0.039999999 -0.82599998 17 0 0 0 0.063409999
1.186 -0.037999999 -0.82599998 17 0 0 0 0.063419998
1.1900001 -0.035999998 -0.82800001 18 0 0 0 0.063429996
1.191 -0.035 -0.82700002 17 0 0 0 0.063440003
1.189 -0.033 -0.82499999 17 0 0 0 0.063450001
1.192 -0.030999999 -0.82599998 17 0 0 0 0.06346
1.198 -0.029999999 -0.82800001 17 0 0 0 0.063469999
1.199 -0.028000001 -0.82800001 17 0 0 0 0.063479997
1.2 -0.026000001 -0.82700002 16 0 0 0 0.063490003
1.2 -0.025 -0.82599998 16 0 0 0 0.063500002
1.201 -0.023 -0.82499999 17 0 0 0 0.063510001
1.205 -0.021 -0.82599998 16 0 0 0 0.063519999
1.2079999 -0.02 -0.82700002 16 0 0 0 0.063529998
1.212 -0.017999999 -0.82700002 16 0 0 0 0.063539997
1.2130001 -0.016000001 -0.82599998 17 0 0 0 0.063550003
1.215 -0.015 -0.82599998 16 0 0 0 0.063560002
1.2180001 -0.013 -0.82599998 16 0 0 0 0.06357
1.222 -0.012 -0.82700002 17 0 0 0 0.063579999
1.224 -0.0099999998 -0.82599998 16 0 0 0 0.063589998
1.225 -0.0080000004 -0.82499999 16 0 0 0 0.063600004
1.226 -0.0070000002 -0.82300001 16 0 0 0 0.063610002
1.232 -0.0049999999 -0.82499999 16 0 0 0 0.063620001
1.233 -0.0040000002 -0.824 17 0 0 0 0.06363
1.243 -0.0020000001 -0.82800001 16 0 0 0 0.063639998
1.248 -0.001 -0.829 17 0 0 0 0.063649997
1.247 0 -0.82599998 16 0 0 0 0.063660003
1.256 0.0020000001 -0.829 17 0 0 0 0.063670002
1.2539999 0.003 -0.82499999 17 0 0 0 0.063680001
1.2589999 0.0049999999 -0.82599998 16 0 0 0 0.063689999
1.262 0.0060000001 -0.82599998 15 0 0 0 0.063699998
1.27 0.0080000004 -0.82800001 15 0 0 0 0.063709997
1.275 0.0099999998 -0.82800001 16 0 0 0 0.063720003
1.277 0.011 -0.82700002 16 0 0 0 0.063730001
1.283 0.013 -0.82800001 16 0 0 0 0.06374
1.285 0.014 -0.82599998 15 0 0 0 0.063749999
1.291 0.016000001 -0.82700002 16 0 0 0 0.063759997
1.2970001 0.017000001 -0.82800001 16 0 0 0 0.063770004
1.302 0.018999999 -0.82800001 16 0 0 0 0.063780002
1.306 0.02 -0.82700002 16 0 0 0 0.063790001
1.308 0.022 -0.82599998 16 0 0 0 0.0638
1.311 0.023 -0.824 16 0 0 0 0.063809998
1.321 0.025 -0.82700002 16 0 0 0 0.063819997
1.326 0.026000001 -0.82700002 17 0 0 0 0.063830003
1.334 0.028000001 -0.82800001 16 0 0 0 0.063840002
