# .PCD v0.7 - Point Cloud Data file format
VERSION 0.7
FIELDS x y z intensity normal_x normal_y normal_z curvature
SIZE 4 4 4 4 4 4 4 4
TYPE F F F F F F F F
COUNT 1 1 1 1 1 1 1 1
WIDTH 1079
HEIGHT 1
VIEWPOINT 0 0 0 1 0 0 0
POINTS 1079
DATA ascii
3.427 0.017000001 0.65200001 150 0 0 0 0.00416
3.428 0.017000001 0.64099997 150 0 0 0 0.0041700001
3.428 0.016000001 0.63 150 0 0 0 0.0041800002
3.4289999 0.015 0.61900002 150 0 0 0 0.0041899998
3.4300001 0.014 0.60799998 150 0 0 0 0.0041999999
3.4319999 0.013 0.597 150 0 0 0 0.0042099999
3.428 0.012 0.58499998 150 0 0 0 0.00422
3.428 0.011 0.574 150 0 0 0 0.0042300001
3.4260001 0.011 0.56199998 150 0 0 0 0.0042400002
3.425 0.0099999998 0.551 150 0 0 0 0.0042500002
3.427 0.0089999996 0.54000002 150 0 0 0 0.0042599998
3.4260001 0.0089999996 0.528 150 0 0 0 0.0042699999
3.425 0.0080000004 0.51700002 150 0 0 0 0.00428
3.4230001 0.0070000002 0.50599998 150 0 0 0 0.0042900001
3.425 0.0070000002 0.495 150 0 0 0 0.0043000001
3.4260001 0.0060000001 0.484 150 0 0 0 0.0043100002
3.4219999 0.0049999999 0.472 150 0 0 0 0.0043199998
3.4230001 0.0049999999 0.461 150 0 0 0 0.0043299999
3.424 0.0040000002 0.44999999 150 0 0 0 0.00434
3.425 0.0040000002 0.43900001 150 0 0 0 0.0043500001
3.428 0.003 0.428 150 0 0 0 0.0043600001
3.428 0.003 0.417 150 0 0 0 0.0043700002
3.4219999 0.0020000001 0.405 150 0 0 0 0.0043799998
3.424 0.0020000001 0.39399999 150 0 0 0 0.0043899999
3.4289999 0.001 0.38299999 150 0 0 0 0.0044
3.4200001 0.001 0.37099999 150 0 0 0 0.0044100001
3.427 0.001 0.36000001 150 0 0 0 0.0044200001
3.428 0 0.34900001 150 0 0 0 0.0044300002
3.4219999 0 0.338 150 0 0 0 0.0044399998
3.428 0 0.32699999 150 0 0 0 0.0044499999
3.4219999 0 0.315 150 0 0 0 0.00446
3.4219999 0 0.30399999 150 0 0 0 0.00447
3.421 0 0.29300001 150 0 0 0 0.0044800001
3.4300001 -0.001 0.28299999 150 0 0 0 0.0044900002
3.4230001 -0.001 0.271 150 0 0 0 0.0044999998
3.424 -0.001 0.25999999 150 0 0 0 0.0045099999
3.424 -0.001 0.249 150 0 0 0 0.00452
3.4200001 -0.001 0.237 151 0 0 0 0.00453
3.421 -0.001 0.226 151 0 0 0 0.0045400001
3.4189999 -0.001 0.215 151 0 0 0 0.0045500002
3.421 -0.0020000001 0.204 151 0 0 0 0.0045599998
3.4170001 -0.0020000001 0.193 151 0 0 0 0.0045699999
3.424 -0.0020000001 0.182 151 0 0 0 0.0045799999
3.4170001 -0.0020000001 0.171 151 0 0 0 0.00459
3.418 -0.0020000001 0.16 150 0 0 0 0.0046000001
3.4170001 -0.0020000001 0.149 151 0 0 0 0.0046100002
3.4159999 -0.0020000001 0.13699999 151 0 0 0 0.0046199998
3.418 -0.0020000001 0.126 151 0 0 0 0.0046299999
3.4200001 -0.0020000001 0.115 151 0 0 0 0.0046399999
3.4189999 -0.0020000001 0.104 151 0 0 0 0.00465
3.4230001 -0.0020000001 0.093000002 151 0 0 0 0.0046600001
3.4170001 -0.001 0.082000002 151 0 0 0 0.0046700002
3.4200001 -0.001 0.071000002 151 0 0 0 0.0046799998
3.418 -0.001 0.059999999 151 0 0 0 0.0046899999
3.418 -0.001 0.048999999 151 0 0 0 0.0046999999
3.415 -0.001 0.037999999 151 0 0 0 0.00471
3.4159999 -0.001 0.027000001 151 0 0 0 0.0047200001
3.415 0 0.016000001 151 0 0 0 0.0047300002
3.4159999 0 0.0049999999 151 0 0 0 0.0047399998
3.4170001 0 -0.0060000001 151 0 0 0 0.0047499998
3.4159999 0 -0.017000001 151 0 0 0 0.0047599999
3.418 0 -0.028000001 151 0 0 0 0.00477
3.421 0 -0.039000001 151 0 0 0 0.0047800001
3.415 0 -0.050000001 151 0 0 0 0.0047900002
3.4159999 0.001 -0.061000001 151 0 0 0 0.0048000002
3.4159999 0.001 -0.071999997 151 0 0 0 0.0048099998
3.415 0.0020000001 -0.082999997 151 0 0 0 0.0048199999
3.415 0.0020000001 -0.093999997 151 0 0 0 0.00483
3.4170001 0.0020000001 -0.105 151 0 0 0 0.0048400001
3.4170001 0.003 -0.116 151 0 0 0 0.0048500001
3.4189999 0.003 -0.127 151 0 0 0 0.0048600002
3.4189999 0.0040000002 -0.138 151 0 0 0 0.0048699998
3.4130001 0.0040000002 -0.149 151 0 0 0 0.0048799999
3.418 0.0049999999 -0.16 151 0 0 0 0.00489
3.4159999 0.0049999999 -0.171 151 0 0 0 0.0049000001
3.4159999 0.0060000001 -0.182 151 0 0 0 0.0049100001
3.415 0.0070000002 -0.193 151 0 0 0 0.0049200002
3.414 0.0070000002 -0.204 151 0 0 0 0.0049299998
3.415 0.0080000004 -0.215 151 0 0 0 0.0049399999
3.4189999 0.0080000004 -0.227 151 0 0 0 0.00495
3.415 0.0089999996 -0.23800001 151 0 0 0 0.00496
3.415 0.0099999998 -0.249 151 0 0 0 0.0049700001
3.415 0.0099999998 -0.25999999 151 0 0 0 0.0049800002
3.414 0.011 -0.271 151 0 0 0 0.0049899998
3.4130001 0.012 -0.28200001 151 0 0 0 0.0049999999
3.4200001 0.013 -0.29300001 150 0 0 0 0.00501
3.4159999 0.014 -0.30399999 150 0 0 0 0.00502
3.418 0.014 -0.315 150 0 0 0 0.0050300001
3.4170001 0.015 -0.32600001 151 0 0 0 0.0050400002
3.4170001 0.016000001 -0.33700001 150 0 0 0 0.0050499998
3.4189999 0.017000001 -0.34900001 150 0 0 0 0.0050599999
3.414 0.017999999 -0.359 150 0 0 0 0.00507
3.415 0.018999999 -0.37099999 150 0 0 0 0.00508
3.4170001 0.02 -0.382 150 0 0 0 0.0050900001
3.4159999 0.021 -0.39300001 150 0 0 0 0.0051000002
3.415 0.021 -0.40400001 150 0 0 0 0.0051099998
3.4200001 0.023 -0.41600001 150 0 0 0 0.0051199999
3.414 0.023 -0.426 150 0 0 0 0.0051299999
3.4119999 0.025 -0.43700001 150 0 0 0 0.00514
3.4159999 0.026000001 -0.449 150 0 0 0 0.0051500001
3.4200001 0.027000001 -0.46000001 150 0 0 0 0.0051600002
3.4130001 0.028000001 -0.47 150 0 0 0 0.0051699998
3.4170001 0.028999999 -0.48199999 150 0 0 0 0.0051799999
3.411 0.029999999 -0.493 150 0 0 0 0.0051899999
3.414 0.030999999 -0.50400001 150 0 0 0 0.0052
3.418 0.032000002 -0.51599997 150 0 0 0 0.0052100001
3.418 0.034000002 -0.52700001 150 0 0 0 0.0052200002
3.4159999 0.035 -0.53799999 150 0 0 0 0.0052299998
3.414 0.035999998 -0.54900002 150 0 0 0 0.0052399999
3.4159999 0.037 -0.56 150 0 0 0 0.0052499999
3.411 0.039000001 -0.56999999 150 0 0 0 0.00526
3.4130001 0.039999999 -0.58200002 150 0 0 0 0.0052700001
3.411 0.041000001 -0.59299999 150 0 0 0 0.0052800002
3.414 0.043000001 -0.60399997 150 0 0 0 0.0052899998
3.415 0.044 -0.616 150 0 0 0 0.0052999998
3.4130001 0.046 -0.62599999 150 0 0 0 0.0053099999
3.4119999 0.046999998 -0.63700002 150 0 0 0 0.00532
3.4119999 0.048 -0.64899999 150 0 0 0 0.0053300001
3.4100001 0.050000001 -0.65899998 150 0 0 0 0.0053400001
3.4119999 0.050999999 -0.671 150 0 0 0 0.0053500002
3.4119999 0.052999999 -0.68199998 150 0 0 0 0.0053599998
3.4089999 0.054000001 -0.69300002 150 0 0 0 0.0053699999
3.411 0.056000002 -0.704 150 0 0 0 0.00538
3.4119999 0.057999998 -0.71600002 150 0 0 0 0.0053900001
3.4070001 0.059 -0.72600001 150 0 0 0 0.0054000001
3.408 0.061000001 -0.73699999 150 0 0 0 0.0054100002
3.408 0.063000001 -0.74900001 150 0 0 0 0.0054199998
3.4059999 0.064000003 -0.759 150 0 0 0 0.0054299999
3.4070001 0.066 -0.77100003 150 0 0 0 0.00544
3.4059999 0.068000004 -0.78200001 150 0 0 0 0.0054500001
3.4100001 0.07 -0.79400003 150 0 0 0 0.0054600001
3.4030001 0.071000002 -0.80400002 150 0 0 0 0.0054700002
3.405 0.072999999 -0.815 150 0 0 0 0.0054799998
3.4030001 0.075000003 -0.82599998 150 0 0 0 0.0054899999
3.4070001 0.077 -0.838 150 0 0 0 0.0055
3.404 0.079000004 -0.84899998 34 0 0 0 0.00551
3.3710001 0.079999998 -0.852 25 0 0 0 0.0055200001
3.329 0.081 -0.852 27 0 0 0 0.0055300002
3.2950001 0.082000002 -0.85399997 27 0 0 0 0.0055399998
3.2550001 0.082999997 -0.85500002 27 0 0 0 0.0055499999
3.21 0.083999999 -0.85299999 26 0 0 0 0.00556
3.178 0.085000001 -0.85500002 26 0 0 0 0.00557
3.141 0.086000003 -0.85600001 27 0 0 0 0.0055800001
3.109 0.086999997 -0.85699999 28 0 0 0 0.0055900002
3.0699999 0.088 -0.85699999 27 0 0 0 0.0055999998
3.029 0.089000002 -0.85500002 27 0 0 0 0.0056099999
2.99 0.090000004 -0.85399997 26 0 0 0 0.00562
2.947 0.090000004 -0.852 26 0 0 0 0.00563
2.908 0.090999998 -0.85000002 25 0 0 0 0.0056400001
2.8710001 0.092 -0.84899998 25 0 0 0 0.0056500002
2.8380001 0.093000002 -0.84799999 25 0 0 0 0.0056599998
2.8 0.093000002 -0.84600002 23 0 0 0 0.0056699999
2.7720001 0.094999999 -0.847 23 0 0 0 0.0056799999
2.74 0.094999999 -0.84600002 24 0 0 0 0.00569
2.7090001 0.096000001 -0.84500003 24 0 0 0 0.0057000001
2.6849999 0.097000003 -0.847 24 0 0 0 0.0057100002
2.6530001 0.097999997 -0.84600002 23 0 0 0 0.0057199998
2.6199999 0.098999999 -0.84399998 24 0 0 0 0.0057299999
2.598 0.1 -0.84500003 24 0 0 0 0.0057399999
2.5650001 0.101 -0.84299999 23 0 0 0 0.00575
2.539 0.102 -0.84299999 23 0 0 0 0.0057600001
2.51 0.103 -0.84100002 23 0 0 0 0.0057700002
2.4809999 0.104 -0.83999997 23 0 0 0 0.0057799998
2.46 0.105 -0.84100002 22 0 0 0 0.0057899999
2.434 0.106 -0.83999997 22 0 0 0 0.0057999999
2.408 0.106 -0.83899999 23 0 0 0 0.00581
2.3900001 0.108 -0.83999997 23 0 0 0 0.0058200001
2.365 0.109 -0.83999997 23 0 0 0 0.0058300002
2.345 0.11 -0.83999997 24 0 0 0 0.0058400002
2.322 0.111 -0.83999997 23 0 0 0 0.0058499998
2.3 0.112 -0.83899999 26 0 0 0 0.0058599999
2.2780001 0.113 -0.83899999 30 0 0 0 0.00587
2.2620001 0.114 -0.83999997 30 0 0 0 0.0058800001
2.24 0.115 -0.83999997 30 0 0 0 0.0058900001
2.2179999 0.116 -0.83899999 29 0 0 0 0.0059000002
2.198 0.117 -0.838 29 0 0 0 0.0059099998
2.1789999 0.118 -0.838 28 0 0 0 0.0059199999
2.1600001 0.119 -0.838 29 0 0 0 0.00593
2.141 0.12 -0.83700001 28 0 0 0 0.0059400001
2.1270001 0.122 -0.83899999 27 0 0 0 0.0059500001
2.1059999 0.122 -0.83700001 28 0 0 0 0.0059600002
2.0880001 0.123 -0.83700001 29 0 0 0 0.0059699998
2.0710001 0.125 -0.83700001 29 0 0 0 0.0059799999
2.056 0.126 -0.838 28 0 0 0 0.00599
2.0409999 0.127 -0.838 29 0 0 0 0.0060000001
2.0220001 0.12800001 -0.83700001 29 0 0 0 0.0060100001
2.006 0.12899999 -0.83700001 30 0 0 0 0.0060200002
1.988 0.13 -0.83600003 29 0 0 0 0.0060299998
1.9680001 0.131 -0.83399999 30 0 0 0 0.0060399999
1.956 0.132 -0.83499998 28 0 0 0 0.00605
1.946 0.134 -0.83700001 26 0 0 0 0.00606
1.928 0.13500001 -0.83499998 23 0 0 0 0.0060700001
1.9220001 0.13600001 -0.83899999 21 0 0 0 0.0060800002
1.906 0.13699999 -0.838 20 0 0 0 0.0060899998
1.886 0.138 -0.83499998 20 0 0 0 0.0060999999
1.875 0.14 -0.83700001 23 0 0 0 0.00611
1.859 0.141 -0.83499998 26 0 0 0 0.00612
1.847 0.142 -0.83600003 29 0 0 0 0.0061300001
1.837 0.14300001 -0.83700001 32 0 0 0 0.0061400002
1.821 0.14399999 -0.83499998 34 0 0 0 0.0061499998
1.807 0.145 -0.83499998 32 0 0 0 0.0061599999
1.796 0.147 -0.83499998 29 0 0 0 0.0061699999
1.7819999 0.148 -0.83399999 31 0 0 0 0.00618
1.773 0.149 -0.83600003 13 0 0 0 0.0061900001
1.76 0.15000001 -0.83499998 0 0 0 0 0.0062000002
1.739 0.15099999 -0.83099997 41 0 0 0 0.0062099998
1.742 0.153 -0.838 13 0 0 0 0.0062199999
1.726 0.154 -0.83499998 12 0 0 0 0.0062299999
1.715 0.156 -0.83499998 12 0 0 0 0.00624
1.704 0.15700001 -0.83499998 12 0 0 0 0.0062500001
1.698 0.15899999 -0.83700001 12 0 0 0 0.0062600002
1.684 0.16 -0.83499998 12 0 0 0 0.0062699998
1.6799999 0.161 -0.838 12 0 0 0 0.0062799999
1.663 0.162 -0.83499998 12 0 0 0 0.0062899999
1.654 0.164 -0.83499998 12 0 0 0 0.0063
1.6440001 0.16500001 -0.83499998 12 0 0 0 0.0063100001
1.636 0.16599999 -0.83600003 13 0 0 0 0.0063200002
1.626 0.168 -0.83600003 13 0 0 0 0.0063299998
1.6210001 0.169 -0.838 13 0 0 0 0.0063399998
1.61 0.171 -0.83700001 12 0 0 0 0.0063499999
1.589 0.171 -0.83099997 53 0 0 0 0.00636
1.587 0.17299999 -0.83399999 13 0 0 0 0.0063700001
1.582 0.175 -0.83600003 13 0 0 0 0.0063800002
1.573 0.176 -0.83600003 13 0 0 0 0.0063900002
1.564 0.177 -0.83600003 13 0 0 0 0.0063999998
1.562 0.17900001 -0.83899999 13 0 0 0 0.0064099999
1.5470001 0.18000001 -0.83499998 12 0 0 0 0.00642
1.533 0.18099999 -0.83200002 13 0 0 0 0.0064300001
1.528 0.183 -0.83399999 13 0 0 0 0.0064400001
1.515 0.183 -0.83099997 12 0 0 0 0.0064500002
1.51 0.185 -0.83200002 12 0 0 0 0.0064599998
1.505 0.18700001 -0.833 12 0 0 0 0.0064699999
1.494 0.18799999 -0.83099997 12 0 0 0 0.00648
1.487 0.189 -0.83099997 12 0 0 0 0.0064900001
1.484 0.191 -0.83399999 12 0 0 0 0.0065000001
1.478 0.193 -0.83399999 12 0 0 0 0.0065100002
1.469 0.19400001 -0.833 13 0 0 0 0.0065199998
1.462 0.19599999 -0.833 13 0 0 0 0.0065299999
1.457 0.197 -0.83399999 13 0 0 0 0.00654
1.449 0.199 -0.833 11 0 0 0 0.00655
1.447 0.20100001 -0.83499998 10 0 0 0 0.0065600001
1.4349999 0.20200001 -0.83200002 11 0 0 0 0.0065700002
1.4299999 0.20299999 -0.83200002 11 0 0 0 0.0065799998
1.424 0.205 -0.83200002 13 0 0 0 0.0065899999
1.418 0.206 -0.83200002 13 0 0 0 0.0066
1.4119999 0.208 -0.83200002 13 0 0 0 0.00661
1.405 0.20900001 -0.83099997 13 0 0 0 0.0066200001
1.403 0.211 -0.833 13 0 0 0 0.0066300002
1.396 0.213 -0.83200002 13 0 0 0 0.0066399998
1.393 0.214 -0.83399999 14 0 0 0 0.0066499999
1.386 0.21600001 -0.833 13 0 0 0 0.00666
1.378 0.21699999 -0.83099997 13 0 0 0 0.00667
1.369 0.21799999 -0.82800001 14 0 0 0 0.0066800001
1.37 0.22 -0.83099997 13 0 0 0 0.0066900002
1.365 0.222 -0.83099997 13 0 0 0 0.0066999998
1.36 0.22400001 -0.83099997 13 0 0 0 0.0067099999
1.353 0.22499999 -0.82999998 13 0 0 0 0.0067199999
1.352 0.227 -0.83200002 13 0 0 0 0.00673
1.345 0.228 -0.82999998 13 0 0 0 0.0067400001
1.34 0.23 -0.82999998 14 0 0 0 0.0067500002
1.337 0.23100001 -0.82999998 13 0 0 0 0.0067599998
1.3380001 0.234 -0.833 14 0 0 0 0.0067699999
1.33 0.235 -0.83099997 14 0 0 0 0.0067799999
1.327 0.237 -0.83099997 14 0 0 0 0.00679
1.327 0.23899999 -0.83399999 14 0 0 0 0.0068000001
1.319 0.23999999 -0.83099997 14 0 0 0 0.0068100002
1.3150001 0.242 -0.83099997 14 0 0 0 0.0068199998
1.317 0.244 -0.833 14 0 0 0 0.0068299999
1.312 0.24600001 -0.833 14 0 0 0 0.0068399999
1.303 0.24600001 -0.829 14 0 0 0 0.00685
1.304 0.249 -0.83099997 14 0 0 0 0.0068600001
1.301 0.25099999 -0.83099997 14 0 0 0 0.0068700002
1.3 0.25299999 -0.833 14 0 0 0 0.0068799998
1.295 0.25400001 -0.83099997 14 0 0 0 0.0068899998
1.294 0.25600001 -0.83200002 14 0 0 0 0.0068999999
1.288 0.257 -0.82999998 14 0 0 0 0.00691
1.2869999 0.259 -0.83099997 14 0 0 0 0.0069200001
1.2819999 0.25999999 -0.829 14 0 0 0 0.0069300001
1.281 0.26199999 -0.82999998 15 0 0 0 0.0069400002
1.279 0.264 -0.82999998 15 0 0 0 0.0069499998
1.278 0.266 -0.83099997 58 0 0 0 0.0069599999
1.277 0.26800001 -0.83099997 54 0 0 0 0.00697
1.274 0.27000001 -0.82999998 55 0 0 0 0.0069800001
1.273 0.27200001 -0.83099997 55 0 0 0 0.0069900001
1.275 0.27399999 -0.833 46 0 0 0 0.0070000002
1.271 0.27599999 -0.83200002 43 0 0 0 0.0070099998
1.268 0.27700001 -0.83099997 39 0 0 0 0.0070199999
1.253 0.27599999 -0.82099998 88 0 0 0 0.00703
1.266 0.28099999 -0.83099997 41 0 0 0 0.0070400001
1.265 0.28299999 -0.83099997 33 0 0 0 0.0070500001
1.266 0.285 -0.83200002 33 0 0 0 0.0070600002
1.2640001 0.287 -0.83200002 33 0 0 0 0.0070699998
1.25 0.28600001 -0.82300001 87 0 0 0 0.0070799999
1.247 0.287 -0.82099998 78 0 0 0 0.00709
1.249 0.289 -0.82300001 85 0 0 0 0.0071
1.263 0.29499999 -0.833 29 0 0 0 0.0071100001
1.248 0.29300001 -0.82300001 86 0 0 0 0.0071200002
1.248 0.29499999 -0.82300001 85 0 0 0 0.0071299998
1.245 0.296 -0.82200003 82 0 0 0 0.0071399999
1.247 0.29899999 -0.82300001 85 0 0 0 0.00715
1.2460001 0.30000001 -0.82200003 88 0 0 0 0.00716
1.247 0.30199999 -0.82300001 88 0 0 0 0.0071700001
1.247 0.30399999 -0.82200003 87 0 0 0 0.0071800002
1.2539999 0.308 -0.82700002 88 0 0 0 0.0071899998
1.2460001 0.308 -0.82200003 85 0 0 0 0.0071999999
1.248 0.31 -0.82200003 87 0 0 0 0.00721
1.252 0.31200001 -0.82499999 83 0 0 0 0.00722
1.253 0.315 -0.82499999 92 0 0 0 0.0072300001
1.2539999 0.31600001 -0.82499999 87 0 0 0 0.0072400002
1.256 0.31900001 -0.82599998 91 0 0 0 0.0072499998
1.256 0.31999999 -0.82499999 91 0 0 0 0.0072599999
1.256 0.322 -0.824 87 0 0 0 0.0072699999
1.257 0.324 -0.824 87 0 0 0 0.00728
1.261 0.32600001 -0.82599998 86 0 0 0 0.0072900001
1.2640001 0.329 -0.82700002 91 0 0 0 0.0073000002
1.274 0.333 -0.833 26 0 0 0 0.0073099998
1.2640001 0.33199999 -0.82499999 84 0 0 0 0.0073199999
1.267 0.33399999 -0.82499999 87 0 0 0 0.0073299999
1.268 0.336 -0.82499999 86 0 0 0 0.00734
1.274 0.33899999 -0.82800001 85 0 0 0 0.0073500001
1.273 0.34 -0.82599998 86 0 0 0 0.0073600002
1.274 0.34200001 -0.82499999 86 0 0 0 0.0073699998
1.277 0.34400001 -0.82599998 85 0 0 0 0.0073799998
1.278 0.345 -0.82499999 87 0 0 0 0.0073899999
1.2819999 0.34799999 -0.82599998 85 0 0 0 0.0074
1.288 0.35100001 -0.82800001 89 0 0 0 0.0074100001
1.291 0.35299999 -0.82800001 82 0 0 0 0.0074200002
1.2970001 0.35600001 -0.82999998 84 0 0 0 0.0074300002
1.2970001 0.35699999 -0.829 81 0 0 0 0.0074399998
1.309 0.361 -0.83499998 33 0 0 0 0.0074499999
1.306 0.36199999 -0.82999998 84 0 0 0 0.00746
1.316 0.36500001 -0.83399999 36 0 0 0 0.0074700001
1.319 0.36700001 -0.83399999 39 0 0 0 0.0074800001
0 0 0 0 0 0 0 0.0074900002
1.326 0.37099999 -0.83499998 36 0 0 0 0.0074999998
1.327 0.37200001 -0.833 47 0 0 0 0.0075099999
1.3329999 0.375 -0.83499998 47 0 0 0 0.00752
1.336 0.377 -0.83399999 47 0 0 0 0.0075300001
1.3430001 0.38 -0.83499998 44 0 0 0 0.0075400001
1.348 0.382 -0.83600003 48 0 0 0 0.0075500002
1.35 0.38299999 -0.83499998 49 0 0 0 0.0075599998
1.3559999 0.38600001 -0.83600003 47 0 0 0 0.0075699999
1.3609999 0.38800001 -0.83600003 47 0 0 0 0.00758
1.3660001 0.38999999 -0.83600003 15 0 0 0 0.0075900001
1.37 0.39199999 -0.83600003 15 0 0 0 0.0076000001
1.375 0.39399999 -0.83600003 15 0 0 0 0.0076100002
1.38 0.396 -0.83600003 15 0 0 0 0.0076199998
1.385 0.398 -0.83600003 15 0 0 0 0.0076299999
1.3940001 0.40099999 -0.83899999 15 0 0 0 0.00764
1.397 0.40200001 -0.838 15 0 0 0 0.00765
1.404 0.405 -0.838 15 0 0 0 0.0076600001
1.4069999 0.40599999 -0.83700001 15 0 0 0 0.0076700002
1.414 0.40799999 -0.838 13 0 0 0 0.0076799998
1.419 0.41 -0.83700001 12 0 0 0 0.0076899999
1.429 0.41299999 -0.83999997 12 0 0 0 0.0077
1.4349999 0.41499999 -0.83999997 13 0 0 0 0.00771
1.4400001 0.417 -0.83899999 14 0 0 0 0.0077200001
1.447 0.419 -0.83899999 14 0 0 0 0.0077300002
1.451 0.41999999 -0.83899999 14 0 0 0 0.0077399998
1.459 0.42300001 -0.83899999 14 0 0 0 0.0077499999
1.464 0.42399999 -0.838 14 0 0 0 0.0077599999
1.465 0.42500001 -0.83499998 13 0 0 0 0.00777
1.485 0.43000001 -0.84299999 14 0 0 0 0.0077800001
1.495 0.433 -0.84399998 14 0 0 0 0.0077900002
1.498 0.43399999 -0.84200001 14 0 0 0 0.0077999998
1.501 0.435 -0.83999997 14 0 0 0 0.0078099999
1.515 0.43799999 -0.84299999 14 0 0 0 0.0078199999
1.522 0.44 -0.84299999 14 0 0 0 0.0078299996
1.528 0.442 -0.84200001 14 0 0 0 0.0078400001
1.543 0.44600001 -0.84600002 14 0 0 0 0.0078499997
1.551 0.44800001 -0.84600002 14 0 0 0 0.0078600002
1.5549999 0.449 -0.84399998 14 0 0 0 0.0078699999
1.566 0.45100001 -0.84500003 14 0 0 0 0.0078800004
1.572 0.45199999 -0.84399998 14 0 0 0 0.00789
1.58 0.454 -0.84399998 14 0 0 0 0.0078999996
1.591 0.45699999 -0.84500003 14 0 0 0 0.0079100002
1.5880001 0.456 -0.83899999 47 0 0 0 0.0079199998
1.599 0.458 -0.83999997 41 0 0 0 0.0079300003
1.609 0.46000001 -0.83999997 32 0 0 0 0.0079399999
1.6210001 0.463 -0.84200001 29 0 0 0 0.0079500005
1.6289999 0.46399999 -0.84100002 25 0 0 0 0.0079600001
1.64 0.46700001 -0.84200001 22 0 0 0 0.0079699997
1.655 0.47 -0.84500003 4 0 0 0 0.0079800002
1.6619999 0.47099999 -0.84299999 22 0 0 0 0.0079899998
1.669 0.472 -0.84200001 25 0 0 0 0.0080000004
1.6849999 0.47600001 -0.84500003 13 0 0 0 0.00801
1.691 0.47600001 -0.84299999 29 0 0 0 0.0080199996
1.701 0.47799999 -0.84200001 33 0 0 0 0.0080300001
1.7130001 0.47999999 -0.84299999 35 0 0 0 0.0080399998
1.722 0.48199999 -0.84200001 40 0 0 0 0.0080500003
1.732 0.48300001 -0.84200001 40 0 0 0 0.0080599999
1.744 0.48500001 -0.84200001 39 0 0 0 0.0080700004
1.757 0.48800001 -0.84299999 34 0 0 0 0.0080800001
1.774 0.491 -0.84600002 34 0 0 0 0.0080899997
1.785 0.493 -0.84600002 49 0 0 0 0.0081000002
1.796 0.49399999 -0.84500003 44 0 0 0 0.0081099998
1.8049999 0.495 -0.84399998 40 0 0 0 0.0081200004
1.8200001 0.498 -0.84500003 39 0 0 0 0.00813
1.829 0.49900001 -0.84399998 39 0 0 0 0.0081399996
1.847 0.50199997 -0.84600002 36 0 0 0 0.0081500001
1.857 0.50300002 -0.84500003 35 0 0 0 0.0081599997
1.868 0.505 -0.84399998 37 0 0 0 0.0081700003
1.8839999 0.50700003 -0.84500003 35 0 0 0 0.0081799999
1.8940001 0.50800002 -0.84299999 34 0 0 0 0.0081900004
1.9119999 0.51099998 -0.84600002 35 0 0 0 0.0082
1.924 0.51300001 -0.84500003 35 0 0 0 0.0082099997
1.942 0.51499999 -0.847 35 0 0 0 0.0082200002
1.955 0.51700002 -0.84600002 36 0 0 0 0.0082299998
1.969 0.51899999 -0.84600002 35 0 0 0 0.0082400003
1.982 0.51999998 -0.84500003 34 0 0 0 0.00825
1.995 0.52100003 -0.84500003 34 0 0 0 0.0082599996
2.0150001 0.52399999 -0.84600002 34 0 0 0 0.0082700001
2.029 0.52600002 -0.84600002 34 0 0 0 0.0082799997
2.0469999 0.528 -0.847 35 0 0 0 0.0082900003
2.0599999 0.52899998 -0.84600002 34 0 0 0 0.0082999999
2.0769999 0.53100002 -0.847 32 0 0 0 0.0083100004
2.0940001 0.53299999 -0.847 30 0 0 0 0.00832
2.108 0.53399998 -0.84600002 30 0 0 0 0.0083299996
2.1240001 0.53600001 -0.84600002 32 0 0 0 0.0083400002
2.1440001 0.53799999 -0.847 32 0 0 0 0.0083499998
2.1659999 0.54100001 -0.84799999 33 0 0 0 0.0083600003
2.1800001 0.542 -0.847 33 0 0 0 0.0083699999
2.201 0.54400003 -0.84799999 46 0 0 0 0.0083799995
2.211 0.54400003 -0.84500003 150 0 0 0 0.0083900001
2.2160001 0.542 -0.83999997 151 0 0 0 0.0083999997
2.2160001 0.53899997 -0.833 151 0 0 0 0.0084100002
2.2190001 0.537 -0.82700002 151 0 0 0 0.0084199999
2.2149999 0.53299999 -0.81900001 151 0 0 0 0.0084300004
2.2130001 0.52999997 -0.81099999 151 0 0 0 0.00844
2.217 0.528 -0.80599999 151 0 0 0 0.0084499996
2.211 0.523 -0.796 151 0 0 0 0.0084600002
2.2149999 0.52100003 -0.79100001 151 0 0 0 0.0084699998
2.2190001 0.51899999 -0.78600001 150 0 0 0 0.0084800003
2.2249999 0.51800001 -0.78100002 150 0 0 0 0.0084899999
2.2349999 0.51700002 -0.77700001 150 0 0 0 0.0085000005
2.2490001 0.51700002 -0.77499998 151 0 0 0 0.0085100001
2.2490001 0.514 -0.76800001 151 0 0 0 0.0085199997
2.244 0.509 -0.75999999 152 0 0 0 0.0085300002
2.2460001 0.50700003 -0.75300002 152 0 0 0 0.0085399998
2.2479999 0.50400001 -0.74699998 151 0 0 0 0.0085500004
2.2520001 0.50099999 -0.741 150 0 0 0 0.00856
2.2550001 0.49900001 -0.736 137 0 0 0 0.0085699996
2.2739999 0.5 -0.73500001 24 0 0 0 0.0085800001
2.3199999 0.50599998 -0.74199998 15 0 0 0 0.0085899998
2.3440001 0.50800002 -0.74299997 14 0 0 0 0.0086000003
2.369 0.50999999 -0.74299997 13 0 0 0 0.0086099999
2.3900001 0.51099998 -0.74299997 13 0 0 0 0.0086200004
2.421 0.51300001 -0.745 12 0 0 0 0.0086300001
2.451 0.51599997 -0.74699998 13 0 0 0 0.0086399997
2.4749999 0.51700002 -0.74699998 14 0 0 0 0.0086500002
2.4979999 0.51800001 -0.74599999 14 0 0 0 0.0086599998
2.523 0.51899999 -0.74599999 14 0 0 0 0.0086700004
2.556 0.52200001 -0.74800003 13 0 0 0 0.00868
2.586 0.52399999 -0.74900001 13 0 0 0 0.0086899996
2.6159999 0.52600002 -0.75 14 0 0 0 0.0087000001
2.6489999 0.52899998 -0.75099999 14 0 0 0 0.0087099997
2.681 0.53100002 -0.75199997 13 0 0 0 0.0087200003
2.7130001 0.53299999 -0.75300002 12 0 0 0 0.0087299999
2.7539999 0.53600001 -0.75599998 12 0 0 0 0.0087400004
2.79 0.53899997 -0.75800002 13 0 0 0 0.00875
2.825 0.54100001 -0.759 12 0 0 0 0.0087599996
2.8640001 0.54299998 -0.76099998 11 0 0 0 0.0087700002
2.9189999 0.54900002 -0.76700002 14 0 0 0 0.0087799998
2.9790001 0.55500001 -0.77399999 26 0 0 0 0.0087900003
3.046 0.56300002 -0.78200001 30 0 0 0 0.0088
3.0769999 0.56300002 -0.78100002 30 0 0 0 0.0088099996
3.1129999 0.565 -0.78100002 30 0 0 0 0.0088200001
3.1489999 0.56599998 -0.78100002 30 0 0 0 0.0088299997
3.191 0.56800002 -0.78200001 30 0 0 0 0.0088400003
3.23 0.56999999 -0.78200001 32 0 0 0 0.0088499999
3.2579999 0.56900001 -0.77899998 62 0 0 0 0.0088600004
3.2690001 0.565 -0.773 150 0 0 0 0.00887
3.27 0.56 -0.76300001 151 0 0 0 0.0088799996
3.273 0.55500001 -0.755 152 0 0 0 0.0088900002
3.276 0.54900002 -0.74599999 151 0 0 0 0.0088999998
3.2720001 0.54299998 -0.736 151 0 0 0 0.0089100003
3.277 0.53799999 -0.727 151 0 0 0 0.0089199999
3.28 0.53299999 -0.71799999 151 0 0 0 0.0089299995
3.2869999 0.528 -0.71100003 150 0 0 0 0.0089400001
3.3039999 0.52499998 -0.70499998 151 0 0 0 0.0089499997
3.3069999 0.51999998 -0.69599998 151 0 0 0 0.0089600002
3.3039999 0.51300001 -0.68599999 151 0 0 0 0.0089699998
3.312 0.509 -0.67799997 151 0 0 0 0.0089800004
3.3199999 0.50400001 -0.671 150 0 0 0 0.00899
3.359 0.50400001 -0.66900003 151 0 0 0 0.0089999996
3.3829999 0.50099999 -0.66399997 152 0 0 0 0.0090100002
3.378 0.495 -0.65399998 151 0 0 0 0.0090199998
3.378 0.48800001 -0.64399999 151 0 0 0 0.0090300003
3.381 0.48300001 -0.63499999 151 0 0 0 0.0090399999
3.381 0.477 -0.62599999 151 0 0 0 0.0090500005
3.3840001 0.47099999 -0.61699998 151 0 0 0 0.0090600001
3.382 0.46399999 -0.60699999 151 0 0 0 0.0090699997
3.382 0.458 -0.59799999 151 0 0 0 0.0090800002
3.3840001 0.45199999 -0.58899999 151 0 0 0 0.0090899998
3.3840001 0.44600001 -0.579 151 0 0 0 0.0091000004
3.3829999 0.43900001 -0.56999999 151 0 0 0 0.00911
3.3889999 0.43399999 -0.56199998 151 0 0 0 0.0091199996
3.385 0.42699999 -0.55199999 151 0 0 0 0.0091300001
3.3889999 0.421 -0.54299998 151 0 0 0 0.0091399997
3.3889999 0.41499999 -0.53399998 151 0 0 0 0.0091500003
3.385 0.40799999 -0.52399999 151 0 0 0 0.0091599999
3.3870001 0.40200001 -0.51499999 151 0 0 0 0.0091700004
3.3870001 0.396 -0.50599998 151 0 0 0 0.0091800001
3.3889999 0.389 -0.49700001 151 0 0 0 0.0091899997
3.3900001 0.38299999 -0.48800001 151 0 0 0 0.0092000002
3.3900001 0.377 -0.479 151 0 0 0 0.0092099998
3.391 0.37 -0.47 151 0 0 0 0.0092200004
3.3940001 0.36399999 -0.461 151 0 0 0 0.00923
3.391 0.35699999 -0.45199999 151 0 0 0 0.0092399996
3.392 0.35100001 -0.44299999 151 0 0 0 0.0092500001
3.3940001 0.345 -0.43399999 151 0 0 0 0.0092599997
3.3959999 0.338 -0.42500001 151 0 0 0 0.0092700003
3.398 0.33199999 -0.41600001 151 0 0 0 0.0092799999
3.3940001 0.32499999 -0.40700001 151 0 0 0 0.0092900004
3.3959999 0.31900001 -0.398 151 0 0 0 0.0093
3.398 0.31200001 -0.389 151 0 0 0 0.0093099996
3.3940001 0.30500001 -0.38 151 0 0 0 0.0093200002
3.3900001 0.29800001 -0.37 151 0 0 0 0.0093299998
3.3970001 0.292 -0.36199999 151 0 0 0 0.0093400003
3.3959999 0.28600001 -0.35299999 151 0 0 0 0.0093499999
3.3929999 0.27900001 -0.34400001 151 0 0 0 0.0093599996
3.3989999 0.27200001 -0.336 151 0 0 0 0.0093700001
3.4000001 0.266 -0.32699999 152 0 0 0 0.0093799997
3.3959999 0.259 -0.31799999 152 0 0 0 0.0093900003
3.402 0.25299999 -0.31 152 0 0 0 0.0093999999
3.4030001 0.24600001 -0.301 152 0 0 0 0.0094100004
3.404 0.23899999 -0.292 152 0 0 0 0.00942
3.402 0.23199999 -0.28299999 152 0 0 0 0.0094299996
3.4030001 0.226 -0.27399999 152 0 0 0 0.0094400002
3.4059999 0.219 -0.266 152 0 0 0 0.0094499998
3.402 0.212 -0.257 152 0 0 0 0.0094600003
3.4030001 0.205 -0.248 152 0 0 0 0.0094699999
3.404 0.198 -0.23999999 152 0 0 0 0.0094799995
3.405 0.192 -0.23100001 152 0 0 0 0.0094900001
3.4000001 0.184 -0.222 153 0 0 0 0.0094999997
3.3959999 0.177 -0.213 153 0 0 0 0.0095100002
3.3970001 0.171 -0.204 153 0 0 0 0.0095199998
3.398 0.164 -0.19599999 153 0 0 0 0.0095300004
3.3940001 0.15700001 -0.18700001 154 0 0 0 0.00954
3.391 0.15000001 -0.178 154 0 0 0 0.0095499996
3.392 0.14300001 -0.17 154 0 0 0 0.0095600002
3.3929999 0.13600001 -0.161 154 0 0 0 0.0095699998
3.392 0.12899999 -0.153 154 0 0 0 0.0095800003
3.3859999 0.122 -0.14399999 154 0 0 0 0.0095899999
3.3929999 0.115 -0.13600001 154 0 0 0 0.0096000005
3.395 0.108 -0.127 154 0 0 0 0.0096100001
3.3959999 0.101 -0.119 154 0 0 0 0.0096199997
3.401 0.093999997 -0.11 154 0 0 0 0.0096300002
3.3970001 0.086999997 -0.102 154 0 0 0 0.0096399998
3.3970001 0.079999998 -0.093000002 154 0 0 0 0.0096500004
3.401 0.072999999 -0.085000001 154 0 0 0 0.00966
3.4030001 0.066 -0.075999998 153 0 0 0 0.0096699996
3.4059999 0.059 -0.068000004 153 0 0 0 0.0096800001
3.4070001 0.052000001 -0.059999999 153 0 0 0 0.0096899997
3.4070001 0.045000002 -0.050999999 153 0 0 0 0.0097000003
3.4119999 0.037 -0.043000001 153 0 0 0 0.0097099999
3.418 0.029999999 -0.035 152 0 0 0 0.0097200004
3.4200001 0.023 -0.026000001 152 0 0 0 0.00973
3.4219999 0.016000001 -0.017999999 151 0 0 0 0.0097399997
3.4219999 0.0089999996 -0.0089999996 152 0 0 0 0.0097500002
3.421 0.001 -0.001 152 0 0 0 0.0097599998
3.421 -0.0049999999 0.0060000001 152 0 0 0 0.0097700004
3.424 -0.012 0.015 151 0 0 0 0.00978
3.425 -0.018999999 0.023 152 0 0 0 0.0097899996
3.427 -0.027000001 0.030999999 151 0 0 0 0.0098000001
3.421 -0.034000002 0.039999999 151 0 0 0 0.0098099997
3.427 -0.041000001 0.048 151 0 0 0 0.0098200003
3.4319999 -0.048999999 0.056000002 151 0 0 0 0.0098299999
3.4200001 -0.056000002 0.064000003 151 0 0 0 0.0098400004
3.4200001 -0.063000001 0.072999999 151 0 0 0 0.00985
3.4330001 -0.071000002 0.081 151 0 0 0 0.0098599996
3.431 -0.078000002 0.090000004 151 0 0 0 0.0098700002
3.431 -0.086000003 0.097999997 151 0 0 0 0.0098799998
3.431 -0.093000002 0.106 151 0 0 0 0.0098900003
3.4360001 -0.101 0.114 151 0 0 0 0.0098999999
3.431 -0.108 0.122 151 0 0 0 0.0099099996
3.4349999 -0.116 0.131 151 0 0 0 0.0099200001
3.434 -0.124 0.139 151 0 0 0 0.0099299997
3.438 -0.131 0.147 151 0 0 0 0.0099400003
3.4400001 -0.139 0.156 151 0 0 0 0.0099499999
3.4360001 -0.146 0.164 151 0 0 0 0.0099600004
3.437 -0.154 0.17200001 151 0 0 0 0.00997
3.441 -0.162 0.18000001 152 0 0 0 0.0099799996
3.441 -0.169 0.18799999 152 0 0 0 0.0099900002
3.3959999 -0.175 0.19400001 150 0 0 0 0.0099999998
3.3789999 -0.18099999 0.20100001 151 0 0 0 0.01001
3.372 -0.189 0.208 151 0 0 0 0.01002
3.3770001 -0.19599999 0.21699999 152 0 0 0 0.01003
3.3629999 -0.20299999 0.22400001 150 0 0 0 0.01004
3.3410001 -0.20900001 0.23 150 0 0 0 0.01005
3.345 -0.21699999 0.23800001 151 0 0 0 0.01006
3.3469999 -0.22499999 0.24600001 151 0 0 0 0.01007
3.346 -0.23199999 0.25400001 151 0 0 0 0.01008
3.348 -0.23999999 0.26199999 152 0 0 0 0.01009
3.3429999 -0.24699999 0.26899999 151 0 0 0 0.0101
3.336 -0.25400001 0.27700001 60 0 0 0 0.01011
3.2479999 -0.255 0.27700001 150 0 0 0 0.01012
3.2349999 -0.26100001 0.28299999 151 0 0 0 0.01013
3.2360001 -0.26899999 0.29100001 151 0 0 0 0.01014
3.2390001 -0.27700001 0.29899999 151 0 0 0 0.01015
3.2390001 -0.28400001 0.30599999 151 0 0 0 0.01016
3.237 -0.292 0.31299999 151 0 0 0 0.01017
3.24 -0.29899999 0.32100001 151 0 0 0 0.01018
3.243 -0.30700001 0.329 151 0 0 0 0.01019
3.22 -0.31299999 0.33399999 150 0 0 0 0.0102
3.211 -0.31900001 0.34 151 0 0 0 0.01021
3.2119999 -0.32699999 0.34799999 151 0 0 0 0.01022
3.2149999 -0.33399999 0.35600001 151 0 0 0 0.01023
3.21 -0.34200001 0.36199999 151 0 0 0 0.01024
3.2149999 -0.34999999 0.37 151 0 0 0 0.01025
3.2119999 -0.35699999 0.377 151 0 0 0 0.01026
3.102 -0.352 0.37099999 151 0 0 0 0.01027
2.8570001 -0.331 0.34900001 150 0 0 0 0.01028
2.569 -0.30399999 0.31900001 22 0 0 0 0.01029
2.529 -0.30500001 0.31999999 20 0 0 0 0.0103
2.4849999 -0.30599999 0.31999999 17 0 0 0 0.01031
2.447 -0.30700001 0.32100001 16 0 0 0 0.01032
2.404 -0.30700001 0.31999999 19 0 0 0 0.01033
2.3840001 -0.31099999 0.32300001 29 0 0 0 0.01034
2.3840001 -0.31600001 0.329 13 0 0 0 0.01035
2.3870001 -0.32300001 0.33399999 0 0 0 0 0.01036
2.398 -0.33000001 0.34099999 0 0 0 0 0.01037
0 0 0 0 0 0 0 0.01038
0 0 0 0 0 0 0 0.01039
0 0 0 0 0 0 0 0.0104
0 0 0 0 0 0 0 0.01041
0 0 0 0 0 0 0 0.01042
0 0 0 0 0 0 0 0.01043
0 0 0 0 0 0 0 0.01044
0 0 0 0 0 0 0 0.01045
0 0 0 0 0 0 0 0.01046
0 0 0 0 0 0 0 0.01047
0 0 0 0 0 0 0 0.01048
0 0 0 0 0 0 0 0.01049
0 0 0 0 0 0 0 0.0105
0 0 0 0 0 0 0 0.01051
0 0 0 0 0 0 0 0.01052
0 0 0 0 0 0 0 0.01053
0 0 0 0 0 0 0 0.01054
0 0 0 0 0 0 0 0.01055
0 0 0 0 0 0 0 0.01056
0 0 0 0 0 0 0 0.01057
0 0 0 0 0 0 0 0.01058
0 0 0 0 0 0 0 0.01059
0 0 0 0 0 0 0 0.0106
0 0 0 0 0 0 0 0.01061
0 0 0 0 0 0 0 0.01062
0 0 0 0 0 0 0 0.01063
0 0 0 0 0 0 0 0.01064
0 0 0 0 0 0 0 0.01065
0 0 0 0 0 0 0 0.01066
0 0 0 0 0 0 0 0.01067
0 0 0 0 0 0 0 0.01068
0 0 0 0 0 0 0 0.01069
0 0 0 0 0 0 0 0.0107
0 0 0 0 0 0 0 0.01071
0 0 0 0 0 0 0 0.01072
0 0 0 0 0 0 0 0.01073
0 0 0 0 0 0 0 0.01074
0 0 0 0 0 0 0 0.01075
0 0 0 0 0 0 0 0.01076
0 0 0 0 0 0 0 0.01077
0 0 0 0 0 0 0 0.01078
0 0 0 0 0 0 0 0.01079
2.447 -0.60900003 0.574 0 0 0 0 0.0108
0 0 0 0 0 0 0 0.01081
0 0 0 0 0 0 0 0.01082
0 0 0 0 0 0 0 0.01083
0 0 0 0 0 0 0 0.01084
2.415 -0.634 0.59100002 0 0 0 0 0.01085
0 0 0 0 0 0 0 0.01086
0 0 0 0 0 0 0 0.01087
0 0 0 0 0 0 0 0.01088
0 0 0 0 0 0 0 0.01089
0 0 0 0 0 0 0 0.0109
2.3989999 -0.67000002 0.61500001 0 0 0 0 0.01091
2.3759999 -0.67000002 0.61400002 0 0 0 0 0.01092
2.362 -0.67299998 0.61400002 0 0 0 0 0.01093
0 0 0 0 0 0 0 0.01094
2.3770001 -0.69 0.62800002 0 0 0 0 0.01095
2.3929999 -0.70200002 0.63599998 0 0 0 0 0.01096
2.4330001 -0.72000003 0.65100002 0 0 0 0 0.01097
2.427 -0.72600001 0.65499997 0 0 0 0 0.01098
2.402 -0.72500002 0.65200001 0 0 0 0 0.01099
2.428 -0.74000001 0.66399997 0 0 0 0 0.011
2.4030001 -0.73900002 0.66100001 0 0 0 0 0.01101
2.4170001 -0.75099999 0.67000002 0 0 0 0 0.01102
2.993 -0.93800002 0.83499998 0 0 0 0 0.01103
2.7490001 -0.86900002 0.77200001 0 0 0 0 0.01104
2.72 -0.86799997 0.76899999 0 0 0 0 0.01105
2.8110001 -0.90499997 0.79900002 0 0 0 0 0.01106
2.928 -0.95099998 0.838 0 0 0 0 0.01107
2.8150001 -0.92299998 0.81 0 0 0 0 0.01108
2.904 -0.96100003 0.84100002 0 0 0 0 0.01109
0 0 0 0 0 0 0 0.0111
0 0 0 0 0 0 0 0.01111
2.974 -1.01 0.87699997 0 0 0 0 0.01112
2.928 -1.003 0.86799997 0 0 0 0 0.01113
2.859 -0.98799998 0.85299999 0 0 0 0 0.01114
4.1669998 -1.452 1.25 19 0 0 0 0.01115
4.0840001 -1.4349999 1.232 47 0 0 0 0.01116
4.073 -1.443 1.2359999 32 0 0 0 0.01117
4.0570002 -1.45 1.237 13 0 0 0 0.01118
3.714 -1.3380001 1.1390001 3 0 0 0 0.01119
3.6900001 -1.34 1.137 2 0 0 0 0.0112
3.7539999 -1.375 1.163 3 0 0 0 0.01121
3.8010001 -1.404 1.184 4 0 0 0 0.01122
3.8989999 -1.451 1.22 9 0 0 0 0.01123
3.852 -1.4450001 1.212 31 0 0 0 0.01124
3.8499999 -1.456 1.217 56 0 0 0 0.01125
3.8710001 -1.475 1.229 30 0 0 0 0.01126
3.842 -1.476 1.226 24 0 0 0 0.01127
3.7709999 -1.46 1.209 36 0 0 0 0.01128
3.6700001 -1.431 1.182 49 0 0 0 0.01129
3.664 -1.4400001 1.1849999 65 0 0 0 0.0113
3.6630001 -1.451 1.1900001 64 0 0 0 0.01131
3.6659999 -1.4630001 1.196 64 0 0 0 0.01132
3.6659999 -1.474 1.202 64 0 0 0 0.01133
3.6689999 -1.4859999 1.2079999 67 0 0 0 0.01134
3.6700001 -1.497 1.2130001 67 0 0 0 0.01135
3.6700001 -1.508 1.2180001 67 0 0 0 0.01136
3.668 -1.5190001 1.222 66 0 0 0 0.01137
3.675 -1.5319999 1.229 67 0 0 0 0.01138
3.6700001 -1.541 1.233 66 0 0 0 0.01139
3.674 -1.554 1.239 67 0 0 0 0.0114
3.6760001 -1.5650001 1.244 67 0 0 0 0.01141
3.674 -1.575 1.247 67 0 0 0 0.01142
3.678 -1.5880001 1.2539999 67 0 0 0 0.01143
3.6800001 -1.6 1.258 67 0 0 0 0.01144
3.678 -1.61 1.262 67 0 0 0 0.01145
3.678 -1.6210001 1.267 65 0 0 0 0.01146
3.6800001 -1.633 1.271 66 0 0 0 0.01147
3.6789999 -1.643 1.275 66 0 0 0 0.01148
3.677 -1.653 1.278 64 0 0 0 0.01149
3.6800001 -1.665 1.283 63 0 0 0 0.0115
3.678 -1.675 1.286 63 0 0 0 0.01151
3.678 -1.6849999 1.29 63 0 0 0 0.01152
3.6830001 -1.698 1.295 62 0 0 0 0.01153
3.6800001 -1.7079999 1.298 61 0 0 0 0.01154
3.681 -1.719 1.302 61 0 0 0 0.01155
3.6830001 -1.7309999 1.306 58 0 0 0 0.01156
3.6830001 -1.7410001 1.309 59 0 0 0 0.01157
3.6819999 -1.751 1.312 58 0 0 0 0.01158
3.687 -1.7640001 1.317 65 0 0 0 0.01159
3.6889999 -1.776 1.321 69 0 0 0 0.0116
3.9809999 -1.928 1.428 150 0 0 0 0.01161
4.2350001 -2.062 1.523 28 0 0 0 0.01162
4.2220001 -2.0680001 1.521 27 0 0 0 0.01163
4.2140002 -2.076 1.522 26 0 0 0 0.01164
4.2080002 -2.085 1.522 28 0 0 0 0.01165
4.1989999 -2.092 1.522 28 0 0 0 0.01166
4.1919999 -2.0999999 1.522 26 0 0 0 0.01167
4.1890001 -2.1099999 1.523 28 0 0 0 0.01168
4.1799998 -2.1170001 1.522 28 0 0 0 0.01169
4.1739998 -2.125 1.523 27 0 0 0 0.0117
4.1690001 -2.1340001 1.523 27 0 0 0 0.01171
4.164 -2.142 1.523 28 0 0 0 0.01172
4.1599998 -2.151 1.524 27 0 0 0 0.01173
4.151 -2.158 1.522 27 0 0 0 0.01174
4.151 -2.1689999 1.524 26 0 0 0 0.01175
4.1459999 -2.1760001 1.524 26 0 0 0 0.01176
4.1430001 -2.1860001 1.524 28 0 0 0 0.01177
4.1399999 -2.1949999 1.524 26 0 0 0 0.01178
4.1360002 -2.2030001 1.524 26 0 0 0 0.01179
4.1409998 -2.2160001 1.527 28 0 0 0 0.0118
4.132 -2.221 1.524 26 0 0 0 0.01181
4.1290002 -2.23 1.524 26 0 0 0 0.01182
4.1290002 -2.24 1.524 26 0 0 0 0.01183
4.1279998 -2.2490001 1.525 26 0 0 0 0.01184
4.1290002 -2.26 1.526 25 0 0 0 0.01185
4.131 -2.2709999 1.527 27 0 0 0 0.01186
4.1279998 -2.2780001 1.525 26 0 0 0 0.01187
4.131 -2.29 1.527 26 0 0 0 0.01188
4.1290002 -2.2980001 1.525 27 0 0 0 0.01189
4.131 -2.3080001 1.526 25 0 0 0 0.0119
4.1350002 -2.3199999 1.527 25 0 0 0 0.01191
4.1389999 -2.3310001 1.528 25 0 0 0 0.01192
4.1360002 -2.3380001 1.526 25 0 0 0 0.01193
4.1440001 -2.3510001 1.528 25 0 0 0 0.01194
4.1500001 -2.3629999 1.53 25 0 0 0 0.01195
4.1500001 -2.372 1.529 25 0 0 0 0.01196
4.1469998 -2.378 1.526 24 0 0 0 0.01197
4.1560001 -2.391 1.528 25 0 0 0 0.01198
4.1589999 -2.402 1.528 24 0 0 0 0.01199
4.164 -2.4119999 1.528 24 0 0 0 0.012
4.1729999 -2.425 1.53 24 0 0 0 0.01201
4.1750002 -2.434 1.528 24 0 0 0 0.01202
4.1820002 -2.4460001 1.529 24 0 0 0 0.01203
4.1890001 -2.457 1.529 24 0 0 0 0.01204
4.1939998 -2.467 1.529 24 0 0 0 0.01205
4.2059999 -2.4809999 1.531 24 0 0 0 0.01206
2.4560001 -1.4529999 0.89200002 0 0 0 0 0.01207
2.4619999 -1.46 0.89300001 0 0 0 0 0.01208
4.2309999 -2.516 1.5319999 24 0 0 0 0.01209
4.2379999 -2.527 1.531 24 0 0 0 0.0121
4.2480001 -2.539 1.531 24 0 0 0 0.01211
4.2600002 -2.552 1.533 24 0 0 0 0.01212
4.2729998 -2.5650001 1.534 24 0 0 0 0.01213
4.2779999 -2.5739999 1.5319999 24 0 0 0 0.01214
4.2919998 -2.5880001 1.533 24 0 0 0 0.01215
4.3049998 -2.602 1.534 24 0 0 0 0.01216
4.3080001 -2.609 1.531 24 0 0 0 0.01217
4.322 -2.622 1.5319999 24 0 0 0 0.01218
4.3410001 -2.638 1.534 24 0 0 0 0.01219
4.355 -2.651 1.535 24 0 0 0 0.0122
4.368 -2.664 1.535 24 0 0 0 0.01221
4.382 -2.6760001 1.535 24 0 0 0 0.01222
4.3990002 -2.691 1.536 24 0 0 0 0.01223
4.4120002 -2.7030001 1.536 24 0 0 0 0.01224
4.4289999 -2.717 1.536 25 0 0 0 0.01225
4.4419999 -2.7279999 1.536 24 0 0 0 0.01226
4.461 -2.743 1.5369999 24 0 0 0 0.01227
4.4749999 -2.7550001 1.536 24 0 0 0 0.01228
4.4850001 -2.7639999 1.534 24 0 0 0 0.01229
4.506 -2.779 1.535 25 0 0 0 0.0123
4.5209999 -2.7909999 1.534 25 0 0 0 0.01231
4.5440001 -2.8069999 1.535 26 0 0 0 0.01232
4.566 -2.823 1.5369999 26 0 0 0 0.01233
4.5830002 -2.835 1.536 27 0 0 0 0.01234
4.6059999 -2.8510001 1.5369999 28 0 0 0 0.01235
4.6209998 -2.862 1.535 26 0 0 0 0.01236
4.6389999 -2.8740001 1.534 21 0 0 0 0.01237
4.6389999 -2.875 1.527 16 0 0 0 0.01238
4.6290002 -2.869 1.517 10 0 0 0 0.01239
4.618 -2.8629999 1.506 4 0 0 0 0.0124
2.4990001 -1.549 0.81099999 0 0 0 0 0.01241
4.6020002 -2.852 1.4859999 2 0 0 0 0.01242
4.619 -2.8629999 1.485 2 0 0 0 0.01243
4.625 -2.8659999 1.479 2 0 0 0 0.01244
4.6370001 -2.8729999 1.475 2 0 0 0 0.01245
4.6139998 -2.8570001 1.46 2 0 0 0 0.01246
4.5279999 -2.803 1.425 2 0 0 0 0.01247
4.4679999 -2.7639999 1.399 9 0 0 0 0.01248
4.4790001 -2.7690001 1.3940001 18 0 0 0 0.01249
4.4809999 -2.7690001 1.387 24 0 0 0 0.0125
4.4829998 -2.7679999 1.38 28 0 0 0 0.01251
4.4850001 -2.767 1.372 29 0 0 0 0.01252
4.4910002 -2.7690001 1.3660001 29 0 0 0 0.01253
4.4910002 -2.766 1.358 28 0 0 0 0.01254
4.5 -2.7679999 1.353 29 0 0 0 0.01255
4.5029998 -2.767 1.345 29 0 0 0 0.01256
4.5110002 -2.7690001 1.34 28 0 0 0 0.01257
4.5159998 -2.7679999 1.3329999 29 0 0 0 0.01258
4.52 -2.766 1.325 28 0 0 0 0.01259
4.5320001 -2.77 1.3200001 29 0 0 0 0.0126
4.539 -2.77 1.314 28 0 0 0 0.01261
4.5450001 -2.7690001 1.307 28 0 0 0 0.01262
4.5539999 -2.77 1.301 28 0 0 0 0.01263
4.5599999 -2.7690001 1.294 28 0 0 0 0.01264
4.5679998 -2.7690001 1.2869999 29 0 0 0 0.01265
4.573 -2.766 1.279 28 0 0 0 0.01266
4.5770001 -2.7639999 1.272 28 0 0 0 0.01267
4.586 -2.7639999 1.265 28 0 0 0 0.01268
4.6009998 -2.766 1.26 26 0 0 0 0.01269
4.6009998 -2.76 1.251 18 0 0 0 0.0127
4.598 -2.7520001 1.2410001 8 0 0 0 0.01271
4.4580002 -2.6619999 1.194 0 0 0 0 0.01272
4.3959999 -2.619 1.169 0 0 0 0 0.01273
4.4060001 -2.618 1.163 1 0 0 0 0.01274
4.3940001 -2.605 1.151 1 0 0 0 0.01275
4.3629999 -2.5799999 1.1339999 0 0 0 0 0.01276
4.3369999 -2.5569999 1.118 0 0 0 0 0.01277
4.3400002 -2.552 1.1109999 1 0 0 0 0.01278
4.3530002 -2.553 1.105 3 0 0 0 0.01279
4.3410001 -2.5380001 1.0930001 7 0 0 0 0.0128
4.3779998 -2.552 1.094 4 0 0 0 0.01281
4.421 -2.569 1.096 8 0 0 0 0.01282
4.4089999 -2.5539999 1.084 17 0 0 0 0.01283
4.4180002 -2.5510001 1.077 15 0 0 0 0.01284
4.447 -2.5599999 1.075 6 0 0 0 0.01285
4.5139999 -2.5899999 1.082 2 0 0 0 0.01286
4.4749999 -2.559 1.064 8 0 0 0 0.01287
4.684 -2.6689999 1.104 25 0 0 0 0.01288
4.7220001 -2.681 1.104 32 0 0 0 0.01289
4.7199998 -2.6700001 1.094 33 0 0 0 0.0129
4.7249999 -2.6630001 1.085 34 0 0 0 0.01291
2.4679999 -1.386 0.56199998 0 0 0 0 0.01292
2.4549999 -1.373 0.55400002 0 0 0 0 0.01293
2.474 -1.378 0.55299997 0 0 0 0 0.01294
2.484 -1.3789999 0.551 0 0 0 0 0.01295
4.4549999 -2.4630001 0.97899997 10 0 0 0 0.01296
2.428 -1.337 0.528 0 0 0 0 0.01297
2.4590001 -1.349 0.52999997 0 0 0 0 0.01298
2.493 -1.362 0.53299999 0 0 0 0 0.01299
4.4720001 -2.4319999 0.94700003 1 0 0 0 0.013
2.4089999 -1.304 0.505 0 0 0 0 0.01301
4.5040002 -2.428 0.93599999 1 0 0 0 0.01302
4.5229998 -2.428 0.93099999 1 0 0 0 0.01303
2.425 -1.295 0.49399999 0 0 0 0 0.01304
4.5440001 -2.4170001 0.91799998 1 0 0 0 0.01305
2.457 -1.301 0.491 0 0 0 0 0.01306
2.4430001 -1.2869999 0.484 0 0 0 0 0.01307
2.401 -1.2589999 0.47099999 0 0 0 0 0.01308
2.4590001 -1.283 0.477 0 0 0 0 0.01309
2.444 -1.27 0.47 0 0 0 0 0.0131
2.464 -1.274 0.46900001 0 0 0 0 0.01311
4.697 -2.415 0.88499999 40 0 0 0 0.01312
4.6950002 -2.402 0.87599999 42 0 0 0 0.01313
4.6989999 -2.392 0.86799997 36 0 0 0 0.01314
4.704 -2.382 0.86000001 36 0 0 0 0.01315
2.5320001 -1.275 0.458 0 0 0 0 0.01316
4.704 -2.3570001 0.84200001 34 0 0 0 0.01317
2.4820001 -1.237 0.44 0 0 0 0 0.01318
2.5020001 -1.24 0.43900001 0 0 0 0 0.01319
2.5309999 -1.247 0.43900001 0 0 0 0 0.0132
4.697 -2.303 0.80699998 32 0 0 0 0.01321
4.6960001 -2.289 0.79799998 32 0 0 0 0.01322
2.451 -1.188 0.412 0 0 0 0 0.01323
2.506 -1.2079999 0.417 0 0 0 0 0.01324
2.4319999 -1.165 0.40000001 0 0 0 0 0.01325
0 0 0 0 0 0 0 0.01326
2.474 -1.171 0.398 0 0 0 0 0.01327
2.365 -1.113 0.37599999 0 0 0 0 0.01328
2.451 -1.146 0.38600001 0 0 0 0 0.01329
2.424 -1.127 0.377 0 0 0 0 0.0133
2.4300001 -1.123 0.37400001 0 0 0 0 0.01331
2.4159999 -1.109 0.368 0 0 0 0 0.01332
2.4949999 -1.138 0.37599999 0 0 0 0 0.01333
2.507 -1.136 0.373 0 0 0 0 0.01334
2.5150001 -1.133 0.37 0 0 0 0 0.01335
2.546 -1.1390001 0.37 0 0 0 0 0.01336
2.425 -1.0779999 0.34900001 0 0 0 0 0.01337
2.447 -1.08 0.34799999 0 0 0 0 0.01338
2.4219999 -1.062 0.34 0 0 0 0 0.01339
2.46 -1.072 0.34200001 0 0 0 0 0.0134
2.471 -1.069 0.33899999 0 0 0 0 0.01341
2.4530001 -1.054 0.333 0 0 0 0 0.01342
2.513 -1.072 0.33700001 0 0 0 0 0.01343
2.385 -1.01 0.31600001 0 0 0 0 0.01344
2.4549999 -1.0319999 0.32100001 0 0 0 0 0.01345
0 0 0 0 0 0 0 0.01346
4.5700002 -1.8940001 0.58399999 150 0 0 0 0.01347
4.2529998 -1.75 0.537 150 0 0 0 0.01348
3.8570001 -1.575 0.48100001 43 0 0 0 0.01349
3.802 -1.541 0.46900001 10 0 0 0 0.0135
3.8099999 -1.533 0.46399999 6 0 0 0 0.01351
3.8429999 -1.534 0.46200001 6 0 0 0 0.01352
3.5710001 -1.415 0.42399999 4 0 0 0 0.01353
3.8429999 -1.511 0.44999999 6 0 0 0 0.01354
4.27 -1.666 0.49399999 8 0 0 0 0.01355
4.4840002 -1.735 0.51200002 97 0 0 0 0.01356
4.6500001 -1.785 0.52499998 67 0 0 0 0.01357
4.6370001 -1.766 0.51599997 67 0 0 0 0.01358
4.605 -1.739 0.50599998 89 0 0 0 0.01359
4.5900002 -1.719 0.498 101 0 0 0 0.0136
4.5999999 -1.709 0.493 87 0 0 0 0.01361
4.6350002 -1.707 0.49000001 71 0 0 0 0.01362
4.632 -1.691 0.48300001 51 0 0 0 0.01363
0 0 0 0 0 0 0 0.01364
0 0 0 0 0 0 0 0.01365
0 0 0 0 0 0 0 0.01366
0 0 0 0 0 0 0 0.01367
0 0 0 0 0 0 0 0.01368
0 0 0 0 0 0 0 0.01369
0 0 0 0 0 0 0 0.0137
0 0 0 0 0 0 0 0.01371
0 0 0 0 0 0 0 0.01372
0 0 0 0 0 0 0 0.01373
0 0 0 0 0 0 0 0.01374
0 0 0 0 0 0 0 0.01375
0 0 0 0 0 0 0 0.01376
0 0 0 0 0 0 0 0.01377
0 0 0 0 0 0 0 0.01378
0 0 0 0 0 0 0 0.01379
0 0 0 0 0 0 0 0.0138
0 0 0 0 0 0 0 0.01381
0 0 0 0 0 0 0 0.01382
0 0 0 0 0 0 0 0.01383
0 0 0 0 0 0 0 0.01384
0 0 0 0 0 0 0 0.01385
0 0 0 0 0 0 0 0.01386
0 0 0 0 0 0 0 0.01387
0 0 0 0 0 0 0 0.01388
0 0 0 0 0 0 0 0.01389
0 0 0 0 0 0 0 0.0139
0 0 0 0 0 0 0 0.01391
0 0 0 0 0 0 0 0.01392
0 0 0 0 0 0 0 0.01393
0 0 0 0 0 0 0 0.01394
0 0 0 0 0 0 0 0.01395
0 0 0 0 0 0 0 0.01396
0 0 0 0 0 0 0 0.01397
0 0 0 0 0 0 0 0.01398
0 0 0 0 0 0 0 0.01399
0 0 0 0 0 0 0 0.014
0 0 0 0 0 0 0 0.01401
0 0 0 0 0 0 0 0.01402
0 0 0 0 0 0 0 0.01403
0 0 0 0 0 0 0 0.01404
0 0 0 0 0 0 0 0.01405
2.404 -0.551 0.12800001 0 0 0 0 0.01406
2.3959999 -0.54100001 0.126 2 0 0 0 0.01407
2.3800001 -0.52999997 0.122 6 0 0 0 0.01408
2.391 -0.52499998 0.121 11 0 0 0 0.01409
2.381 -0.51499999 0.118 15 0 0 0 0.0141
2.3789999 -0.50700003 0.116 18 0 0 0 0.01411
2.3729999 -0.498 0.113 19 0 0 0 0.01412
2.3770001 -0.491 0.111 18 0 0 0 0.01413
2.3800001 -0.484 0.109 18 0 0 0 0.01414
2.3759999 -0.47600001 0.107 18 0 0 0 0.01415
2.3740001 -0.46799999 0.104 16 0 0 0 0.01416
2.378 -0.461 0.102 15 0 0 0 0.01417
2.3740001 -0.45300001 0.1 14 0 0 0 0.01418
2.372 -0.44499999 0.097999997 15 0 0 0 0.01419
2.3729999 -0.43799999 0.096000001 16 0 0 0 0.0142
2.3729999 -0.43000001 0.093000002 16 0 0 0 0.01421
2.3729999 -0.42300001 0.090999998 19 0 0 0 0.01422
2.3699999 -0.414 0.089000002 21 0 0 0 0.01423
2.3710001 -0.40700001 0.086999997 21 0 0 0 0.01424
2.368 -0.39899999 0.085000001 22 0 0 0 0.01425
2.3729999 -0.39199999 0.082999997 22 0 0 0 0.01426
2.3670001 -0.384 0.081 21 0 0 0 0.01427
2.368 -0.377 0.079000004 20 0 0 0 0.01428
2.368 -0.36899999 0.077 19 0 0 0 0.01429
2.3670001 -0.361 0.075000003 19 0 0 0 0.0143
2.3610001 -0.35299999 0.072999999 14 0 0 0 0.01431
2.3670001 -0.34599999 0.071000002 16 0 0 0 0.01432
2.3670001 -0.33899999 0.068999998 18 0 0 0 0.01433
2.365 -0.331 0.068000004 20 0 0 0 0.01434
2.3659999 -0.32300001 0.066 20 0 0 0 0.01435
2.385 -0.31900001 0.064000003 17 0 0 0 0.01436
2.431 -0.317 0.064000003 19 0 0 0 0.01437
2.484 -0.31600001 0.063000001 26 0 0 0 0.01438
2.543 -0.315 0.063000001 29 0 0 0 0.01439
2.592 -0.31299999 0.061999999 28 0 0 0 0.0144
2.9530001 -0.347 0.068999998 150 0 0 0 0.01441
3.21 -0.368 0.071999997 150 0 0 0 0.01442
3.211 -0.35699999 0.07 150 0 0 0 0.01443
3.211 -0.347 0.068000004 150 0 0 0 0.01444
3.2060001 -0.336 0.064999998 150 0 0 0 0.01445
3.2060001 -0.32600001 0.063000001 150 0 0 0 0.01446
3.223 -0.31799999 0.061000001 150 0 0 0 0.01447
3.237 -0.30899999 0.059 151 0 0 0 0.01448
3.233 -0.29800001 0.057 151 0 0 0 0.01449
3.233 -0.28799999 0.054000001 150 0 0 0 0.0145
3.234 -0.278 0.052000001 151 0 0 0 0.01451
3.2379999 -0.26800001 0.050000001 151 0 0 0 0.01452
3.2590001 -0.259 0.048 142 0 0 0 0.01453
3.348 -0.25600001 0.046999998 151 0 0 0 0.01454
3.346 -0.245 0.045000002 152 0 0 0 0.01455
3.342 -0.234 0.043000001 151 0 0 0 0.01456
3.342 -0.223 0.039999999 151 0 0 0 0.01457
3.3499999 -0.213 0.037999999 151 0 0 0 0.01458
3.3710001 -0.204 0.035999998 151 0 0 0 0.01459
3.3699999 -0.193 0.034000002 151 0 0 0 0.0146
3.372 -0.182 0.032000002 150 0 0 0 0.01461
3.4159999 -0.17399999 0.029999999 154 0 0 0 0.01462
3.4389999 -0.164 0.028999999 151 0 0 0 0.01463
3.4330001 -0.153 0.026000001 150 0 0 0 0.01464
3.431 -0.142 0.024 150 0 0 0 0.01465
3.434 -0.131 0.022 150 0 0 0 0.01466
3.434 -0.12 0.02 150 0 0 0 0.01467
3.4300001 -0.109 0.017999999 150 0 0 0 0.01468
3.4319999 -0.097999997 0.016000001 150 0 0 0 0.01469
3.4319999 -0.086999997 0.014 150 0 0 0 0.0147
3.431 -0.075999998 0.012 150 0 0 0 0.01471
3.427 -0.064999998 0.0099999998 150 0 0 0 0.01472
3.427 -0.054000001 0.0080000004 150 0 0 0 0.01473
3.424 -0.043000001 0.0060000001 150 0 0 0 0.01474
3.4289999 -0.032000002 0.0049999999 150 0 0 0 0.01475
3.4230001 -0.021 0.003 150 0 0 0 0.01476
3.418 -0.0099999998 0.001 150 0 0 0 0.01477
3.4130001 0 0 150 0 0 0 0.01478
3.4230001 0.0099999998 -0.0020000001 151 0 0 0 0.01479
3.4230001 0.021 -0.0040000002 151 0 0 0 0.0148
3.424 0.032000002 -0.0049999999 151 0 0 0 0.01481
3.4200001 0.043000001 -0.0070000002 152 0 0 0 0.01482
3.418 0.054000001 -0.0089999996 152 0 0 0 0.01483
3.418 0.064999998 -0.011 153 0 0 0 0.01484
3.4070001 0.075999998 -0.012 153 0 0 0 0.01485
3.398 0.086999997 -0.014 154 0 0 0 0.01486
3.3900001 0.097000003 -0.015 154 0 0 0 0.01487
3.385 0.108 -0.017000001 154 0 0 0 0.01488
3.382 0.119 -0.018999999 155 0 0 0 0.01489
3.3800001 0.12899999 -0.02 155 0 0 0 0.0149
3.378 0.14 -0.022 156 0 0 0 0.01491
3.3659999 0.15000001 -0.023 157 0 0 0 0.01492
3.3640001 0.161 -0.025 158 0 0 0 0.01493
3.362 0.17200001 -0.026000001 159 0 0 0 0.01494
