# .PCD v0.7 - Point Cloud Data file format
VERSION 0.7
FIELDS x y z intensity normal_x normal_y normal_z curvature
SIZE 4 4 4 4 4 4 4 4
TYPE F F F F F F F F
COUNT 1 1 1 1 1 1 1 1
WIDTH 1086
HEIGHT 1
VIEWPOINT 0 0 0 1 0 0 0
POINTS 1086
DATA ascii
1.217 -0.057 -0.82599998 15 0 0 0 0.037900001
1.212 -0.055 -0.82499999 16 0 0 0 0.037909999
1.206 -0.052999999 -0.82200003 15 0 0 0 0.037919998
1.206 -0.052000001 -0.824 15 0 0 0 0.037930001
1.205 -0.050000001 -0.82499999 15 0 0 0 0.037939999
1.204 -0.048999999 -0.82700002 15 0 0 0 0.037950002
1.199 -0.046999998 -0.82499999 16 0 0 0 0.03796
1.199 -0.045000002 -0.82599998 16 0 0 0 0.037969999
1.194 -0.044 -0.824 16 0 0 0 0.037980001
1.192 -0.041999999 -0.82499999 16 0 0 0 0.03799
1.192 -0.039999999 -0.82599998 17 0 0 0 0.037999999
1.187 -0.039000001 -0.824 17 0 0 0 0.038010001
1.188 -0.037 -0.82599998 16 0 0 0 0.03802
1.186 -0.035 -0.82499999 16 0 0 0 0.038029999
1.1849999 -0.034000002 -0.82599998 16 0 0 0 0.038040001
1.183 -0.032000002 -0.82599998 16 0 0 0 0.03805
1.181 -0.029999999 -0.82499999 16 0 0 0 0.038059998
1.183 -0.028999999 -0.82800001 16 0 0 0 0.038070001
1.1799999 -0.027000001 -0.82599998 16 0 0 0 0.038079999
1.179 -0.025 -0.82700002 16 0 0 0 0.038090002
1.176 -0.024 -0.82499999 17 0 0 0 0.0381
1.176 -0.022 -0.82599998 17 0 0 0 0.038109999
1.174 -0.02 -0.82499999 17 0 0 0 0.038120002
1.176 -0.018999999 -0.82700002 16 0 0 0 0.03813
1.174 -0.017000001 -0.82599998 16 0 0 0 0.038139999
1.171 -0.015 -0.824 17 0 0 0 0.038150001
1.171 -0.014 -0.82499999 17 0 0 0 0.03816
1.171 -0.012 -0.82499999 17 0 0 0 0.038169999
1.1720001 -0.0099999998 -0.82599998 17 0 0 0 0.038180001
1.171 -0.0089999996 -0.82499999 18 0 0 0 0.03819
1.17 -0.0070000002 -0.824 17 0 0 0 0.038199998
1.171 -0.0049999999 -0.82499999 18 0 0 0 0.038210001
1.173 -0.0040000002 -0.82700002 17 0 0 0 0.03822
1.1720001 -0.0020000001 -0.82599998 17 0 0 0 0.038229998
1.171 0 -0.82499999 17 0 0 0 0.038240001
1.176 0 -0.82800001 17 0 0 0 0.038249999
1.174 0.0020000001 -0.82599998 17 0 0 0 0.038260002
1.176 0.0040000002 -0.82800001 17 0 0 0 0.03827
1.176 0.0049999999 -0.82700002 17 0 0 0 0.038279999
1.177 0.0070000002 -0.82700002 17 0 0 0 0.038290001
1.177 0.0089999996 -0.82700002 17 0 0 0 0.0383
1.179 0.0099999998 -0.82700002 17 0 0 0 0.038309999
1.1799999 0.012 -0.82700002 17 0 0 0 0.038320001
1.1799999 0.014 -0.82700002 17 0 0 0 0.03833
1.183 0.015 -0.82800001 16 0 0 0 0.038339999
1.184 0.017000001 -0.82800001 17 0 0 0 0.038350001
1.1849999 0.018999999 -0.82700002 17 0 0 0 0.03836
1.1849999 0.02 -0.82700002 17 0 0 0 0.038369998
1.187 0.022 -0.82700002 17 0 0 0 0.038380001
1.188 0.024 -0.82599998 17 0 0 0 0.038389999
3.4070001 0.13 -0.41600001 151 0 0 0 0.040320002
3.4089999 0.127 -0.405 151 0 0 0 0.04033
3.408 0.124 -0.39500001 151 0 0 0 0.040339999
3.4159999 0.122 -0.38499999 151 0 0 0 0.040350001
3.4119999 0.118 -0.373 151 0 0 0 0.04036
3.4119999 0.115 -0.36300001 151 0 0 0 0.040369999
3.4070001 0.112 -0.352 151 0 0 0 0.040380001
3.4089999 0.109 -0.34099999 151 0 0 0 0.04039
3.4089999 0.106 -0.33000001 151 0 0 0 0.040399998
3.4100001 0.103 -0.31999999 151 0 0 0 0.040410001
3.411 0.1 -0.30899999 151 0 0 0 0.04042
3.4130001 0.097000003 -0.29899999 151 0 0 0 0.040429998
3.414 0.093999997 -0.28799999 151 0 0 0 0.040440001
3.4119999 0.090000004 -0.278 151 0 0 0 0.040449999
3.414 0.086999997 -0.26699999 152 0 0 0 0.040460002
3.415 0.083999999 -0.25600001 152 0 0 0 0.04047
3.415 0.081 -0.24600001 152 0 0 0 0.040479999
3.4130001 0.078000002 -0.235 152 0 0 0 0.040490001
3.415 0.074000001 -0.22499999 152 0 0 0 0.0405
3.4219999 0.071000002 -0.214 152 0 0 0 0.040509999
3.418 0.068000004 -0.204 152 0 0 0 0.040520001
3.4170001 0.064000003 -0.193 152 0 0 0 0.04053
3.418 0.061000001 -0.183 152 0 0 0 0.040539999
3.4189999 0.057999998 -0.17200001 152 0 0 0 0.040550001
3.414 0.054000001 -0.161 152 0 0 0 0.04056
3.4119999 0.050999999 -0.15099999 152 0 0 0 0.040569998
3.415 0.048 -0.14 152 0 0 0 0.040580001
3.4159999 0.044 -0.13 152 0 0 0 0.040589999
3.4159999 0.041000001 -0.119 153 0 0 0 0.040600002
3.4170001 0.037 -0.109 152 0 0 0 0.04061
3.4170001 0.034000002 -0.097999997 152 0 0 0 0.040619999
3.4219999 0.029999999 -0.088 152 0 0 0 0.040630002
3.4230001 0.027000001 -0.077 152 0 0 0 0.04064
3.4260001 0.023 -0.067000002 152 0 0 0 0.040649999
3.4219999 0.02 -0.056000002 152 0 0 0 0.040660001
3.4230001 0.016000001 -0.046 152 0 0 0 0.04067
3.4230001 0.012 -0.035 152 0 0 0 0.040679999
3.4260001 0.0089999996 -0.025 152 0 0 0 0.040690001
3.4230001 0.0049999999 -0.015 152 0 0 0 0.0407
3.4230001 0.0020000001 -0.0040000002 152 0 0 0 0.040709998
3.4219999 -0.001 0.0060000001 152 0 0 0 0.040720001
3.4219999 -0.0049999999 0.016000001 152 0 0 0 0.04073
3.4219999 -0.0089999996 0.026000001 152 0 0 0 0.040739998
3.4219999 -0.012 0.037 152 0 0 0 0.040750001
3.427 -0.016000001 0.046999998 152 0 0 0 0.040759999
3.424 -0.02 0.057999998 152 0 0 0 0.040770002
3.425 -0.024 0.068000004 151 0 0 0 0.04078
3.427 -0.027000001 0.079000004 152 0 0 0 0.040789999
3.4260001 -0.030999999 0.089000002 151 0 0 0 0.040800001
3.425 -0.035 0.098999999 151 0 0 0 0.04081
3.425 -0.039000001 0.11 151 0 0 0 0.040819999
3.427 -0.043000001 0.12 151 0 0 0 0.040830001
3.427 -0.046999998 0.131 151 0 0 0 0.04084
3.431 -0.050999999 0.141 151 0 0 0 0.040849999
3.431 -0.055 0.152 151 0 0 0 0.040860001
3.4300001 -0.057999998 0.162 151 0 0 0 0.04087
3.4300001 -0.061999999 0.17200001 151 0 0 0 0.040879998
3.4289999 -0.066 0.183 151 0 0 0 0.040890001
3.428 -0.07 0.193 151 0 0 0 0.040899999
3.4360001 -0.075000003 0.204 151 0 0 0 0.040910002
3.434 -0.079000004 0.214 151 0 0 0 0.040920001
3.431 -0.082999997 0.22400001 151 0 0 0 0.040929999
3.4349999 -0.086999997 0.235 151 0 0 0 0.040940002
3.4349999 -0.090999998 0.245 151 0 0 0 0.04095
3.434 -0.094999999 0.25600001 151 0 0 0 0.040959999
3.4330001 -0.098999999 0.266 151 0 0 0 0.040970001
3.434 -0.103 0.27599999 151 0 0 0 0.04098
3.438 -0.108 0.287 151 0 0 0 0.040989999
3.4349999 -0.112 0.29699999 151 0 0 0 0.041000001
3.434 -0.116 0.30700001 151 0 0 0 0.04101
3.4360001 -0.12 0.31799999 151 0 0 0 0.041019998
3.4400001 -0.125 0.329 151 0 0 0 0.041030001
3.438 -0.12899999 0.33899999 151 0 0 0 0.04104
3.4389999 -0.133 0.34900001 151 0 0 0 0.041049998
3.438 -0.138 0.36000001 151 0 0 0 0.041060001
3.437 -0.142 0.37 151 0 0 0 0.041069999
3.444 -0.147 0.38100001 151 0 0 0 0.041080002
3.4389999 -0.15099999 0.391 151 0 0 0 0.04109
3.4400001 -0.155 0.40099999 151 0 0 0 0.041099999
3.444 -0.16 0.412 152 0 0 0 0.041110002
3.447 -0.16500001 0.42300001 152 0 0 0 0.04112
3.427 -0.168 0.43099999 150 0 0 0 0.041129999
3.395 -0.171 0.43700001 150 0 0 0 0.041140001
3.3729999 -0.17399999 0.44400001 150 0 0 0 0.04115
3.3729999 -0.17900001 0.454 151 0 0 0 0.041159999
3.372 -0.183 0.46399999 151 0 0 0 0.041170001
3.3759999 -0.18799999 0.47499999 151 0 0 0 0.04118
3.3740001 -0.192 0.48500001 151 0 0 0 0.041189998
3.368 -0.197 0.49399999 150 0 0 0 0.041200001
3.3499999 -0.2 0.50099999 150 0 0 0 0.041209999
3.3440001 -0.204 0.50999999 150 0 0 0 0.041219998
3.349 -0.20900001 0.52100003 151 0 0 0 0.041230001
3.348 -0.214 0.53100002 151 0 0 0 0.041239999
3.346 -0.21799999 0.54100001 151 0 0 0 0.041250002
3.3440001 -0.223 0.55000001 151 0 0 0 0.04126
3.342 -0.227 0.56 151 0 0 0 0.041269999
3.348 -0.23199999 0.57099998 151 0 0 0 0.041280001
3.3429999 -0.237 0.57999998 151 0 0 0 0.04129
3.342 -0.241 0.58999997 151 0 0 0 0.041299999
3.336 -0.24600001 0.59899998 150 0 0 0 0.041310001
3.3269999 -0.25 0.60699999 34 0 0 0 0.04132
3.253 -0.249 0.60299999 81 0 0 0 0.041329999
3.2360001 -0.252 0.61000001 150 0 0 0 0.041340001
3.2390001 -0.257 0.62 151 0 0 0 0.04135
3.2360001 -0.26199999 0.62900001 151 0 0 0 0.041359998
3.2349999 -0.266 0.639 151 0 0 0 0.041370001
3.2409999 -0.27200001 0.64899999 151 0 0 0 0.041379999
3.243 -0.27700001 0.66000003 151 0 0 0 0.041390002
3.2409999 -0.28099999 0.66900003 151 0 0 0 0.0414
3.2390001 -0.28600001 0.67799997 151 0 0 0 0.041409999
3.2420001 -0.29100001 0.68800002 151 0 0 0 0.041420002
3.2420001 -0.296 0.69800001 151 0 0 0 0.04143
3.237 -0.301 0.70599997 150 0 0 0 0.041439999
3.2219999 -0.30399999 0.713 150 0 0 0 0.041450001
3.217 -0.30899999 0.72100002 150 0 0 0 0.04146
3.217 -0.31400001 0.73000002 151 0 0 0 0.041469999
3.2160001 -0.31900001 0.74000001 150 0 0 0 0.041480001
3.2160001 -0.324 0.74900001 151 0 0 0 0.04149
3.2219999 -0.329 0.75999999 151 0 0 0 0.041499998
3.2190001 -0.33399999 0.76899999 151 0 0 0 0.041510001
3.22 -0.33899999 0.77899998 151 0 0 0 0.04152
3.221 -0.345 0.78899997 151 0 0 0 0.041529998
3.221 -0.34999999 0.79799998 150 0 0 0 0.041540001
3.142 -0.34599999 0.78799999 151 0 0 0 0.041549999
2.9349999 -0.32800001 0.74400002 150 0 0 0 0.041560002
2.8369999 -0.322 0.72799999 150 0 0 0 0.04157
2.579 -0.29699999 0.66900003 27 0 0 0 0.041579999
2.5569999 -0.29800001 0.671 27 0 0 0 0.041590001
2.5280001 -0.29899999 0.671 27 0 0 0 0.0416
2.4960001 -0.30000001 0.67000002 25 0 0 0 0.041609999
2.4660001 -0.30000001 0.66900003 25 0 0 0 0.041620001
2.4400001 -0.301 0.66900003 21 0 0 0 0.04163
2.398 -0.30000001 0.66500002 68 0 0 0 0.041639999
2.3900001 -0.303 0.66900003 103 0 0 0 0.041650001
2.3840001 -0.30599999 0.67500001 37 0 0 0 0.04166
2.3900001 -0.31099999 0.68300003 4 0 0 0 0.041669998
0 0 0 0 0 0 0 0.041680001
0 0 0 0 0 0 0 0.041689999
0 0 0 0 0 0 0 0.041700002
0 0 0 0 0 0 0 0.04171
0 0 0 0 0 0 0 0.041719999
0 0 0 0 0 0 0 0.041730002
0 0 0 0 0 0 0 0.04174
0 0 0 0 0 0 0 0.041749999
0 0 0 0 0 0 0 0.041760001
0 0 0 0 0 0 0 0.04177
0 0 0 0 0 0 0 0.041779999
0 0 0 0 0 0 0 0.041790001
0 0 0 0 0 0 0 0.0418
0 0 0 0 0 0 0 0.041809998
0 0 0 0 0 0 0 0.041820001
0 0 0 0 0 0 0 0.04183
0 0 0 0 0 0 0 0.041839998
0 0 0 0 0 0 0 0.041850001
0 0 0 0 0 0 0 0.041859999
0 0 0 0 0 0 0 0.041870002
0 0 0 0 0 0 0 0.04188
0 0 0 0 0 0 0 0.041889999
0 0 0 0 0 0 0 0.041900001
0 0 0 0 0 0 0 0.04191
0 0 0 0 0 0 0 0.041919999
0 0 0 0 0 0 0 0.041930001
0 0 0 0 0 0 0 0.04194
4.3239999 -0.787 1.5829999 43 0 0 0 0.041949999
4.2610002 -0.78500003 1.572 22 0 0 0 0.041960001
0 0 0 0 0 0 0 0.04197
4.1900001 -0.78799999 1.569 13 0 0 0 0.041979998
4.1630001 -0.79100001 1.5700001 13 0 0 0 0.041990001
4.1389999 -0.79500002 1.572 13 0 0 0 0.041999999
4.1110001 -0.79799998 1.573 14 0 0 0 0.042010002
4.0809999 -0.801 1.573 14 0 0 0 0.042020001
4.0349998 -0.80000001 1.566 17 0 0 0 0.042029999
4.0110002 -0.80299997 1.567 34 0 0 0 0.042040002
3.9990001 -0.81 1.574 52 0 0 0 0.04205
4.0100002 -0.81999999 1.589 55 0 0 0 0.042059999
4.0079999 -0.82800001 1.599 53 0 0 0 0.042070001
3.9849999 -0.83200002 1.6 41 0 0 0 0.04208
3.961 -0.83499998 1.601 40 0 0 0 0.042089999
3.9319999 -0.83700001 1.599 39 0 0 0 0.042100001
3.9089999 -0.84100002 1.601 38 0 0 0 0.04211
3.8840001 -0.84299999 1.6 41 0 0 0 0.042119998
3.8610001 -0.847 1.601 40 0 0 0 0.042130001
3.832 -0.84799999 1.599 42 0 0 0 0.04214
3.8150001 -0.85299999 1.602 38 0 0 0 0.042149998
3.7969999 -0.85699999 1.604 43 0 0 0 0.042160001
3.7750001 -0.861 1.605 44 0 0 0 0.042169999
3.756 -0.86400002 1.6059999 42 0 0 0 0.042180002
3.734 -0.86699998 1.6059999 42 0 0 0 0.04219
3.7149999 -0.87099999 1.607 44 0 0 0 0.042199999
3.6889999 -0.87300003 1.6059999 40 0 0 0 0.042210001
3.6689999 -0.87699997 1.6059999 41 0 0 0 0.04222
3.6530001 -0.88099998 1.608 41 0 0 0 0.042229999
3.632 -0.884 1.608 42 0 0 0 0.042240001
3.6140001 -0.88800001 1.609 39 0 0 0 0.04225
3.5929999 -0.89099997 1.608 38 0 0 0 0.042259999
3.576 -0.89399999 1.609 41 0 0 0 0.042270001
3.55 -0.89600003 1.6059999 41 0 0 0 0.04228
3.5369999 -0.90100002 1.609 44 0 0 0 0.042289998
3.52 -0.90399998 1.609 44 0 0 0 0.042300001
3.5009999 -0.90700001 1.609 43 0 0 0 0.042309999
3.49 -0.91299999 1.612 43 0 0 0 0.042319998
3.4649999 -0.91399997 1.609 46 0 0 0 0.042330001
3.4519999 -0.91799998 1.6109999 48 0 0 0 0.042339999
3.425 -0.91900003 1.6059999 47 0 0 0 0.042350002
3.3989999 -0.92000002 1.601 53 0 0 0 0.04236
3.388 -0.92500001 1.604 54 0 0 0 0.042369999
3.385 -0.93199998 1.61 47 0 0 0 0.042380001
3.362 -0.93300003 1.6059999 46 0 0 0 0.04239
3.3540001 -0.93900001 1.61 47 0 0 0 0.042399999
3.339 -0.94199997 1.61 46 0 0 0 0.042410001
3.326 -0.94700003 1.6109999 46 0 0 0 0.04242
3.313 -0.95099998 1.612 46 0 0 0 0.042429999
3.2950001 -0.95300001 1.61 45 0 0 0 0.042440001
3.286 -0.958 1.612 45 0 0 0 0.04245
3.2720001 -0.96200001 1.612 45 0 0 0 0.042459998
3.257 -0.96499997 1.6109999 45 0 0 0 0.042470001
3.256 -0.972 1.617 45 0 0 0 0.042479999
3.2309999 -0.972 1.6109999 80 0 0 0 0.042490002
2.927 -0.88800001 1.465 150 0 0 0 0.0425
2.7820001 -0.85000002 1.398 150 0 0 0 0.042509999
2.4319999 -0.74900001 1.227 62 0 0 0 0.042520002
2.408 -0.74699998 1.219 17 0 0 0 0.04253
2.4070001 -0.75199997 1.223 18 0 0 0 0.042539999
2.404 -0.75700003 1.226 28 0 0 0 0.042550001
2.408 -0.764 1.232 29 0 0 0 0.04256
2.411 -0.76999998 1.238 29 0 0 0 0.042569999
2.408 -0.77499998 1.24 29 0 0 0 0.042580001
2.4070001 -0.78100002 1.244 29 0 0 0 0.04259
2.408 -0.78600001 1.249 28 0 0 0 0.042599998
2.411 -0.79299998 1.2539999 28 0 0 0 0.042610001
2.414 -0.80000001 1.26 29 0 0 0 0.042619999
2.4089999 -0.80400002 1.261 29 0 0 0 0.042629998
2.4100001 -0.81 1.265 29 0 0 0 0.042640001
2.411 -0.81599998 1.2690001 29 0 0 0 0.042649999
2.4130001 -0.82200003 1.274 29 0 0 0 0.042660002
2.4119999 -0.82700002 1.277 28 0 0 0 0.04267
2.4170001 -0.83399999 1.283 29 0 0 0 0.042679999
2.415 -0.83899999 1.285 29 0 0 0 0.042690001
2.4119999 -0.84399998 1.2869999 29 0 0 0 0.0427
2.4170001 -0.85100001 1.293 29 0 0 0 0.042709999
2.415 -0.85600001 1.295 29 0 0 0 0.042720001
2.415 -0.861 1.298 30 0 0 0 0.04273
2.4119999 -0.866 1.299 30 0 0 0 0.042739999
2.4200001 -0.87400001 1.306 30 0 0 0 0.042750001
2.4219999 -0.88 1.3099999 30 0 0 0 0.04276
2.4159999 -0.88300002 1.309 28 0 0 0 0.042769998
2.425 -0.89200002 1.317 27 0 0 0 0.042780001
2.4219999 -0.89600003 1.318 22 0 0 0 0.042789999
2.4230001 -0.90200001 1.321 18 0 0 0 0.042800002
2.4219999 -0.90600002 1.322 17 0 0 0 0.04281
2.421 -0.91100001 1.324 16 0 0 0 0.042819999
2.424 -0.917 1.3279999 17 0 0 0 0.042830002
2.425 -0.92299998 1.33 17 0 0 0 0.04284
2.4300001 -0.93000001 1.335 18 0 0 0 0.042849999
2.427 -0.93400002 1.335 20 0 0 0 0.042860001
2.4260001 -0.93800002 1.336 21 0 0 0 0.04287
2.425 -0.94300002 1.337 24 0 0 0 0.042879999
2.424 -0.94800001 1.3380001 29 0 0 0 0.042890001
2.424 -0.95200002 1.339 28 0 0 0 0.0429
2.424 -0.95700002 1.34 28 0 0 0 0.042909998
2.427 -0.963 1.3430001 26 0 0 0 0.042920001
2.427 -0.96799999 1.344 29 0 0 0 0.04293
2.424 -0.972 1.344 30 0 0 0 0.042939998
2.424 -0.97600001 1.345 30 0 0 0 0.042950001
2.4260001 -0.98199999 1.346 30 0 0 0 0.042959999
2.4300001 -0.98799998 1.349 27 0 0 0 0.042970002
2.4289999 -0.99199998 1.349 24 0 0 0 0.04298
2.428 -0.99599999 1.349 23 0 0 0 0.042989999
2.4289999 -1.001 1.35 24 0 0 0 0.043000001
2.4289999 -1.005 1.35 25 0 0 0 0.04301
2.428 -1.0089999 1.349 29 0 0 0 0.043019999
2.428 -1.013 1.35 30 0 0 0 0.043030001
2.4260001 -1.016 1.348 28 0 0 0 0.04304
2.4300001 -1.022 1.35 24 0 0 0 0.043049999
2.4319999 -1.027 1.351 21 0 0 0 0.043060001
2.4330001 -1.031 1.351 17 0 0 0 0.04307
2.4319999 -1.035 1.35 18 0 0 0 0.043079998
2.4319999 -1.039 1.349 19 0 0 0 0.043090001
2.4319999 -1.0420001 1.348 19 0 0 0 0.043099999
2.431 -1.045 1.347 19 0 0 0 0.043110002
2.431 -1.049 1.346 18 0 0 0 0.043120001
2.434 -1.054 1.346 17 0 0 0 0.043129999
2.4360001 -1.058 1.346 17 0 0 0 0.043140002
2.434 -1.0599999 1.344 16 0 0 0 0.04315
2.4349999 -1.064 1.3430001 16 0 0 0 0.043159999
2.4349999 -1.067 1.342 17 0 0 0 0.043170001
2.431 -1.069 1.3380001 18 0 0 0 0.04318
2.434 -1.073 1.337 23 0 0 0 0.043189999
2.434 -1.076 1.336 27 0 0 0 0.043200001
2.4349999 -1.079 1.334 28 0 0 0 0.04321
2.4349999 -1.082 1.332 28 0 0 0 0.043219998
2.4360001 -1.085 1.33 27 0 0 0 0.043230001
2.434 -1.087 1.327 27 0 0 0 0.04324
2.4349999 -1.09 1.325 22 0 0 0 0.043249998
2.4349999 -1.092 1.322 19 0 0 0 0.043260001
2.437 -1.095 1.321 20 0 0 0 0.043269999
2.4349999 -1.097 1.317 19 0 0 0 0.043280002
2.4349999 -1.099 1.314 17 0 0 0 0.04329
2.4360001 -1.101 1.312 18 0 0 0 0.043299999
2.434 -1.103 1.308 16 0 0 0 0.043310001
2.438 -1.1059999 1.307 15 0 0 0 0.04332
2.4389999 -1.108 1.304 16 0 0 0 0.043329999
2.4360001 -1.109 1.299 16 0 0 0 0.043340001
2.4360001 -1.11 1.296 16 0 0 0 0.04335
2.437 -1.112 1.293 16 0 0 0 0.043359999
2.4360001 -1.113 1.289 14 0 0 0 0.043370001
2.441 -1.117 1.288 15 0 0 0 0.04338
2.4349999 -1.115 1.281 15 0 0 0 0.043389998
2.4360001 -1.117 1.277 16 0 0 0 0.043400001
2.438 -1.119 1.275 17 0 0 0 0.043409999
2.4400001 -1.1210001 1.271 17 0 0 0 0.043419998
2.438 -1.1210001 1.266 19 0 0 0 0.043430001
2.4360001 -1.1210001 1.261 17 0 0 0 0.043439999
2.437 -1.122 1.257 18 0 0 0 0.043450002
2.4360001 -1.122 1.252 17 0 0 0 0.04346
2.4419999 -1.125 1.251 20 0 0 0 0.043469999
2.4360001 -1.122 1.243 17 0 0 0 0.043480001
2.437 -1.123 1.239 17 0 0 0 0.04349
2.434 -1.122 1.233 15 0 0 0 0.043499999
2.441 -1.125 1.232 11 0 0 0 0.043510001
2.4590001 -1.133 1.2359999 14 0 0 0 0.04352
2.516 -1.16 1.2589999 33 0 0 0 0.043529999
2.967 -1.367 1.479 55 0 0 0 0.043540001
3.1099999 -1.433 1.544 24 0 0 0 0.04355
3.132 -1.443 1.548 15 0 0 0 0.043559998
3.1329999 -1.442 1.5420001 18 0 0 0 0.043570001
3.1300001 -1.4400001 1.534 19 0 0 0 0.043579999
3.138 -1.443 1.531 20 0 0 0 0.043590002
3.141 -1.443 1.526 20 0 0 0 0.0436
3.138 -1.441 1.517 19 0 0 0 0.043609999
3.1400001 -1.441 1.511 20 0 0 0 0.043620002
3.142 -1.441 1.505 20 0 0 0 0.04363
3.145 -1.4400001 1.499 20 0 0 0 0.043639999
3.154 -1.443 1.4960001 21 0 0 0 0.043650001
3.1589999 -1.444 1.4910001 21 0 0 0 0.04366
3.1619999 -1.443 1.485 21 0 0 0 0.043669999
3.1600001 -1.441 1.477 22 0 0 0 0.043680001
3.168 -1.442 1.473 21 0 0 0 0.04369
3.1700001 -1.441 1.466 23 0 0 0 0.043699998
3.174 -1.441 1.46 23 0 0 0 0.043710001
3.187 -1.444 1.459 28 0 0 0 0.043719999
3.2030001 -1.449 1.457 25 0 0 0 0.043729998
3.214 -1.452 1.455 29 0 0 0 0.043740001
3.2320001 -1.457 1.455 27 0 0 0 0.043749999
3.2520001 -1.4630001 1.455 24 0 0 0 0.043760002
3.2650001 -1.466 1.4529999 24 0 0 0 0.04377
3.289 -1.474 1.456 24 0 0 0 0.043779999
3.3039999 -1.477 1.454 23 0 0 0 0.043790001
3.3239999 -1.483 1.454 24 0 0 0 0.0438
3.345 -1.489 1.454 23 0 0 0 0.043809999
3.3729999 -1.498 1.4579999 23 0 0 0 0.043820001
3.392 -1.503 1.457 23 0 0 0 0.04383
3.4119999 -1.507 1.457 23 0 0 0 0.043839999
3.4319999 -1.512 1.457 23 0 0 0 0.043850001
3.454 -1.518 1.457 22 0 0 0 0.04386
3.4749999 -1.523 1.457 21 0 0 0 0.043869998
3.497 -1.529 1.457 21 0 0 0 0.043880001
3.517 -1.533 1.455 22 0 0 0 0.043889999
3.5369999 -1.5369999 1.454 23 0 0 0 0.043900002
3.556 -1.54 1.4529999 21 0 0 0 0.04391
3.585 -1.548 1.455 22 0 0 0 0.043919999
3.6070001 -1.553 1.454 22 0 0 0 0.043930002
3.6300001 -1.558 1.454 21 0 0 0 0.04394
3.6530001 -1.562 1.4529999 27 0 0 0 0.043949999
3.6719999 -1.5650001 1.451 47 0 0 0 0.043960001
3.674 -1.561 1.442 58 0 0 0 0.04397
3.675 -1.556 1.432 59 0 0 0 0.043979999
3.6760001 -1.551 1.423 59 0 0 0 0.043990001
3.678 -1.546 1.413 59 0 0 0 0.044
3.674 -1.538 1.402 59 0 0 0 0.044009998
3.6760001 -1.533 1.393 59 0 0 0 0.044020001
3.6700001 -1.525 1.381 59 0 0 0 0.04403
3.675 -1.521 1.372 58 0 0 0 0.044039998
3.675 -1.515 1.362 58 0 0 0 0.044050001
3.677 -1.5089999 1.353 58 0 0 0 0.044059999
3.678 -1.5039999 1.344 58 0 0 0 0.044070002
3.674 -1.4960001 1.332 58 0 0 0 0.04408
3.6719999 -1.489 1.322 58 0 0 0 0.044089999
3.675 -1.483 1.312 58 0 0 0 0.044100001
3.674 -1.476 1.302 58 0 0 0 0.04411
3.6700001 -1.4680001 1.291 57 0 0 0 0.044119999
3.671 -1.462 1.281 57 0 0 0 0.044130001
3.6730001 -1.456 1.272 58 0 0 0 0.04414
3.6659999 -1.446 1.2589999 56 0 0 0 0.044149999
3.668 -1.4400001 1.25 51 0 0 0 0.044160001
3.6659999 -1.432 1.239 51 0 0 0 0.04417
3.671 -1.427 1.2309999 48 0 0 0 0.044179998
3.688 -1.427 1.227 24 0 0 0 0.044190001
3.7880001 -1.4579999 1.25 21 0 0 0 0.044199999
3.8369999 -1.47 1.256 18 0 0 0 0.044210002
3.859 -1.47 1.253 21 0 0 0 0.044220001
3.8710001 -1.467 1.2460001 26 0 0 0 0.044229999
3.855 -1.454 1.2309999 54 0 0 0 0.044240002
3.8499999 -1.444 1.219 42 0 0 0 0.04425
3.869 -1.443 1.215 15 0 0 0 0.044259999
3.8900001 -1.443 1.211 9 0 0 0 0.044270001
3.823 -1.41 1.1799999 3 0 0 0 0.04428
3.9460001 -1.447 1.2079999 2 0 0 0 0.044289999
3.8169999 -1.392 1.158 1 0 0 0 0.044300001
3.8670001 -1.402 1.163 1 0 0 0 0.04431
3.816 -1.376 1.138 1 0 0 0 0.044319998
3.848 -1.3789999 1.137 2 0 0 0 0.044330001
4.0349998 -1.437 1.182 7 0 0 0 0.04434
4.0599999 -1.437 1.178 14 0 0 0 0.044349998
4.0710001 -1.432 1.171 30 0 0 0 0.044360001
4.0700002 -1.423 1.16 37 0 0 0 0.044369999
4.1389999 -1.438 1.169 18 0 0 0 0.044380002
4.2049999 -1.452 1.177 17 0 0 0 0.04439
0 0 0 0 0 0 0 0.044399999
4.2509999 -1.449 1.168 19 0 0 0 0.044410001
4.217 -1.428 1.148 45 0 0 0 0.04442
4.2080002 -1.415 1.1339999 39 0 0 0 0.044429999
2.756 -0.921 0.736 0 0 0 0 0.044440001
2.9649999 -0.98400003 0.78399998 0 0 0 0 0.04445
2.766 -0.91100001 0.72500002 0 0 0 0 0.044459999
2.6630001 -0.87099999 0.69099998 0 0 0 0 0.044470001
2.8759999 -0.93400002 0.73900002 0 0 0 0 0.04448
0 0 0 0 0 0 0 0.044489998
0 0 0 0 0 0 0 0.044500001
2.7690001 -0.88 0.69 0 0 0 0 0.044509999
0 0 0 0 0 0 0 0.044520002
0 0 0 0 0 0 0 0.044530001
0 0 0 0 0 0 0 0.044539999
0 0 0 0 0 0 0 0.044550002
0 0 0 0 0 0 0 0.04456
0 0 0 0 0 0 0 0.044569999
0 0 0 0 0 0 0 0.044580001
0 0 0 0 0 0 0 0.04459
0 0 0 0 0 0 0 0.044599999
0 0 0 0 0 0 0 0.044610001
0 0 0 0 0 0 0 0.04462
0 0 0 0 0 0 0 0.044629999
0 0 0 0 0 0 0 0.044640001
0 0 0 0 0 0 0 0.04465
0 0 0 0 0 0 0 0.044659998
0 0 0 0 0 0 0 0.044670001
0 0 0 0 0 0 0 0.044679999
0 0 0 0 0 0 0 0.044690002
0 0 0 0 0 0 0 0.0447
0 0 0 0 0 0 0 0.044709999
0 0 0 0 0 0 0 0.044720002
0 0 0 0 0 0 0 0.04473
0 0 0 0 0 0 0 0.044739999
0 0 0 0 0 0 0 0.044750001
0 0 0 0 0 0 0 0.04476
0 0 0 0 0 0 0 0.044769999
0 0 0 0 0 0 0 0.044780001
0 0 0 0 0 0 0 0.04479
0 0 0 0 0 0 0 0.044799998
0 0 0 0 0 0 0 0.044810001
0 0 0 0 0 0 0 0.044819999
0 0 0 0 0 0 0 0.044829998
0 0 0 0 0 0 0 0.044840001
0 0 0 0 0 0 0 0.044849999
0 0 0 0 0 0 0 0.044860002
0 0 0 0 0 0 0 0.04487
0 0 0 0 0 0 0 0.044879999
0 0 0 0 0 0 0 0.044890001
0 0 0 0 0 0 0 0.0449
0 0 0 0 0 0 0 0.044909999
0 0 0 0 0 0 0 0.044920001
0 0 0 0 0 0 0 0.04493
0 0 0 0 0 0 0 0.044939999
0 0 0 0 0 0 0 0.044950001
0 0 0 0 0 0 0 0.04496
0 0 0 0 0 0 0 0.044969998
0 0 0 0 0 0 0 0.044980001
0 0 0 0 0 0 0 0.044989999
0 0 0 0 0 0 0 0.045000002
0 0 0 0 0 0 0 0.04501
0 0 0 0 0 0 0 0.045019999
0 0 0 0 0 0 0 0.045030002
0 0 0 0 0 0 0 0.04504
0 0 0 0 0 0 0 0.045049999
0 0 0 0 0 0 0 0.045060001
0 0 0 0 0 0 0 0.04507
0 0 0 0 0 0 0 0.045079999
0 0 0 0 0 0 0 0.045090001
0 0 0 0 0 0 0 0.0451
0 0 0 0 0 0 0 0.045109998
0 0 0 0 0 0 0 0.045120001
0 0 0 0 0 0 0 0.04513
0 0 0 0 0 0 0 0.045139998
0 0 0 0 0 0 0 0.045150001
2.414 -0.373 0.25099999 0 0 0 0 0.045159999
2.3710001 -0.36000001 0.242 0 0 0 0 0.045170002
2.3699999 -0.35299999 0.237 1 0 0 0 0.04518
2.3789999 -0.34799999 0.233 0 0 0 0 0.045189999
2.378 -0.34200001 0.228 1 0 0 0 0.045200001
2.3759999 -0.336 0.223 3 0 0 0 0.04521
2.3800001 -0.33000001 0.219 2 0 0 0 0.045219999
2.381 -0.32300001 0.214 2 0 0 0 0.045230001
2.3800001 -0.317 0.20999999 13 0 0 0 0.04524
2.3929999 -0.31200001 0.206 19 0 0 0 0.045249999
2.437 -0.31200001 0.205 15 0 0 0 0.045260001
2.4860001 -0.31099999 0.205 18 0 0 0 0.04527
2.526 -0.31 0.20299999 21 0 0 0 0.045279998
2.575 -0.30899999 0.20200001 23 0 0 0 0.045290001
2.885 -0.338 0.221 150 0 0 0 0.045299999
3.151 -0.361 0.235 150 0 0 0 0.045310002
3.2119999 -0.36000001 0.234 150 0 0 0 0.04532
3.2160001 -0.35100001 0.228 150 0 0 0 0.045329999
3.2130001 -0.34200001 0.222 150 0 0 0 0.045340002
3.207 -0.333 0.215 150 0 0 0 0.04535
3.21 -0.32499999 0.20999999 150 0 0 0 0.045359999
3.2119999 -0.317 0.204 150 0 0 0 0.045370001
3.237 -0.31 0.2 150 0 0 0 0.04538
3.237 -0.30199999 0.19400001 150 0 0 0 0.045389999
3.2349999 -0.29300001 0.18700001 150 0 0 0 0.045400001
3.237 -0.28400001 0.182 150 0 0 0 0.04541
3.233 -0.27500001 0.175 150 0 0 0 0.045419998
3.234 -0.26699999 0.17 150 0 0 0 0.045430001
3.247 -0.259 0.164 101 0 0 0 0.04544
3.336 -0.257 0.163 43 0 0 0 0.045449998
3.3469999 -0.249 0.15700001 151 0 0 0 0.045460001
3.3410001 -0.23899999 0.15099999 150 0 0 0 0.045469999
3.3410001 -0.23 0.145 150 0 0 0 0.045480002
3.3399999 -0.221 0.139 150 0 0 0 0.04549
3.3440001 -0.212 0.133 150 0 0 0 0.045499999
3.3710001 -0.205 0.12800001 150 0 0 0 0.045510001
3.375 -0.19599999 0.122 151 0 0 0 0.04552
3.372 -0.18700001 0.116 150 0 0 0 0.045529999
3.3829999 -0.178 0.111 150 0 0 0 0.045540001
3.4330001 -0.171 0.106 152 0 0 0 0.04555
3.4330001 -0.162 0.1 150 0 0 0 0.045559999
3.438 -0.153 0.093999997 150 0 0 0 0.045570001
3.434 -0.14300001 0.088 150 0 0 0 0.04558
3.4349999 -0.134 0.082000002 150 0 0 0 0.045589998
3.4330001 -0.124 0.075999998 150 0 0 0 0.045600001
3.4319999 -0.115 0.07 150 0 0 0 0.045609999
3.4319999 -0.106 0.064000003 150 0 0 0 0.045620002
3.428 -0.096000001 0.057999998 150 0 0 0 0.045630001
3.431 -0.086999997 0.052000001 150 0 0 0 0.045639999
3.431 -0.077 0.046999998 150 0 0 0 0.045650002
3.431 -0.068000004 0.041000001 150 0 0 0 0.04566
3.424 -0.057999998 0.035 150 0 0 0 0.045669999
3.424 -0.048999999 0.028999999 150 0 0 0 0.045680001
3.424 -0.039000001 0.023 150 0 0 0 0.04569
3.428 -0.029999999 0.017000001 150 0 0 0 0.045699999
3.4189999 -0.02 0.011 151 0 0 0 0.045710001
3.4189999 -0.011 0.0060000001 150 0 0 0 0.04572
3.4189999 -0.001 0 150 0 0 0 0.045729998
3.4219999 0.0070000002 -0.0049999999 151 0 0 0 0.045740001
3.4189999 0.017000001 -0.0099999998 150 0 0 0 0.04575
3.4200001 0.026000001 -0.016000001 151 0 0 0 0.045759998
3.4219999 0.035999998 -0.022 152 0 0 0 0.045770001
3.4230001 0.045000002 -0.027000001 152 0 0 0 0.045779999
3.4170001 0.055 -0.033 152 0 0 0 0.045790002
3.415 0.064000003 -0.039000001 152 0 0 0 0.0458
3.4030001 0.072999999 -0.044 153 0 0 0 0.045809999
3.401 0.082999997 -0.050000001 153 0 0 0 0.045820002
3.4030001 0.092 -0.055 153 0 0 0 0.04583
3.3970001 0.102 -0.059999999 153 0 0 0 0.045839999
3.3840001 0.111 -0.066 154 0 0 0 0.045850001
3.382 0.12 -0.071000002 154 0 0 0 0.04586
3.381 0.13 -0.077 154 0 0 0 0.045869999
3.381 0.139 -0.082000002 154 0 0 0 0.045880001
3.378 0.149 -0.086999997 155 0 0 0 0.04589
3.369 0.15800001 -0.092 156 0 0 0 0.045899998
3.368 0.167 -0.097999997 156 0 0 0 0.045910001
3.3670001 0.177 -0.103 156 0 0 0 0.045919999
3.3659999 0.186 -0.108 157 0 0 0 0.045929998
3.3659999 0.19599999 -0.114 156 0 0 0 0.045940001
3.3659999 0.205 -0.119 157 0 0 0 0.045949999
3.3640001 0.215 -0.124 156 0 0 0 0.045960002
3.3610001 0.22400001 -0.12899999 157 0 0 0 0.04597
3.3640001 0.234 -0.13500001 157 0 0 0 0.045979999
3.362 0.243 -0.14 157 0 0 0 0.045990001
3.368 0.25299999 -0.145 156 0 0 0 0.046
3.3670001 0.26300001 -0.15000001 156 0 0 0 0.046009999
3.3710001 0.273 -0.156 155 0 0 0 0.046020001
3.3699999 0.28299999 -0.161 155 0 0 0 0.04603
3.368 0.292 -0.16599999 155 0 0 0 0.046039999
3.3710001 0.30199999 -0.171 154 0 0 0 0.046050001
3.378 0.31299999 -0.177 154 0 0 0 0.04606
3.3840001 0.32300001 -0.182 153 0 0 0 0.046069998
3.3859999 0.333 -0.18799999 153 0 0 0 0.046080001
3.385 0.34299999 -0.193 153 0 0 0 0.046089999
3.388 0.35299999 -0.198 153 0 0 0 0.046100002
3.3929999 0.36300001 -0.20299999 153 0 0 0 0.04611
3.3970001 0.373 -0.20900001 152 0 0 0 0.046119999
3.3929999 0.38299999 -0.213 152 0 0 0 0.046130002
3.392 0.39300001 -0.21799999 151 0 0 0 0.04614
3.3870001 0.40200001 -0.223 151 0 0 0 0.046149999
3.3859999 0.412 -0.228 151 0 0 0 0.046160001
3.3859999 0.42199999 -0.233 151 0 0 0 0.04617
3.3889999 0.43200001 -0.23800001 151 0 0 0 0.046179999
3.3870001 0.442 -0.243 151 0 0 0 0.046190001
3.381 0.45100001 -0.24699999 150 0 0 0 0.0462
3.388 0.46200001 -0.25299999 150 0 0 0 0.046209998
3.382 0.47099999 -0.257 150 0 0 0 0.046220001
3.3800001 0.48100001 -0.26199999 150 0 0 0 0.04623
3.3829999 0.491 -0.26699999 150 0 0 0 0.046239998
3.3859999 0.50099999 -0.27200001 151 0 0 0 0.046250001
3.3529999 0.50700003 -0.27399999 150 0 0 0 0.046259999
3.3180001 0.51099998 -0.27599999 150 0 0 0 0.046270002
3.309 0.51999998 -0.28 150 0 0 0 0.04628
3.3010001 0.528 -0.28400001 150 0 0 0 0.046289999
3.2850001 0.53500003 -0.287 151 0 0 0 0.046300001
3.2820001 0.54500002 -0.292 151 0 0 0 0.04631
3.2780001 0.55400002 -0.296 151 0 0 0 0.046319999
3.276 0.56300002 -0.30000001 151 0 0 0 0.046330001
3.2709999 0.57200003 -0.30399999 128 0 0 0 0.04634
3.2449999 0.57800001 -0.30599999 23 0 0 0 0.046349999
3.1960001 0.579 -0.30599999 23 0 0 0 0.046360001
3.1340001 0.57700002 -0.30500001 24 0 0 0 0.04637
3.0580001 0.57200003 -0.301 24 0 0 0 0.046379998
2.964 0.56300002 -0.296 24 0 0 0 0.046390001
2.8629999 0.55299997 -0.28999999 22 0 0 0 0.046399999
2.7869999 0.54699999 -0.28600001 21 0 0 0 0.046410002
2.7030001 0.53799999 -0.28099999 19 0 0 0 0.04642
2.6329999 0.53299999 -0.27700001 17 0 0 0 0.046429999
2.573 0.528 -0.27399999 17 0 0 0 0.046440002
2.5239999 0.52600002 -0.27200001 18 0 0 0 0.04645
2.471 0.52200001 -0.27000001 18 0 0 0 0.046459999
2.4189999 0.51899999 -0.26699999 18 0 0 0 0.046470001
2.368 0.51499999 -0.26499999 18 0 0 0 0.04648
2.2969999 0.50700003 -0.25999999 19 0 0 0 0.046489999
2.2590001 0.505 -0.25799999 150 0 0 0 0.046500001
2.2539999 0.51099998 -0.26100001 151 0 0 0 0.04651
2.253 0.51800001 -0.26300001 151 0 0 0 0.046519998
2.243 0.523 -0.26499999 150 0 0 0 0.046530001
2.227 0.52600002 -0.266 150 0 0 0 0.04654
2.2249999 0.53200001 -0.26899999 150 0 0 0 0.046549998
2.2219999 0.53899997 -0.271 150 0 0 0 0.046560001
2.22 0.54500002 -0.273 151 0 0 0 0.046569999
2.2219999 0.55299997 -0.27599999 151 0 0 0 0.046580002
2.22 0.55900002 -0.27900001 151 0 0 0 0.04659
2.221 0.56599998 -0.28200001 151 0 0 0 0.046599999
2.2160001 0.57200003 -0.28400001 151 0 0 0 0.046610001
2.2179999 0.579 -0.287 151 0 0 0 0.04662
2.2260001 0.588 -0.28999999 151 0 0 0 0.046629999
2.2309999 0.597 -0.294 151 0 0 0 0.046640001
2.223 0.60100001 -0.29499999 151 0 0 0 0.04665
2.22 0.60799998 -0.29800001 151 0 0 0 0.046659999
2.224 0.616 -0.301 151 0 0 0 0.046670001
2.2219999 0.62300003 -0.303 150 0 0 0 0.04668
2.2739999 0.64399999 -0.31299999 150 0 0 0 0.046689998
2.4489999 0.70200002 -0.34 150 0 0 0 0.046700001
2.4809999 0.71899998 -0.347 150 0 0 0 0.046709999
2.4809999 0.727 -0.34999999 150 0 0 0 0.046720002
2.4779999 0.73400003 -0.352 150 0 0 0 0.046730001
2.4630001 0.73799998 -0.35299999 150 0 0 0 0.046739999
2.342 0.70899999 -0.338 150 0 0 0 0.046750002
2.5139999 0.76899999 -0.36500001 150 0 0 0 0.04676
1.48 0.45699999 -0.21699999 5 0 0 0 0.046769999
1.464 0.45699999 -0.21600001 6 0 0 0 0.046780001
1.4450001 0.456 -0.215 6 0 0 0 0.04679
1.4220001 0.45300001 -0.213 6 0 0 0 0.046799999
1.4119999 0.454 -0.213 5 0 0 0 0.046810001
1.393 0.45300001 -0.211 3 0 0 0 0.04682
1.377 0.45199999 -0.20999999 3 0 0 0 0.046829998
1.353 0.449 -0.208 3 0 0 0 0.046840001
1.332 0.44600001 -0.206 6 0 0 0 0.04685
1.312 0.44400001 -0.204 38 0 0 0 0.046859998
1.2920001 0.44100001 -0.20200001 150 0 0 0 0.046870001
1.285 0.44299999 -0.20299999 150 0 0 0 0.046879999
1.286 0.44800001 -0.204 150 0 0 0 0.046890002
1.285 0.45100001 -0.205 150 0 0 0 0.0469
1.285 0.456 -0.206 150 0 0 0 0.046909999
1.284 0.45899999 -0.207 150 0 0 0 0.046920002
1.284 0.46399999 -0.20900001 150 0 0 0 0.04693
1.285 0.46799999 -0.20999999 150 0 0 0 0.046939999
1.281 0.47099999 -0.20999999 150 0 0 0 0.046950001
1.281 0.47499999 -0.211 150 0 0 0 0.04696
1.28 0.479 -0.212 150 0 0 0 0.046969999
1.285 0.48500001 -0.214 98 0 0 0 0.046980001
1.285 0.49000001 -0.21600001 14 0 0 0 0.04699
1.257 0.48300001 -0.212 0 0 0 0 0.046999998
1.234 0.47799999 -0.20900001 5 0 0 0 0.047010001
1.211 0.47299999 -0.206 4 0 0 0 0.047019999
1.197 0.472 -0.205 4 0 0 0 0.047029998
1.188 0.472 -0.204 2 0 0 0 0.047040001
1.181 0.47299999 -0.204 0 0 0 0 0.047049999
1.161 0.46900001 -0.20100001 0 0 0 0 0.047060002
1.152 0.46900001 -0.20100001 0 0 0 0 0.04707
1.148 0.472 -0.20100001 0 0 0 0 0.047079999
1.135 0.47 -0.199 2 0 0 0 0.047090001
1.123 0.46900001 -0.198 0 0 0 0 0.0471
1.1160001 0.46900001 -0.197 0 0 0 0 0.047109999
1.101 0.46700001 -0.19599999 0 0 0 0 0.047120001
1.096 0.46799999 -0.19499999 0 0 0 0 0.04713
1.081 0.465 -0.193 0 0 0 0 0.047139999
1.079 0.46799999 -0.19400001 0 0 0 0 0.047150001
1.071 0.46799999 -0.193 0 0 0 0 0.04716
1.0599999 0.46700001 -0.192 0 0 0 0 0.047169998
1.048 0.465 -0.19 0 0 0 0 0.047180001
1.025 0.458 -0.18700001 0 0 0 0 0.047189999
1.016 0.458 -0.186 2 0 0 0 0.047200002
1.016 0.461 -0.186 0 0 0 0 0.04721
1.002 0.458 -0.184 0 0 0 0 0.047219999
0.99299997 0.45699999 -0.183 0 0 0 0 0.047230002
0.991 0.45899999 -0.183 0 0 0 0 0.04724
0.977 0.456 -0.18099999 0 0 0 0 0.047249999
0.97299999 0.458 -0.18099999 0 0 0 0 0.047260001
0.963 0.456 -0.17900001 0 0 0 0 0.04727
0.958 0.45699999 -0.17900001 0 0 0 0 0.047279999
0.94800001 0.45500001 -0.177 0 0 0 0 0.047290001
0.94199997 0.45500001 -0.177 0 0 0 0 0.0473
0.93199998 0.454 -0.175 0 0 0 0 0.047309998
0.92900002 0.45500001 -0.175 0 0 0 0 0.047320001
0.926 0.45699999 -0.175 0 0 0 0 0.04733
0.91500002 0.454 -0.17299999 0 0 0 0 0.047339998
0.917 0.458 -0.17399999 0 0 0 0 0.047350001
0.91500002 0.46000001 -0.17299999 7 0 0 0 0.047359999
0.91399997 0.463 -0.17399999 10 0 0 0 0.047370002
0.91000003 0.46399999 -0.17299999 12 0 0 0 0.04738
0.91000003 0.46700001 -0.17299999 8 0 0 0 0.047389999
0.91299999 0.47099999 -0.17399999 7 0 0 0 0.047400001
0.91399997 0.47400001 -0.17399999 6 0 0 0 0.04741
0.91900003 0.47999999 -0.176 5 0 0 0 0.047419999
0.91900003 0.48300001 -0.176 5 0 0 0 0.047430001
0.91600001 0.484 -0.175 5 0 0 0 0.04744
0.91500002 0.48699999 -0.175 4 0 0 0 0.047449999
0.90799999 0.486 -0.17399999 3 0 0 0 0.047460001
0.90399998 0.486 -0.17399999 2 0 0 0 0.04747
0.89399999 0.484 -0.17200001 1 0 0 0 0.047479998
0.90700001 0.49399999 -0.17399999 3 0 0 0 0.047490001
0.91000003 0.498 -0.175 3 0 0 0 0.047499999
0.92299998 0.50800002 -0.177 4 0 0 0 0.047510002
0.954 0.528 -0.183 6 0 0 0 0.04752
0.97100002 0.54000002 -0.18700001 8 0 0 0 0.047529999
0.97000003 0.54299998 -0.186 9 0 0 0 0.047540002
0.96600002 0.54299998 -0.185 9 0 0 0 0.04755
0.95599997 0.54000002 -0.183 8 0 0 0 0.047559999
0.95599997 0.54299998 -0.183 7 0 0 0 0.047570001
0.95200002 0.54400003 -0.182 7 0 0 0 0.04758
0.94999999 0.54500002 -0.182 7 0 0 0 0.047589999
0.94400001 0.54400003 -0.18099999 7 0 0 0 0.047600001
0.94099998 0.546 -0.18000001 7 0 0 0 0.04761
0.93099999 0.54299998 -0.178 7 0 0 0 0.047619998
0.92900002 0.54400003 -0.177 7 0 0 0 0.047630001
0.92799997 0.546 -0.177 7 0 0 0 0.04764
0.92400002 0.54699999 -0.176 7 0 0 0 0.047649998
0.917 0.54500002 -0.17399999 7 0 0 0 0.047660001
0.912 0.54400003 -0.17299999 6 0 0 0 0.047669999
0.91299999 0.54699999 -0.17299999 7 0 0 0 0.047680002
0.91399997 0.55000001 -0.17299999 7 0 0 0 0.04769
0.90399998 0.54699999 -0.171 7 0 0 0 0.047699999
0.90100002 0.54799998 -0.17 6 0 0 0 0.047710001
0.903 0.551 -0.17 7 0 0 0 0.04772
0.90399998 0.55400002 -0.169 6 0 0 0 0.047729999
0.90899998 0.55900002 -0.17 6 0 0 0 0.047740001
0.90499997 0.55900002 -0.169 6 0 0 0 0.04775
0.90100002 0.55900002 -0.167 7 0 0 0 0.047759999
0.91299999 0.56800002 -0.169 6 0 0 0 0.047770001
0.90200001 0.56400001 -0.167 6 0 0 0 0.04778
0.90200001 0.56599998 -0.16599999 6 0 0 0 0.047789998
0.89700001 0.565 -0.16500001 6 0 0 0 0.047800001
0.89899999 0.56800002 -0.16500001 7 0 0 0 0.047809999
0.89600003 0.56800002 -0.163 7 0 0 0 0.047820002
0.89700001 0.57099998 -0.163 7 0 0 0 0.047830001
0.90100002 0.57599998 -0.163 7 0 0 0 0.047839999
0.89999998 0.57700002 -0.162 7 0 0 0 0.047850002
0.898 0.57800001 -0.161 7 0 0 0 0.04786
0.89600003 0.57800001 -0.16 7 0 0 0 0.047869999
0.898 0.58099997 -0.16 8 0 0 0 0.047880001
0.89600003 0.58200002 -0.15899999 8 0 0 0 0.04789
0.88999999 0.57999998 -0.15700001 10 0 0 0 0.047899999
0.89399999 0.58399999 -0.15700001 9 0 0 0 0.047910001
0.90100002 0.58999997 -0.15700001 10 0 0 0 0.04792
0.89099997 0.58499998 -0.155 10 0 0 0 0.047929998
0.89200002 0.588 -0.154 11 0 0 0 0.047940001
0.88999999 0.588 -0.153 11 0 0 0 0.04795
0.89200002 0.59100002 -0.153 10 0 0 0 0.047959998
0.889 0.59100002 -0.15099999 11 0 0 0 0.047970001
0.89200002 0.59399998 -0.15099999 9 0 0 0 0.047979999
0.89099997 0.59500003 -0.15000001 10 0 0 0 0.047990002
0.89099997 0.59600002 -0.149 10 0 0 0 0.048
0.89499998 0.60000002 -0.149 9 0 0 0 0.048009999
0.89600003 0.602 -0.148 9 0 0 0 0.048020002
0.89499998 0.60299999 -0.147 9 0 0 0 0.04803
0.89700001 0.60500002 -0.146 6 0 0 0 0.048039999
0.903 0.611 -0.146 5 0 0 0 0.048050001
0.903 0.61199999 -0.145 4 0 0 0 0.04806
1.0039999 0.68099999 -0.16 2 0 0 0 0.048069999
1.021 0.69400001 -0.162 2 0 0 0 0.048080001
1.0470001 0.713 -0.16500001 2 0 0 0 0.04809
1.039 0.70899999 -0.162 1 0 0 0 0.048099998
1.034 0.70599997 -0.16 1 0 0 0 0.048110001
1.0599999 0.72500002 -0.163 1 0 0 0 0.048119999
1.0650001 0.72899997 -0.162 1 0 0 0 0.048129998
1.063 0.72899997 -0.161 1 0 0 0 0.048140001
0 0 0 0 0 0 0 0.048149999
0 0 0 0 0 0 0 0.048160002
0 0 0 0 0 0 0 0.04817
0 0 0 0 0 0 0 0.048179999
0 0 0 0 0 0 0 0.048190001
2.6389999 1.8200001 -0.37900001 3 0 0 0 0.0482
2.6440001 1.824 -0.37599999 4 0 0 0 0.048209999
2.648 1.8279999 -0.373 7 0 0 0 0.048220001
2.658 1.836 -0.37 13 0 0 0 0.04823
2.635 1.822 -0.36399999 10 0 0 0 0.048239999
2.665 1.8430001 -0.36399999 11 0 0 0 0.048250001
2.6930001 1.862 -0.36399999 11 0 0 0 0.04826
1.202 0.83099997 -0.161 10 0 0 0 0.048269998
1.205 0.83399999 -0.15899999 25 0 0 0 0.048280001
1.206 0.83499998 -0.15800001 46 0 0 0 0.048289999
1.205 0.833 -0.156 52 0 0 0 0.048300002
1.205 0.83399999 -0.154 69 0 0 0 0.04831
1.2 0.82999998 -0.152 150 0 0 0 0.048319999
1.207 0.83499998 -0.15099999 77 0 0 0 0.048330002
1.21 0.83600003 -0.149 45 0 0 0 0.04834
1.2079999 0.83399999 -0.147 37 0 0 0 0.048349999
1.2079999 0.83399999 -0.145 37 0 0 0 0.048360001
1.207 0.833 -0.14300001 31 0 0 0 0.04837
1.211 0.83499998 -0.142 32 0 0 0 0.048379999
1.2079999 0.83200002 -0.14 32 0 0 0 0.048390001
1.212 0.83499998 -0.139 32 0 0 0 0.0484
1.2130001 0.83399999 -0.13699999 36 0 0 0 0.048409998
1.21 0.83200002 -0.13500001 34 0 0 0 0.048420001
1.21 0.83099997 -0.133 32 0 0 0 0.04843
1.209 0.829 -0.131 31 0 0 0 0.048439998
1.214 0.83200002 -0.13 26 0 0 0 0.048450001
1.219 0.83399999 -0.12800001 16 0 0 0 0.048459999
1.227 0.838 -0.127 13 0 0 0 0.048470002
1.4450001 0.986 -0.148 14 0 0 0 0.04848
1.461 0.995 -0.147 14 0 0 0 0.048489999
1.473 1.002 -0.146 12 0 0 0 0.048500001
1.391 0.94499999 -0.13600001 5 0 0 0 0.04851
1.385 0.93900001 -0.133 2 0 0 0 0.048519999
1.376 0.93099999 -0.13 2 0 0 0 0.048530001
1.39 0.93900001 -0.12899999 5 0 0 0 0.04854
1.427 0.96200001 -0.131 9 0 0 0 0.048549999
1.444 0.97100002 -0.13 10 0 0 0 0.048560001
1.461 0.98100001 -0.12899999 10 0 0 0 0.04857
1.465 0.98100001 -0.127 10 0 0 0 0.048579998
1.472 0.98400003 -0.126 11 0 0 0 0.048590001
1.473 0.98199999 -0.124 11 0 0 0 0.048599999
1.472 0.97899997 -0.121 11 0 0 0 0.048610002
1.479 0.98100001 -0.12 11 0 0 0 0.04862
1.4809999 0.98000002 -0.118 11 0 0 0 0.048629999
1.489 0.98199999 -0.116 11 0 0 0 0.048640002
1.495 0.98400003 -0.114 12 0 0 0 0.04865
1.501 0.98500001 -0.112 13 0 0 0 0.048659999
1.505 0.98500001 -0.11 12 0 0 0 0.048670001
0 0 0 0 0 0 0 0.04868
0 0 0 0 0 0 0 0.048689999
3.1670001 2.0539999 -0.219 1 0 0 0 0.048700001
3.188 2.0610001 -0.21600001 1 0 0 0 0.04871
3.0999999 1.998 -0.206 51 0 0 0 0.048719998
1.1390001 0.73199999 -0.074000001 7 0 0 0 0.048730001
1.1390001 0.72899997 -0.071999997 7 0 0 0 0.04874
3.171 2.0239999 -0.197 1 0 0 0 0.048749998
0 0 0 0 0 0 0 0.048760001
0 0 0 0 0 0 0 0.048769999
0 0 0 0 0 0 0 0.048780002
0 0 0 0 0 0 0 0.04879
3.2249999 2.0209999 -0.178 12 0 0 0 0.048799999
3.2249999 2.0139999 -0.17399999 13 0 0 0 0.048810001
3.2279999 2.0079999 -0.169 12 0 0 0 0.04882
3.227 2 -0.16500001 12 0 0 0 0.048829999
3.233 1.995 -0.161 10 0 0 0 0.048840001
3.227 1.984 -0.15700001 5 0 0 0 0.04885
1.204 0.73699999 -0.057 0 0 0 0 0.048859999
0 0 0 0 0 0 0 0.048870001
0 0 0 0 0 0 0 0.04888
0 0 0 0 0 0 0 0.048889998
1.0930001 0.65700001 -0.046 1 0 0 0 0.048900001
1.082 0.648 -0.044 1 0 0 0 0.048909999
1.082 0.64499998 -0.043000001 1 0 0 0 0.048920002
0 0 0 0 0 0 0 0.048930001
0 0 0 0 0 0 0 0.048939999
0 0 0 0 0 0 0 0.048950002
1.294 0.75700003 -0.045000002 0 0 0 0 0.04896
1.311 0.764 -0.044 0 0 0 0 0.048969999
1.25 0.72399998 -0.039999999 0 0 0 0 0.048980001
0 0 0 0 0 0 0 0.04899
0 0 0 0 0 0 0 0.048999999
1.1440001 0.653 -0.033 0 0 0 0 0.049010001
1.165 0.662 -0.032000002 0 0 0 0 0.04902
1.183 0.66900003 -0.032000002 0 0 0 0 0.049029998
1.204 0.67699999 -0.030999999 0 0 0 0 0.049040001
1.276 0.713 -0.030999999 0 0 0 0 0.04905
0 0 0 0 0 0 0 0.049059998
0 0 0 0 0 0 0 0.049070001
0 0 0 0 0 0 0 0.049079999
0 0 0 0 0 0 0 0.049090002
0 0 0 0 0 0 0 0.0491
0 0 0 0 0 0 0 0.049109999
0 0 0 0 0 0 0 0.049120001
0 0 0 0 0 0 0 0.04913
0 0 0 0 0 0 0 0.049139999
0 0 0 0 0 0 0 0.049150001
0.94099998 0.49399999 -0.013 0 0 0 0 0.04916
0.93599999 0.48899999 -0.012 0 0 0 0 0.049169999
0.90499997 0.46900001 -0.011 2 0 0 0 0.049180001
0.91799998 0.47400001 -0.0099999998 3 0 0 0 0.04919
0.91500002 0.46900001 -0.0089999996 4 0 0 0 0.049199998
0.91399997 0.465 -0.0080000004 4 0 0 0 0.049210001
0.91399997 0.463 -0.0080000004 3 0 0 0 0.049219999
0.912 0.45899999 -0.0070000002 0 0 0 0 0.049229998
0.912 0.456 -0.0060000001 0 0 0 0 0.049240001
3.0810001 1.53 -0.02 1 0 0 0 0.049249999
3.069 1.5140001 -0.017000001 2 0 0 0 0.049260002
3.0780001 1.508 -0.015 2 0 0 0 0.04927
3.0769999 1.498 -0.012 2 0 0 0 0.049279999
3.066 1.482 -0.0099999998 2 0 0 0 0.049290001
3.085 1.482 -0.0080000004 2 0 0 0 0.0493
3.075 1.467 -0.0060000001 2 0 0 0 0.049309999
3.0929999 1.465 -0.0040000002 3 0 0 0 0.049320001
3.0999999 1.4579999 -0.001 5 0 0 0 0.04933
3.1040001 1.45 0 4 0 0 0 0.049339999
3.1099999 1.442 0.0020000001 2 0 0 0 0.049350001
3.1059999 1.4299999 0.0040000002 2 0 0 0 0.04936
3.1099999 1.421 0.0060000001 2 0 0 0 0.049369998
3.1029999 1.408 0.0080000004 2 0 0 0 0.049380001
3.135 1.4119999 0.0099999998 1 0 0 0 0.049389999
3.1670001 1.416 0.012 1 0 0 0 0.049400002
3.194 1.4170001 0.014 1 0 0 0 0.04941
3.2090001 1.413 0.016000001 3 0 0 0 0.049419999
3.2149999 1.405 0.017000001 5 0 0 0 0.049430002
3.214 1.3940001 0.018999999 5 0 0 0 0.04944
3.2190001 1.385 0.021 4 0 0 0 0.049449999
3.2409999 1.3839999 0.023 3 0 0 0 0.049460001
3.23 1.368 0.024 4 0 0 0 0.04947
3.244 1.363 0.026000001 5 0 0 0 0.049479999
3.2479999 1.353 0.028000001 5 0 0 0 0.049490001
3.279 1.355 0.028999999 3 0 0 0 0.0495
3.3110001 1.357 0.030999999 3 0 0 0 0.049509998
3.306 1.344 0.033 6 0 0 0 0.049520001
3.319 1.3380001 0.034000002 8 0 0 0 0.049529999
3.313 1.325 0.035999998 6 0 0 0 0.049539998
3.3139999 1.314 0.037 5 0 0 0 0.049550001
1.224 0.48100001 0.014 1 0 0 0 0.049559999
1.25 0.48699999 0.015 0 0 0 0 0.049570002
1.275 0.49200001 0.015 6 0 0 0 0.04958
1.293 0.495 0.016000001 19 0 0 0 0.049589999
1.286 0.48800001 0.017000001 100 0 0 0 0.049600001
1.288 0.484 0.017000001 150 0 0 0 0.04961
1.286 0.479 0.017000001 150 0 0 0 0.049619999
1.285 0.47400001 0.017999999 150 0 0 0 0.049630001
1.289 0.47099999 0.017999999 150 0 0 0 0.04964
1.288 0.46700001 0.018999999 150 0 0 0 0.049649999
1.2869999 0.46200001 0.018999999 150 0 0 0 0.049660001
1.2869999 0.458 0.02 150 0 0 0 0.04967
1.289 0.454 0.02 150 0 0 0 0.049679998
1.281 0.447 0.02 150 0 0 0 0.049690001
1.288 0.44499999 0.021 150 0 0 0 0.049699999
1.307 0.447 0.021 38 0 0 0 0.049710002
1.3279999 0.44999999 0.022 5 0 0 0 0.04972
1.348 0.45199999 0.022 1 0 0 0 0.049729999
1.3710001 0.45500001 0.023 1 0 0 0 0.049740002
1.3890001 0.456 0.024 1 0 0 0 0.04975
1.405 0.45699999 0.024 2 0 0 0 0.049759999
1.418 0.456 0.025 2 0 0 0 0.049770001
1.444 0.45899999 0.026000001 2 0 0 0 0.04978
1.46 0.46000001 0.026000001 2 0 0 0 0.049789999
1.485 0.46200001 0.027000001 3 0 0 0 0.049800001
2.247 0.69199997 0.041000001 150 0 0 0 0.04981
2.342 0.71399999 0.043000001 150 0 0 0 0.049819998
2.484 0.74900001 0.046 150 0 0 0 0.049830001
2.4860001 0.741 0.046999998 150 0 0 0 0.04984
2.4879999 0.73299998 0.046999998 150 0 0 0 0.049849998
2.4890001 0.72500002 0.046999998 150 0 0 0 0.049860001
2.3380001 0.67299998 0.045000002 150 0 0 0 0.049869999
2.2409999 0.63800001 0.043000001 151 0 0 0 0.049880002
2.2279999 0.62599999 0.043000001 151 0 0 0 0.04989
2.23 0.61900002 0.043000001 151 0 0 0 0.049899999
2.224 0.61000001 0.043000001 151 0 0 0 0.049910001
2.2249999 0.60299999 0.043000001 151 0 0 0 0.04992
2.227 0.59600002 0.043000001 151 0 0 0 0.049929999
2.2279999 0.58899999 0.043000001 151 0 0 0 0.049940001
2.2219999 0.57999998 0.043000001 151 0 0 0 0.04995
2.224 0.57300001 0.043000001 151 0 0 0 0.049959999
2.223 0.565 0.043000001 151 0 0 0 0.049970001
2.2219999 0.55800003 0.043000001 151 0 0 0 0.04998
2.224 0.551 0.043000001 151 0 0 0 0.049989998
2.2279999 0.54400003 0.043000001 151 0 0 0 0.050000001
2.227 0.537 0.043000001 151 0 0 0 0.050009999
2.2290001 0.52899998 0.043000001 150 0 0 0 0.050020002
2.234 0.523 0.043000001 152 0 0 0 0.050030001
2.2290001 0.51499999 0.043000001 152 0 0 0 0.050039999
2.2409999 0.50999999 0.043000001 152 0 0 0 0.050050002
2.2750001 0.50999999 0.044 150 0 0 0 0.05006
2.3599999 0.52100003 0.045000002 24 0 0 0 0.050069999
2.4230001 0.52700001 0.046 25 0 0 0 0.050080001
2.483 0.53200001 0.046999998 24 0 0 0 0.05009
2.5380001 0.53500003 0.048 21 0 0 0 0.050099999
2.6199999 0.54400003 0.050000001 25 0 0 0 0.050110001
2.7260001 0.55699998 0.050999999 28 0 0 0 0.05012
2.8139999 0.56599998 0.052999999 28 0 0 0 0.050129998
2.8989999 0.57300001 0.054000001 27 0 0 0 0.050140001
2.9349999 0.57099998 0.054000001 25 0 0 0 0.05015
3.006 0.57499999 0.055 25 0 0 0 0.050159998
3.089 0.57999998 0.056000002 25 0 0 0 0.050170001
3.1559999 0.58200002 0.057 25 0 0 0 0.050179999
3.2219999 0.58399999 0.057999998 25 0 0 0 0.050190002
3.2690001 0.58099997 0.057999998 68 0 0 0 0.0502
3.2780001 0.57200003 0.057999998 153 0 0 0 0.050209999
3.277 0.56099999 0.057 153 0 0 0 0.050220001
3.2820001 0.55199999 0.057 153 0 0 0 0.05023
3.2839999 0.54100001 0.056000002 153 0 0 0 0.050239999
3.3110001 0.53500003 0.056000002 151 0 0 0 0.050250001
3.323 0.52600002 0.056000002 152 0 0 0 0.05026
3.323 0.51499999 0.055 151 0 0 0 0.050269999
3.3610001 0.50999999 0.055 154 0 0 0 0.050280001
3.385 0.50199997 0.055 152 0 0 0 0.05029
3.388 0.49200001 0.054000001 152 0 0 0 0.050299998
3.3889999 0.48100001 0.052999999 152 0 0 0 0.050310001
3.3900001 0.47 0.052000001 152 0 0 0 0.050319999
3.3889999 0.45899999 0.050999999 152 0 0 0 0.050330002
3.3970001 0.44800001 0.050999999 152 0 0 0 0.050340001
3.3900001 0.43700001 0.050000001 152 0 0 0 0.050349999
3.391 0.426 0.048999999 152 0 0 0 0.050360002
3.3789999 0.41299999 0.048 153 0 0 0 0.05037
3.3670001 0.40099999 0.046999998 154 0 0 0 0.050379999
3.3610001 0.389 0.046 154 0 0 0 0.050390001
3.3640001 0.37799999 0.045000002 155 0 0 0 0.0504
3.3599999 0.36700001 0.044 156 0 0 0 0.050409999
3.355 0.35600001 0.043000001 158 0 0 0 0.050420001
3.3510001 0.34400001 0.041999999 158 0 0 0 0.05043
3.3559999 0.33399999 0.041000001 156 0 0 0 0.050439999
3.365 0.324 0.039999999 156 0 0 0 0.050450001
3.3570001 0.31200001 0.039000001 157 0 0 0 0.05046
3.3510001 0.301 0.037999999 159 0 0 0 0.050469998
3.349 0.28999999 0.035999998 160 0 0 0 0.050480001
3.352 0.27900001 0.035 160 0 0 0 0.050489999
3.3559999 0.26899999 0.034000002 160 0 0 0 0.050500002
3.3540001 0.25799999 0.033 160 0 0 0 0.05051
3.3540001 0.24699999 0.032000002 160 0 0 0 0.050519999
3.352 0.236 0.030999999 160 0 0 0 0.050530002
3.3599999 0.226 0.029999999 160 0 0 0 0.05054
3.3610001 0.215 0.028000001 160 0 0 0 0.050549999
3.3610001 0.204 0.027000001 160 0 0 0 0.050560001
3.3629999 0.193 0.026000001 160 0 0 0 0.05057
3.3629999 0.182 0.025 159 0 0 0 0.050579999
3.362 0.171 0.023 159 0 0 0 0.050590001
3.3670001 0.161 0.022 159 0 0 0 0.0506
3.3710001 0.15000001 0.021 158 0 0 0 0.050609998
3.378 0.14 0.018999999 157 0 0 0 0.050620001
3.3829999 0.12899999 0.017999999 156 0 0 0 0.050629999
3.382 0.118 0.017000001 156 0 0 0 0.050639998
3.388 0.107 0.015 154 0 0 0 0.050650001
3.398 0.097000003 0.014 154 0 0 0 0.050659999
3.398 0.086000003 0.012 154 0 0 0 0.050670002
