# .PCD v0.7 - Point Cloud Data file format
VERSION 0.7
FIELDS x y z intensity normal_x normal_y normal_z curvature
SIZE 4 4 4 4 4 4 4 4
TYPE F F F F F F F F
COUNT 1 1 1 1 1 1 1 1
WIDTH 1114
HEIGHT 1
VIEWPOINT 0 0 0 1 0 0 0
POINTS 1114
DATA ascii
1.2410001 0.26899999 -0.83200002 40 0 0 0 0.0231
1.245 0.271 -0.833 48 0 0 0 0.02311
1.2309999 0.26899999 -0.82300001 93 0 0 0 0.023119999
1.248 0.27500001 -0.833 44 0 0 0 0.02313
1.237 0.27399999 -0.82499999 97 0 0 0 0.02314
1.238 0.27500001 -0.824 90 0 0 0 0.023150001
1.251 0.28 -0.83200002 34 0 0 0 0.023159999
1.256 0.28200001 -0.83399999 35 0 0 0 0.02317
1.255 0.28400001 -0.83200002 44 0 0 0 0.02318
1.26 0.28600001 -0.83399999 42 0 0 0 0.023189999
1.261 0.28799999 -0.833 46 0 0 0 0.0232
1.2589999 0.28799999 -0.82999998 38 0 0 0 0.02321
1.2640001 0.29100001 -0.83200002 43 0 0 0 0.023220001
1.266 0.29300001 -0.83099997 42 0 0 0 0.023229999
1.271 0.29499999 -0.833 43 0 0 0 0.02324
1.272 0.29699999 -0.83200002 63 0 0 0 0.023250001
1.276 0.29899999 -0.833 60 0 0 0 0.023259999
1.278 0.30000001 -0.83200002 60 0 0 0 0.02327
1.284 0.303 -0.83399999 59 0 0 0 0.02328
1.285 0.30399999 -0.833 59 0 0 0 0.023290001
1.29 0.30700001 -0.83399999 15 0 0 0 0.0233
1.2920001 0.308 -0.833 15 0 0 0 0.02331
1.2970001 0.31099999 -0.83399999 15 0 0 0 0.023320001
1.301 0.31299999 -0.83499998 15 0 0 0 0.023329999
1.3049999 0.31400001 -0.83399999 14 0 0 0 0.02334
1.309 0.31600001 -0.83499998 15 0 0 0 0.02335
1.3099999 0.317 -0.833 15 0 0 0 0.023360001
1.316 0.31999999 -0.83399999 15 0 0 0 0.02337
1.317 0.32100001 -0.83200002 15 0 0 0 0.02338
1.323 0.32300001 -0.833 15 0 0 0 0.023390001
1.327 0.32499999 -0.833 15 0 0 0 0.023399999
1.332 0.32699999 -0.83399999 15 0 0 0 0.02341
1.34 0.33000001 -0.83600003 15 0 0 0 0.02342
1.344 0.331 -0.83499998 15 0 0 0 0.023429999
1.346 0.333 -0.833 15 0 0 0 0.02344
1.353 0.33500001 -0.83499998 15 0 0 0 0.02345
1.355 0.336 -0.833 15 0 0 0 0.023460001
1.364 0.33899999 -0.83600003 15 0 0 0 0.023469999
1.3710001 0.34099999 -0.83700001 15 0 0 0 0.02348
1.375 0.34299999 -0.83600003 15 0 0 0 0.023490001
1.378 0.34400001 -0.83399999 14 0 0 0 0.023499999
1.385 0.34599999 -0.83499998 15 0 0 0 0.02351
1.3890001 0.34799999 -0.83399999 15 0 0 0 0.02352
1.397 0.34999999 -0.83600003 15 0 0 0 0.023530001
1.404 0.352 -0.83600003 14 0 0 0 0.023539999
1.4119999 0.354 -0.83700001 14 0 0 0 0.02355
1.413 0.35499999 -0.83399999 13 0 0 0 0.023560001
1.427 0.359 -0.83899999 13 0 0 0 0.023569999
1.431 0.36000001 -0.838 12 0 0 0 0.02358
1.4400001 0.36199999 -0.83899999 13 0 0 0 0.02359
1.448 0.36500001 -0.83999997 14 0 0 0 0.023600001
1.4529999 0.366 -0.83899999 14 0 0 0 0.02361
1.46 0.368 -0.83899999 14 0 0 0 0.02362
1.465 0.36899999 -0.83700001 14 0 0 0 0.023630001
1.473 0.37099999 -0.838 14 0 0 0 0.023639999
1.478 0.373 -0.83700001 14 0 0 0 0.02365
1.4910001 0.37599999 -0.83999997 15 0 0 0 0.02366
1.498 0.377 -0.83999997 15 0 0 0 0.023669999
1.5089999 0.38 -0.84200001 14 0 0 0 0.02368
1.52 0.38299999 -0.84299999 14 0 0 0 0.02369
1.53 0.38499999 -0.84399998 14 0 0 0 0.023700001
1.5319999 0.38499999 -0.84100002 14 0 0 0 0.023709999
1.5420001 0.38800001 -0.84200001 14 0 0 0 0.02372
1.544 0.38800001 -0.838 14 0 0 0 0.02373
1.55 0.389 -0.83700001 57 0 0 0 0.023739999
1.5700001 0.39399999 -0.84299999 15 0 0 0 0.02375
1.568 0.39300001 -0.83700001 60 0 0 0 0.02376
1.576 0.39399999 -0.83700001 58 0 0 0 0.023770001
1.599 0.39899999 -0.84500003 15 0 0 0 0.023779999
1.604 0.40000001 -0.84200001 15 0 0 0 0.02379
1.6109999 0.40099999 -0.84100002 14 0 0 0 0.023800001
1.6289999 0.405 -0.84500003 15 0 0 0 0.023809999
1.637 0.40599999 -0.84399998 15 0 0 0 0.02382
1.642 0.40700001 -0.84200001 15 0 0 0 0.02383
1.658 0.41 -0.84500003 15 0 0 0 0.023840001
1.668 0.412 -0.84500003 15 0 0 0 0.02385
1.669 0.41100001 -0.83999997 51 0 0 0 0.02386
1.684 0.414 -0.84299999 46 0 0 0 0.023870001
1.698 0.417 -0.84399998 15 0 0 0 0.023879999
1.7029999 0.417 -0.84100002 49 0 0 0 0.02389
1.714 0.419 -0.84100002 49 0 0 0 0.0239
1.726 0.421 -0.84200001 51 0 0 0 0.023910001
1.739 0.42300001 -0.84299999 51 0 0 0 0.02392
1.7460001 0.42300001 -0.83999997 47 0 0 0 0.02393
1.7589999 0.42500001 -0.84100002 33 0 0 0 0.023940001
1.771 0.42699999 -0.84100002 33 0 0 0 0.023949999
1.786 0.42899999 -0.84299999 40 0 0 0 0.02396
1.802 0.43200001 -0.84399998 39 0 0 0 0.02397
1.812 0.433 -0.84399998 40 0 0 0 0.023979999
1.822 0.43399999 -0.84200001 38 0 0 0 0.02399
1.841 0.43700001 -0.84500003 42 0 0 0 0.024
1.847 0.43700001 -0.84200001 40 0 0 0 0.024010001
1.864 0.44 -0.84299999 39 0 0 0 0.024019999
1.88 0.442 -0.84500003 35 0 0 0 0.02403
1.891 0.44299999 -0.84399998 35 0 0 0 0.024040001
1.905 0.44499999 -0.84399998 36 0 0 0 0.024049999
1.918 0.44600001 -0.84299999 35 0 0 0 0.02406
1.934 0.44800001 -0.84399998 34 0 0 0 0.02407
1.951 0.44999999 -0.84500003 34 0 0 0 0.024080001
1.965 0.45199999 -0.84500003 35 0 0 0 0.024089999
1.982 0.454 -0.84600002 35 0 0 0 0.0241
1.995 0.45500001 -0.84500003 37 0 0 0 0.024110001
2.0090001 0.456 -0.84399998 35 0 0 0 0.024119999
2.0250001 0.458 -0.84500003 36 0 0 0 0.02413
2.0420001 0.46000001 -0.84500003 35 0 0 0 0.02414
2.056 0.461 -0.84399998 34 0 0 0 0.024150001
2.0810001 0.465 -0.84799999 35 0 0 0 0.02416
2.0929999 0.465 -0.84600002 31 0 0 0 0.02417
2.1110001 0.46700001 -0.84600002 33 0 0 0 0.024180001
2.122 0.46700001 -0.84399998 37 0 0 0 0.024189999
2.1440001 0.47 -0.84600002 35 0 0 0 0.0242
2.161 0.47099999 -0.84600002 34 0 0 0 0.02421
2.1800001 0.47299999 -0.84600002 34 0 0 0 0.024219999
2.1960001 0.47400001 -0.84500003 35 0 0 0 0.02423
2.214 0.47600001 -0.84500003 32 0 0 0 0.02424
2.2379999 0.47799999 -0.847 33 0 0 0 0.024250001
2.256 0.479 -0.84600002 33 0 0 0 0.024259999
2.276 0.48100001 -0.847 33 0 0 0 0.02427
2.299 0.48300001 -0.84799999 33 0 0 0 0.02428
2.3110001 0.48300001 -0.84500003 33 0 0 0 0.024289999
2.3369999 0.486 -0.847 34 0 0 0 0.0243
2.358 0.48699999 -0.847 33 0 0 0 0.02431
2.3770001 0.48800001 -0.84600002 33 0 0 0 0.024320001
2.401 0.49000001 -0.847 33 0 0 0 0.024329999
2.4230001 0.49200001 -0.847 34 0 0 0 0.02434
2.4449999 0.493 -0.847 37 0 0 0 0.024350001
2.4660001 0.49399999 -0.84600002 37 0 0 0 0.024359999
2.49 0.49599999 -0.847 32 0 0 0 0.02437
2.5139999 0.498 -0.847 31 0 0 0 0.02438
2.5380001 0.49900001 -0.847 30 0 0 0 0.024390001
2.559 0.5 -0.84600002 30 0 0 0 0.0244
2.5910001 0.50300002 -0.84799999 31 0 0 0 0.02441
2.6129999 0.50300002 -0.847 31 0 0 0 0.024420001
2.642 0.50599998 -0.84799999 31 0 0 0 0.024429999
2.671 0.50800002 -0.84899998 30 0 0 0 0.02444
2.6960001 0.509 -0.84899998 30 0 0 0 0.02445
2.723 0.50999999 -0.84899998 30 0 0 0 0.024460001
2.7509999 0.51200002 -0.84899998 30 0 0 0 0.02447
2.7820001 0.514 -0.85000002 32 0 0 0 0.02448
2.816 0.51599997 -0.852 29 0 0 0 0.024490001
2.8499999 0.51800001 -0.85299999 27 0 0 0 0.024499999
2.8740001 0.51899999 -0.85100001 27 0 0 0 0.02451
2.9070001 0.51999998 -0.852 26 0 0 0 0.02452
2.9449999 0.523 -0.85399997 27 0 0 0 0.024529999
2.9809999 0.52499998 -0.85500002 27 0 0 0 0.02454
3.0150001 0.52700001 -0.85600001 28 0 0 0 0.02455
3.052 0.52899998 -0.85699999 29 0 0 0 0.024560001
3.095 0.53200001 -0.86000001 30 0 0 0 0.024569999
3.1240001 0.53200001 -0.85799998 32 0 0 0 0.02458
3.1500001 0.53200001 -0.85500002 34 0 0 0 0.024590001
3.178 0.53200001 -0.85299999 30 0 0 0 0.024599999
3.2249999 0.53500003 -0.85600001 31 0 0 0 0.02461
3.2620001 0.537 -0.85600001 50 0 0 0 0.02462
3.277 0.53399998 -0.85000002 99 0 0 0 0.024630001
3.3050001 0.53399998 -0.847 150 0 0 0 0.024639999
3.3080001 0.52899998 -0.838 150 0 0 0 0.02465
3.3069999 0.52399999 -0.82800001 150 0 0 0 0.024660001
3.3139999 0.51999998 -0.81999999 151 0 0 0 0.024669999
3.309 0.514 -0.80900002 151 0 0 0 0.02468
3.3080001 0.509 -0.79799998 151 0 0 0 0.02469
3.309 0.50400001 -0.78799999 150 0 0 0 0.024700001
3.3329999 0.50199997 -0.78399998 150 0 0 0 0.02471
3.3670001 0.50199997 -0.78200001 151 0 0 0 0.02472
3.378 0.49900001 -0.77499998 152 0 0 0 0.024730001
3.3770001 0.493 -0.76499999 151 0 0 0 0.024739999
3.3800001 0.48899999 -0.755 151 0 0 0 0.02475
3.381 0.48300001 -0.745 151 0 0 0 0.02476
3.3829999 0.47799999 -0.736 151 0 0 0 0.024769999
3.3770001 0.472 -0.72500002 151 0 0 0 0.02478
3.3789999 0.46700001 -0.71499997 151 0 0 0 0.02479
3.3829999 0.46200001 -0.70599997 151 0 0 0 0.024800001
3.3829999 0.45699999 -0.69599998 151 0 0 0 0.024809999
3.378 0.44999999 -0.685 151 0 0 0 0.02482
3.388 0.44600001 -0.67699999 151 0 0 0 0.02483
3.381 0.44 -0.66600001 151 0 0 0 0.024839999
3.3840001 0.435 -0.65700001 151 0 0 0 0.02485
3.385 0.42899999 -0.64700001 151 0 0 0 0.02486
3.388 0.42399999 -0.63800001 151 0 0 0 0.024870001
3.385 0.41800001 -0.62800002 151 0 0 0 0.024879999
3.3840001 0.412 -0.61799997 151 0 0 0 0.02489
3.3840001 0.40700001 -0.60799998 151 0 0 0 0.024900001
3.388 0.40200001 -0.59899998 151 0 0 0 0.024909999
3.3889999 0.396 -0.58899999 151 0 0 0 0.02492
3.3870001 0.38999999 -0.579 151 0 0 0 0.02493
3.3859999 0.384 -0.56999999 151 0 0 0 0.024940001
3.3889999 0.37900001 -0.56 151 0 0 0 0.02495
3.3940001 0.37400001 -0.551 151 0 0 0 0.02496
3.3870001 0.36700001 -0.54100001 151 0 0 0 0.024970001
3.3959999 0.36199999 -0.53299999 151 0 0 0 0.024979999
3.391 0.35600001 -0.52200001 151 0 0 0 0.02499
3.3900001 0.34999999 -0.51200002 151 0 0 0 0.025
3.3929999 0.345 -0.50300002 151 0 0 0 0.025010001
3.392 0.33899999 -0.49399999 151 0 0 0 0.02502
3.3929999 0.333 -0.484 151 0 0 0 0.02503
3.395 0.32699999 -0.47499999 151 0 0 0 0.025040001
3.3970001 0.32100001 -0.46599999 151 0 0 0 0.025049999
3.3940001 0.315 -0.456 151 0 0 0 0.02506
3.4000001 0.31 -0.447 151 0 0 0 0.02507
3.3970001 0.30399999 -0.43700001 151 0 0 0 0.025079999
3.4000001 0.29800001 -0.428 151 0 0 0 0.02509
3.3959999 0.292 -0.41800001 151 0 0 0 0.0251
3.398 0.28600001 -0.40900001 151 0 0 0 0.025110001
3.4000001 0.28 -0.40000001 151 0 0 0 0.025119999
3.4000001 0.27399999 -0.391 151 0 0 0 0.02513
3.402 0.26800001 -0.382 151 0 0 0 0.025140001
3.3959999 0.26199999 -0.37099999 151 0 0 0 0.025149999
3.4030001 0.25600001 -0.36300001 151 0 0 0 0.02516
3.401 0.25 -0.35299999 151 0 0 0 0.02517
3.401 0.244 -0.34400001 151 0 0 0 0.025180001
3.4030001 0.23800001 -0.33500001 152 0 0 0 0.025189999
3.401 0.23100001 -0.32600001 152 0 0 0 0.0252
3.4030001 0.22499999 -0.31600001 152 0 0 0 0.025210001
3.4059999 0.219 -0.30700001 151 0 0 0 0.025219999
3.404 0.213 -0.29800001 151 0 0 0 0.02523
3.404 0.207 -0.289 152 0 0 0 0.02524
3.405 0.20100001 -0.28 152 0 0 0 0.025250001
3.4059999 0.19499999 -0.271 152 0 0 0 0.02526
3.4070001 0.18799999 -0.26100001 152 0 0 0 0.02527
3.4119999 0.183 -0.25299999 152 0 0 0 0.025280001
3.4130001 0.176 -0.244 152 0 0 0 0.025289999
3.405 0.17 -0.234 152 0 0 0 0.0253
3.4070001 0.163 -0.22499999 153 0 0 0 0.02531
3.405 0.15700001 -0.21600001 153 0 0 0 0.025319999
3.4030001 0.15099999 -0.207 153 0 0 0 0.02533
3.404 0.14399999 -0.197 153 0 0 0 0.02534
3.404 0.138 -0.189 153 0 0 0 0.025350001
3.4000001 0.132 -0.17900001 153 0 0 0 0.025359999
3.401 0.125 -0.17 153 0 0 0 0.02537
3.3989999 0.119 -0.161 154 0 0 0 0.02538
3.3970001 0.112 -0.152 154 0 0 0 0.025389999
3.398 0.106 -0.14300001 153 0 0 0 0.0254
3.4030001 0.1 -0.134 153 0 0 0 0.02541
3.401 0.093000002 -0.126 153 0 0 0 0.025420001
3.401 0.086999997 -0.117 154 0 0 0 0.025429999
3.4000001 0.079999998 -0.108 154 0 0 0 0.02544
3.405 0.074000001 -0.098999999 153 0 0 0 0.025450001
3.4059999 0.067000002 -0.090000004 153 0 0 0 0.025459999
3.4059999 0.061000001 -0.081 153 0 0 0 0.02547
3.4059999 0.054000001 -0.071999997 153 0 0 0 0.02548
3.4070001 0.048 -0.063000001 153 0 0 0 0.025490001
3.4070001 0.041000001 -0.054000001 153 0 0 0 0.0255
3.4119999 0.035 -0.046 153 0 0 0 0.02551
3.4260001 0.028000001 -0.037 152 0 0 0 0.025520001
3.4200001 0.022 -0.028000001 152 0 0 0 0.025529999
3.4219999 0.015 -0.018999999 152 0 0 0 0.02554
3.4219999 0.0080000004 -0.0099999998 152 0 0 0 0.02555
3.424 0.001 -0.001 152 0 0 0 0.025560001
3.424 -0.0040000002 0.0070000002 152 0 0 0 0.02557
3.424 -0.011 0.015 151 0 0 0 0.02558
3.4230001 -0.017999999 0.024 152 0 0 0 0.025590001
3.427 -0.024 0.033 151 0 0 0 0.025599999
3.427 -0.030999999 0.041999999 151 0 0 0 0.02561
3.4289999 -0.037999999 0.050999999 151 0 0 0 0.02562
3.427 -0.045000002 0.059 151 0 0 0 0.025629999
3.4330001 -0.052000001 0.068000004 151 0 0 0 0.02564
3.4319999 -0.059 0.077 151 0 0 0 0.02565
3.4319999 -0.064999998 0.086000003 151 0 0 0 0.025660001
3.431 -0.071999997 0.093999997 151 0 0 0 0.025669999
3.4319999 -0.079000004 0.103 151 0 0 0 0.02568
3.431 -0.086000003 0.112 151 0 0 0 0.025690001
3.4300001 -0.093000002 0.12 151 0 0 0 0.025699999
3.4360001 -0.1 0.12899999 151 0 0 0 0.02571
3.4300001 -0.107 0.138 151 0 0 0 0.02572
3.4389999 -0.114 0.147 151 0 0 0 0.025730001
3.438 -0.121 0.156 151 0 0 0 0.025739999
3.438 -0.12800001 0.164 151 0 0 0 0.02575
3.4360001 -0.13500001 0.17299999 151 0 0 0 0.025760001
3.437 -0.142 0.18099999 151 0 0 0 0.025769999
3.437 -0.149 0.19 151 0 0 0 0.02578
3.437 -0.156 0.199 151 0 0 0 0.02579
3.441 -0.163 0.208 152 0 0 0 0.025800001
3.4400001 -0.171 0.21600001 151 0 0 0 0.02581
3.3829999 -0.175 0.221 150 0 0 0 0.02582
3.3740001 -0.18099999 0.229 151 0 0 0 0.025830001
3.3740001 -0.18799999 0.237 151 0 0 0 0.025839999
3.378 -0.19599999 0.24600001 151 0 0 0 0.02585
3.368 -0.20200001 0.25400001 150 0 0 0 0.02586
3.3469999 -0.208 0.25999999 150 0 0 0 0.025869999
3.346 -0.215 0.26899999 151 0 0 0 0.02588
3.345 -0.222 0.27700001 151 0 0 0 0.02589
3.345 -0.229 0.285 151 0 0 0 0.025900001
3.346 -0.236 0.294 151 0 0 0 0.025909999
3.348 -0.243 0.30199999 152 0 0 0 0.02592
3.348 -0.25099999 0.31 150 0 0 0 0.02593
3.29 -0.25299999 0.31299999 41 0 0 0 0.025939999
3.2420001 -0.257 0.317 150 0 0 0 0.02595
3.2360001 -0.26300001 0.324 151 0 0 0 0.02596
3.2390001 -0.27000001 0.33199999 151 0 0 0 0.025970001
3.2379999 -0.27700001 0.34 151 0 0 0 0.025979999
3.24 -0.28400001 0.34799999 151 0 0 0 0.02599
3.244 -0.292 0.35600001 151 0 0 0 0.026000001
3.2460001 -0.29899999 0.36500001 151 0 0 0 0.026009999
3.2449999 -0.30599999 0.37200001 151 0 0 0 0.02602
3.2190001 -0.31099999 0.377 150 0 0 0 0.02603
3.211 -0.317 0.384 151 0 0 0 0.026040001
3.2149999 -0.324 0.39300001 151 0 0 0 0.02605
3.214 -0.331 0.40000001 151 0 0 0 0.02606
3.21 -0.338 0.40799999 151 0 0 0 0.026070001
3.2149999 -0.34599999 0.41600001 151 0 0 0 0.026079999
3.2160001 -0.35299999 0.42399999 151 0 0 0 0.02609
3.2149999 -0.36000001 0.43200001 151 0 0 0 0.0261
2.9300001 -0.33500001 0.40000001 151 0 0 0 0.026110001
2.796 -0.32600001 0.389 150 0 0 0 0.02612
2.5550001 -0.303 0.361 21 0 0 0 0.02613
2.516 -0.30399999 0.36199999 20 0 0 0 0.026140001
2.48 -0.30599999 0.36300001 17 0 0 0 0.026149999
2.4400001 -0.30599999 0.36300001 15 0 0 0 0.02616
2.402 -0.30700001 0.36300001 23 0 0 0 0.02617
2.3870001 -0.31 0.366 28 0 0 0 0.026179999
2.3829999 -0.315 0.37099999 13 0 0 0 0.02619
2.398 -0.32300001 0.37900001 0 0 0 0 0.0262
2.4230001 -0.33199999 0.389 0 0 0 0 0.026210001
2.4070001 -0.33500001 0.39199999 0 0 0 0 0.026219999
2.3989999 -0.34 0.39700001 0 0 0 0 0.02623
0 0 0 0 0 0 0 0.026240001
0 0 0 0 0 0 0 0.026249999
0 0 0 0 0 0 0 0.02626
0 0 0 0 0 0 0 0.02627
0 0 0 0 0 0 0 0.026280001
0 0 0 0 0 0 0 0.026289999
0 0 0 0 0 0 0 0.0263
0 0 0 0 0 0 0 0.026310001
0 0 0 0 0 0 0 0.026319999
0 0 0 0 0 0 0 0.02633
0 0 0 0 0 0 0 0.02634
0 0 0 0 0 0 0 0.026350001
0 0 0 0 0 0 0 0.02636
0 0 0 0 0 0 0 0.02637
0 0 0 0 0 0 0 0.026380001
0 0 0 0 0 0 0 0.026389999
0 0 0 0 0 0 0 0.0264
0 0 0 0 0 0 0 0.02641
0 0 0 0 0 0 0 0.026419999
0 0 0 0 0 0 0 0.02643
0 0 0 0 0 0 0 0.02644
0 0 0 0 0 0 0 0.026450001
0 0 0 0 0 0 0 0.026459999
0 0 0 0 0 0 0 0.02647
0 0 0 0 0 0 0 0.02648
0 0 0 0 0 0 0 0.026489999
0 0 0 0 0 0 0 0.0265
0 0 0 0 0 0 0 0.02651
0 0 0 0 0 0 0 0.026520001
0 0 0 0 0 0 0 0.026529999
0 0 0 0 0 0 0 0.02654
0 0 0 0 0 0 0 0.026550001
0 0 0 0 0 0 0 0.026559999
0 0 0 0 0 0 0 0.02657
0 0 0 0 0 0 0 0.02658
0 0 0 0 0 0 0 0.026590001
0 0 0 0 0 0 0 0.0266
0 0 0 0 0 0 0 0.02661
2.411 -0.57300001 0.61400002 0 0 0 0 0.026620001
0 0 0 0 0 0 0 0.026629999
0 0 0 0 0 0 0 0.02664
2.4430001 -0.60000002 0.63800001 0 0 0 0 0.02665
2.369 -0.588 0.62400001 0 0 0 0 0.026660001
2.3859999 -0.59899998 0.634 0 0 0 0 0.02667
2.444 -0.62 0.65499997 0 0 0 0 0.02668
2.434 -0.62400001 0.65700001 0 0 0 0 0.026690001
0 0 0 0 0 0 0 0.026699999
2.382 -0.62300003 0.653 0 0 0 0 0.02671
0 0 0 0 0 0 0 0.02672
0 0 0 0 0 0 0 0.026729999
0 0 0 0 0 0 0 0.02674
0 0 0 0 0 0 0 0.02675
0 0 0 0 0 0 0 0.026760001
0 0 0 0 0 0 0 0.026769999
0 0 0 0 0 0 0 0.02678
0 0 0 0 0 0 0 0.02679
0 0 0 0 0 0 0 0.026799999
0 0 0 0 0 0 0 0.02681
0 0 0 0 0 0 0 0.02682
2.4260001 -0.71399999 0.72500002 0 0 0 0 0.026830001
2.4000001 -0.713 0.72299999 0 0 0 0 0.026839999
2.461 -0.73799998 0.74599999 0 0 0 0 0.02685
2.862 -0.866 0.87300003 0 0 0 0 0.026860001
2.4260001 -0.741 0.745 0 0 0 0 0.026869999
2.4170001 -0.745 0.74699998 0 0 0 0 0.02688
2.3900001 -0.74299997 0.74299997 0 0 0 0 0.02689
2.415 -0.75700003 0.755 0 0 0 0 0.026900001
2.8940001 -0.91600001 0.91100001 0 0 0 0 0.02691
2.7539999 -0.87900001 0.87199998 0 0 0 0 0.02692
2.7839999 -0.89700001 0.88700002 0 0 0 0 0.026930001
2.9960001 -0.97399998 0.95999998 0 0 0 0 0.026939999
2.7360001 -0.89700001 0.88200003 0 0 0 0 0.02695
2.878 -0.95099998 0.93300003 0 0 0 0 0.02696
2.825 -0.94199997 0.921 0 0 0 0 0.026969999
0 0 0 0 0 0 0 0.02698
0 0 0 0 0 0 0 0.02699
4.2249999 -1.4450001 1.401 19 0 0 0 0.027000001
4.1999998 -1.448 1.4 19 0 0 0 0.027009999
4.165 -1.448 1.396 18 0 0 0 0.02702
4.138 -1.451 1.3940001 18 0 0 0 0.02703
4.1129999 -1.454 1.393 18 0 0 0 0.027039999
4.0840001 -1.455 1.39 18 0 0 0 0.02705
4.0500002 -1.455 1.385 17 0 0 0 0.02706
4.0240002 -1.457 1.383 17 0 0 0 0.027070001
4 -1.46 1.382 18 0 0 0 0.027079999
3.977 -1.4630001 1.38 18 0 0 0 0.02709
3.947 -1.4630001 1.377 18 0 0 0 0.027100001
3.918 -1.464 1.373 18 0 0 0 0.027109999
3.8959999 -1.467 1.372 18 0 0 0 0.02712
3.875 -1.47 1.37 18 0 0 0 0.02713
3.8429999 -1.469 1.365 17 0 0 0 0.027140001
3.7679999 -1.451 1.344 28 0 0 0 0.02715
3.671 -1.424 1.3150001 47 0 0 0 0.02716
3.6689999 -1.434 1.3200001 61 0 0 0 0.027170001
3.668 -1.4450001 1.326 61 0 0 0 0.027179999
3.6689999 -1.456 1.331 61 0 0 0 0.02719
3.668 -1.466 1.336 61 0 0 0 0.0272
3.6730001 -1.478 1.344 60 0 0 0 0.027210001
3.6719999 -1.489 1.348 60 0 0 0 0.02722
3.674 -1.5 1.354 66 0 0 0 0.02723
3.6760001 -1.511 1.36 65 0 0 0 0.027240001
3.6730001 -1.521 1.364 71 0 0 0 0.027249999
3.6760001 -1.5319999 1.37 69 0 0 0 0.02726
3.677 -1.543 1.375 70 0 0 0 0.02727
3.677 -1.554 1.38 70 0 0 0 0.027279999
3.6760001 -1.564 1.3839999 71 0 0 0 0.02729
3.678 -1.575 1.3890001 71 0 0 0 0.0273
3.6760001 -1.585 1.393 70 0 0 0 0.027310001
3.671 -1.5930001 1.396 71 0 0 0 0.027319999
3.6830001 -1.609 1.405 70 0 0 0 0.02733
3.681 -1.619 1.408 69 0 0 0 0.02734
3.677 -1.627 1.411 68 0 0 0 0.027349999
3.6830001 -1.64 1.418 69 0 0 0 0.02736
3.681 -1.65 1.421 70 0 0 0 0.02737
3.6789999 -1.659 1.424 70 0 0 0 0.027380001
3.677 -1.668 1.427 69 0 0 0 0.027389999
3.6860001 -1.683 1.434 72 0 0 0 0.0274
3.687 -1.694 1.438 67 0 0 0 0.027410001
3.72 -1.719 1.454 73 0 0 0 0.027419999
3.7409999 -1.739 1.466 74 0 0 0 0.02743
3.7550001 -1.756 1.475 74 0 0 0 0.02744
3.7679999 -1.772 1.483 73 0 0 0 0.027450001
3.7880001 -1.7920001 1.495 73 0 0 0 0.02746
3.7950001 -1.8049999 1.5 70 0 0 0 0.02747
3.8180001 -1.827 1.512 66 0 0 0 0.027480001
3.8310001 -1.844 1.52 42 0 0 0 0.027489999
3.839 -1.857 1.526 31 0 0 0 0.0275
3.8340001 -1.865 1.527 30 0 0 0 0.02751
3.8280001 -1.873 1.527 30 0 0 0 0.027519999
3.8239999 -1.881 1.528 30 0 0 0 0.02753
3.8180001 -1.888 1.528 30 0 0 0 0.02754
3.816 -1.896 1.529 30 0 0 0 0.027550001
3.8080001 -1.902 1.528 30 0 0 0 0.027559999
3.8039999 -1.91 1.528 29 0 0 0 0.02757
3.802 -1.919 1.53 30 0 0 0 0.02758
3.79 -1.9220001 1.527 27 0 0 0 0.027589999
3.7950001 -1.933 1.53 30 0 0 0 0.0276
3.789 -1.9400001 1.529 28 0 0 0 0.02761
3.779 -1.944 1.526 28 0 0 0 0.027620001
3.776 -1.952 1.526 27 0 0 0 0.027629999
3.783 -1.964 1.53 29 0 0 0 0.02764
3.7750001 -1.969 1.528 29 0 0 0 0.027650001
3.7750001 -1.978 1.529 29 0 0 0 0.027659999
3.776 -1.987 1.53 30 0 0 0 0.02767
3.7709999 -1.993 1.529 29 0 0 0 0.02768
3.7720001 -2.0020001 1.53 29 0 0 0 0.027690001
3.7709999 -2.01 1.53 28 0 0 0 0.0277
3.7679999 -2.017 1.529 28 0 0 0 0.02771
3.7780001 -2.03 1.5319999 31 0 0 0 0.027720001
3.7709999 -2.0350001 1.53 28 0 0 0 0.027729999
3.7690001 -2.0420001 1.529 27 0 0 0 0.02774
3.7739999 -2.052 1.53 29 0 0 0 0.02775
3.777 -2.062 1.531 29 0 0 0 0.027760001
3.777 -2.069 1.53 27 0 0 0 0.02777
3.7750001 -2.076 1.529 27 0 0 0 0.02778
3.783 -2.0869999 1.531 26 0 0 0 0.027790001
3.7809999 -2.0929999 1.529 26 0 0 0 0.027799999
3.783 -2.102 1.529 26 0 0 0 0.02781
3.786 -2.1099999 1.529 26 0 0 0 0.02782
3.7869999 -2.118 1.528 25 0 0 0 0.027829999
3.7920001 -2.128 1.529 25 0 0 0 0.02784
3.799 -2.138 1.53 26 0 0 0 0.02785
3.799 -2.1440001 1.528 25 0 0 0 0.027860001
3.8039999 -2.1530001 1.528 25 0 0 0 0.027869999
3.812 -2.164 1.529 25 0 0 0 0.02788
3.8199999 -2.175 1.53 25 0 0 0 0.02789
3.8210001 -2.1819999 1.528 24 0 0 0 0.027899999
3.8280001 -2.191 1.528 24 0 0 0 0.02791
3.839 -2.2030001 1.53 24 0 0 0 0.02792
3.8440001 -2.2119999 1.529 23 0 0 0 0.027930001
3.8570001 -2.2249999 1.5319999 24 0 0 0 0.027939999
3.8599999 -2.2309999 1.53 22 0 0 0 0.02795
3.8640001 -2.2390001 1.528 23 0 0 0 0.027960001
3.875 -2.25 1.53 24 0 0 0 0.027969999
3.8859999 -2.2609999 1.53 25 0 0 0 0.02798
3.892 -2.2690001 1.529 25 0 0 0 0.02799
3.9030001 -2.28 1.53 24 0 0 0 0.028000001
3.914 -2.2909999 1.53 24 0 0 0 0.02801
3.9200001 -2.2980001 1.528 23 0 0 0 0.02802
3.9319999 -2.309 1.529 24 0 0 0 0.028030001
3.9489999 -2.323 1.5319999 24 0 0 0 0.028039999
3.9519999 -2.3280001 1.528 24 0 0 0 0.02805
3.967 -2.3399999 1.53 24 0 0 0 0.02806
3.9779999 -2.3499999 1.529 24 0 0 0 0.028069999
3.9920001 -2.362 1.53 24 0 0 0 0.02808
4.0079999 -2.3740001 1.531 24 0 0 0 0.02809
4.0190001 -2.3829999 1.53 25 0 0 0 0.028100001
4.0310001 -2.392 1.529 24 0 0 0 0.028109999
4.0510001 -2.4059999 1.531 25 0 0 0 0.02812
4.059 -2.414 1.529 25 0 0 0 0.02813
4.0799999 -2.428 1.531 25 0 0 0 0.028139999
4.0939999 -2.438 1.531 24 0 0 0 0.02815
4.112 -2.45 1.5319999 24 0 0 0 0.02816
4.1279998 -2.461 1.5319999 24 0 0 0 0.028170001
4.145 -2.4719999 1.5319999 24 0 0 0 0.028179999
4.164 -2.4849999 1.5319999 24 0 0 0 0.02819
4.184 -2.4979999 1.533 24 0 0 0 0.028200001
4.2030001 -2.5090001 1.534 24 0 0 0 0.028209999
4.2199998 -2.52 1.533 24 0 0 0 0.02822
4.2470002 -2.5369999 1.536 25 0 0 0 0.02823
4.2649999 -2.5469999 1.535 25 0 0 0 0.028240001
4.2849998 -2.5580001 1.536 24 0 0 0 0.02825
2.5439999 -1.518 0.90700001 0 0 0 0 0.02826
2.45 -1.462 0.86900002 0 0 0 0 0.028270001
2.5469999 -1.52 0.89999998 0 0 0 0 0.028279999
4.369 -2.6059999 1.536 25 0 0 0 0.02829
4.3969998 -2.6210001 1.538 24 0 0 0 0.0283
4.421 -2.6340001 1.538 25 0 0 0 0.028310001
4.4429998 -2.6459999 1.538 26 0 0 0 0.02832
2.4489999 -1.457 0.84299999 0 0 0 0 0.02833
2.5309999 -1.5039999 0.86699998 0 0 0 0 0.028340001
2.4760001 -1.47 0.84299999 0 0 0 0 0.028349999
4.5349998 -2.691 1.536 26 0 0 0 0.02836
4.5630002 -2.7049999 1.5369999 26 0 0 0 0.02837
4.5910001 -2.7179999 1.538 26 0 0 0 0.028379999
4.6230001 -2.734 1.54 26 0 0 0 0.02839
2.553 -1.508 0.84500003 0 0 0 0 0.0284
4.6760001 -2.7579999 1.539 27 0 0 0 0.028410001
4.7080002 -2.773 1.541 32 0 0 0 0.028419999
4.7179999 -2.7750001 1.534 35 0 0 0 0.02843
4.7319999 -2.7780001 1.53 39 0 0 0 0.02844
4.7350001 -2.7750001 1.521 40 0 0 0 0.028449999
4.7329998 -2.77 1.511 37 0 0 0 0.02846
4.7309999 -2.7639999 1.501 36 0 0 0 0.02847
4.7319999 -2.7590001 1.492 34 0 0 0 0.028480001
4.7270002 -2.7509999 1.48 34 0 0 0 0.028489999
4.7280002 -2.7449999 1.471 34 0 0 0 0.0285
4.7290001 -2.74 1.461 36 0 0 0 0.028510001
4.73 -2.7349999 1.452 36 0 0 0 0.028519999
4.73 -2.7290001 1.442 35 0 0 0 0.02853
4.7249999 -2.72 1.4299999 35 0 0 0 0.02854
4.7259998 -2.714 1.421 35 0 0 0 0.028550001
4.723 -2.7049999 1.41 35 0 0 0 0.02856
4.7270002 -2.701 1.401 35 0 0 0 0.02857
4.7210002 -2.6900001 1.3890001 35 0 0 0 0.028580001
4.723 -2.684 1.38 34 0 0 0 0.028589999
4.7199998 -2.675 1.369 32 0 0 0 0.0286
4.723 -2.6689999 1.36 34 0 0 0 0.02861
4.7210002 -2.6600001 1.349 34 0 0 0 0.028620001
4.724 -2.654 1.34 33 0 0 0 0.02863
4.724 -2.6459999 1.33 33 0 0 0 0.02864
4.723 -2.638 1.319 32 0 0 0 0.028650001
2.404 -1.3380001 0.66600001 0 0 0 0 0.028659999
4.7220001 -2.6199999 1.299 34 0 0 0 0.02867
4.724 -2.6129999 1.289 32 0 0 0 0.02868
4.7210002 -2.602 1.278 31 0 0 0 0.028689999
4.7220001 -2.5940001 1.2690001 33 0 0 0 0.0287
2.5079999 -1.373 0.66799998 0 0 0 0 0.02871
2.4489999 -1.335 0.64700001 0 0 0 0 0.028720001
4.7199998 -2.5650001 1.238 33 0 0 0 0.028729999
4.7189999 -2.5550001 1.227 32 0 0 0 0.02874
4.7160001 -2.543 1.217 31 0 0 0 0.028750001
4.7160001 -2.533 1.206 29 0 0 0 0.028759999
2.4549999 -1.314 0.62300003 0 0 0 0 0.02877
2.5639999 -1.367 0.64499998 0 0 0 0 0.02878
2.447 -1.299 0.61000001 0 0 0 0 0.028790001
2.4990001 -1.321 0.61799997 0 0 0 0 0.0288
2.494 -1.313 0.611 0 0 0 0 0.02881
2.4749999 -1.2970001 0.60100001 0 0 0 0 0.028820001
2.4649999 -1.2869999 0.59399998 0 0 0 0 0.028829999
2.404 -1.249 0.574 0 0 0 0 0.02884
2.45 -1.268 0.57999998 0 0 0 0 0.02885
2.441 -1.257 0.57300001 0 0 0 0 0.028860001
2.4430001 -1.252 0.56800002 0 0 0 0 0.02887
2.4579999 -1.255 0.56599998 0 0 0 0 0.02888
2.5050001 -1.272 0.57200003 0 0 0 0 0.028890001
2.52 -1.274 0.56999999 0 0 0 0 0.028899999
2.431 -1.223 0.54500002 0 0 0 0 0.02891
2.427 -1.215 0.53899997 0 0 0 0 0.02892
2.451 -1.221 0.53899997 0 0 0 0 0.028929999
4.6929998 -2.3269999 1.023 41 0 0 0 0.02894
3.9460001 -1.947 0.852 151 0 0 0 0.02895
3.7030001 -1.817 0.792 57 0 0 0 0.028960001
3.6849999 -1.799 0.78100002 56 0 0 0 0.028969999
3.687 -1.79 0.77399999 56 0 0 0 0.02898
3.687 -1.781 0.76599997 56 0 0 0 0.02899
3.687 -1.771 0.759 42 0 0 0 0.028999999
3.6889999 -1.763 0.75199997 26 0 0 0 0.02901
3.7349999 -1.775 0.75400001 15 0 0 0 0.02902
3.8069999 -1.799 0.76099998 67 0 0 0 0.029030001
4.2639999 -2.003 0.84399998 150 0 0 0 0.029039999
4.4559999 -2.082 0.87300003 150 0 0 0 0.02905
4.5580001 -2.1170001 0.884 150 0 0 0 0.029060001
4.6030002 -2.125 0.884 133 0 0 0 0.029069999
4.6500001 -2.135 0.884 90 0 0 0 0.02908
4.6680002 -2.1300001 0.87800002 51 0 0 0 0.02909
2.4909999 -1.13 0.46399999 0 0 0 0 0.029100001
2.4360001 -1.098 0.449 0 0 0 0 0.02911
2.438 -1.092 0.44499999 0 0 0 0 0.02912
2.487 -1.107 0.449 0 0 0 0 0.029130001
2.411 -1.067 0.43000001 0 0 0 0 0.029139999
2.431 -1.069 0.43000001 0 0 0 0 0.02915
2.4289999 -1.061 0.42500001 0 0 0 0 0.02916
2.5339999 -1.1 0.43799999 0 0 0 0 0.029170001
2.4960001 -1.076 0.42699999 0 0 0 0 0.02918
0 0 0 0 0 0 0 0.02919
2.49 -1.0599999 0.417 0 0 0 0 0.029200001
2.4790001 -1.048 0.41100001 0 0 0 0 0.029209999
2.494 -1.0470001 0.40900001 0 0 0 0 0.02922
2.411 -1.005 0.391 0 0 0 0 0.02923
0 0 0 0 0 0 0 0.029239999
0 0 0 0 0 0 0 0.02925
0 0 0 0 0 0 0 0.02926
2.4260001 -0.98299998 0.37599999 0 0 0 0 0.029270001
2.4030001 -0.96700001 0.368 0 0 0 0 0.029279999
0 0 0 0 0 0 0 0.02929
0 0 0 0 0 0 0 0.029300001
0 0 0 0 0 0 0 0.029309999
0 0 0 0 0 0 0 0.02932
0 0 0 0 0 0 0 0.02933
0 0 0 0 0 0 0 0.029340001
0 0 0 0 0 0 0 0.02935
0 0 0 0 0 0 0 0.02936
0 0 0 0 0 0 0 0.029370001
2.3789999 -0.88599998 0.324 0 0 0 0 0.029379999
0 0 0 0 0 0 0 0.02939
0 0 0 0 0 0 0 0.0294
0 0 0 0 0 0 0 0.029410001
2.4219999 -0.87300003 0.31400001 0 0 0 0 0.02942
0 0 0 0 0 0 0 0.02943
0 0 0 0 0 0 0 0.029440001
0 0 0 0 0 0 0 0.029449999
2.3970001 -0.83499998 0.296 0 0 0 0 0.02946
2.691 -0.93000001 0.32800001 0 0 0 0 0.02947
0 0 0 0 0 0 0 0.029479999
2.8310001 -0.96100003 0.336 0 0 0 0 0.02949
0 0 0 0 0 0 0 0.0295
0 0 0 0 0 0 0 0.029510001
0 0 0 0 0 0 0 0.029519999
2.8829999 -0.94300002 0.32499999 0 0 0 0 0.02953
2.8789999 -0.93300003 0.31999999 0 0 0 0 0.02954
0 0 0 0 0 0 0 0.029549999
0 0 0 0 0 0 0 0.02956
0 0 0 0 0 0 0 0.02957
0 0 0 0 0 0 0 0.029580001
0 0 0 0 0 0 0 0.029589999
0 0 0 0 0 0 0 0.0296
0 0 0 0 0 0 0 0.029610001
0 0 0 0 0 0 0 0.029619999
0 0 0 0 0 0 0 0.02963
0 0 0 0 0 0 0 0.02964
0 0 0 0 0 0 0 0.029650001
0 0 0 0 0 0 0 0.02966
0 0 0 0 0 0 0 0.02967
0 0 0 0 0 0 0 0.029680001
0 0 0 0 0 0 0 0.029689999
0 0 0 0 0 0 0 0.0297
0 0 0 0 0 0 0 0.02971
0 0 0 0 0 0 0 0.029720001
0 0 0 0 0 0 0 0.02973
0 0 0 0 0 0 0 0.02974
0 0 0 0 0 0 0 0.029750001
0 0 0 0 0 0 0 0.029759999
0 0 0 0 0 0 0 0.02977
0 0 0 0 0 0 0 0.02978
0 0 0 0 0 0 0 0.029789999
0 0 0 0 0 0 0 0.0298
0 0 0 0 0 0 0 0.02981
0 0 0 0 0 0 0 0.029820001
0 0 0 0 0 0 0 0.029829999
0 0 0 0 0 0 0 0.02984
2.418 -0.55199999 0.168 0 0 0 0 0.029850001
0 0 0 0 0 0 0 0.029859999
0 0 0 0 0 0 0 0.02987
0 0 0 0 0 0 0 0.02988
0 0 0 0 0 0 0 0.029890001
0 0 0 0 0 0 0 0.029899999
0 0 0 0 0 0 0 0.02991
0 0 0 0 0 0 0 0.029920001
0 0 0 0 0 0 0 0.029929999
0 0 0 0 0 0 0 0.02994
0 0 0 0 0 0 0 0.02995
0 0 0 0 0 0 0 0.029960001
0 0 0 0 0 0 0 0.02997
0 0 0 0 0 0 0 0.02998
2.431 -0.449 0.13 0 0 0 0 0.029990001
2.3889999 -0.43399999 0.125 1 0 0 0 0.029999999
2.385 -0.42500001 0.122 5 0 0 0 0.03001
2.3770001 -0.41600001 0.119 11 0 0 0 0.03002
2.3759999 -0.40900001 0.117 14 0 0 0 0.030029999
2.375 -0.40099999 0.114 18 0 0 0 0.03004
2.3759999 -0.39399999 0.112 22 0 0 0 0.03005
2.369 -0.38499999 0.109 21 0 0 0 0.030060001
2.3740001 -0.37900001 0.107 23 0 0 0 0.030069999
2.368 -0.37099999 0.104 21 0 0 0 0.03008
2.3670001 -0.36300001 0.101 20 0 0 0 0.03009
2.365 -0.35499999 0.098999999 18 0 0 0 0.030099999
2.3670001 -0.34799999 0.097000003 16 0 0 0 0.03011
2.3659999 -0.34099999 0.093999997 16 0 0 0 0.03012
2.362 -0.333 0.092 16 0 0 0 0.030130001
2.3629999 -0.32499999 0.089000002 19 0 0 0 0.030139999
2.3699999 -0.31900001 0.086999997 17 0 0 0 0.03015
2.4070001 -0.317 0.086000003 15 0 0 0 0.030160001
2.457 -0.315 0.086000003 19 0 0 0 0.030169999
2.5079999 -0.31400001 0.085000001 23 0 0 0 0.03018
2.562 -0.31299999 0.083999999 23 0 0 0 0.03019
2.8499999 -0.33899999 0.090999998 109 0 0 0 0.030200001
3.135 -0.36300001 0.097000003 150 0 0 0 0.03021
3.21 -0.36199999 0.096000001 150 0 0 0 0.03022
3.211 -0.352 0.093000002 150 0 0 0 0.030230001
3.2119999 -0.34200001 0.090000004 150 0 0 0 0.030239999
3.2119999 -0.33199999 0.086999997 150 0 0 0 0.03025
3.2090001 -0.322 0.083999999 150 0 0 0 0.03026
3.233 -0.31400001 0.082000002 151 0 0 0 0.030270001
3.2360001 -0.30399999 0.079000004 150 0 0 0 0.03028
3.237 -0.294 0.075999998 150 0 0 0 0.03029
3.2360001 -0.28400001 0.072999999 150 0 0 0 0.030300001
3.2360001 -0.27399999 0.07 151 0 0 0 0.030309999
3.234 -0.264 0.068000004 151 0 0 0 0.03032
3.3050001 -0.259 0.066 42 0 0 0 0.03033
3.346 -0.252 0.064000003 152 0 0 0 0.030339999
3.3440001 -0.241 0.061000001 150 0 0 0 0.03035
3.346 -0.23100001 0.057999998 151 0 0 0 0.03036
3.342 -0.22 0.055 151 0 0 0 0.030370001
3.355 -0.211 0.052999999 151 0 0 0 0.030379999
3.3729999 -0.20100001 0.050000001 151 0 0 0 0.03039
3.372 -0.191 0.046999998 151 0 0 0 0.030400001
3.3789999 -0.18000001 0.044 150 0 0 0 0.030409999
3.421 -0.17200001 0.041999999 154 0 0 0 0.03042
3.4360001 -0.162 0.039000001 150 0 0 0 0.03043
3.4330001 -0.15099999 0.037 150 0 0 0 0.030440001
3.4349999 -0.14 0.034000002 150 0 0 0 0.030449999
3.4360001 -0.12899999 0.030999999 150 0 0 0 0.03046
3.434 -0.119 0.028000001 150 0 0 0 0.030470001
3.4330001 -0.108 0.025 150 0 0 0 0.030479999
3.431 -0.097000003 0.023 150 0 0 0 0.03049
3.4300001 -0.086000003 0.02 150 0 0 0 0.0305
3.4330001 -0.075000003 0.017000001 150 0 0 0 0.030510001
3.427 -0.064000003 0.015 150 0 0 0 0.03052
3.424 -0.054000001 0.012 150 0 0 0 0.03053
3.424 -0.043000001 0.0089999996 150 0 0 0 0.030540001
3.4289999 -0.032000002 0.0070000002 150 0 0 0 0.030549999
3.4230001 -0.021 0.0040000002 150 0 0 0 0.03056
3.4189999 -0.0099999998 0.0020000001 150 0 0 0 0.03057
3.424 0 0 150 0 0 0 0.030579999
3.4189999 0.0099999998 -0.0020000001 151 0 0 0 0.03059
3.4130001 0.021 -0.0049999999 151 0 0 0 0.0306
3.4200001 0.032000002 -0.0070000002 151 0 0 0 0.030610001
3.4219999 0.041999999 -0.0099999998 152 0 0 0 0.030619999
3.4170001 0.052999999 -0.012 152 0 0 0 0.03063
3.418 0.064000003 -0.015 152 0 0 0 0.03064
3.4130001 0.075000003 -0.017000001 153 0 0 0 0.030649999
3.4030001 0.085000001 -0.02 154 0 0 0 0.03066
3.398 0.096000001 -0.022 154 0 0 0 0.03067
3.3870001 0.106 -0.024 154 0 0 0 0.030680001
3.3829999 0.117 -0.026000001 155 0 0 0 0.030689999
3.3829999 0.12800001 -0.028999999 155 0 0 0 0.0307
3.3800001 0.138 -0.030999999 156 0 0 0 0.030710001
3.3710001 0.148 -0.033 157 0 0 0 0.030719999
3.3640001 0.15899999 -0.035 158 0 0 0 0.03073
3.3640001 0.17 -0.037999999 159 0 0 0 0.03074
3.359 0.18000001 -0.039999999 160 0 0 0 0.030750001
3.3610001 0.191 -0.041999999 159 0 0 0 0.03076
3.3570001 0.20100001 -0.044 160 0 0 0 0.03077
3.3599999 0.212 -0.046 161 0 0 0 0.030780001
3.362 0.223 -0.048 161 0 0 0 0.030789999
3.3599999 0.233 -0.050000001 162 0 0 0 0.0308
3.3570001 0.244 -0.052000001 163 0 0 0 0.03081
3.3499999 0.25400001 -0.054000001 163 0 0 0 0.030820001
3.3529999 0.26499999 -0.056000002 165 0 0 0 0.03083
3.352 0.27599999 -0.057999998 163 0 0 0 0.03084
3.3529999 0.28600001 -0.061000001 162 0 0 0 0.030850001
3.3529999 0.29699999 -0.063000001 161 0 0 0 0.030859999
3.3529999 0.308 -0.064000003 162 0 0 0 0.03087
3.349 0.31799999 -0.066 160 0 0 0 0.03088
3.3510001 0.329 -0.068000004 159 0 0 0 0.030889999
3.352 0.34 -0.07 160 0 0 0 0.0309
3.352 0.35100001 -0.071999997 159 0 0 0 0.03091
3.3559999 0.36199999 -0.074000001 158 0 0 0 0.030920001
3.352 0.373 -0.075999998 158 0 0 0 0.030929999
3.362 0.384 -0.078000002 155 0 0 0 0.03094
3.362 0.39500001 -0.079999998 155 0 0 0 0.030950001
3.3610001 0.40599999 -0.082000002 155 0 0 0 0.030959999
3.3759999 0.419 -0.083999999 154 0 0 0 0.03097
3.3870001 0.43099999 -0.086000003 153 0 0 0 0.03098
3.3889999 0.442 -0.088 152 0 0 0 0.030990001
3.3870001 0.45300001 -0.089000002 152 0 0 0 0.030999999
3.3889999 0.46399999 -0.090999998 152 0 0 0 0.03101
3.392 0.47499999 -0.093000002 152 0 0 0 0.031020001
3.3900001 0.486 -0.093999997 152 0 0 0 0.031029999
3.3870001 0.49700001 -0.096000001 152 0 0 0 0.03104
3.3629999 0.50400001 -0.097000003 154 0 0 0 0.03105
3.342 0.51200002 -0.097999997 152 0 0 0 0.031060001
3.3150001 0.51800001 -0.098999999 153 0 0 0 0.03107
3.3199999 0.52999997 -0.1 152 0 0 0 0.03108
3.296 0.537 -0.101 152 0 0 0 0.031090001
3.2679999 0.54299998 -0.102 154 0 0 0 0.031099999
3.2739999 0.55500001 -0.103 154 0 0 0 0.03111
3.273 0.565 -0.105 154 0 0 0 0.03112
3.2809999 0.57700002 -0.107 150 0 0 0 0.031129999
3.25 0.58200002 -0.107 24 0 0 0 0.03114
3.2030001 0.58399999 -0.107 24 0 0 0 0.03115
3.151 0.58499998 -0.106 24 0 0 0 0.031160001
3.0940001 0.58499998 -0.106 25 0 0 0 0.031169999
3 0.57700002 -0.104 25 0 0 0 0.03118
2.948 0.57700002 -0.103 26 0 0 0 0.03119
2.868 0.57099998 -0.101 26 0 0 0 0.031199999
2.743 0.55500001 -0.097999997 25 0 0 0 0.03121
2.6389999 0.542 -0.094999999 22 0 0 0 0.03122
2.5580001 0.53399998 -0.093000002 19 0 0 0 0.031230001
2.5009999 0.52999997 -0.092 19 0 0 0 0.031239999
2.437 0.52499998 -0.090000004 18 0 0 0 0.03125
2.3659999 0.51700002 -0.089000002 15 0 0 0 0.031259999
2.312 0.51300001 -0.086999997 14 0 0 0 0.031270001
2.2590001 0.509 -0.086000003 151 0 0 0 0.03128
2.2390001 0.51200002 -0.086000003 151 0 0 0 0.031289998
2.2320001 0.51800001 -0.086999997 151 0 0 0 0.031300001
2.2479999 0.52899998 -0.088 151 0 0 0 0.03131
2.227 0.53100002 -0.088 151 0 0 0 0.031319998
2.2249999 0.53799999 -0.088 151 0 0 0 0.031330001
2.23 0.54699999 -0.089000002 150 0 0 0 0.031339999
2.2279999 0.55400002 -0.090000004 150 0 0 0 0.031350002
2.2249999 0.56099999 -0.090000004 151 0 0 0 0.03136
2.224 0.56800002 -0.090999998 151 0 0 0 0.031369999
2.2219999 0.57499999 -0.090999998 150 0 0 0 0.031380001
2.221 0.58200002 -0.092 150 0 0 0 0.03139
2.2260001 0.59100002 -0.092 151 0 0 0 0.031399999
2.2360001 0.60100001 -0.093000002 151 0 0 0 0.031410001
2.234 0.60799998 -0.093999997 151 0 0 0 0.03142
2.2349999 0.616 -0.093999997 151 0 0 0 0.031429999
2.23 0.62199998 -0.094999999 151 0 0 0 0.031440001
2.2309999 0.62900001 -0.094999999 151 0 0 0 0.03145
2.279 0.65100002 -0.097999997 150 0 0 0 0.031459998
2.4649999 0.71200001 -0.106 150 0 0 0 0.031470001
2.4820001 0.72500002 -0.107 150 0 0 0 0.031479999
2.483 0.73400003 -0.108 150 0 0 0 0.031490002
2.4820001 0.74199998 -0.108 150 0 0 0 0.031500001
2.4300001 0.73500001 -0.106 150 0 0 0 0.031509999
2.3080001 0.70599997 -0.101 150 0 0 0 0.031520002
0 0 0 0 0 0 0 0.03153
1.48 0.463 -0.064999998 1 0 0 0 0.031539999
1.457 0.46000001 -0.064000003 1 0 0 0 0.031550001
1.442 0.46000001 -0.064000003 1 0 0 0 0.03156
1.423 0.45899999 -0.063000001 1 0 0 0 0.031569999
1.38 0.44999999 -0.061000001 0 0 0 0 0.031580001
1.3710001 0.45100001 -0.061000001 0 0 0 0 0.03159
1.344 0.447 -0.059999999 0 0 0 0 0.031599998
1.344 0.45199999 -0.059999999 5 0 0 0 0.031610001
1.3150001 0.447 -0.059 30 0 0 0 0.03162
1.298 0.44499999 -0.057999998 122 0 0 0 0.031629998
1.293 0.44800001 -0.057999998 150 0 0 0 0.031640001
1.2920001 0.45199999 -0.057999998 150 0 0 0 0.031649999
1.293 0.45699999 -0.057999998 150 0 0 0 0.031660002
1.293 0.461 -0.057999998 150 0 0 0 0.03167
1.29 0.46399999 -0.057 150 0 0 0 0.031679999
1.289 0.46799999 -0.057 150 0 0 0 0.031690001
1.294 0.47499999 -0.057999998 150 0 0 0 0.0317
1.291 0.47799999 -0.057 150 0 0 0 0.031709999
1.289 0.48199999 -0.057 150 0 0 0 0.031720001
1.293 0.48800001 -0.057 150 0 0 0 0.03173
1.2970001 0.49399999 -0.057 53 0 0 0 0.031739999
1.29 0.495 -0.057 9 0 0 0 0.031750001
1.26 0.48800001 -0.055 5 0 0 0 0.03176
1.234 0.48199999 -0.054000001 0 0 0 0 0.031769998
3.3310001 1.313 -0.147 3 0 0 0 0.031780001
3.3110001 1.317 -0.145 5 0 0 0 0.031789999
3.323 1.3329999 -0.145 8 0 0 0 0.031800002
3.3210001 1.3430001 -0.145 9 0 0 0 0.031810001
3.2969999 1.345 -0.14300001 4 0 0 0 0.031819999
3.2750001 1.347 -0.141 3 0 0 0 0.031830002
3.2720001 1.357 -0.141 3 0 0 0 0.03184
3.2420001 1.3559999 -0.139 4 0 0 0 0.031849999
3.2639999 1.376 -0.139 3 0 0 0 0.031860001
3.2449999 1.3789999 -0.13699999 3 0 0 0 0.03187
3.227 1.382 -0.13600001 3 0 0 0 0.031879999
3.221 1.391 -0.13500001 4 0 0 0 0.031890001
3.214 1.398 -0.134 5 0 0 0 0.0319
3.2060001 1.406 -0.132 4 0 0 0 0.031909999
3.198 1.414 -0.131 2 0 0 0 0.031920001
3.165 1.41 -0.12899999 0 0 0 0 0.03193
3.1270001 1.403 -0.126 1 0 0 0 0.031939998
3.1070001 1.405 -0.124 2 0 0 0 0.031950001
3.112 1.418 -0.123 2 0 0 0 0.031959999
3.1110001 1.428 -0.122 2 0 0 0 0.031970002
3.1129999 1.439 -0.121 2 0 0 0 0.03198
3.1210001 1.4529999 -0.12 3 0 0 0 0.031989999
3.1070001 1.457 -0.118 4 0 0 0 0.032000002
3.098 1.4630001 -0.117 3 0 0 0 0.03201
3.079 1.465 -0.115 2 0 0 0 0.032019999
3.069 1.47 -0.113 2 0 0 0 0.032030001
3.0599999 1.476 -0.111 2 0 0 0 0.03204
3.062 1.487 -0.11 2 0 0 0 0.032049999
3.0639999 1.498 -0.109 2 0 0 0 0.032060001
3.0450001 1.499 -0.106 2 0 0 0 0.03207
3.0869999 1.53 -0.106 1 0 0 0 0.032079998
0.91900003 0.458 -0.030999999 0 0 0 0 0.032090001
0.91100001 0.458 -0.029999999 0 0 0 0 0.032099999
0.90600002 0.458 -0.028999999 3 0 0 0 0.032109998
0.912 0.46399999 -0.028999999 4 0 0 0 0.032120001
0.91500002 0.46799999 -0.028999999 4 0 0 0 0.032129999
0.90200001 0.465 -0.028000001 3 0 0 0 0.032140002
0.90499997 0.46900001 -0.027000001 2 0 0 0 0.03215
0.96100003 0.50099999 -0.028000001 0 0 0 0 0.032159999
0.98699999 0.51800001 -0.028999999 0 0 0 0 0.032170001
0 0 0 0 0 0 0 0.03218
0 0 0 0 0 0 0 0.032189999
0 0 0 0 0 0 0 0.032200001
0 0 0 0 0 0 0 0.03221
0 0 0 0 0 0 0 0.032219999
0 0 0 0 0 0 0 0.032230001
0 0 0 0 0 0 0 0.03224
0 0 0 0 0 0 0 0.032249998
0 0 0 0 0 0 0 0.032260001
0 0 0 0 0 0 0 0.032269999
0 0 0 0 0 0 0 0.032280002
0 0 0 0 0 0 0 0.03229
0 0 0 0 0 0 0 0.032299999
0 0 0 0 0 0 0 0.032310002
0 0 0 0 0 0 0 0.03232
0 0 0 0 0 0 0 0.032329999
0 0 0 0 0 0 0 0.032340001
0 0 0 0 0 0 0 0.03235
0 0 0 0 0 0 0 0.032359999
0 0 0 0 0 0 0 0.032370001
0 0 0 0 0 0 0 0.03238
0 0 0 0 0 0 0 0.032389998
0 0 0 0 0 0 0 0.032400001
0 0 0 0 0 0 0 0.03241
0 0 0 0 0 0 0 0.032419998
0 0 0 0 0 0 0 0.032430001
0 0 0 0 0 0 0 0.032439999
0 0 0 0 0 0 0 0.032450002
0 0 0 0 0 0 0 0.03246
3.138 1.927 -0.0099999998 1 0 0 0 0.032469999
3.155 1.9450001 -0.0070000002 0 0 0 0 0.032480001
3.177 1.967 -0.003 0 0 0 0 0.03249
3.2119999 1.997 0 1 0 0 0 0.032499999
3.198 1.997 0.003 1 0 0 0 0.032510001
3.2219999 2.02 0.0060000001 1 0 0 0 0.03252
1.541 0.97000003 0.0049999999 0 0 0 0 0.032529999
1.403 0.88599998 0.0060000001 108 0 0 0 0.032540001
1.383 0.87699997 0.0070000002 151 0 0 0 0.03255
1.375 0.875 0.0089999996 151 0 0 0 0.032559998
1.325 0.84600002 0.0099999998 151 0 0 0 0.032570001
1.1390001 0.73000002 0.0099999998 150 0 0 0 0.032579999
1.0880001 0.69999999 0.011 151 0 0 0 0.032590002
1.0829999 0.699 0.012 151 0 0 0 0.032600001
1.089 0.70499998 0.014 150 0 0 0 0.032609999
1.145 0.74400002 0.016000001 0 0 0 0 0.032620002
3.1459999 2.052 0.048 5 0 0 0 0.03263
0 0 0 0 0 0 0 0.032639999
0 0 0 0 0 0 0 0.032650001
0 0 0 0 0 0 0 0.03266
1.428 0.94300002 0.028999999 0 0 0 0 0.032669999
1.3559999 0.898 0.028999999 0 0 0 0 0.032680001
0 0 0 0 0 0 0 0.03269
0 0 0 0 0 0 0 0.032699998
0 0 0 0 0 0 0 0.032710001
1.446 0.96899998 0.039000001 0 0 0 0 0.03272
1.506 1.011 0.043000001 0 0 0 0 0.032729998
1.506 1.013 0.045000002 0 0 0 0 0.032740001
1.527 1.03 0.048 0 0 0 0 0.032749999
1.433 0.96899998 0.046999998 0 0 0 0 0.032760002
1.423 0.96399999 0.048 0 0 0 0 0.03277
1.493 1.0140001 0.052999999 0 0 0 0 0.032779999
1.469 1 0.054000001 0 0 0 0 0.032790001
1.461 0.99699998 0.056000002 0 0 0 0 0.0328
1.457 0.99599999 0.057999998 0 0 0 0 0.032809999
1.3789999 0.94400001 0.057 0 0 0 0 0.032820001
1.429 0.98100001 0.061000001 0 0 0 0 0.03283
1.419 0.97500002 0.061999999 1 0 0 0 0.032839999
1.414 0.97399998 0.064000003 1 0 0 0 0.032850001
1.4170001 0.977 0.066 1 0 0 0 0.03286
1.421 0.98100001 0.068999998 2 0 0 0 0.032869998
1.418 0.98100001 0.071000002 2 0 0 0 0.032880001
1.4170001 0.98100001 0.072999999 2 0 0 0 0.032889999
1.421 0.986 0.075000003 2 0 0 0 0.032900002
1.415 0.98199999 0.077 3 0 0 0 0.032910001
1.411 0.98100001 0.079000004 3 0 0 0 0.032919999
1.409 0.98000002 0.079999998 4 0 0 0 0.032930002
1.4069999 0.98000002 0.082000002 11 0 0 0 0.03294
1.413 0.98500001 0.085000001 4 0 0 0 0.032949999
1.403 0.97899997 0.086000003 4 0 0 0 0.032960001
1.401 0.97799999 0.088 5 0 0 0 0.03297
1.402 0.97899997 0.090000004 4 0 0 0 0.032979999
1.402 0.98000002 0.092 11 0 0 0 0.032990001
1.397 0.977 0.093999997 12 0 0 0 0.033
1.396 0.977 0.096000001 12 0 0 0 0.033009999
1.4 0.98000002 0.097999997 12 0 0 0 0.033020001
1.399 0.97899997 0.1 12 0 0 0 0.03303
1.399 0.98000002 0.102 13 0 0 0 0.033039998
1.398 0.97899997 0.104 14 0 0 0 0.033050001
1.4 0.98000002 0.106 13 0 0 0 0.033059999
1.3940001 0.97600001 0.108 14 0 0 0 0.033070002
1.395 0.977 0.11 15 0 0 0 0.03308
1.396 0.977 0.112 15 0 0 0 0.033089999
1.396 0.977 0.114 10 0 0 0 0.033100002
0.085000001 0.059999999 0.0070000002 0 0 0 0 0.03311
0.055 0.037999999 0.0040000002 0 0 0 0 0.033119999
0.075000003 0.052000001 0.0060000001 0 0 0 0 0.033130001
0.061999999 0.043000001 0.0049999999 0 0 0 0 0.03314
0.075000003 0.052000001 0.0060000001 0 0 0 0 0.033149999
0.081 0.057 0.0070000002 0 0 0 0 0.033160001
0.063000001 0.044 0.0049999999 0 0 0 0 0.03317
0.071999997 0.050000001 0.0060000001 0 0 0 0 0.033179998
0.071999997 0.050000001 0.0060000001 0 0 0 0 0.033190001
0.074000001 0.050999999 0.0070000002 0 0 0 0 0.033199999
0.068000004 0.046999998 0.0060000001 0 0 0 0 0.033209998
0.066 0.046 0.0060000001 0 0 0 0 0.033220001
0.057 0.039000001 0.0049999999 0 0 0 0 0.033229999
0.07 0.048 0.0070000002 0 0 0 0 0.033240002
0.064999998 0.045000002 0.0060000001 0 0 0 0 0.03325
0.064999998 0.045000002 0.0060000001 0 0 0 0 0.033259999
0.050000001 0.034000002 0.0049999999 0 0 0 0 0.033270001
0.082000002 0.056000002 0.0080000004 0 0 0 0 0.03328
0.071000002 0.048999999 0.0070000002 0 0 0 0 0.033289999
0.048 0.033 0.0049999999 0 0 0 0 0.033300001
0.064999998 0.044 0.0070000002 0 0 0 0 0.03331
0.055 0.037 0.0060000001 0 0 0 0 0.033319999
0.059 0.039999999 0.0060000001 0 0 0 0 0.033330001
0.050999999 0.034000002 0.0049999999 0 0 0 0 0.03334
0.044 0.029999999 0.0049999999 0 0 0 0 0.033349998
0 0 0 0 0 0 0 0.033360001
0.048 0.032000002 0.0049999999 0 0 0 0 0.033369999
0.046999998 0.032000002 0.0049999999 0 0 0 0 0.033380002
0.046999998 0.030999999 0.0049999999 0 0 0 0 0.03339
0.052000001 0.035 0.0060000001 0 0 0 0 0.033399999
0.050999999 0.034000002 0.0060000001 0 0 0 0 0.033410002
0.057 0.037999999 0.0070000002 0 0 0 0 0.03342
0.067000002 0.044 0.0080000004 0 0 0 0 0.033429999
0.059 0.039000001 0.0070000002 0 0 0 0 0.033440001
0.061000001 0.039999999 0.0070000002 0 0 0 0 0.03345
0.063000001 0.041999999 0.0080000004 0 0 0 0 0.033459999
0.083999999 0.055 0.0099999998 0 0 0 0 0.033470001
0.050999999 0.033 0.0060000001 0 0 0 0 0.03348
0.054000001 0.035 0.0060000001 0 0 0 0 0.033489998
1.502 0.97600001 0.193 0 0 0 0 0.033500001
1.485 0.96100003 0.192 0 0 0 0 0.03351
1.5420001 0.995 0.20100001 0 0 0 0 0.033519998
3.5420001 2.277 0.465 5 0 0 0 0.033530001
3.4860001 2.233 0.46000001 3 0 0 0 0.033539999
3.447 2.2 0.458 3 0 0 0 0.033550002
3.4590001 2.2 0.46200001 3 0 0 0 0.03356
3.484 2.207 0.46799999 4 0 0 0 0.033569999
3.5109999 2.2160001 0.47400001 5 0 0 0 0.033580001
3.4920001 2.1949999 0.47400001 5 0 0 0 0.03359
3.516 2.2019999 0.47999999 6 0 0 0 0.033599999
3.5120001 2.1900001 0.48100001 6 0 0 0 0.033610001
3.507 2.178 0.48300001 6 0 0 0 0.03362
3.51 2.171 0.48500001 6 0 0 0 0.033629999
3.493 2.151 0.48500001 6 0 0 0 0.033640001
3.4990001 2.145 0.48800001 6 0 0 0 0.03365
3.507 2.141 0.491 6 0 0 0 0.033659998
3.493 2.1229999 0.491 6 0 0 0 0.033670001
3.5079999 2.1229999 0.495 6 0 0 0 0.033679999
3.523 2.122 0.49900001 6 0 0 0 0.033690002
3.5220001 2.112 0.5 6 0 0 0 0.0337
3.5209999 2.1010001 0.50199997 6 0 0 0 0.033709999
3.5320001 2.0969999 0.505 6 0 0 0 0.033720002
3.536 2.0899999 0.50700003 6 0 0 0 0.03373
3.517 2.0680001 0.505 6 0 0 0 0.033739999
3.526 2.0639999 0.50800002 6 0 0 0 0.033750001
3.5179999 2.0480001 0.50800002 6 0 0 0 0.03376
3.5190001 2.039 0.50999999 6 0 0 0 0.033769999
3.53 2.0350001 0.51200002 6 0 0 0 0.033780001
3.5280001 2.023 0.51300001 6 0 0 0 0.03379
3.529 2.013 0.514 6 0 0 0 0.033799998
3.5480001 2.013 0.51800001 6 0 0 0 0.033810001
3.55 2.003 0.51899999 6 0 0 0 0.03382
3.5450001 1.99 0.51899999 6 0 0 0 0.033829998
3.549 1.9809999 0.51999998 6 0 0 0 0.033840001
3.5550001 1.973 0.52200001 6 0 0 0 0.033849999
3.4760001 1.919 0.51099998 4 0 0 0 0.033860002
3.3139999 1.819 0.48800001 3 0 0 0 0.03387
3.25 1.774 0.479 2 0 0 0 0.033879999
3.247 1.762 0.479 1 0 0 0 0.033890001
3.224 1.739 0.47600001 2 0 0 0 0.0339
3.2609999 1.749 0.48100001 2 0 0 0 0.033909999
3.2550001 1.735 0.48100001 2 0 0 0 0.033920001
3.2360001 1.715 0.47799999 1 0 0 0 0.03393
3.224 1.698 0.47600001 1 0 0 0 0.033939999
0.91000003 0.47600001 0.134 0 0 0 0 0.033950001
0.91000003 0.47299999 0.134 0 0 0 0 0.03396
0.90799999 0.46900001 0.134 6 0 0 0 0.033969998
0.90899998 0.46700001 0.134 7 0 0 0 0.033980001
0.91299999 0.46599999 0.134 6 0 0 0 0.033989999
0.921 0.46700001 0.13600001 5 0 0 0 0.034000002
0.91100001 0.45899999 0.134 0 0 0 0 0.034010001
0.91600001 0.458 0.13500001 0 0 0 0 0.034019999
0.92199999 0.458 0.13500001 0 0 0 0 0.034030002
0.92699999 0.458 0.13600001 0 0 0 0 0.03404
0.93699998 0.45899999 0.13699999 0 0 0 0 0.034049999
0.94099998 0.45899999 0.138 0 0 0 0 0.034060001
0.95099998 0.46000001 0.139 0 0 0 0 0.03407
0.95499998 0.45899999 0.139 0 0 0 0 0.034079999
0.963 0.46000001 0.14 0 0 0 0 0.034090001
0.97600001 0.463 0.142 0 0 0 0 0.0341
0.98400003 0.463 0.14300001 0 0 0 0 0.034109998
0.98799998 0.46200001 0.14300001 0 0 0 0 0.034120001
0.99900001 0.46399999 0.145 0 0 0 0 0.03413
1.007 0.46399999 0.145 0 0 0 0 0.034139998
1.016 0.46399999 0.146 0 0 0 0 0.034150001
1.027 0.46599999 0.148 0 0 0 0 0.034159999
1.033 0.465 0.148 0 0 0 0 0.034170002
1.039 0.46399999 0.149 0 0 0 0 0.03418
1.057 0.46900001 0.15099999 0 0 0 0 0.034189999
1.0700001 0.47099999 0.152 0 0 0 0 0.034200002
1.081 0.472 0.153 0 0 0 0 0.03421
1.087 0.472 0.154 0 0 0 0 0.034219999
1.102 0.47400001 0.155 0 0 0 0 0.034230001
