# .PCD v0.7 - Point Cloud Data file format
VERSION 0.7
FIELDS x y z intensity normal_x normal_y normal_z curvature
SIZE 4 4 4 4 4 4 4 4
TYPE F F F F F F F F
COUNT 1 1 1 1 1 1 1 1
WIDTH 1049
HEIGHT 1
VIEWPOINT 0 0 0 1 0 0 0
POINTS 1049
DATA ascii
3.9920001 -1.962 1.524 27 0 0 0 0.055190001
3.983 -1.969 1.523 27 0 0 0 0.055199999
3.9809999 -1.978 1.525 27 0 0 0 0.055210002
3.974 -1.985 1.525 29 0 0 0 0.05522
3.97 -1.994 1.526 27 0 0 0 0.055229999
3.9660001 -2.0020001 1.526 28 0 0 0 0.055240002
3.961 -2.01 1.526 28 0 0 0 0.05525
3.957 -2.0179999 1.527 27 0 0 0 0.055259999
3.9519999 -2.026 1.527 28 0 0 0 0.055270001
3.9449999 -2.0320001 1.525 27 0 0 0 0.05528
3.944 -2.0420001 1.527 26 0 0 0 0.055289999
3.9430001 -2.0510001 1.527 27 0 0 0 0.055300001
3.9389999 -2.059 1.528 26 0 0 0 0.05531
3.9330001 -2.0650001 1.526 27 0 0 0 0.055319998
3.931 -2.0739999 1.526 27 0 0 0 0.055330001
3.928 -2.082 1.526 27 0 0 0 0.055339999
3.924 -2.089 1.526 27 0 0 0 0.055349998
3.9230001 -2.098 1.526 28 0 0 0 0.055360001
3.9200001 -2.105 1.525 27 0 0 0 0.055369999
3.921 -2.115 1.526 26 0 0 0 0.055380002
3.9189999 -2.122 1.525 26 0 0 0 0.05539
3.9159999 -2.1300001 1.524 25 0 0 0 0.055399999
3.915 -2.138 1.524 24 0 0 0 0.055410001
3.928 -2.154 1.529 25 0 0 0 0.05542
3.9260001 -2.161 1.528 25 0 0 0 0.055429999
3.925 -2.1689999 1.527 25 0 0 0 0.055440001
3.9289999 -2.1800001 1.528 24 0 0 0 0.05545
3.927 -2.187 1.527 24 0 0 0 0.055459999
3.928 -2.1949999 1.526 23 0 0 0 0.055470001
3.934 -2.2060001 1.528 25 0 0 0 0.05548
3.934 -2.214 1.527 24 0 0 0 0.055489998
3.944 -2.227 1.529 24 0 0 0 0.055500001
3.948 -2.237 1.529 23 0 0 0 0.055509999
3.9449999 -2.243 1.527 23 0 0 0 0.055520002
3.954 -2.2550001 1.529 23 0 0 0 0.05553
3.9549999 -2.2620001 1.527 23 0 0 0 0.055539999
3.96 -2.2720001 1.528 23 0 0 0 0.055550002
3.9679999 -2.283 1.529 24 0 0 0 0.05556
3.971 -2.2920001 1.528 23 0 0 0 0.055569999
3.9779999 -2.303 1.528 24 0 0 0 0.055580001
3.983 -2.312 1.528 24 0 0 0 0.05559
3.994 -2.3239999 1.529 24 0 0 0 0.055599999
3.997 -2.332 1.528 23 0 0 0 0.055610001
4.0050001 -2.3429999 1.528 24 0 0 0 0.05562
4.0139999 -2.3540001 1.529 24 0 0 0 0.055629998
4.0190001 -2.362 1.527 23 0 0 0 0.055640001
4.0310001 -2.375 1.529 24 0 0 0 0.05565
4.0419998 -2.3859999 1.529 24 0 0 0 0.055659998
4.0489998 -2.395 1.528 24 0 0 0 0.055670001
4.0570002 -2.405 1.528 25 0 0 0 0.055679999
4.0739999 -2.4200001 1.53 24 0 0 0 0.055690002
4.0799999 -2.428 1.529 23 0 0 0 0.0557
4.0929999 -2.4400001 1.529 23 0 0 0 0.055709999
4.1059999 -2.4519999 1.53 23 0 0 0 0.055720001
4.118 -2.4630001 1.53 24 0 0 0 0.05573
4.132 -2.4760001 1.53 25 0 0 0 0.055739999
4.1459999 -2.4879999 1.531 25 0 0 0 0.055750001
4.1550002 -2.497 1.53 24 0 0 0 0.05576
4.1739998 -2.5109999 1.5319999 24 0 0 0 0.055769999
4.1880002 -2.523 1.5319999 24 0 0 0 0.055780001
4.204 -2.536 1.5319999 24 0 0 0 0.05579
4.2210002 -2.5480001 1.533 25 0 0 0 0.055799998
4.2420001 -2.5639999 1.535 25 0 0 0 0.055810001
4.2519999 -2.572 1.533 25 0 0 0 0.055819999
4.27 -2.585 1.534 25 0 0 0 0.055830002
4.2919998 -2.6010001 1.536 25 0 0 0 0.055840001
4.3049998 -2.6099999 1.535 25 0 0 0 0.055849999
4.323 -2.6229999 1.535 25 0 0 0 0.055860002
4.3439999 -2.6370001 1.536 25 0 0 0 0.05587
4.362 -2.6489999 1.536 25 0 0 0 0.055879999
4.3850002 -2.664 1.5369999 25 0 0 0 0.055890001
4.4039998 -2.6760001 1.5369999 25 0 0 0 0.0559
4.421 -2.687 1.5369999 26 0 0 0 0.055909999
4.4419999 -2.7 1.5369999 25 0 0 0 0.055920001
4.46 -2.711 1.536 24 0 0 0 0.05593
4.4860001 -2.727 1.5369999 25 0 0 0 0.055939998
4.5009999 -2.7349999 1.535 25 0 0 0 0.055950001
4.5250001 -2.75 1.536 25 0 0 0 0.05596
4.5489998 -2.763 1.536 26 0 0 0 0.055969998
4.5749998 -2.7780001 1.538 26 0 0 0 0.055980001
4.6009998 -2.793 1.538 27 0 0 0 0.055989999
4.6240001 -2.8050001 1.538 26 0 0 0 0.056000002
4.6459999 -2.8169999 1.5369999 27 0 0 0 0.05601
4.678 -2.8340001 1.539 28 0 0 0 0.056019999
4.7010002 -2.846 1.538 30 0 0 0 0.056030001
4.723 -2.8559999 1.5369999 35 0 0 0 0.05604
4.7360001 -2.862 1.5319999 39 0 0 0 0.056049999
4.7389998 -2.8610001 1.525 42 0 0 0 0.056060001
4.7389998 -2.858 1.516 38 0 0 0 0.05607
4.744 -2.858 1.5089999 36 0 0 0 0.056079999
4.7350001 -2.849 1.497 36 0 0 0 0.056090001
4.7350001 -2.845 1.487 36 0 0 0 0.0561
4.737 -2.842 1.479 35 0 0 0 0.056109998
4.7360001 -2.8369999 1.469 36 0 0 0 0.056120001
4.7389998 -2.835 1.461 35 0 0 0 0.056129999
4.7379999 -2.8299999 1.451 31 0 0 0 0.056139998
4.7350001 -2.823 1.441 24 0 0 0 0.056150001
4.7090001 -2.803 1.424 20 0 0 0 0.056159999
4.6739998 -2.777 1.404 20 0 0 0 0.056170002
4.6570001 -2.7609999 1.3890001 23 0 0 0 0.05618
4.6589999 -2.757 1.381 28 0 0 0 0.056189999
4.6690001 -2.757 1.374 30 0 0 0 0.056200001
4.6789999 -2.757 1.368 30 0 0 0 0.05621
4.6859999 -2.7550001 1.36 30 0 0 0 0.056219999
4.7020001 -2.7579999 1.3559999 30 0 0 0 0.056230001
4.7150002 -2.7590001 1.35 35 0 0 0 0.05624
4.7290001 -2.7609999 1.344 39 0 0 0 0.056249999
4.7280002 -2.753 1.334 41 0 0 0 0.056260001
4.723 -2.743 1.323 39 0 0 0 0.05627
4.7270002 -2.7379999 1.314 36 0 0 0 0.056279998
4.7259998 -2.73 1.304 33 0 0 0 0.056290001
4.7249999 -2.7219999 1.294 32 0 0 0 0.056299999
2.4330001 -1.397 0.66100001 0 0 0 0 0.056310002
2.4460001 -1.401 0.66000003 0 0 0 0 0.05632
2.5 -1.427 0.66900003 0 0 0 0 0.056329999
4.7220001 -2.688 1.2539999 32 0 0 0 0.056340002
4.7259998 -2.6819999 1.245 33 0 0 0 0.05635
4.7249999 -2.6730001 1.235 32 0 0 0 0.056359999
4.7210002 -2.6619999 1.224 32 0 0 0 0.056370001
4.7210002 -2.6530001 1.214 31 0 0 0 0.05638
4.7210002 -2.6440001 1.204 32 0 0 0 0.056389999
4.724 -2.6370001 1.1950001 31 0 0 0 0.056400001
4.7199998 -2.625 1.184 31 0 0 0 0.05641
4.7249999 -2.618 1.176 35 0 0 0 0.056419998
2.4089999 -1.33 0.59399998 0 0 0 0 0.056430001
2.506 -1.3789999 0.61299998 0 0 0 0 0.056439999
4.7199998 -2.586 1.145 34 0 0 0 0.056449998
4.7150002 -2.5739999 1.1339999 31 0 0 0 0.056460001
2.404 -1.307 0.57300001 0 0 0 0 0.056469999
2.4590001 -1.332 0.58099997 0 0 0 0 0.056480002
2.4790001 -1.337 0.58099997 0 0 0 0 0.05649
2.4690001 -1.326 0.57300001 0 0 0 0 0.056499999
2.4820001 -1.3279999 0.57099998 0 0 0 0 0.056510001
2.4230001 -1.29 0.55299997 0 0 0 0 0.05652
2.4820001 -1.316 0.56099999 0 0 0 0 0.056529999
2.4860001 -1.313 0.55699998 0 0 0 0 0.056540001
2.4909999 -1.309 0.55299997 0 0 0 0 0.05655
2.517 -1.317 0.55299997 0 0 0 0 0.056559999
2.546 -1.326 0.55500001 0 0 0 0 0.056570001
2.5450001 -1.319 0.54900002 0 0 0 0 0.05658
2.4460001 -1.262 0.523 0 0 0 0 0.056589998
2.5009999 -1.284 0.52999997 0 0 0 0 0.056600001
2.4820001 -1.268 0.52100003 0 0 0 0 0.056609999
2.4679999 -1.255 0.51300001 0 0 0 0 0.056620002
2.4400001 -1.234 0.50199997 0 0 0 0 0.05663
2.4059999 -1.211 0.49000001 0 0 0 0 0.056639999
2.516 -1.26 0.50800002 0 0 0 0 0.056650002
2.4430001 -1.217 0.48899999 0 0 0 0 0.05666
2.484 -1.232 0.49200001 0 0 0 0 0.056669999
2.4820001 -1.224 0.48699999 0 0 0 0 0.056680001
2.5769999 -1.2640001 0.5 0 0 0 0 0.05669
2.5120001 -1.225 0.48300001 0 0 0 0 0.056699999
2.471 -1.199 0.47 0 0 0 0 0.056710001
2.494 -1.2029999 0.47 0 0 0 0 0.05672
2.5250001 -1.212 0.47099999 0 0 0 0 0.056729998
2.473 -1.179 0.456 0 0 0 0 0.056740001
2.52 -1.1950001 0.46000001 0 0 0 0 0.05675
2.487 -1.173 0.44999999 0 0 0 0 0.056759998
2.402 -1.126 0.43000001 0 0 0 0 0.056770001
2.4000001 -1.118 0.42500001 0 0 0 0 0.056779999
2.441 -1.131 0.428 0 0 0 0 0.056790002
2.427 -1.117 0.41999999 0 0 0 0 0.0568
2.47 -1.13 0.42300001 0 0 0 0 0.056809999
0 0 0 0 0 0 0 0.056820001
0 0 0 0 0 0 0 0.05683
0 0 0 0 0 0 0 0.056839999
2.404 -1.073 0.39500001 0 0 0 0 0.056850001
2.4360001 -1.08 0.396 0 0 0 0 0.05686
2.477 -1.091 0.398 0 0 0 0 0.056869999
2.507 -1.097 0.398 0 0 0 0 0.056880001
2.4419999 -1.062 0.384 0 0 0 0 0.05689
2.4460001 -1.056 0.38 0 0 0 0 0.056899998
2.484 -1.0650001 0.382 0 0 0 0 0.056910001
2.428 -1.034 0.36899999 0 0 0 0 0.056919999
2.4130001 -1.021 0.36300001 0 0 0 0 0.056930002
2.47 -1.038 0.36700001 0 0 0 0 0.056940001
2.382 -0.99400002 0.34999999 0 0 0 0 0.056949999
2.483 -1.028 0.36000001 0 0 0 0 0.056960002
0 0 0 0 0 0 0 0.05697
0 0 0 0 0 0 0 0.056979999
0 0 0 0 0 0 0 0.056990001
0 0 0 0 0 0 0 0.057
0 0 0 0 0 0 0 0.057009999
0 0 0 0 0 0 0 0.057020001
2.878 -1.132 0.38499999 0 0 0 0 0.05703
2.892 -1.128 0.382 0 0 0 0 0.057039998
0 0 0 0 0 0 0 0.057050001
4.6420002 -1.783 0.59899998 24 0 0 0 0.05706
4.6230001 -1.762 0.58899999 54 0 0 0 0.057069998
4.6020002 -1.74 0.579 85 0 0 0 0.057080001
4.5879998 -1.721 0.56999999 83 0 0 0 0.057089999
4.5339999 -1.687 0.55699998 68 0 0 0 0.057100002
4.599 -1.697 0.55699998 80 0 0 0 0.05711
4.6170001 -1.6900001 0.55299997 68 0 0 0 0.057119999
2.9449999 -1.069 0.34799999 0 0 0 0 0.057130001
2.52 -0.90700001 0.294 0 0 0 0 0.05714
2.451 -0.87400001 0.28200001 0 0 0 0 0.057149999
0 0 0 0 0 0 0 0.057160001
0 0 0 0 0 0 0 0.05717
0 0 0 0 0 0 0 0.057179999
0 0 0 0 0 0 0 0.057190001
0 0 0 0 0 0 0 0.0572
0 0 0 0 0 0 0 0.057209998
0 0 0 0 0 0 0 0.057220001
0 0 0 0 0 0 0 0.057229999
0 0 0 0 0 0 0 0.057240002
0 0 0 0 0 0 0 0.057250001
0 0 0 0 0 0 0 0.057259999
0 0 0 0 0 0 0 0.057270002
0 0 0 0 0 0 0 0.05728
0 0 0 0 0 0 0 0.057289999
0 0 0 0 0 0 0 0.057300001
0 0 0 0 0 0 0 0.05731
0 0 0 0 0 0 0 0.057319999
0 0 0 0 0 0 0 0.057330001
0 0 0 0 0 0 0 0.05734
0 0 0 0 0 0 0 0.057349999
0 0 0 0 0 0 0 0.057360001
2.4300001 -0.70099998 0.206 0 0 0 0 0.05737
0 0 0 0 0 0 0 0.057379998
0 0 0 0 0 0 0 0.057390001
0 0 0 0 0 0 0 0.057399999
0 0 0 0 0 0 0 0.057410002
0 0 0 0 0 0 0 0.05742
0 0 0 0 0 0 0 0.057429999
0 0 0 0 0 0 0 0.057440002
0 0 0 0 0 0 0 0.05745
0 0 0 0 0 0 0 0.057459999
0 0 0 0 0 0 0 0.057470001
0 0 0 0 0 0 0 0.05748
0 0 0 0 0 0 0 0.057489999
0 0 0 0 0 0 0 0.057500001
0 0 0 0 0 0 0 0.05751
0 0 0 0 0 0 0 0.057519998
0 0 0 0 0 0 0 0.057530001
0 0 0 0 0 0 0 0.057539999
0 0 0 0 0 0 0 0.057549998
0 0 0 0 0 0 0 0.057560001
0 0 0 0 0 0 0 0.057569999
0 0 0 0 0 0 0 0.057580002
0 0 0 0 0 0 0 0.05759
0 0 0 0 0 0 0 0.057599999
0 0 0 0 0 0 0 0.057610001
0 0 0 0 0 0 0 0.05762
0 0 0 0 0 0 0 0.057629999
2.441 -0.49700001 0.131 0 0 0 0 0.057640001
2.401 -0.48100001 0.126 1 0 0 0 0.05765
2.3859999 -0.47 0.123 5 0 0 0 0.057659999
2.3789999 -0.46200001 0.12 11 0 0 0 0.057670001
2.3800001 -0.454 0.118 13 0 0 0 0.05768
2.375 -0.44600001 0.115 14 0 0 0 0.057689998
2.378 -0.43900001 0.113 17 0 0 0 0.057700001
2.3729999 -0.43000001 0.11 15 0 0 0 0.057709999
2.372 -0.42300001 0.108 20 0 0 0 0.057720002
2.369 -0.41499999 0.105 22 0 0 0 0.05773
2.3699999 -0.40700001 0.103 20 0 0 0 0.057739999
2.369 -0.40000001 0.101 20 0 0 0 0.057750002
2.3699999 -0.39300001 0.097999997 22 0 0 0 0.05776
2.368 -0.38499999 0.096000001 22 0 0 0 0.057769999
2.3710001 -0.37799999 0.093999997 22 0 0 0 0.057780001
2.3670001 -0.37 0.092 21 0 0 0 0.05779
2.3629999 -0.36199999 0.089000002 20 0 0 0 0.057799999
2.3670001 -0.35499999 0.086999997 15 0 0 0 0.057810001
2.3670001 -0.347 0.085000001 15 0 0 0 0.05782
2.365 -0.34 0.082999997 17 0 0 0 0.057829998
2.3629999 -0.33199999 0.079999998 19 0 0 0 0.057840001
2.3629999 -0.324 0.078000002 21 0 0 0 0.05785
2.382 -0.31999999 0.077 17 0 0 0 0.057859998
2.418 -0.317 0.075999998 17 0 0 0 0.057870001
2.47 -0.31600001 0.075000003 20 0 0 0 0.057879999
2.5190001 -0.31400001 0.075000003 24 0 0 0 0.057890002
2.5639999 -0.31200001 0.074000001 23 0 0 0 0.0579
2.892 -0.34299999 0.081 150 0 0 0 0.057909999
3.201 -0.36899999 0.086999997 150 0 0 0 0.057920001
3.21 -0.36000001 0.083999999 150 0 0 0 0.05793
3.211 -0.34999999 0.081 150 0 0 0 0.057939999
3.21 -0.34 0.079000004 150 0 0 0 0.057950001
3.2090001 -0.329 0.075999998 150 0 0 0 0.05796
3.214 -0.31999999 0.072999999 150 0 0 0 0.057969999
3.2349999 -0.31200001 0.071000002 151 0 0 0 0.057980001
3.237 -0.30199999 0.068999998 150 0 0 0 0.05799
3.2379999 -0.292 0.066 150 0 0 0 0.057999998
3.2360001 -0.28099999 0.063000001 151 0 0 0 0.058010001
3.2349999 -0.271 0.061000001 151 0 0 0 0.058019999
3.2390001 -0.26100001 0.057999998 150 0 0 0 0.058030002
3.339 -0.25799999 0.057 76 0 0 0 0.05804
3.3440001 -0.248 0.055 152 0 0 0 0.058049999
3.342 -0.23800001 0.052000001 151 0 0 0 0.058060002
3.3440001 -0.227 0.050000001 151 0 0 0 0.05807
3.342 -0.21699999 0.046999998 151 0 0 0 0.058079999
3.3710001 -0.208 0.045000002 151 0 0 0 0.058090001
3.3710001 -0.197 0.043000001 151 0 0 0 0.0581
3.3699999 -0.186 0.039999999 151 0 0 0 0.058109999
3.411 -0.178 0.037999999 151 0 0 0 0.058120001
3.4260001 -0.168 0.035999998 153 0 0 0 0.05813
3.4330001 -0.15700001 0.033 150 0 0 0 0.058139998
3.4349999 -0.147 0.030999999 150 0 0 0 0.058150001
3.4360001 -0.13600001 0.028000001 150 0 0 0 0.05816
3.4319999 -0.125 0.026000001 150 0 0 0 0.058169998
3.431 -0.114 0.023 150 0 0 0 0.058180001
3.4330001 -0.103 0.021 150 0 0 0 0.058189999
3.4300001 -0.092 0.018999999 150 0 0 0 0.058200002
3.4260001 -0.081 0.016000001 150 0 0 0 0.05821
3.427 -0.07 0.014 150 0 0 0 0.058219999
3.424 -0.059999999 0.012 150 0 0 0 0.058230001
3.424 -0.048999999 0.0089999996 150 0 0 0 0.05824
3.4319999 -0.037999999 0.0070000002 150 0 0 0 0.058249999
3.4230001 -0.027000001 0.0049999999 150 0 0 0 0.058260001
3.4189999 -0.016000001 0.0020000001 150 0 0 0 0.05827
3.4189999 -0.0049999999 0 150 0 0 0 0.058279999
3.4230001 0.0049999999 -0.001 151 0 0 0 0.058290001
3.4189999 0.015 -0.003 151 0 0 0 0.0583
3.418 0.026000001 -0.0049999999 151 0 0 0 0.058309998
3.421 0.037 -0.0080000004 151 0 0 0 0.058320001
3.4230001 0.048 -0.0099999998 152 0 0 0 0.058329999
3.418 0.059 -0.012 152 0 0 0 0.058340002
3.4070001 0.07 -0.014 153 0 0 0 0.058350001
3.404 0.079999998 -0.016000001 153 0 0 0 0.058359999
3.401 0.090999998 -0.017999999 154 0 0 0 0.058370002
3.3900001 0.102 -0.02 154 0 0 0 0.05838
3.382 0.112 -0.022 154 0 0 0 0.058389999
3.3829999 0.123 -0.024 155 0 0 0 0.058400001
3.381 0.134 -0.026000001 156 0 0 0 0.05841
3.3699999 0.14399999 -0.028000001 156 0 0 0 0.058419999
3.372 0.155 -0.029999999 157 0 0 0 0.058430001
3.3640001 0.16500001 -0.030999999 159 0 0 0 0.05844
3.3610001 0.176 -0.033 160 0 0 0 0.058449998
3.359 0.186 -0.035 160 0 0 0 0.058460001
3.358 0.197 -0.037 160 0 0 0 0.05847
3.3610001 0.208 -0.039000001 161 0 0 0 0.058479998
3.3599999 0.219 -0.041000001 160 0 0 0 0.058490001
3.3570001 0.229 -0.041999999 162 0 0 0 0.058499999
3.358 0.23999999 -0.044 161 0 0 0 0.058510002
3.3529999 0.25 -0.046 163 0 0 0 0.05852
3.3540001 0.26100001 -0.048 164 0 0 0 0.058529999
3.3529999 0.27200001 -0.048999999 164 0 0 0 0.058540002
3.3510001 0.28299999 -0.050999999 164 0 0 0 0.05855
3.3529999 0.294 -0.052999999 161 0 0 0 0.058559999
3.3499999 0.30399999 -0.054000001 161 0 0 0 0.058570001
3.3540001 0.315 -0.056000002 162 0 0 0 0.05858
3.3510001 0.32600001 -0.057999998 160 0 0 0 0.058589999
3.3510001 0.33700001 -0.059 160 0 0 0 0.058600001
3.3529999 0.347 -0.061000001 159 0 0 0 0.05861
3.355 0.359 -0.061999999 159 0 0 0 0.058619998
3.3510001 0.36899999 -0.064000003 158 0 0 0 0.058630001
3.3610001 0.38100001 -0.066 157 0 0 0 0.058639999
3.3599999 0.39199999 -0.067000002 155 0 0 0 0.058649998
3.3599999 0.403 -0.068999998 155 0 0 0 0.058660001
3.3710001 0.41499999 -0.07 154 0 0 0 0.058669999
3.3800001 0.42699999 -0.071999997 153 0 0 0 0.058680002
3.3889999 0.43900001 -0.072999999 153 0 0 0 0.05869
3.385 0.449 -0.075000003 153 0 0 0 0.058699999
3.388 0.461 -0.075999998 152 0 0 0 0.058710001
3.3840001 0.47099999 -0.078000002 152 0 0 0 0.05872
3.385 0.48199999 -0.079000004 152 0 0 0 0.058729999
3.3859999 0.49399999 -0.079999998 152 0 0 0 0.058740001
3.3800001 0.50400001 -0.081 153 0 0 0 0.05875
3.3429999 0.509 -0.082000002 154 0 0 0 0.058759999
3.3210001 0.51700002 -0.082999997 152 0 0 0 0.058770001
3.3199999 0.52700001 -0.083999999 152 0 0 0 0.05878
3.3010001 0.53500003 -0.083999999 151 0 0 0 0.058789998
3.277 0.542 -0.085000001 154 0 0 0 0.058800001
3.286 0.55400002 -0.086000003 153 0 0 0 0.058809999
3.276 0.56300002 -0.086999997 153 0 0 0 0.058820002
3.2820001 0.57499999 -0.089000002 152 0 0 0 0.05883
3.2620001 0.58200002 -0.089000002 27 0 0 0 0.058839999
3.2160001 0.58499998 -0.089000002 24 0 0 0 0.058850002
3.1559999 0.58399999 -0.088 24 0 0 0 0.05886
3.115 0.58700001 -0.088 25 0 0 0 0.058869999
3.0420001 0.583 -0.086999997 26 0 0 0 0.058880001
2.987 0.58200002 -0.086000003 27 0 0 0 0.05889
2.927 0.57999998 -0.085000001 29 0 0 0 0.058899999
2.8039999 0.565 -0.082999997 26 0 0 0 0.058910001
2.675 0.54799998 -0.079000004 23 0 0 0 0.05892
2.585 0.53799999 -0.077 21 0 0 0 0.058929998
2.5190001 0.53299999 -0.075999998 20 0 0 0 0.058940001
2.4530001 0.52700001 -0.075000003 19 0 0 0 0.05895
2.3870001 0.51999998 -0.072999999 17 0 0 0 0.058959998
2.3329999 0.51599997 -0.071999997 17 0 0 0 0.058970001
2.2639999 0.509 -0.071000002 150 0 0 0 0.058979999
2.24 0.51099998 -0.07 151 0 0 0 0.058990002
2.233 0.51700002 -0.071000002 152 0 0 0 0.059
2.243 0.52600002 -0.071000002 151 0 0 0 0.059009999
2.2279999 0.52999997 -0.071000002 150 0 0 0 0.059020001
2.2260001 0.537 -0.071999997 151 0 0 0 0.05903
2.224 0.54400003 -0.071999997 151 0 0 0 0.059039999
2.2290001 0.55299997 -0.072999999 151 0 0 0 0.059050001
2.2260001 0.56 -0.072999999 151 0 0 0 0.05906
2.2249999 0.56699997 -0.072999999 151 0 0 0 0.059069999
2.224 0.574 -0.074000001 151 0 0 0 0.059080001
2.2219999 0.58099997 -0.074000001 150 0 0 0 0.05909
2.2249999 0.58899999 -0.074000001 151 0 0 0 0.059099998
2.2309999 0.59799999 -0.075000003 151 0 0 0 0.059110001
2.2290001 0.60500002 -0.075000003 151 0 0 0 0.059119999
2.2309999 0.61299998 -0.075000003 151 0 0 0 0.059130002
2.2290001 0.62 -0.075999998 151 0 0 0 0.05914
2.23 0.62800002 -0.075999998 151 0 0 0 0.059149999
2.2609999 0.64399999 -0.077 150 0 0 0 0.059160002
2.408 0.69400001 -0.082000002 150 0 0 0 0.05917
2.483 0.72500002 -0.085000001 150 0 0 0 0.059179999
2.4790001 0.73199999 -0.085000001 150 0 0 0 0.059190001
2.484 0.741 -0.086000003 150 0 0 0 0.0592
2.4660001 0.74400002 -0.085000001 150 0 0 0 0.059209999
2.3280001 0.71100003 -0.079999998 150 0 0 0 0.059220001
2.507 0.77399999 -0.086999997 107 0 0 0 0.05923
1.4809999 0.46200001 -0.050999999 1 0 0 0 0.059239998
1.46 0.46000001 -0.050000001 1 0 0 0 0.059250001
1.441 0.45899999 -0.050000001 1 0 0 0 0.05926
1.424 0.458 -0.048999999 1 0 0 0 0.059269998
1.4 0.456 -0.048 0 0 0 0 0.059280001
1.382 0.454 -0.048 0 0 0 0 0.059289999
1.351 0.449 -0.046 0 0 0 0 0.059300002
1.326 0.44499999 -0.045000002 4 0 0 0 0.05931
1.321 0.44800001 -0.045000002 16 0 0 0 0.059319999
1.302 0.44600001 -0.045000002 94 0 0 0 0.059330001
1.293 0.447 -0.044 150 0 0 0 0.05934
1.295 0.45199999 -0.044 150 0 0 0 0.059349999
1.294 0.456 -0.044 150 0 0 0 0.059360001
1.29 0.45899999 -0.044 150 0 0 0 0.05937
1.291 0.46399999 -0.044 150 0 0 0 0.059379999
1.289 0.46799999 -0.043000001 150 0 0 0 0.059390001
1.2920001 0.47299999 -0.043000001 150 0 0 0 0.0594
1.2920001 0.47799999 -0.043000001 150 0 0 0 0.059409998
1.291 0.48199999 -0.043000001 150 0 0 0 0.059420001
1.29 0.486 -0.043000001 150 0 0 0 0.059429999
1.293 0.491 -0.041999999 73 0 0 0 0.059440002
1.296 0.49700001 -0.041999999 12 0 0 0 0.059450001
1.2640001 0.48899999 -0.041000001 5 0 0 0 0.059459999
1.243 0.48500001 -0.039999999 0 0 0 0 0.059470002
3.3239999 1.309 -0.107 3 0 0 0 0.05948
3.312 1.3150001 -0.106 5 0 0 0 0.059489999
3.3180001 1.329 -0.105 8 0 0 0 0.059500001
3.323 1.342 -0.105 9 0 0 0 0.05951
3.3039999 1.346 -0.103 5 0 0 0 0.059519999
3.2880001 1.351 -0.102 3 0 0 0 0.059530001
3.263 1.351 -0.1 3 0 0 0 0.05954
3.243 1.354 -0.097999997 4 0 0 0 0.059549998
3.24 1.364 -0.097000003 4 0 0 0 0.059560001
3.243 1.376 -0.096000001 3 0 0 0 0.05957
3.243 1.387 -0.094999999 3 0 0 0 0.059579998
3.2119999 1.385 -0.093000002 4 0 0 0 0.059590001
3.217 1.398 -0.092 5 0 0 0 0.059599999
3.214 1.4069999 -0.090999998 5 0 0 0 0.059610002
3.2190001 1.42 -0.090000004 2 0 0 0 0.05962
3.175 1.4119999 -0.086999997 1 0 0 0 0.059629999
3.128 1.401 -0.083999999 1 0 0 0 0.059640002
3.092 1.396 -0.082000002 2 0 0 0 0.05965
3.1010001 1.41 -0.081 2 0 0 0 0.059659999
3.119 1.429 -0.079999998 2 0 0 0 0.059670001
3.112 1.436 -0.078000002 2 0 0 0 0.05968
3.118 1.449 -0.077 3 0 0 0 0.059689999
3.0999999 1.451 -0.075000003 4 0 0 0 0.059700001
3.0999999 1.462 -0.074000001 4 0 0 0 0.05971
3.0910001 1.4680001 -0.071999997 2 0 0 0 0.059719998
3.0869999 1.476 -0.07 2 0 0 0 0.059730001
3.0680001 1.477 -0.068000004 2 0 0 0 0.059739999
3.0650001 1.4859999 -0.066 2 0 0 0 0.059749998
3.0680001 1.498 -0.064000003 2 0 0 0 0.059760001
3.066 1.507 -0.063000001 2 0 0 0 0.059769999
3.066 1.517 -0.061000001 1 0 0 0 0.059780002
3.0869999 1.5369999 -0.059 0 0 0 0 0.05979
0.912 0.45699999 -0.017000001 0 0 0 0 0.059799999
0.91000003 0.45899999 -0.016000001 3 0 0 0 0.059810001
0.91299999 0.46399999 -0.015 4 0 0 0 0.05982
0.921 0.47099999 -0.015 4 0 0 0 0.059829999
0.92299998 0.47499999 -0.014 4 0 0 0 0.059840001
0.90600002 0.46900001 -0.013 3 0 0 0 0.05985
0.912 0.47499999 -0.013 0 0 0 0 0.059859999
0.93599999 0.49000001 -0.013 0 0 0 0 0.059870001
0 0 0 0 0 0 0 0.05988
0 0 0 0 0 0 0 0.059889998
0 0 0 0 0 0 0 0.059900001
0 0 0 0 0 0 0 0.059909999
0 0 0 0 0 0 0 0.059920002
0 0 0 0 0 0 0 0.05993
0 0 0 0 0 0 0 0.059939999
0 0 0 0 0 0 0 0.059950002
0 0 0 0 0 0 0 0.05996
0 0 0 0 0 0 0 0.059969999
0 0 0 0 0 0 0 0.059980001
3.154 1.771 -0.012 1 0 0 0 0.05999
3.2079999 1.811 -0.0099999998 1 0 0 0 0.059999999
3.2249999 1.83 -0.0070000002 2 0 0 0 0.060010001
3.2409999 1.849 -0.0040000002 0 0 0 0 0.06002
3.244 1.86 -0.001 0 0 0 0 0.060029998
3.263 1.881 0.0020000001 0 0 0 0 0.060040001
3.2179999 1.864 0.0049999999 0 0 0 0 0.06005
3.23 1.88 0.0080000004 1 0 0 0 0.060059998
3.1800001 1.86 0.011 1 0 0 0 0.060070001
0 0 0 0 0 0 0 0.060079999
0 0 0 0 0 0 0 0.060090002
1.313 0.77899998 0.0080000004 0 0 0 0 0.0601
3.0580001 1.824 0.023 4 0 0 0 0.060109999
0 0 0 0 0 0 0 0.060120001
0 0 0 0 0 0 0 0.06013
0 0 0 0 0 0 0 0.060139999
1.309 0.79500002 0.015 0 0 0 0 0.060150001
0 0 0 0 0 0 0 0.06016
3.1630001 1.937 0.045000002 5 0 0 0 0.060169999
0 0 0 0 0 0 0 0.060180001
1.307 0.80699998 0.022 0 0 0 0 0.06019
3.671 2.277 0.066 2 0 0 0 0.060199998
3.6570001 2.277 0.07 2 0 0 0 0.060210001
3.652 2.283 0.074000001 2 0 0 0 0.060219999
3.6530001 2.293 0.079000004 2 0 0 0 0.060230002
3.698 2.3310001 0.083999999 2 0 0 0 0.06024
3.7019999 2.342 0.089000002 2 0 0 0 0.060249999
1.34 0.85100001 0.034000002 0 0 0 0 0.060260002
1.345 0.85699999 0.035 0 0 0 0 0.06027
1.308 0.83700001 0.035999998 0 0 0 0 0.060279999
1.271 0.815 0.037 0 0 0 0 0.060290001
0 0 0 0 0 0 0 0.0603
0 0 0 0 0 0 0 0.060309999
1.359 0.88099998 0.045000002 0 0 0 0 0.060320001
1.402 0.912 0.048 0 0 0 0 0.06033
1.482 0.96700001 0.052999999 0 0 0 0 0.060339998
1.484 0.97100002 0.055 0 0 0 0 0.060350001
1.501 0.98500001 0.057 0 0 0 0 0.06036
1.473 0.97000003 0.057999998 0 0 0 0 0.060369998
1.516 1.001 0.061999999 0 0 0 0 0.060380001
0 0 0 0 0 0 0 0.060389999
0 0 0 0 0 0 0 0.060400002
0 0 0 0 0 0 0 0.06041
1.477 0.986 0.068999998 0 0 0 0 0.060419999
1.5089999 1.01 0.071999997 0 0 0 0 0.060430001
1.516 1.017 0.075000003 0 0 0 0 0.06044
1.448 0.97399998 0.074000001 0 0 0 0 0.060449999
1.434 0.96700001 0.075000003 0 0 0 0 0.060460001
1.517 1.025 0.081 0 0 0 0 0.06047
1.467 0.99299997 0.081 0 0 0 0 0.060479999
1.51 1.025 0.085000001 0 0 0 0 0.060490001
1.437 0.977 0.082999997 0 0 0 0 0.0605
1.434 0.977 0.085000001 1 0 0 0 0.060509998
1.431 0.977 0.086999997 1 0 0 0 0.060520001
1.437 0.98299998 0.090000004 2 0 0 0 0.060529999
1.438 0.98500001 0.092 3 0 0 0 0.060540002
1.431 0.98199999 0.093999997 3 0 0 0 0.060550001
1.4349999 0.986 0.096000001 2 0 0 0 0.060559999
1.4299999 0.98400003 0.097999997 2 0 0 0 0.060570002
1.431 0.986 0.1 2 0 0 0 0.06058
1.4220001 0.98100001 0.101 3 0 0 0 0.060589999
1.423 0.98299998 0.103 3 0 0 0 0.060600001
1.418 0.98100001 0.105 4 0 0 0 0.06061
1.4170001 0.98199999 0.107 7 0 0 0 0.060619999
1.411 0.97799999 0.109 9 0 0 0 0.060630001
1.414 0.98199999 0.111 9 0 0 0 0.06064
0.090000004 0.061999999 0.0070000002 0 0 0 0 0.060649998
1.408 0.97899997 0.115 9 0 0 0 0.060660001
1.406 0.97799999 0.117 10 0 0 0 0.06067
0.086000003 0.059999999 0.0070000002 0 0 0 0 0.060679998
0.07 0.048999999 0.0060000001 0 0 0 0 0.060690001
0.057999998 0.039999999 0.0049999999 0 0 0 0 0.060699999
0.059 0.041000001 0.0049999999 0 0 0 0 0.060710002
0.046999998 0.033 0.0040000002 0 0 0 0 0.06072
0.071000002 0.048999999 0.0060000001 0 0 0 0 0.060729999
0.052000001 0.035999998 0.0040000002 0 0 0 0 0.060740001
0.082999997 0.057999998 0.0070000002 0 0 0 0 0.06075
0.055 0.037999999 0.0049999999 0 0 0 0 0.060759999
0.057999998 0.041000001 0.0049999999 0 0 0 0 0.060770001
0.078000002 0.054000001 0.0070000002 0 0 0 0 0.06078
0.059 0.041000001 0.0060000001 0 0 0 0 0.060789999
0.052999999 0.037 0.0049999999 0 0 0 0 0.060800001
0.057999998 0.039999999 0.0060000001 0 0 0 0 0.06081
0.071000002 0.050000001 0.0070000002 0 0 0 0 0.060819998
0.050000001 0.035 0.0049999999 0 0 0 0 0.060830001
0.059999999 0.041999999 0.0060000001 0 0 0 0 0.060839999
0.048 0.033 0.0049999999 0 0 0 0 0.060849998
0.046999998 0.032000002 0.0049999999 0 0 0 0 0.060860001
0.075000003 0.052000001 0.0080000004 0 0 0 0 0.060869999
0.071000002 0.048999999 0.0080000004 0 0 0 0 0.060880002
0.071999997 0.050000001 0.0080000004 0 0 0 0 0.06089
0.075000003 0.052000001 0.0080000004 0 0 0 0 0.060899999
0.068000004 0.046999998 0.0080000004 0 0 0 0 0.060910001
0.07 0.048 0.0080000004 0 0 0 0 0.06092
0.054000001 0.037 0.0060000001 0 0 0 0 0.060929999
0.064999998 0.045000002 0.0070000002 0 0 0 0 0.060940001
0.068000004 0.046999998 0.0080000004 0 0 0 0 0.06095
0.068000004 0.046999998 0.0080000004 0 0 0 0 0.060959999
0.046999998 0.032000002 0.0049999999 0 0 0 0 0.060970001
0.064999998 0.044 0.0080000004 0 0 0 0 0.06098
0.050000001 0.034000002 0.0060000001 0 0 0 0 0.060989998
0.064999998 0.044 0.0080000004 0 0 0 0 0.061000001
0.064999998 0.044 0.0080000004 0 0 0 0 0.061009999
0.064999998 0.044 0.0080000004 0 0 0 0 0.061020002
0.043000001 0.028999999 0.0049999999 0 0 0 0 0.06103
0.045000002 0.029999999 0.0060000001 0 0 0 0 0.061039999
0.067000002 0.045000002 0.0089999996 0 0 0 0 0.061050002
1.467 0.98699999 0.197 2 0 0 0 0.06106
1.473 0.98900002 0.2 2 0 0 0 0.061069999
1.471 0.98500001 0.20100001 1 0 0 0 0.061080001
1.472 0.98400003 0.20299999 1 0 0 0 0.06109
1.477 0.98400003 0.205 1 0 0 0 0.061099999
1.474 0.98000002 0.206 1 0 0 0 0.061110001
0.056000002 0.037 0.0070000002 0 0 0 0 0.06112
1.485 0.98100001 0.20999999 1 0 0 0 0.061129998
1.489 0.98100001 0.212 1 0 0 0 0.061140001
0.055 0.035999998 0.0070000002 0 0 0 0 0.061149999
1.48 0.96899998 0.214 0 0 0 0 0.061159998
1.501 0.98000002 0.21799999 0 0 0 0 0.061170001
3.204 2.085 0.46799999 1 0 0 0 0.061179999
3.227 2.0929999 0.47400001 2 0 0 0 0.061190002
3.2290001 2.0880001 0.477 2 0 0 0 0.0612
3.227 2.0799999 0.47999999 2 0 0 0 0.061209999
3.2279999 2.073 0.48199999 1 0 0 0 0.061220001
3.197 2.046 0.47999999 1 0 0 0 0.06123
3.2079999 2.0450001 0.484 1 0 0 0 0.061239999
3.2179999 2.0439999 0.48800001 2 0 0 0 0.061250001
3.224 2.0409999 0.491 2 0 0 0 0.06126
3.223 2.0320001 0.493 2 0 0 0 0.061269999
3.234 2.0309999 0.49700001 2 0 0 0 0.061280001
3.2539999 2.0350001 0.50199997 2 0 0 0 0.06129
3.2490001 2.0239999 0.50300002 2 0 0 0 0.061299998
3.233 2.006 0.50199997 2 0 0 0 0.061310001
3.2390001 2.0020001 0.505 2 0 0 0 0.061319999
3.227 1.985 0.505 2 0 0 0 0.061330002
3.204 1.9630001 0.50300002 2 0 0 0 0.06134
3.214 1.96 0.50599998 2 0 0 0 0.061349999
1.289 0.78299999 0.20299999 0 0 0 0 0.061360002
3.2060001 1.938 0.50800002 1 0 0 0 0.06137
3.2190001 1.938 0.51200002 1 0 0 0 0.061379999
3.2349999 1.938 0.51499999 1 0 0 0 0.061390001
3.2309999 1.927 0.51599997 1 0 0 0 0.0614
3.2490001 1.929 0.51999998 1 0 0 0 0.061409999
3.325 1.964 0.53399998 1 0 0 0 0.061420001
3.375 1.984 0.54299998 2 0 0 0 0.06143
3.4460001 2.016 0.55500001 2 0 0 0 0.061439998
3.483 2.027 0.56300002 3 0 0 0 0.061450001
3.53 2.0439999 0.57099998 4 0 0 0 0.06146
3.5669999 2.0550001 0.57800001 3 0 0 0 0.061469998
3.5999999 2.063 0.58399999 4 0 0 0 0.061480001
3.586 2.0450001 0.583 3 0 0 0 0.061489999
3.572 2.026 0.58099997 3 0 0 0 0.061500002
3.5680001 2.013 0.58099997 2 0 0 0 0.06151
3.4660001 1.9450001 0.565 1 0 0 0 0.061519999
3.3629999 1.877 0.54900002 1 0 0 0 0.061530001
3.54 1.965 0.57800001 1 0 0 0 0.06154
3.516 1.941 0.57499999 1 0 0 0 0.061549999
3.441 1.8890001 0.56300002 1 0 0 0 0.061560001
3.244 1.77 0.53100002 1 0 0 0 0.06157
3.2119999 1.743 0.52600002 0 0 0 0 0.061579999
3.2019999 1.728 0.52399999 0 0 0 0 0.061590001
1.344 0.72100002 0.22 0 0 0 0 0.0616
3.2539999 1.735 0.53299999 0 0 0 0 0.061609998
3.2260001 1.71 0.528 0 0 0 0 0.061620001
3.244 1.709 0.53100002 0 0 0 0 0.061629999
0.90899998 0.47600001 0.148 0 0 0 0 0.061640002
0.91399997 0.47600001 0.149 5 0 0 0 0.061650001
0.90799999 0.47 0.148 7 0 0 0 0.061659999
0.91000003 0.46700001 0.148 9 0 0 0 0.061670002
0.90899998 0.46399999 0.148 7 0 0 0 0.06168
0.912 0.463 0.148 5 0 0 0 0.061689999
0.903 0.45500001 0.147 0 0 0 0 0.061700001
0.90499997 0.45300001 0.147 0 0 0 0 0.06171
0.92299998 0.45899999 0.15000001 0 0 0 0 0.061719999
0.92799997 0.45899999 0.15000001 0 0 0 0 0.061730001
0.93699998 0.46000001 0.15099999 0 0 0 0 0.06174
0.94099998 0.45899999 0.152 0 0 0 0 0.061749998
0.95300001 0.46200001 0.154 0 0 0 0 0.061760001
0.95899999 0.461 0.154 0 0 0 0 0.06177
0.96700001 0.46200001 0.155 0 0 0 0 0.061779998
0.97500002 0.46200001 0.156 0 0 0 0 0.061790001
0.97899997 0.461 0.15700001 0 0 0 0 0.061799999
0.99000001 0.463 0.15800001 0 0 0 0 0.061810002
0.99800003 0.46399999 0.15899999 0 0 0 0 0.06182
1.002 0.46200001 0.15899999 0 0 0 0 0.061829999
1.0140001 0.46399999 0.161 0 0 0 0 0.061840001
1.022 0.46399999 0.162 0 0 0 0 0.06185
1.027 0.463 0.162 0 0 0 0 0.061859999
1.038 0.465 0.163 0 0 0 0 0.061870001
1.054 0.46799999 0.16500001 0 0 0 0 0.06188
1.071 0.472 0.167 0 0 0 0 0.061889999
1.079 0.472 0.168 0 0 0 0 0.061900001
1.091 0.47400001 0.169 0 0 0 0 0.06191
1.098 0.47299999 0.17 0 0 0 0 0.061919998
1.114 0.47600001 0.17200001 0 0 0 0 0.061930001
1.119 0.47499999 0.17200001 0 0 0 0 0.061939999
1.126 0.47400001 0.17299999 0 0 0 0 0.061949998
1.136 0.47400001 0.17299999 4 0 0 0 0.061960001
1.145 0.47400001 0.17399999 0 0 0 0 0.061969999
1.163 0.47799999 0.176 0 0 0 0 0.061980002
1.171 0.477 0.177 0 0 0 0 0.06199
1.1799999 0.477 0.177 4 0 0 0 0.061999999
1.193 0.47799999 0.178 4 0 0 0 0.062010001
1.21 0.48100001 0.18000001 5 0 0 0 0.06202
1.232 0.486 0.183 6 0 0 0 0.062029999
1.253 0.49000001 0.185 7 0 0 0 0.062040001
1.279 0.495 0.18799999 14 0 0 0 0.06205
1.285 0.49399999 0.18799999 89 0 0 0 0.062059999
1.279 0.48699999 0.186 150 0 0 0 0.062070001
1.279 0.48300001 0.185 150 0 0 0 0.06208
1.28 0.479 0.185 150 0 0 0 0.062089998
1.28 0.47400001 0.184 150 0 0 0 0.062100001
1.279 0.47 0.182 150 0 0 0 0.062109999
1.281 0.46599999 0.182 150 0 0 0 0.062120002
1.275 0.46000001 0.18000001 150 0 0 0 0.06213
1.274 0.45500001 0.17900001 150 0 0 0 0.062139999
1.275 0.45100001 0.178 150 0 0 0 0.062150002
1.277 0.44800001 0.177 150 0 0 0 0.06216
1.284 0.44600001 0.177 150 0 0 0 0.062169999
1.294 0.44499999 0.177 83 0 0 0 0.062180001
1.327 0.45199999 0.18099999 11 0 0 0 0.06219
1.344 0.454 0.182 6 0 0 0 0.062199999
1.363 0.45500001 0.183 6 0 0 0 0.062210001
1.376 0.45500001 0.184 7 0 0 0 0.06222
1.397 0.458 0.186 7 0 0 0 0.062229998
1.415 0.45899999 0.18700001 7 0 0 0 0.062240001
1.4299999 0.45899999 0.18700001 8 0 0 0 0.062249999
1.433 0.45500001 0.18700001 9 0 0 0 0.062259998
1.454 0.45699999 0.18799999 9 0 0 0 0.062270001
1.5829999 0.493 0.20299999 109 0 0 0 0.062279999
1.702 0.52399999 0.21699999 150 0 0 0 0.062290002
2.1389999 0.65200001 0.271 150 0 0 0 0.0623
2.4860001 0.74900001 0.31200001 150 0 0 0 0.062309999
2.4820001 0.74000001 0.31 150 0 0 0 0.062320001
2.4860001 0.73299998 0.308 150 0 0 0 0.06233
2.483 0.72399998 0.30500001 150 0 0 0 0.062339999
2.3150001 0.66799998 0.28200001 150 0 0 0 0.062350001
2.2420001 0.639 0.271 150 0 0 0 0.06236
2.2520001 0.63499999 0.27000001 150 0 0 0 0.062369999
2.257 0.62900001 0.26800001 140 0 0 0 0.062380001
2.25 0.62 0.26499999 150 0 0 0 0.06239
2.2550001 0.61400002 0.26300001 150 0 0 0 0.062399998
2.23 0.60000002 0.25799999 150 0 0 0 0.062410001
2.2260001 0.59200001 0.255 151 0 0 0 0.062419999
2.2279999 0.58499998 0.25299999 151 0 0 0 0.062430002
2.227 0.57800001 0.25099999 151 0 0 0 0.06244
2.2260001 0.57099998 0.248 151 0 0 0 0.062449999
2.2219999 0.56199998 0.24600001 151 0 0 0 0.062460002
2.224 0.55599999 0.243 151 0 0 0 0.06247
2.2260001 0.54900002 0.241 151 0 0 0 0.062479999
2.2279999 0.54299998 0.23899999 151 0 0 0 0.062490001
2.2249999 0.53500003 0.236 150 0 0 0 0.0625
2.244 0.53200001 0.236 150 0 0 0 0.062509999
2.2539999 0.528 0.234 151 0 0 0 0.062519997
2.2509999 0.51999998 0.23199999 151 0 0 0 0.062530003
2.2590001 0.51499999 0.23 151 0 0 0 0.062540002
2.2750001 0.51099998 0.229 92 0 0 0 0.062550001
2.3529999 0.52100003 0.234 17 0 0 0 0.06256
2.4130001 0.52700001 0.237 18 0 0 0 0.062569998
2.4690001 0.53100002 0.23999999 19 0 0 0 0.062579997
2.5250001 0.53500003 0.243 22 0 0 0 0.062590003
2.598 0.54299998 0.24699999 23 0 0 0 0.062600002
2.654 0.546 0.249 22 0 0 0 0.06261
2.7179999 0.551 0.252 22 0 0 0 0.062619999
2.7980001 0.55800003 0.25600001 23 0 0 0 0.062629998
2.8729999 0.565 0.259 24 0 0 0 0.062639996
2.977 0.57599998 0.26499999 26 0 0 0 0.062650003
3.062 0.583 0.26899999 26 0 0 0 0.062660001
3.145 0.58899999 0.27200001 24 0 0 0 0.06267
3.2090001 0.59100002 0.27399999 24 0 0 0 0.062679999
3.253 0.58899999 0.27399999 25 0 0 0 0.062689997
3.276 0.583 0.27200001 150 0 0 0 0.062700003
3.286 0.57499999 0.26899999 151 0 0 0 0.062710002
3.2809999 0.56400001 0.264 151 0 0 0 0.062720001
3.286 0.55400002 0.26100001 151 0 0 0 0.062729999
3.2920001 0.546 0.257 151 0 0 0 0.062739998
3.3010001 0.537 0.25400001 150 0 0 0 0.062749997
3.3169999 0.52899998 0.25099999 151 0 0 0 0.062760003
3.3169999 0.51899999 0.24600001 151 0 0 0 0.062770002
3.3529999 0.51499999 0.245 150 0 0 0 0.06278
3.388 0.50999999 0.243 151 0 0 0 0.062789999
3.3789999 0.498 0.23800001 45 0 0 0 0.062799998
3.385 0.48899999 0.234 12 0 0 0 0.062809996
3.3940001 0.47999999 0.23 118 0 0 0 0.062820002
3.388 0.46900001 0.226 35 0 0 0 0.062830001
3.392 0.45899999 0.222 150 0 0 0 0.06284
3.388 0.44800001 0.21699999 150 0 0 0 0.062849998
3.385 0.43799999 0.212 151 0 0 0 0.062859997
3.3940001 0.42899999 0.208 151 0 0 0 0.062870003
3.3870001 0.41800001 0.20299999 151 0 0 0 0.062880002
3.391 0.40799999 0.199 151 0 0 0 0.062890001
3.398 0.39899999 0.19499999 151 0 0 0 0.062899999
3.3929999 0.38800001 0.19 151 0 0 0 0.062909998
3.3940001 0.37799999 0.186 151 0 0 0 0.062919997
3.3940001 0.368 0.18099999 151 0 0 0 0.062930003
3.398 0.35800001 0.177 151 0 0 0 0.062940001
3.401 0.34799999 0.17299999 152 0 0 0 0.06295
3.401 0.338 0.168 152 0 0 0 0.062959999
3.4000001 0.32800001 0.163 151 0 0 0 0.062969998
3.405 0.31799999 0.15899999 152 0 0 0 0.062980004
3.401 0.308 0.154 152 0 0 0 0.062990002
3.391 0.29699999 0.149 153 0 0 0 0.063000001
3.392 0.287 0.14399999 153 0 0 0 0.06301
3.3900001 0.27700001 0.139 153 0 0 0 0.063019998
3.388 0.26699999 0.13500001 153 0 0 0 0.063029997
3.3870001 0.257 0.13 154 0 0 0 0.063040003
3.388 0.24699999 0.125 154 0 0 0 0.063050002
3.3889999 0.237 0.12 154 0 0 0 0.063060001
3.3759999 0.226 0.115 154 0 0 0 0.063069999
3.3800001 0.21699999 0.11 154 0 0 0 0.063079998
3.381 0.207 0.106 154 0 0 0 0.063089997
3.378 0.197 0.101 154 0 0 0 0.063100003
3.3829999 0.18700001 0.096000001 154 0 0 0 0.063110001
3.3829999 0.177 0.090999998 154 0 0 0 0.06312
3.3829999 0.168 0.086000003 154 0 0 0 0.063129999
3.3840001 0.15800001 0.082000002 154 0 0 0 0.063139997
3.381 0.148 0.077 154 0 0 0 0.063150004
3.385 0.138 0.071999997 154 0 0 0 0.063160002
3.3959999 0.12899999 0.067000002 154 0 0 0 0.063170001
3.3970001 0.119 0.061999999 154 0 0 0 0.06318
3.3970001 0.109 0.057 154 0 0 0 0.063189998
3.401 0.1 0.052000001 153 0 0 0 0.063199997
3.4059999 0.090000004 0.046999998 153 0 0 0 0.063210003
3.4030001 0.079999998 0.041999999 153 0 0 0 0.063220002
3.4119999 0.07 0.037 153 0 0 0 0.06323
3.4170001 0.061000001 0.032000002 152 0 0 0 0.063239999
3.418 0.050999999 0.027000001 152 0 0 0 0.063249998
3.4230001 0.041000001 0.022 152 0 0 0 0.063259996
3.4219999 0.030999999 0.017000001 152 0 0 0 0.063270003
3.4159999 0.021 0.012 151 0 0 0 0.063280001
3.418 0.012 0.0070000002 151 0 0 0 0.06329
3.4200001 0.0020000001 0.001 151 0 0 0 0.063299999
3.418 -0.0070000002 -0.003 151 0 0 0 0.063309997
3.4189999 -0.017000001 -0.0080000004 151 0 0 0 0.063320003
3.4230001 -0.026000001 -0.013 151 0 0 0 0.063330002
3.4230001 -0.035999998 -0.018999999 151 0 0 0 0.063340001
3.424 -0.046 -0.024 151 0 0 0 0.063349999
3.427 -0.056000002 -0.028999999 151 0 0 0 0.063359998
3.427 -0.064999998 -0.035 151 0 0 0 0.063369997
3.431 -0.075000003 -0.039999999 151 0 0 0 0.063380003
3.4260001 -0.085000001 -0.045000002 150 0 0 0 0.063390002
3.431 -0.094999999 -0.050999999 150 0 0 0 0.0634
3.431 -0.104 -0.056000002 151 0 0 0 0.063409999
3.434 -0.114 -0.061999999 151 0 0 0 0.063419998
3.431 -0.124 -0.067000002 151 0 0 0 0.063429996
3.4330001 -0.134 -0.071999997 151 0 0 0 0.063440003
3.4319999 -0.14300001 -0.078000002 151 0 0 0 0.063450001
3.4319999 -0.153 -0.082999997 150 0 0 0 0.06346
3.431 -0.163 -0.089000002 151 0 0 0 0.063469999
3.404 -0.171 -0.093999997 154 0 0 0 0.063479997
3.405 -0.18099999 -0.098999999 151 0 0 0 0.063490003
3.3629999 -0.18799999 -0.103 151 0 0 0 0.063500002
3.3699999 -0.198 -0.109 151 0 0 0 0.063510001
3.3740001 -0.207 -0.115 152 0 0 0 0.063519999
3.348 -0.215 -0.119 151 0 0 0 0.063529998
3.3440001 -0.22400001 -0.125 152 0 0 0 0.063539997
3.3429999 -0.233 -0.13 152 0 0 0 0.063550003
3.3440001 -0.243 -0.13600001 152 0 0 0 0.063560002
3.3410001 -0.252 -0.141 152 0 0 0 0.06357
3.336 -0.26100001 -0.146 150 0 0 0 0.063579999
3.244 -0.26300001 -0.148 150 0 0 0 0.063589998
3.234 -0.271 -0.153 151 0 0 0 0.063600004
3.2320001 -0.28 -0.15800001 151 0 0 0 0.063610002
3.234 -0.289 -0.164 151 0 0 0 0.063620001
3.233 -0.29800001 -0.169 151 0 0 0 0.06363
3.2360001 -0.30700001 -0.175 151 0 0 0 0.063639998
3.2360001 -0.31600001 -0.18000001 151 0 0 0 0.063649997
3.21 -0.32300001 -0.184 150 0 0 0 0.063660003
3.207 -0.331 -0.19 151 0 0 0 0.063670002
3.2060001 -0.34 -0.19499999 151 0 0 0 0.063680001
3.2060001 -0.34900001 -0.20100001 150 0 0 0 0.063689999
3.2049999 -0.35800001 -0.206 150 0 0 0 0.063699998
3.2060001 -0.36700001 -0.212 150 0 0 0 0.063709997
3.1630001 -0.37099999 -0.215 150 0 0 0 0.063720003
2.8640001 -0.34299999 -0.199 150 0 0 0 0.063730001
2.5599999 -0.31400001 -0.183 20 0 0 0 0.06374
2.526 -0.317 -0.185 19 0 0 0 0.063749999
2.494 -0.31999999 -0.18700001 22 0 0 0 0.063759997
2.4460001 -0.31999999 -0.18700001 23 0 0 0 0.063770004
2.401 -0.32100001 -0.18799999 15 0 0 0 0.063780002
2.3759999 -0.324 -0.191 16 0 0 0 0.063790001
2.3740001 -0.331 -0.19499999 17 0 0 0 0.0638
2.3710001 -0.33700001 -0.199 22 0 0 0 0.063809998
2.3710001 -0.34299999 -0.20299999 18 0 0 0 0.063819997
2.358 -0.34799999 -0.206 17 0 0 0 0.063830003
2.3599999 -0.354 -0.211 20 0 0 0 0.063840002
2.3629999 -0.361 -0.215 21 0 0 0 0.063850001
2.365 -0.368 -0.22 22 0 0 0 0.063859999
2.3629999 -0.37400001 -0.22400001 21 0 0 0 0.063869998
2.3610001 -0.38 -0.228 23 0 0 0 0.063879997
2.3610001 -0.38699999 -0.23199999 22 0 0 0 0.063890003
2.3599999 -0.39300001 -0.237 20 0 0 0 0.063900001
2.3670001 -0.40099999 -0.242 19 0 0 0 0.06391
2.3670001 -0.40700001 -0.24600001 18 0 0 0 0.063919999
2.3640001 -0.41299999 -0.25 16 0 0 0 0.063929997
2.3670001 -0.41999999 -0.255 18 0 0 0 0.063940004
2.3570001 -0.42500001 -0.259 21 0 0 0 0.063950002
2.3640001 -0.43200001 -0.264 23 0 0 0 0.063960001
2.3670001 -0.43900001 -0.26899999 22 0 0 0 0.06397
2.372 -0.447 -0.27399999 19 0 0 0 0.063979998
2.3659999 -0.45199999 -0.278 18 0 0 0 0.063989997
2.3710001 -0.45899999 -0.28299999 19 0 0 0 0.064000003
2.3710001 -0.46599999 -0.28799999 18 0 0 0 0.064010002
2.368 -0.472 -0.292 16 0 0 0 0.06402
2.3710001 -0.479 -0.29699999 18 0 0 0 0.064029999
2.368 -0.484 -0.301 20 0 0 0 0.064039998
2.368 -0.491 -0.30599999 20 0 0 0 0.064049996
2.3699999 -0.498 -0.31099999 18 0 0 0 0.064060003
2.368 -0.50400001 -0.315 16 0 0 0 0.064070001
2.369 -0.50999999 -0.31999999 15 0 0 0 0.06408
2.3699999 -0.51700002 -0.32499999 17 0 0 0 0.064089999
2.3759999 -0.52499998 -0.331 16 0 0 0 0.064099997
2.368 -0.52899998 -0.33399999 17 0 0 0 0.064110003
2.372 -0.53600001 -0.34 16 0 0 0 0.064120002
2.375 -0.54299998 -0.345 19 0 0 0 0.064130001
2.3729999 -0.54900002 -0.34900001 23 0 0 0 0.064139999
2.3699999 -0.55500001 -0.354 24 0 0 0 0.064149998
2.3699999 -0.56099999 -0.359 26 0 0 0 0.064159997
2.3710001 -0.56800002 -0.36399999 25 0 0 0 0.064170003
2.3710001 -0.574 -0.36899999 24 0 0 0 0.064180002
2.375 -0.58099997 -0.37400001 19 0 0 0 0.06419
2.375 -0.588 -0.37900001 18 0 0 0 0.064199999
2.378 -0.59500003 -0.38499999 19 0 0 0 0.064209998
2.3729999 -0.60000002 -0.389 17 0 0 0 0.064219996
2.3710001 -0.60500002 -0.39399999 16 0 0 0 0.064230002
2.3770001 -0.61299998 -0.40000001 17 0 0 0 0.064240001
2.378 -0.62 -0.405 17 0 0 0 0.06425
2.375 -0.625 -0.41 17 0 0 0 0.064259999
2.378 -0.63200003 -0.41499999 20 0 0 0 0.064269997
2.3759999 -0.63800001 -0.41999999 21 0 0 0 0.064280003
2.378 -0.64499998 -0.42500001 20 0 0 0 0.064290002
2.3789999 -0.65100002 -0.43099999 19 0 0 0 0.064300001
2.3770001 -0.65700001 -0.43599999 21 0 0 0 0.064309999
2.3770001 -0.66299999 -0.44100001 21 0 0 0 0.064319998
2.3789999 -0.67000002 -0.44600001 19 0 0 0 0.064329997
2.3789999 -0.676 -0.45199999 21 0 0 0 0.064340003
2.381 -0.68199998 -0.45699999 23 0 0 0 0.064350002
2.3829999 -0.68900001 -0.463 24 0 0 0 0.06436
2.378 -0.69400001 -0.46799999 22 0 0 0 0.064369999
2.3789999 -0.69999999 -0.47299999 21 0 0 0 0.064379998
2.381 -0.70700002 -0.479 20 0 0 0 0.064390004
2.382 -0.713 -0.484 19 0 0 0 0.064400002
2.3789999 -0.71899998 -0.48899999 21 0 0 0 0.064410001
2.3889999 -0.727 -0.49700001 21 0 0 0 0.06442
2.3940001 -0.73500001 -0.50300002 15 0 0 0 0.064429998
2.3989999 -0.74299997 -0.50999999 10 0 0 0 0.064439997
2.3929999 -0.74699998 -0.514 14 0 0 0 0.064450003
2.3859999 -0.75099999 -0.51800001 17 0 0 0 0.064460002
2.3840001 -0.75599998 -0.523 16 0 0 0 0.064470001
2.3870001 -0.76300001 -0.52899998 16 0 0 0 0.064479999
2.3889999 -0.76999998 -0.53500003 18 0 0 0 0.064489998
2.3859999 -0.77499998 -0.54000002 19 0 0 0 0.064499997
2.3929999 -0.78299999 -0.54699999 20 0 0 0 0.064510003
2.3870001 -0.787 -0.55199999 22 0 0 0 0.064520001
2.3889999 -0.79299998 -0.55800003 23 0 0 0 0.06453
2.388 -0.79900002 -0.56300002 25 0 0 0 0.064539999
2.3870001 -0.80400002 -0.56900001 27 0 0 0 0.064549997
2.3870001 -0.81 -0.57499999 29 0 0 0 0.064560004
2.3900001 -0.81699997 -0.58099997 28 0 0 0 0.064570002
2.3900001 -0.82200003 -0.58700001 26 0 0 0 0.064580001
2.391 -0.829 -0.59299999 27 0 0 0 0.06459
2.391 -0.83399999 -0.59899998 27 0 0 0 0.064599998
2.3940001 -0.84100002 -0.60500002 25 0 0 0 0.064609997
2.3889999 -0.84500003 -0.61000001 24 0 0 0 0.064620003
2.3929999 -0.852 -0.61699998 23 0 0 0 0.064630002
2.391 -0.85699999 -0.62199998 22 0 0 0 0.06464
2.3940001 -0.86400002 -0.62900001 22 0 0 0 0.064649999
2.391 -0.86799997 -0.634 21 0 0 0 0.064659998
2.3900001 -0.87400001 -0.63999999 21 0 0 0 0.064669997
2.392 -0.88 -0.64600003 21 0 0 0 0.064680003
2.3889999 -0.884 -0.65100002 23 0 0 0 0.064690001
2.3940001 -0.89099997 -0.65799999 25 0 0 0 0.0647
2.3929999 -0.89600003 -0.66399997 23 0 0 0 0.064709999
2.3940001 -0.90200001 -0.671 21 0 0 0 0.064719997
2.395 -0.90799999 -0.67699999 21 0 0 0 0.064730003
2.3889999 -0.91100001 -0.68099999 21 0 0 0 0.064740002
2.395 -0.91900003 -0.68900001 19 0 0 0 0.064750001
2.3940001 -0.92400002 -0.69499999 20 0 0 0 0.06476
2.4000001 -0.93099999 -0.70200002 19 0 0 0 0.064769998
2.3970001 -0.935 -0.708 20 0 0 0 0.064779997
2.4000001 -0.94199997 -0.71499997 21 0 0 0 0.064790003
2.3970001 -0.94599998 -0.72000003 24 0 0 0 0.064800002
2.392 -0.949 -0.72500002 25 0 0 0 0.06481
2.3929999 -0.954 -0.73100001 25 0 0 0 0.064819999
2.3959999 -0.96100003 -0.73799998 25 0 0 0 0.064829998
2.3989999 -0.96700001 -0.745 25 0 0 0 0.064839996
2.3989999 -0.972 -0.75199997 22 0 0 0 0.064850003
2.3989999 -0.977 -0.75800002 22 0 0 0 0.064860001
2.3989999 -0.98199999 -0.764 23 0 0 0 0.06487
2.404 -0.98799998 -0.77200001 26 0 0 0 0.064879999
2.3970001 -0.99000001 -0.77600002 27 0 0 0 0.064889997
2.3989999 -0.99599999 -0.78299999 26 0 0 0 0.064900003
2.398 -1 -0.78899997 26 0 0 0 0.064910002
2.3989999 -1.005 -0.79500002 25 0 0 0 0.064920001
2.3929999 -1.008 -0.80000001 22 0 0 0 0.064929999
2.3959999 -1.013 -0.80699998 25 0 0 0 0.064939998
2.392 -1.016 -0.81199998 30 0 0 0 0.064949997
2.3789999 -1.015 -0.81400001 29 0 0 0 0.064960003
2.3629999 -1.012 -0.81400001 27 0 0 0 0.064970002
2.3440001 -1.0089999 -0.81400001 27 0 0 0 0.06498
2.3269999 -1.005 -0.81400001 27 0 0 0 0.064989999
2.309 -1.002 -0.81400001 27 0 0 0 0.064999998
2.2939999 -0.99900001 -0.815 26 0 0 0 0.065009996
2.273 -0.99400002 -0.81300002 27 0 0 0 0.065020002
2.2609999 -0.99299997 -0.815 29 0 0 0 0.065030001
2.2409999 -0.98799998 -0.81300002 29 0 0 0 0.06504
2.2279999 -0.986 -0.815 32 0 0 0 0.065049998
2.2130001 -0.98299998 -0.815 30 0 0 0 0.065059997
2.194 -0.97799999 -0.81400001 28 0 0 0 0.065070003
2.181 -0.97600001 -0.815 28 0 0 0 0.065080002
2.1630001 -0.97100002 -0.81300002 29 0 0 0 0.065090001
2.154 -0.97000003 -0.81599998 30 0 0 0 0.065099999
2.1359999 -0.96499997 -0.81400001 29 0 0 0 0.065109998
2.119 -0.96100003 -0.81400001 29 0 0 0 0.065119997
2.108 -0.95899999 -0.815 29 0 0 0 0.065130003
2.0929999 -0.95499998 -0.81400001 29 0 0 0 0.065140001
2.0769999 -0.95099998 -0.81400001 28 0 0 0 0.06515
2.0639999 -0.94700003 -0.81400001 28 0 0 0 0.065159999
2.053 -0.94499999 -0.815 29 0 0 0 0.065169998
2.0380001 -0.94099998 -0.81400001 29 0 0 0 0.065180004
2.026 -0.93800002 -0.81400001 29 0 0 0 0.065190002
2.0039999 -0.93000001 -0.81099999 28 0 0 0 0.065200001
1.994 -0.92799997 -0.81199998 30 0 0 0 0.06521
1.964 -0.917 -0.80500001 31 0 0 0 0.065219998
1.911 -0.89399999 -0.78799999 84 0 0 0 0.065229997
1.858 -0.87199998 -0.77100003 134 0 0 0 0.065240003
1.926 -0.90600002 -0.80400002 112 0 0 0 0.065250002
1.934 -0.912 -0.81199998 121 0 0 0 0.065260001
1.168 -0.551 -0.493 49 0 0 0 0.065269999
1.14 -0.54000002 -0.484 48 0 0 0 0.065279998
1.126 -0.53399998 -0.48100001 16 0 0 0 0.065289997
1.118 -0.53100002 -0.47999999 7 0 0 0 0.065300003
1.112 -0.52999997 -0.47999999 6 0 0 0 0.065310001
1.115 -0.53200001 -0.484 6 0 0 0 0.06532
1.1160001 -0.53299999 -0.48699999 6 0 0 0 0.065329999
1.115 -0.53399998 -0.48899999 6 0 0 0 0.065339997
1.114 -0.53399998 -0.49200001 6 0 0 0 0.065350004
1.115 -0.53500003 -0.495 6 0 0 0 0.065360002
1.112 -0.53500003 -0.49599999 6 0 0 0 0.065370001
1.113 -0.53600001 -0.49900001 6 0 0 0 0.06538
1.118 -0.53899997 -0.50400001 6 0 0 0 0.065389998
1.1160001 -0.53899997 -0.505 6 0 0 0 0.065399997
1.112 -0.537 -0.50599998 5 0 0 0 0.065410003
1.118 -0.54100001 -0.51099998 5 0 0 0 0.065420002
1.114 -0.53899997 -0.51200002 4 0 0 0 0.06543
1.11 -0.53799999 -0.51300001 4 0 0 0 0.065439999
1.115 -0.54100001 -0.51700002 4 0 0 0 0.065449998
1.114 -0.54100001 -0.51899999 4 0 0 0 0.065459996
1.115 -0.542 -0.52200001 4 0 0 0 0.065470003
1.117 -0.54299998 -0.52499998 4 0 0 0 0.065480001
1.113 -0.54100001 -0.52600002 3 0 0 0 0.06549
1.115 -0.542 -0.52899998 3 0 0 0 0.065499999
1.1160001 -0.54299998 -0.53200001 3 0 0 0 0.065509997
1.117 -0.54400003 -0.53399998 4 0 0 0 0.065520003
1.12 -0.54500002 -0.53799999 6 0 0 0 0.065530002
1.124 -0.54699999 -0.542 7 0 0 0 0.065540001
1.125 -0.54799998 -0.54500002 8 0 0 0 0.065549999
1.1289999 -0.55000001 -0.54900002 8 0 0 0 0.065559998
1.132 -0.551 -0.55299997 9 0 0 0 0.065569997
1.132 -0.551 -0.55400002 9 0 0 0 0.065580003
1.133 -0.551 -0.55699998 9 0 0 0 0.065590002
1.133 -0.551 -0.55900002 9 0 0 0 0.0656
1.132 -0.55000001 -0.56099999 9 0 0 0 0.065609999
1.133 -0.551 -0.56300002 9 0 0 0 0.065619998
1.131 -0.54900002 -0.56400001 8 0 0 0 0.065629996
1.1289999 -0.54799998 -0.565 8 0 0 0 0.065640002
1.128 -0.54699999 -0.56599998 8 0 0 0 0.065650001
1.13 -0.54699999 -0.56900001 7 0 0 0 0.06566
1.127 -0.54500002 -0.56900001 7 0 0 0 0.065669999
