# .PCD v0.7 - Point Cloud Data file format
VERSION 0.7
FIELDS x y z intensity normal_x normal_y normal_z curvature
SIZE 4 4 4 4 4 4 4 4
TYPE F F F F F F F F
COUNT 1 1 1 1 1 1 1 1
WIDTH 1087
HEIGHT 1
VIEWPOINT 0 0 0 1 0 0 0
POINTS 1087
DATA ascii
2.1470001 -0.046 -0.83499998 23 0 0 0 0.031399999
2.1259999 -0.044 -0.83399999 22 0 0 0 0.031410001
2.108 -0.043000001 -0.83399999 24 0 0 0 0.03142
2.089 -0.041999999 -0.83399999 24 0 0 0 0.031429999
2.069 -0.041000001 -0.833 24 0 0 0 0.031440001
2.0510001 -0.039999999 -0.833 24 0 0 0 0.03145
2.0350001 -0.039000001 -0.833 24 0 0 0 0.031459998
2.016 -0.037999999 -0.83200002 24 0 0 0 0.031470001
2 -0.037 -0.83200002 25 0 0 0 0.031479999
1.983 -0.035999998 -0.83200002 25 0 0 0 0.031490002
1.966 -0.034000002 -0.83099997 25 0 0 0 0.031500001
1.949 -0.033 -0.83099997 25 0 0 0 0.031509999
1.934 -0.032000002 -0.83099997 25 0 0 0 0.031520002
1.9220001 -0.030999999 -0.83200002 26 0 0 0 0.03153
1.905 -0.029999999 -0.83099997 26 0 0 0 0.031539999
1.897 -0.028999999 -0.83399999 27 0 0 0 0.031550001
1.872 -0.028000001 -0.829 27 0 0 0 0.03156
1.8609999 -0.026000001 -0.83099997 28 0 0 0 0.031569999
1.846 -0.025 -0.82999998 28 0 0 0 0.031580001
1.837 -0.024 -0.833 32 0 0 0 0.03159
1.816 -0.023 -0.829 34 0 0 0 0.031599998
1.8049999 -0.022 -0.82999998 33 0 0 0 0.031610001
1.793 -0.021 -0.83099997 31 0 0 0 0.03162
1.78 -0.018999999 -0.82999998 35 0 0 0 0.031629998
1.7690001 -0.017999999 -0.83099997 34 0 0 0 0.031640001
1.756 -0.017000001 -0.83099997 37 0 0 0 0.031649999
1.743 -0.016000001 -0.83099997 14 0 0 0 0.031660002
1.735 -0.015 -0.83200002 14 0 0 0 0.03167
1.724 -0.013 -0.833 14 0 0 0 0.031679999
1.7130001 -0.012 -0.833 14 0 0 0 0.031690001
1.697 -0.011 -0.83099997 14 0 0 0 0.0317
1.687 -0.0099999998 -0.83200002 14 0 0 0 0.031709999
1.676 -0.0080000004 -0.83200002 14 0 0 0 0.031720001
1.665 -0.0070000002 -0.83200002 14 0 0 0 0.03173
1.654 -0.0060000001 -0.83200002 14 0 0 0 0.031739999
1.647 -0.0049999999 -0.833 14 0 0 0 0.031750001
1.635 -0.003 -0.833 14 0 0 0 0.03176
1.624 -0.0020000001 -0.833 14 0 0 0 0.031769998
1.6160001 -0.001 -0.833 14 0 0 0 0.031780001
1.607 0 -0.83399999 14 0 0 0 0.031789999
1.5930001 0.001 -0.83200002 14 0 0 0 0.031800002
1.585 0.0020000001 -0.833 13 0 0 0 0.031810001
1.576 0.003 -0.833 14 0 0 0 0.031819999
1.5650001 0.0049999999 -0.83200002 13 0 0 0 0.031830002
1.551 0.0060000001 -0.829 14 0 0 0 0.03184
1.534 0.0070000002 -0.82499999 13 0 0 0 0.031849999
1.528 0.0080000004 -0.82700002 13 0 0 0 0.031860001
1.523 0.0099999998 -0.82800001 13 0 0 0 0.03187
1.513 0.011 -0.82800001 13 0 0 0 0.031879999
1.505 0.012 -0.82800001 14 0 0 0 0.031890001
1.497 0.014 -0.82800001 14 0 0 0 0.0319
1.49 0.015 -0.829 13 0 0 0 0.031909999
1.482 0.017000001 -0.829 13 0 0 0 0.031920001
1.472 0.017999999 -0.82800001 13 0 0 0 0.03193
1.465 0.018999999 -0.82800001 13 0 0 0 0.031939998
1.455 0.021 -0.82700002 12 0 0 0 0.031950001
1.45 0.022 -0.82800001 12 0 0 0 0.031959999
1.441 0.023 -0.82800001 13 0 0 0 0.031970002
1.433 0.025 -0.82700002 14 0 0 0 0.03198
1.428 0.026000001 -0.82800001 14 0 0 0 0.031989999
1.418 0.028000001 -0.82599998 14 0 0 0 0.032000002
1.413 0.028999999 -0.82800001 14 0 0 0 0.03201
1.404 0.030999999 -0.82599998 14 0 0 0 0.032019999
1.399 0.032000002 -0.82700002 14 0 0 0 0.032030001
1.391 0.033 -0.82599998 14 0 0 0 0.03204
1.382 0.035 -0.82499999 13 0 0 0 0.032049999
1.376 0.035999998 -0.82499999 14 0 0 0 0.032060001
1.372 0.037999999 -0.82599998 13 0 0 0 0.03207
1.363 0.039000001 -0.824 13 0 0 0 0.032079998
1.363 0.041000001 -0.82800001 14 0 0 0 0.032090001
1.357 0.041999999 -0.82800001 13 0 0 0 0.032099999
1.352 0.044 -0.82800001 14 0 0 0 0.032109998
1.347 0.045000002 -0.829 13 0 0 0 0.032120001
1.335 0.046 -0.82499999 13 0 0 0 0.032129999
1.3329999 0.048 -0.82700002 14 0 0 0 0.032140002
1.327 0.050000001 -0.82700002 13 0 0 0 0.03215
1.3200001 0.050999999 -0.82499999 14 0 0 0 0.032159999
1.3150001 0.052000001 -0.82499999 13 0 0 0 0.032170001
1.309 0.054000001 -0.82499999 14 0 0 0 0.03218
1.306 0.056000002 -0.82599998 14 0 0 0 0.032189999
1.303 0.057 -0.82700002 14 0 0 0 0.032200001
1.298 0.059 -0.82700002 14 0 0 0 0.03221
1.294 0.059999999 -0.82700002 14 0 0 0 0.032219999
1.289 0.061999999 -0.82700002 13 0 0 0 0.032230001
1.286 0.063000001 -0.82700002 14 0 0 0 0.03224
1.2819999 0.064999998 -0.82800001 14 0 0 0 0.032249998
1.279 0.067000002 -0.82800001 14 0 0 0 0.032260001
1.274 0.068000004 -0.82800001 14 0 0 0 0.032269999
1.2690001 0.068999998 -0.82700002 14 0 0 0 0.032280002
1.266 0.071000002 -0.82800001 15 0 0 0 0.03229
1.263 0.072999999 -0.82800001 14 0 0 0 0.032299999
1.256 0.074000001 -0.82599998 14 0 0 0 0.032310002
1.2539999 0.075999998 -0.82700002 14 0 0 0 0.03232
1.251 0.078000002 -0.82800001 15 0 0 0 0.032329999
1.245 0.079000004 -0.82599998 14 0 0 0 0.032340001
1.244 0.081 -0.82700002 14 0 0 0 0.03235
1.242 0.082000002 -0.82800001 14 0 0 0 0.032359999
1.2359999 0.083999999 -0.82599998 13 0 0 0 0.032370001
1.239 0.086000003 -0.82999998 15 0 0 0 0.03238
1.233 0.086999997 -0.82800001 14 0 0 0 0.032389998
1.232 0.089000002 -0.829 14 0 0 0 0.032400001
1.232 0.090999998 -0.83099997 12 0 0 0 0.03241
1.232 0.093000002 -0.833 11 0 0 0 0.032419998
1.229 0.093999997 -0.83200002 9 0 0 0 0.032430001
1.227 0.096000001 -0.833 9 0 0 0 0.032439999
1.227 0.097999997 -0.83399999 9 0 0 0 0.032450002
1.224 0.098999999 -0.83399999 9 0 0 0 0.03246
1.219 0.101 -0.83200002 10 0 0 0 0.032469999
1.2180001 0.103 -0.833 12 0 0 0 0.032480001
1.212 0.104 -0.829 13 0 0 0 0.03249
1.2079999 0.105 -0.82800001 15 0 0 0 0.032499999
1.2029999 0.107 -0.82599998 16 0 0 0 0.032510001
1.201 0.108 -0.82499999 16 0 0 0 0.03252
1.2 0.11 -0.82499999 17 0 0 0 0.032529999
1.202 0.112 -0.82800001 17 0 0 0 0.032540001
1.198 0.114 -0.82700002 17 0 0 0 0.03255
1.199 0.115 -0.82800001 17 0 0 0 0.032559998
1.197 0.117 -0.82800001 17 0 0 0 0.032570001
1.1950001 0.119 -0.82599998 17 0 0 0 0.032579999
1.194 0.12 -0.82700002 17 0 0 0 0.032590002
1.194 0.122 -0.82700002 17 0 0 0 0.032600001
1.193 0.124 -0.82700002 17 0 0 0 0.032609999
1.193 0.126 -0.82700002 17 0 0 0 0.032620002
1.193 0.127 -0.82800001 18 0 0 0 0.03263
1.192 0.12899999 -0.82800001 18 0 0 0 0.032639999
1.192 0.131 -0.82800001 17 0 0 0 0.032650001
1.192 0.132 -0.82800001 18 0 0 0 0.03266
1.194 0.134 -0.82999998 17 0 0 0 0.032669999
1.192 0.13600001 -0.82800001 18 0 0 0 0.032680001
1.191 0.138 -0.82800001 17 0 0 0 0.03269
1.194 0.14 -0.829 17 0 0 0 0.032699998
1.194 0.141 -0.829 17 0 0 0 0.032710001
1.194 0.14300001 -0.829 17 0 0 0 0.03272
1.194 0.145 -0.829 17 0 0 0 0.032729998
1.194 0.146 -0.829 17 0 0 0 0.032740001
1.194 0.148 -0.82800001 17 0 0 0 0.032749999
1.194 0.15000001 -0.82800001 17 0 0 0 0.032760002
1.1950001 0.15099999 -0.82800001 17 0 0 0 0.03277
1.197 0.153 -0.829 17 0 0 0 0.032779999
1.197 0.155 -0.82800001 17 0 0 0 0.032790001
1.2 0.15700001 -0.829 17 0 0 0 0.0328
1.2 0.15800001 -0.82800001 17 0 0 0 0.032809999
1.2 0.16 -0.82800001 17 0 0 0 0.032820001
1.2 0.162 -0.82700002 17 0 0 0 0.03283
1.204 0.164 -0.829 16 0 0 0 0.032839999
1.205 0.16500001 -0.82800001 17 0 0 0 0.032850001
1.207 0.167 -0.82800001 17 0 0 0 0.03286
1.207 0.169 -0.82700002 17 0 0 0 0.032869998
1.215 0.171 -0.83200002 16 0 0 0 0.032880001
1.217 0.17299999 -0.83200002 16 0 0 0 0.032889999
1.2180001 0.175 -0.83099997 16 0 0 0 0.032900002
1.221 0.176 -0.83099997 16 0 0 0 0.032910001
1.221 0.178 -0.82999998 16 0 0 0 0.032919999
1.223 0.18000001 -0.82999998 16 0 0 0 0.032930002
1.224 0.18099999 -0.829 16 0 0 0 0.03294
1.23 0.183 -0.83200002 17 0 0 0 0.032949999
1.2309999 0.185 -0.82999998 16 0 0 0 0.032960001
1.234 0.18700001 -0.83099997 15 0 0 0 0.03297
1.237 0.18799999 -0.83099997 16 0 0 0 0.032979999
1.243 0.19 -0.833 15 0 0 0 0.032990001
1.245 0.192 -0.83200002 15 0 0 0 0.033
1.248 0.19400001 -0.83200002 14 0 0 0 0.033009999
1.247 0.19499999 -0.829 15 0 0 0 0.033020001
1.252 0.197 -0.82999998 15 0 0 0 0.03303
1.255 0.199 -0.82999998 15 0 0 0 0.033039998
1.2640001 0.20100001 -0.83399999 15 0 0 0 0.033050001
1.263 0.20200001 -0.83099997 16 0 0 0 0.033059999
1.266 0.204 -0.82999998 15 0 0 0 0.033070002
1.2690001 0.205 -0.82999998 16 0 0 0 0.03308
1.279 0.208 -0.833 16 0 0 0 0.033089999
1.275 0.208 -0.829 15 0 0 0 0.033100002
1.2819999 0.211 -0.82999998 15 0 0 0 0.03311
1.2869999 0.212 -0.83099997 16 0 0 0 0.033119999
1.29 0.214 -0.82999998 16 0 0 0 0.033130001
1.291 0.215 -0.82800001 15 0 0 0 0.03314
1.299 0.21699999 -0.82999998 16 0 0 0 0.033149999
1.303 0.219 -0.82999998 16 0 0 0 0.033160001
1.312 0.221 -0.83200002 16 0 0 0 0.03317
1.316 0.223 -0.83099997 16 0 0 0 0.033179998
1.323 0.22499999 -0.833 16 0 0 0 0.033190001
1.329 0.227 -0.83399999 16 0 0 0 0.033199999
1.331 0.228 -0.83200002 16 0 0 0 0.033209998
1.3380001 0.23 -0.83200002 15 0 0 0 0.033220001
1.344 0.23199999 -0.833 15 0 0 0 0.033229999
1.349 0.233 -0.833 15 0 0 0 0.033240002
1.353 0.235 -0.83200002 15 0 0 0 0.03325
1.3609999 0.237 -0.833 15 0 0 0 0.033259999
1.365 0.23800001 -0.83200002 15 0 0 0 0.033270001
1.3710001 0.23999999 -0.83200002 15 0 0 0 0.03328
1.3789999 0.242 -0.833 15 0 0 0 0.033289999
1.387 0.243 -0.83399999 16 0 0 0 0.033300001
1.392 0.245 -0.83399999 15 0 0 0 0.03331
1.4 0.24699999 -0.83399999 16 0 0 0 0.033319999
1.405 0.248 -0.833 15 0 0 0 0.033330001
1.413 0.25 -0.83399999 15 0 0 0 0.03334
1.423 0.252 -0.83600003 15 0 0 0 0.033349998
1.428 0.25299999 -0.83499998 13 0 0 0 0.033360001
1.4349999 0.255 -0.83499998 12 0 0 0 0.033369999
1.444 0.257 -0.83600003 13 0 0 0 0.033380002
1.451 0.259 -0.83600003 15 0 0 0 0.03339
1.459 0.25999999 -0.83600003 15 0 0 0 0.033399999
1.471 0.26300001 -0.83899999 15 0 0 0 0.033410002
1.474 0.26300001 -0.83600003 14 0 0 0 0.03342
1.484 0.26499999 -0.83700001 14 0 0 0 0.033429999
1.4910001 0.26699999 -0.83700001 14 0 0 0 0.033440001
1.4960001 0.26800001 -0.83499998 14 0 0 0 0.03345
1.502 0.26899999 -0.83399999 14 0 0 0 0.033459999
1.516 0.27200001 -0.83700001 15 0 0 0 0.033470001
1.53 0.27399999 -0.83999997 14 0 0 0 0.03348
1.541 0.27599999 -0.84100002 15 0 0 0 0.033489998
1.5470001 0.27700001 -0.83999997 14 0 0 0 0.033500001
1.5599999 0.28 -0.84200001 15 0 0 0 0.03351
1.566 0.28099999 -0.83999997 15 0 0 0 0.033519998
1.574 0.28200001 -0.83999997 15 0 0 0 0.033530001
1.5829999 0.28299999 -0.83899999 15 0 0 0 0.033539999
1.595 0.285 -0.83999997 15 0 0 0 0.033550002
1.6059999 0.287 -0.84100002 15 0 0 0 0.03356
1.6160001 0.289 -0.84100002 15 0 0 0 0.033569999
1.626 0.28999999 -0.84100002 15 0 0 0 0.033580001
1.63 0.29100001 -0.838 55 0 0 0 0.03359
1.648 0.29300001 -0.84200001 15 0 0 0 0.033599999
1.651 0.294 -0.838 56 0 0 0 0.033610001
1.661 0.29499999 -0.838 56 0 0 0 0.03362
1.6670001 0.296 -0.83600003 50 0 0 0 0.033629999
1.681 0.29800001 -0.83700001 55 0 0 0 0.033640001
1.696 0.30000001 -0.83899999 59 0 0 0 0.03365
1.707 0.301 -0.83899999 15 0 0 0 0.033659998
1.724 0.30399999 -0.84200001 15 0 0 0 0.033670001
1.735 0.30500001 -0.84100002 15 0 0 0 0.033679999
1.747 0.30700001 -0.84100002 15 0 0 0 0.033690002
1.757 0.308 -0.83999997 15 0 0 0 0.0337
1.774 0.31 -0.84299999 15 0 0 0 0.033709999
1.778 0.31 -0.83899999 36 0 0 0 0.033720002
1.801 0.31299999 -0.84399998 16 0 0 0 0.03373
1.811 0.31400001 -0.84200001 15 0 0 0 0.033739999
1.826 0.31600001 -0.84299999 45 0 0 0 0.033750001
1.839 0.317 -0.84299999 16 0 0 0 0.03376
1.845 0.31799999 -0.83999997 43 0 0 0 0.033769999
1.862 0.31999999 -0.84100002 43 0 0 0 0.033780001
1.872 0.31999999 -0.83999997 40 0 0 0 0.03379
1.8890001 0.322 -0.84100002 39 0 0 0 0.033799998
1.901 0.32300001 -0.83999997 40 0 0 0 0.033810001
1.919 0.32499999 -0.84100002 41 0 0 0 0.03382
1.936 0.32699999 -0.84200001 41 0 0 0 0.033829998
1.946 0.32800001 -0.84100002 40 0 0 0 0.033840001
1.9630001 0.329 -0.84100002 40 0 0 0 0.033849999
1.983 0.33199999 -0.84299999 41 0 0 0 0.033860002
1.997 0.333 -0.84200001 41 0 0 0 0.03387
2.0109999 0.33399999 -0.84200001 35 0 0 0 0.033879999
2.029 0.33500001 -0.84200001 35 0 0 0 0.033890001
2.0450001 0.33700001 -0.84200001 35 0 0 0 0.0339
2.0599999 0.338 -0.84100002 34 0 0 0 0.033909999
2.0799999 0.34 -0.84299999 33 0 0 0 0.033920001
2.099 0.34099999 -0.84299999 31 0 0 0 0.03393
2.118 0.34299999 -0.84399998 32 0 0 0 0.033939999
2.1300001 0.34299999 -0.84200001 36 0 0 0 0.033950001
2.1500001 0.345 -0.84200001 34 0 0 0 0.03396
2.1719999 0.347 -0.84399998 34 0 0 0 0.033969998
2.1919999 0.34799999 -0.84399998 33 0 0 0 0.033980001
2.2119999 0.34999999 -0.84500003 34 0 0 0 0.033989999
2.233 0.35100001 -0.84500003 34 0 0 0 0.034000002
2.253 0.352 -0.84500003 34 0 0 0 0.034010001
2.2739999 0.354 -0.84600002 34 0 0 0 0.034019999
2.299 0.35600001 -0.847 35 0 0 0 0.034030002
2.316 0.35699999 -0.84600002 35 0 0 0 0.03404
2.335 0.35800001 -0.84500003 36 0 0 0 0.034049999
2.3599999 0.359 -0.84600002 35 0 0 0 0.034060001
2.381 0.36000001 -0.84600002 35 0 0 0 0.03407
2.404 0.36199999 -0.84600002 35 0 0 0 0.034079999
2.425 0.36300001 -0.84600002 35 0 0 0 0.034090001
2.447 0.36399999 -0.84500003 36 0 0 0 0.0341
2.474 0.366 -0.847 37 0 0 0 0.034109998
2.503 0.368 -0.84799999 35 0 0 0 0.034120001
2.526 0.36899999 -0.84799999 36 0 0 0 0.03413
2.556 0.37099999 -0.85000002 36 0 0 0 0.034139998
2.5829999 0.37200001 -0.85000002 37 0 0 0 0.034150001
2.609 0.373 -0.85000002 36 0 0 0 0.034159999
2.6400001 0.375 -0.85100001 37 0 0 0 0.034170002
2.6670001 0.37599999 -0.852 37 0 0 0 0.03418
2.7 0.37799999 -0.85299999 37 0 0 0 0.034189999
2.727 0.37900001 -0.85299999 37 0 0 0 0.034200002
2.753 0.38 -0.852 37 0 0 0 0.03421
2.7880001 0.382 -0.85399997 37 0 0 0 0.034219999
2.8169999 0.38299999 -0.85399997 40 0 0 0 0.034230001
2.8429999 0.384 -0.852 37 0 0 0 0.03424
2.8789999 0.38600001 -0.85399997 35 0 0 0 0.034249999
2.9219999 0.38800001 -0.85699999 37 0 0 0 0.034260001
2.96 0.38999999 -0.85900003 35 0 0 0 0.03427
2.993 0.39199999 -0.85900003 35 0 0 0 0.034279998
3.0309999 0.39300001 -0.86000001 35 0 0 0 0.034290001
3.073 0.396 -0.86199999 36 0 0 0 0.034299999
3.1099999 0.39700001 -0.86199999 37 0 0 0 0.034309998
3.1329999 0.396 -0.85799998 36 0 0 0 0.034320001
3.164 0.39700001 -0.85699999 37 0 0 0 0.034329999
3.2030001 0.398 -0.85699999 32 0 0 0 0.034340002
3.2479999 0.40000001 -0.85900003 32 0 0 0 0.03435
3.2839999 0.40099999 -0.85799998 32 0 0 0 0.034359999
3.3180001 0.40099999 -0.85600001 32 0 0 0 0.034370001
3.3570001 0.40200001 -0.85600001 33 0 0 0 0.03438
3.3889999 0.40200001 -0.85299999 71 0 0 0 0.034389999
3.3789999 0.39700001 -0.83999997 150 0 0 0 0.034400001
3.382 0.39300001 -0.82999998 152 0 0 0 0.03441
3.385 0.38999999 -0.81999999 151 0 0 0 0.034419999
3.385 0.38600001 -0.81 151 0 0 0 0.034430001
3.3840001 0.38100001 -0.79900002 151 0 0 0 0.03444
3.385 0.37799999 -0.78899997 151 0 0 0 0.034449998
3.3889999 0.37400001 -0.77899998 151 0 0 0 0.034460001
3.3840001 0.36899999 -0.76700002 151 0 0 0 0.034469999
3.3859999 0.36500001 -0.75700003 151 0 0 0 0.034480002
3.388 0.36199999 -0.74699998 151 0 0 0 0.03449
3.388 0.35699999 -0.736 151 0 0 0 0.034499999
3.391 0.354 -0.727 151 0 0 0 0.034510002
3.3940001 0.34999999 -0.71700001 151 0 0 0 0.03452
3.3900001 0.345 -0.70499998 151 0 0 0 0.034529999
3.392 0.34099999 -0.69499999 151 0 0 0 0.034540001
3.392 0.33700001 -0.685 151 0 0 0 0.03455
3.3940001 0.333 -0.67500001 151 0 0 0 0.034559999
3.392 0.32800001 -0.66399997 151 0 0 0 0.034570001
3.3900001 0.324 -0.653 151 0 0 0 0.03458
3.3889999 0.31900001 -0.64300001 151 0 0 0 0.034589998
3.3940001 0.315 -0.63300002 151 0 0 0 0.034600001
3.3940001 0.31099999 -0.62300003 151 0 0 0 0.03461
3.391 0.30599999 -0.61199999 151 0 0 0 0.034619998
3.3929999 0.30199999 -0.602 151 0 0 0 0.034630001
3.395 0.29800001 -0.59200001 151 0 0 0 0.034639999
3.3970001 0.29300001 -0.58200002 151 0 0 0 0.034650002
3.3989999 0.289 -0.57200003 151 0 0 0 0.03466
3.4000001 0.28400001 -0.56199998 151 0 0 0 0.034669999
3.401 0.28 -0.55199999 151 0 0 0 0.034680001
3.398 0.27500001 -0.54100001 151 0 0 0 0.03469
3.398 0.271 -0.53100002 151 0 0 0 0.034699999
3.3959999 0.266 -0.51999998 151 0 0 0 0.034710001
3.3989999 0.26199999 -0.51099998 151 0 0 0 0.03472
3.405 0.257 -0.50099999 151 0 0 0 0.034729999
3.402 0.25299999 -0.491 151 0 0 0 0.034740001
3.402 0.248 -0.47999999 151 0 0 0 0.03475
3.398 0.243 -0.47 151 0 0 0 0.034759998
3.4000001 0.23800001 -0.46000001 151 0 0 0 0.034770001
3.404 0.234 -0.44999999 151 0 0 0 0.034779999
3.4030001 0.229 -0.44 151 0 0 0 0.034790002
3.404 0.22400001 -0.43000001 151 0 0 0 0.0348
3.402 0.219 -0.41999999 151 0 0 0 0.034809999
3.4030001 0.215 -0.41 151 0 0 0 0.034820002
3.405 0.20999999 -0.40000001 151 0 0 0 0.03483
3.4059999 0.205 -0.38999999 151 0 0 0 0.034839999
3.4070001 0.20100001 -0.38 151 0 0 0 0.034850001
3.408 0.19599999 -0.37 151 0 0 0 0.03486
3.402 0.191 -0.36000001 151 0 0 0 0.034869999
3.4059999 0.186 -0.34999999 151 0 0 0 0.034880001
3.4059999 0.18099999 -0.34 151 0 0 0 0.03489
3.4070001 0.176 -0.33000001 151 0 0 0 0.034899998
3.408 0.171 -0.31999999 151 0 0 0 0.034910001
3.4089999 0.16599999 -0.31 152 0 0 0 0.03492
3.408 0.161 -0.301 152 0 0 0 0.034929998
3.4059999 0.156 -0.28999999 152 0 0 0 0.034940001
3.408 0.15099999 -0.28099999 152 0 0 0 0.034949999
3.411 0.146 -0.271 152 0 0 0 0.034960002
3.411 0.141 -0.26100001 152 0 0 0 0.03497
3.4089999 0.13600001 -0.25099999 152 0 0 0 0.034979999
3.415 0.131 -0.242 152 0 0 0 0.034990001
3.4130001 0.126 -0.23199999 152 0 0 0 0.035
3.4089999 0.121 -0.221 153 0 0 0 0.035009999
3.4100001 0.116 -0.212 153 0 0 0 0.035020001
3.411 0.111 -0.20200001 153 0 0 0 0.03503
3.411 0.106 -0.192 153 0 0 0 0.035039999
3.4119999 0.101 -0.182 153 0 0 0 0.035050001
3.4070001 0.094999999 -0.17200001 153 0 0 0 0.03506
3.4070001 0.090000004 -0.163 153 0 0 0 0.035069998
3.4030001 0.085000001 -0.153 153 0 0 0 0.035080001
3.404 0.079999998 -0.14300001 153 0 0 0 0.035089999
3.404 0.074000001 -0.133 154 0 0 0 0.035100002
3.405 0.068999998 -0.124 154 0 0 0 0.035110001
3.405 0.064000003 -0.114 153 0 0 0 0.035119999
3.405 0.059 -0.104 153 0 0 0 0.035130002
3.411 0.052999999 -0.094999999 153 0 0 0 0.03514
3.411 0.048 -0.085000001 153 0 0 0 0.035149999
3.411 0.043000001 -0.075999998 153 0 0 0 0.035160001
3.4119999 0.037 -0.066 153 0 0 0 0.03517
3.4230001 0.032000002 -0.056000002 152 0 0 0 0.035179999
3.4230001 0.027000001 -0.046999998 152 0 0 0 0.035190001
3.421 0.021 -0.037 152 0 0 0 0.0352
3.4230001 0.016000001 -0.027000001 152 0 0 0 0.035209998
3.4200001 0.0099999998 -0.017999999 152 0 0 0 0.035220001
3.4219999 0.0049999999 -0.0080000004 152 0 0 0 0.03523
3.4219999 0 0.001 151 0 0 0 0.035239998
3.425 -0.0049999999 0.0099999998 152 0 0 0 0.035250001
3.425 -0.011 0.02 152 0 0 0 0.035259999
3.4230001 -0.016000001 0.028999999 152 0 0 0 0.035270002
3.424 -0.022 0.039000001 151 0 0 0 0.03528
3.428 -0.027000001 0.048999999 152 0 0 0 0.035289999
3.4260001 -0.033 0.057999998 151 0 0 0 0.035300002
3.427 -0.037999999 0.068000004 151 0 0 0 0.03531
3.4260001 -0.044 0.077 151 0 0 0 0.035319999
3.4260001 -0.050000001 0.086999997 151 0 0 0 0.035330001
3.425 -0.055 0.096000001 151 0 0 0 0.03534
3.4289999 -0.061000001 0.106 151 0 0 0 0.035349999
3.431 -0.067000002 0.116 151 0 0 0 0.035360001
3.4300001 -0.072999999 0.125 151 0 0 0 0.03537
3.431 -0.078000002 0.13500001 151 0 0 0 0.035379998
3.4300001 -0.083999999 0.14399999 151 0 0 0 0.035390001
3.4349999 -0.090000004 0.154 151 0 0 0 0.035399999
3.434 -0.096000001 0.164 151 0 0 0 0.035409998
3.434 -0.102 0.17299999 151 0 0 0 0.035420001
3.4330001 -0.107 0.182 151 0 0 0 0.035429999
3.4349999 -0.113 0.192 151 0 0 0 0.035440002
3.4349999 -0.119 0.20200001 151 0 0 0 0.03545
3.437 -0.125 0.211 151 0 0 0 0.035459999
3.438 -0.131 0.221 151 0 0 0 0.035470001
3.434 -0.13699999 0.23 151 0 0 0 0.03548
3.4360001 -0.14300001 0.23999999 151 0 0 0 0.035489999
3.437 -0.149 0.249 151 0 0 0 0.035500001
3.441 -0.155 0.259 151 0 0 0 0.03551
3.4349999 -0.161 0.26800001 151 0 0 0 0.035519999
3.4389999 -0.167 0.278 152 0 0 0 0.035530001
3.4100001 -0.17200001 0.28400001 150 0 0 0 0.03554
3.375 -0.176 0.29100001 150 0 0 0 0.035549998
3.3740001 -0.182 0.30000001 151 0 0 0 0.035560001
3.375 -0.18799999 0.30899999 151 0 0 0 0.035569999
3.3770001 -0.19400001 0.31900001 151 0 0 0 0.035580002
3.3770001 -0.2 0.32800001 150 0 0 0 0.03559
3.3499999 -0.204 0.33399999 150 0 0 0 0.035599999
3.342 -0.20999999 0.34299999 151 0 0 0 0.035610002
3.3410001 -0.21600001 0.352 151 0 0 0 0.03562
3.349 -0.222 0.36199999 151 0 0 0 0.035629999
3.349 -0.229 0.37099999 151 0 0 0 0.035640001
3.348 -0.234 0.38 151 0 0 0 0.03565
3.3440001 -0.23999999 0.38800001 151 0 0 0 0.035659999
3.345 -0.24699999 0.398 150 0 0 0 0.035670001
3.3340001 -0.252 0.405 43 0 0 0 0.03568
3.256 -0.252 0.405 49 0 0 0 0.035689998
3.234 -0.25600001 0.41100001 150 0 0 0 0.035700001
3.2390001 -0.26300001 0.41999999 151 0 0 0 0.03571
3.2390001 -0.26899999 0.42899999 151 0 0 0 0.035719998
3.237 -0.27500001 0.43700001 151 0 0 0 0.035730001
3.237 -0.28099999 0.44600001 151 0 0 0 0.035739999
3.24 -0.287 0.45500001 151 0 0 0 0.035750002
3.2449999 -0.294 0.465 151 0 0 0 0.03576
3.2390001 -0.29899999 0.47299999 151 0 0 0 0.035769999
3.237 -0.30500001 0.48100001 151 0 0 0 0.035780001
3.22 -0.31 0.48699999 150 0 0 0 0.03579
3.2090001 -0.315 0.49399999 151 0 0 0 0.035799999
3.211 -0.32100001 0.50300002 151 0 0 0 0.035810001
3.2160001 -0.32800001 0.51200002 151 0 0 0 0.03582
3.2160001 -0.33399999 0.52100003 151 0 0 0 0.035829999
3.217 -0.34099999 0.52999997 150 0 0 0 0.035840001
3.2149999 -0.347 0.53799999 151 0 0 0 0.03585
3.2179999 -0.35299999 0.54699999 151 0 0 0 0.035859998
3.161 -0.35299999 0.546 151 0 0 0 0.035870001
2.9130001 -0.331 0.51099998 150 0 0 0 0.035879999
2.813 -0.32499999 0.50099999 125 0 0 0 0.035890002
2.569 -0.30199999 0.46399999 26 0 0 0 0.0359
2.539 -0.30399999 0.465 25 0 0 0 0.035909999
2.5009999 -0.30399999 0.465 23 0 0 0 0.035920002
2.4690001 -0.30500001 0.46599999 20 0 0 0 0.03593
2.428 -0.30500001 0.46399999 16 0 0 0 0.035939999
2.398 -0.30599999 0.465 29 0 0 0 0.035950001
2.3829999 -0.30899999 0.46799999 26 0 0 0 0.03596
2.3840001 -0.31400001 0.47499999 7 0 0 0 0.035969999
2.4059999 -0.322 0.486 0 0 0 0 0.035980001
0 0 0 0 0 0 0 0.03599
0 0 0 0 0 0 0 0.035999998
0 0 0 0 0 0 0 0.036010001
0 0 0 0 0 0 0 0.03602
0 0 0 0 0 0 0 0.036029998
0 0 0 0 0 0 0 0.036040001
0 0 0 0 0 0 0 0.036049999
0 0 0 0 0 0 0 0.036060002
0 0 0 0 0 0 0 0.03607
0 0 0 0 0 0 0 0.036079999
0 0 0 0 0 0 0 0.036090001
0 0 0 0 0 0 0 0.0361
0 0 0 0 0 0 0 0.036109999
0 0 0 0 0 0 0 0.036120001
0 0 0 0 0 0 0 0.03613
0 0 0 0 0 0 0 0.036139999
0 0 0 0 0 0 0 0.036150001
0 0 0 0 0 0 0 0.03616
0 0 0 0 0 0 0 0.036169998
0 0 0 0 0 0 0 0.036180001
0 0 0 0 0 0 0 0.036189999
0 0 0 0 0 0 0 0.036200002
0 0 0 0 0 0 0 0.036210001
0 0 0 0 0 0 0 0.036219999
0 0 0 0 0 0 0 0.036230002
0 0 0 0 0 0 0 0.03624
0 0 0 0 0 0 0 0.036249999
0 0 0 0 0 0 0 0.036260001
0 0 0 0 0 0 0 0.03627
0 0 0 0 0 0 0 0.036279999
0 0 0 0 0 0 0 0.036290001
0 0 0 0 0 0 0 0.0363
0 0 0 0 0 0 0 0.036309998
0 0 0 0 0 0 0 0.036320001
0 0 0 0 0 0 0 0.03633
0 0 0 0 0 0 0 0.036339998
0 0 0 0 0 0 0 0.036350001
0 0 0 0 0 0 0 0.036359999
0 0 0 0 0 0 0 0.036370002
0 0 0 0 0 0 0 0.03638
2.382 -0.53500003 0.73000002 0 0 0 0 0.036389999
2.447 -0.55500001 0.75599998 0 0 0 0 0.036400001
2.4289999 -0.55699998 0.75700003 0 0 0 0 0.03641
0 0 0 0 0 0 0 0.036419999
0 0 0 0 0 0 0 0.036430001
0 0 0 0 0 0 0 0.03644
0 0 0 0 0 0 0 0.036449999
0 0 0 0 0 0 0 0.036460001
0 0 0 0 0 0 0 0.03647
0 0 0 0 0 0 0 0.036479998
0 0 0 0 0 0 0 0.036490001
0 0 0 0 0 0 0 0.036499999
0 0 0 0 0 0 0 0.036509998
0 0 0 0 0 0 0 0.036520001
0 0 0 0 0 0 0 0.036529999
0 0 0 0 0 0 0 0.036540002
0 0 0 0 0 0 0 0.03655
0 0 0 0 0 0 0 0.036559999
0 0 0 0 0 0 0 0.036570001
0 0 0 0 0 0 0 0.03658
0 0 0 0 0 0 0 0.036589999
0 0 0 0 0 0 0 0.036600001
2.4319999 -0.67900002 0.87199998 0 0 0 0 0.03661
0 0 0 0 0 0 0 0.036619999
2.8800001 -0.81800002 1.045 0 0 0 0 0.036630001
2.8469999 -0.81599998 1.039 0 0 0 0 0.03664
2.747 -0.79500002 1.0089999 0 0 0 0 0.036649998
2.891 -0.84399998 1.068 0 0 0 0 0.036660001
4.3299999 -1.275 1.609 33 0 0 0 0.036669999
0 0 0 0 0 0 0 0.036680002
0 0 0 0 0 0 0 0.03669
2.898 -0.87599999 1.095 0 0 0 0 0.036699999
4.2319999 -1.29 1.609 33 0 0 0 0.036710002
2.7869999 -0.85699999 1.0650001 0 0 0 0 0.03672
4.1880002 -1.299 1.61 37 0 0 0 0.036729999
2.842 -0.889 1.098 0 0 0 0 0.036740001
4.1420002 -1.306 1.609 38 0 0 0 0.03675
4.1279998 -1.313 1.612 38 0 0 0 0.036759999
4.098 -1.314 1.609 38 0 0 0 0.036770001
4.0840001 -1.3200001 1.6109999 39 0 0 0 0.03678
4.0650001 -1.325 1.612 40 0 0 0 0.036789998
4.046 -1.33 1.613 39 0 0 0 0.036800001
4.026 -1.334 1.612 37 0 0 0 0.036809999
4.0110002 -1.339 1.614 41 0 0 0 0.036819998
3.987 -1.342 1.612 40 0 0 0 0.036830001
3.97 -1.347 1.613 37 0 0 0 0.036839999
3.9489999 -1.35 1.612 40 0 0 0 0.036850002
3.9330001 -1.355 1.612 38 0 0 0 0.03686
3.914 -1.359 1.612 39 0 0 0 0.036869999
3.901 -1.365 1.614 38 0 0 0 0.036880001
3.8840001 -1.369 1.614 35 0 0 0 0.03689
3.8759999 -1.377 1.617 40 0 0 0 0.036899999
3.8540001 -1.3789999 1.615 42 0 0 0 0.036910001
3.839 -1.385 1.615 41 0 0 0 0.03692
3.823 -1.3890001 1.615 41 0 0 0 0.036929999
3.8099999 -1.3940001 1.6160001 47 0 0 0 0.036940001
3.789 -1.397 1.614 48 0 0 0 0.03695
3.7709999 -1.4 1.612 47 0 0 0 0.036959998
3.7539999 -1.404 1.6109999 44 0 0 0 0.036970001
3.733 -1.406 1.608 38 0 0 0 0.036979999
3.71 -1.4069999 1.604 32 0 0 0 0.036990002
3.687 -1.409 1.6 25 0 0 0 0.037
3.6700001 -1.4119999 1.598 23 0 0 0 0.037009999
3.6500001 -1.414 1.595 22 0 0 0 0.037020002
3.6270001 -1.414 1.59 21 0 0 0 0.03703
3.609 -1.4170001 1.5880001 19 0 0 0 0.037039999
3.5880001 -1.418 1.5829999 20 0 0 0 0.037050001
3.5680001 -1.42 1.58 19 0 0 0 0.03706
3.546 -1.421 1.575 20 0 0 0 0.037069999
3.523 -1.421 1.569 22 0 0 0 0.037080001
3.51 -1.424 1.568 21 0 0 0 0.03709
3.4909999 -1.426 1.564 20 0 0 0 0.037099998
3.4690001 -1.426 1.559 20 0 0 0 0.037110001
3.451 -1.427 1.5549999 21 0 0 0 0.03712
3.4319999 -1.429 1.551 21 0 0 0 0.037129998
3.4130001 -1.429 1.546 21 0 0 0 0.037140001
3.401 -1.433 1.544 23 0 0 0 0.037149999
3.3829999 -1.434 1.54 22 0 0 0 0.037160002
3.3640001 -1.4349999 1.535 22 0 0 0 0.03717
3.342 -1.434 1.529 21 0 0 0 0.037179999
3.3199999 -1.433 1.522 22 0 0 0 0.037190001
3.306 -1.4349999 1.5190001 22 0 0 0 0.0372
3.289 -1.436 1.5140001 22 0 0 0 0.037209999
3.2720001 -1.437 1.5089999 22 0 0 0 0.037220001
3.2520001 -1.436 1.503 22 0 0 0 0.03723
3.243 -1.4400001 1.502 22 0 0 0 0.037239999
3.2260001 -1.4400001 1.4960001 24 0 0 0 0.037250001
3.2149999 -1.443 1.494 25 0 0 0 0.03726
3.2 -1.444 1.489 25 0 0 0 0.037269998
3.181 -1.443 1.483 24 0 0 0 0.037280001
3.1659999 -1.444 1.478 25 0 0 0 0.037289999
3.152 -1.4450001 1.473 25 0 0 0 0.037300002
3.1340001 -1.444 1.467 26 0 0 0 0.037310001
3.1210001 -1.4450001 1.4630001 24 0 0 0 0.037319999
3.109 -1.447 1.459 25 0 0 0 0.037330002
3.0940001 -1.447 1.4529999 27 0 0 0 0.03734
3.0880001 -1.452 1.452 30 0 0 0 0.037349999
3.089 -1.459 1.4529999 31 0 0 0 0.037360001
3.0829999 -1.4630001 1.452 28 0 0 0 0.03737
3.0829999 -1.47 1.4529999 32 0 0 0 0.037379999
3.0840001 -1.477 1.455 32 0 0 0 0.037390001
3.0780001 -1.4809999 1.4529999 31 0 0 0 0.0374
3.0780001 -1.487 1.4529999 31 0 0 0 0.037409998
3.0780001 -1.494 1.454 32 0 0 0 0.037420001
3.076 -1.499 1.4529999 32 0 0 0 0.03743
3.073 -1.5039999 1.4529999 30 0 0 0 0.037439998
3.0769999 -1.512 1.455 31 0 0 0 0.037450001
3.072 -1.516 1.4529999 29 0 0 0 0.037459999
3.0739999 -1.522 1.4529999 28 0 0 0 0.037470002
3.0780001 -1.531 1.456 30 0 0 0 0.03748
3.076 -1.536 1.454 29 0 0 0 0.037489999
3.0780001 -1.5420001 1.455 26 0 0 0 0.037500001
3.079 -1.548 1.455 27 0 0 0 0.03751
3.0769999 -1.553 1.4529999 26 0 0 0 0.037519999
3.0880001 -1.564 1.4579999 28 0 0 0 0.037530001
3.089 -1.5700001 1.4579999 30 0 0 0 0.03754
3.0880001 -1.575 1.456 29 0 0 0 0.037549999
3.0929999 -1.582 1.457 29 0 0 0 0.037560001
3.098 -1.59 1.459 29 0 0 0 0.03757
3.1029999 -1.598 1.46 28 0 0 0 0.037579998
3.1010001 -1.601 1.457 29 0 0 0 0.037590001
3.1040001 -1.608 1.457 29 0 0 0 0.037599999
3.1099999 -1.615 1.459 30 0 0 0 0.037610002
3.1159999 -1.623 1.459 28 0 0 0 0.037620001
3.119 -1.6289999 1.459 27 0 0 0 0.037629999
3.125 -1.636 1.46 27 0 0 0 0.037640002
3.131 -1.6440001 1.46 28 0 0 0 0.03765
3.135 -1.65 1.46 27 0 0 0 0.037659999
3.1359999 -1.654 1.4579999 26 0 0 0 0.037670001
3.142 -1.661 1.4579999 28 0 0 0 0.03768
3.1489999 -1.669 1.459 26 0 0 0 0.037689999
3.154 -1.675 1.4579999 25 0 0 0 0.037700001
3.161 -1.682 1.4579999 26 0 0 0 0.03771
3.1670001 -1.689 1.4579999 26 0 0 0 0.037719999
3.1719999 -1.6950001 1.457 25 0 0 0 0.037730001
3.1849999 -1.705 1.46 27 0 0 0 0.03774
3.2079999 -1.72 1.467 35 0 0 0 0.037749998
3.2720001 -1.758 1.493 60 0 0 0 0.037760001
3.325 -1.789 1.513 61 0 0 0 0.037769999
3.372 -1.817 1.531 39 0 0 0 0.037780002
3.392 -1.83 1.536 33 0 0 0 0.03779
3.3959999 -1.835 1.533 32 0 0 0 0.037799999
3.4100001 -1.845 1.535 33 0 0 0 0.037810002
3.418 -1.851 1.534 30 0 0 0 0.03782
3.425 -1.857 1.533 30 0 0 0 0.037829999
3.438 -1.8660001 1.534 28 0 0 0 0.037840001
3.451 -1.875 1.534 29 0 0 0 0.03785
3.4579999 -1.88 1.533 30 0 0 0 0.037859999
3.473 -1.89 1.534 31 0 0 0 0.037870001
3.4820001 -1.896 1.533 30 0 0 0 0.03788
3.497 -1.905 1.534 30 0 0 0 0.037889998
3.5109999 -1.914 1.535 31 0 0 0 0.037900001
3.517 -1.918 1.5319999 29 0 0 0 0.037909999
3.5339999 -1.928 1.534 29 0 0 0 0.037919998
3.5510001 -1.937 1.535 30 0 0 0 0.037930001
3.562 -1.944 1.534 29 0 0 0 0.037939999
3.573 -1.95 1.5319999 29 0 0 0 0.037950002
3.5940001 -1.962 1.535 29 0 0 0 0.03796
3.605 -1.9680001 1.533 29 0 0 0 0.037969999
3.6229999 -1.977 1.534 29 0 0 0 0.037980001
3.6359999 -1.983 1.533 29 0 0 0 0.03799
3.6530001 -1.992 1.533 29 0 0 0 0.037999999
3.6700001 -2.0009999 1.534 29 0 0 0 0.038010001
3.688 -2.01 1.534 27 0 0 0 0.03802
3.7 -2.0150001 1.5319999 26 0 0 0 0.038029999
3.7190001 -2.0239999 1.533 27 0 0 0 0.038040001
3.7360001 -2.0320001 1.5319999 27 0 0 0 0.03805
3.7579999 -2.043 1.534 27 0 0 0 0.038059998
3.779 -2.052 1.535 28 0 0 0 0.038070001
3.7920001 -2.0569999 1.533 27 0 0 0 0.038079999
3.8110001 -2.066 1.533 26 0 0 0 0.038090002
3.832 -2.075 1.533 27 0 0 0 0.0381
3.845 -2.079 1.53 26 0 0 0 0.038109999
3.868 -2.089 1.531 25 0 0 0 0.038120002
3.892 -2.099 1.533 25 0 0 0 0.03813
3.9200001 -2.1110001 1.535 25 0 0 0 0.038139999
3.931 -2.1140001 1.531 25 0 0 0 0.038150001
3.9560001 -2.1240001 1.5319999 25 0 0 0 0.03816
3.9809999 -2.1340001 1.533 25 0 0 0 0.038169999
3.9960001 -2.138 1.53 25 0 0 0 0.038180001
4.02 -2.1470001 1.53 24 0 0 0 0.03819
4.0450001 -2.1570001 1.531 25 0 0 0 0.038199998
4.0710001 -2.1659999 1.5319999 25 0 0 0 0.038210001
4.0929999 -2.174 1.531 25 0 0 0 0.03822
4.118 -2.1819999 1.531 24 0 0 0 0.038229998
4.138 -2.188 1.529 25 0 0 0 0.038240001
4.1669998 -2.1989999 1.53 26 0 0 0 0.038249999
4.197 -2.21 1.531 26 0 0 0 0.038260002
4.223 -2.2179999 1.531 25 0 0 0 0.03827
4.2529998 -2.2279999 1.5319999 25 0 0 0 0.038279999
4.2800002 -2.237 1.5319999 25 0 0 0 0.038290001
4.3049998 -2.244 1.531 25 0 0 0 0.0383
4.3340001 -2.253 1.531 25 0 0 0 0.038309999
4.3699999 -2.2650001 1.534 25 0 0 0 0.038320001
4.402 -2.2750001 1.534 25 0 0 0 0.03833
4.4320002 -2.2850001 1.535 25 0 0 0 0.038339999
4.461 -2.293 1.534 25 0 0 0 0.038350001
4.4889998 -2.3 1.533 25 0 0 0 0.03836
4.5240002 -2.3110001 1.534 24 0 0 0 0.038369998
4.5640001 -2.3239999 1.5369999 25 0 0 0 0.038380001
2.4419999 -1.239 0.81599998 0 0 0 0 0.038389999
0 0 0 0 0 0 0 0.039360002
0 0 0 0 0 0 0 0.03937
0 0 0 0 0 0 0 0.039379999
0 0 0 0 0 0 0 0.039390001
0 0 0 0 0 0 0 0.0394
0 0 0 0 0 0 0 0.039409999
0 0 0 0 0 0 0 0.039420001
0 0 0 0 0 0 0 0.03943
0 0 0 0 0 0 0 0.039439999
0 0 0 0 0 0 0 0.039450001
0 0 0 0 0 0 0 0.03946
0 0 0 0 0 0 0 0.039469998
0 0 0 0 0 0 0 0.039480001
0 0 0 0 0 0 0 0.039489999
0 0 0 0 0 0 0 0.039500002
2.415 -0.53600001 0.245 0 0 0 0 0.03951
0 0 0 0 0 0 0 0.039519999
0 0 0 0 0 0 0 0.039530002
0 0 0 0 0 0 0 0.03954
0 0 0 0 0 0 0 0.039549999
0 0 0 0 0 0 0 0.039560001
0 0 0 0 0 0 0 0.03957
0 0 0 0 0 0 0 0.039579999
0 0 0 0 0 0 0 0.039590001
0 0 0 0 0 0 0 0.0396
0 0 0 0 0 0 0 0.039609998
0 0 0 0 0 0 0 0.039620001
0 0 0 0 0 0 0 0.03963
0 0 0 0 0 0 0 0.039639998
0 0 0 0 0 0 0 0.039650001
0 0 0 0 0 0 0 0.039659999
0 0 0 0 0 0 0 0.039670002
0 0 0 0 0 0 0 0.03968
0 0 0 0 0 0 0 0.039689999
2.4000001 -0.39899999 0.17299999 0 0 0 0 0.039700001
2.411 -0.39300001 0.17 0 0 0 0 0.03971
2.437 -0.38999999 0.168 0 0 0 0 0.039719999
2.388 -0.375 0.162 0 0 0 0 0.039730001
2.3770001 -0.36700001 0.15700001 0 0 0 0 0.03974
2.3729999 -0.359 0.154 0 0 0 0 0.039749999
2.391 -0.35499999 0.15099999 1 0 0 0 0.039760001
2.3829999 -0.347 0.147 0 0 0 0 0.03977
2.369 -0.33700001 0.14300001 0 0 0 0 0.039779998
2.3740001 -0.331 0.14 1 0 0 0 0.039790001
2.3740001 -0.324 0.13699999 3 0 0 0 0.039799999
2.3840001 -0.31799999 0.134 12 0 0 0 0.039810002
2.405 -0.31400001 0.132 14 0 0 0 0.039820001
2.4549999 -0.31299999 0.131 17 0 0 0 0.039829999
2.5039999 -0.31200001 0.13 20 0 0 0 0.039840002
2.549 -0.31 0.12899999 19 0 0 0 0.03985
2.8080001 -0.333 0.139 109 0 0 0 0.039859999
3.0699999 -0.35499999 0.147 150 0 0 0 0.039870001
3.2149999 -0.36300001 0.15000001 150 0 0 0 0.03988
3.2130001 -0.35299999 0.146 150 0 0 0 0.039889999
3.21 -0.34299999 0.141 150 0 0 0 0.039900001
3.2119999 -0.33399999 0.13699999 150 0 0 0 0.03991
3.211 -0.324 0.133 150 0 0 0 0.039919998
3.227 -0.31600001 0.12899999 150 0 0 0 0.039930001
3.2349999 -0.30700001 0.125 151 0 0 0 0.03994
3.2390001 -0.29800001 0.121 150 0 0 0 0.039949998
3.2349999 -0.28799999 0.116 150 0 0 0 0.039960001
3.2360001 -0.278 0.112 150 0 0 0 0.039969999
3.234 -0.26899999 0.108 150 0 0 0 0.039980002
3.243 -0.25999999 0.104 150 0 0 0 0.03999
3.3380001 -0.257 0.103 66 0 0 0 0.039999999
3.3440001 -0.248 0.098999999 152 0 0 0 0.040010002
3.3429999 -0.23800001 0.093999997 150 0 0 0 0.04002
3.3440001 -0.228 0.090000004 151 0 0 0 0.040029999
3.3410001 -0.21799999 0.086000003 151 0 0 0 0.040040001
3.3559999 -0.208 0.082000002 150 0 0 0 0.04005
3.3759999 -0.199 0.078000002 151 0 0 0 0.040059999
3.369 -0.189 0.074000001 151 0 0 0 0.040070001
3.3800001 -0.18000001 0.07 150 0 0 0 0.04008
3.424 -0.17200001 0.067000002 153 0 0 0 0.040089998
3.434 -0.162 0.063000001 150 0 0 0 0.040100001
3.4330001 -0.15099999 0.059 150 0 0 0 0.040109999
3.4349999 -0.141 0.054000001 150 0 0 0 0.040119998
3.434 -0.131 0.050000001 150 0 0 0 0.040130001
3.434 -0.121 0.046 150 0 0 0 0.040139999
3.4319999 -0.11 0.041999999 150 0 0 0 0.040150002
3.431 -0.1 0.037999999 150 0 0 0 0.04016
3.4330001 -0.089000002 0.034000002 150 0 0 0 0.040169999
3.4230001 -0.079000004 0.029999999 150 0 0 0 0.040180001
3.434 -0.068999998 0.026000001 150 0 0 0 0.04019
3.427 -0.057999998 0.022 150 0 0 0 0.040199999
3.427 -0.048 0.017999999 150 0 0 0 0.040210001
3.424 -0.037999999 0.014 150 0 0 0 0.04022
3.4230001 -0.027000001 0.0099999998 150 0 0 0 0.040229999
3.424 -0.017000001 0.0060000001 150 0 0 0 0.040240001
3.4189999 -0.0070000002 0.0020000001 150 0 0 0 0.04025
3.4189999 0.003 -0.001 150 0 0 0 0.040259998
3.414 0.013 -0.0049999999 150 0 0 0 0.040270001
3.418 0.024 -0.0089999996 151 0 0 0 0.040279999
3.4219999 0.034000002 -0.013 152 0 0 0 0.040290002
3.418 0.044 -0.017000001 152 0 0 0 0.0403
3.4260001 0.055 -0.021 152 0 0 0 0.040309999
3.415 0.064999998 -0.024 153 0 0 0 0.040320002
3.404 0.075000003 -0.028000001 153 0 0 0 0.04033
3.401 0.085000001 -0.032000002 153 0 0 0 0.040339999
3.398 0.096000001 -0.035999998 153 0 0 0 0.040350001
3.388 0.106 -0.039000001 154 0 0 0 0.04036
3.3840001 0.116 -0.043000001 154 0 0 0 0.040369999
3.3829999 0.126 -0.046 155 0 0 0 0.040380001
3.381 0.13699999 -0.050000001 155 0 0 0 0.04039
3.3670001 0.146 -0.052999999 156 0 0 0 0.040399998
3.3640001 0.15700001 -0.057 158 0 0 0 0.040410001
3.3599999 0.167 -0.059999999 158 0 0 0 0.04042
3.362 0.177 -0.064000003 159 0 0 0 0.040429998
3.3629999 0.18799999 -0.068000004 158 0 0 0 0.040440001
3.3629999 0.198 -0.071000002 159 0 0 0 0.040449999
3.3599999 0.208 -0.075000003 161 0 0 0 0.040460002
3.355 0.21799999 -0.078000002 161 0 0 0 0.04047
3.3570001 0.228 -0.081 160 0 0 0 0.040479999
3.3559999 0.23899999 -0.085000001 161 0 0 0 0.040490001
3.3559999 0.249 -0.088 161 0 0 0 0.0405
3.355 0.259 -0.092 161 0 0 0 0.040509999
3.3540001 0.27000001 -0.094999999 160 0 0 0 0.040520001
3.3540001 0.28 -0.097999997 161 0 0 0 0.04053
3.3499999 0.28999999 -0.102 161 0 0 0 0.040539999
3.3540001 0.301 -0.105 160 0 0 0 0.040550001
3.3499999 0.31099999 -0.108 160 0 0 0 0.04056
3.3559999 0.322 -0.112 158 0 0 0 0.040569998
3.355 0.33199999 -0.115 157 0 0 0 0.040580001
3.3540001 0.34200001 -0.118 157 0 0 0 0.040589999
3.362 0.354 -0.122 156 0 0 0 0.040600002
3.362 0.36399999 -0.125 155 0 0 0 0.04061
3.3599999 0.37400001 -0.12800001 155 0 0 0 0.040619999
3.375 0.38600001 -0.132 154 0 0 0 0.040630002
3.3729999 0.39700001 -0.13500001 154 0 0 0 0.04064
3.375 0.40799999 -0.138 154 0 0 0 0.040649999
3.3889999 0.41999999 -0.142 152 0 0 0 0.040660001
3.392 0.43099999 -0.145 152 0 0 0 0.04067
3.3859999 0.44100001 -0.148 152 0 0 0 0.040679999
3.3900001 0.45199999 -0.152 152 0 0 0 0.040690001
3.3859999 0.46200001 -0.155 151 0 0 0 0.0407
3.385 0.47299999 -0.15800001 151 0 0 0 0.040709998
3.3829999 0.48300001 -0.161 151 0 0 0 0.040720001
3.3789999 0.493 -0.163 151 0 0 0 0.04073
3.385 0.505 -0.167 153 0 0 0 0.040739998
3.3469999 0.50999999 -0.168 151 0 0 0 0.040750001
3.3180001 0.51599997 -0.169 151 0 0 0 0.040759999
3.3199999 0.52700001 -0.17200001 152 0 0 0 0.040770002
3.2950001 0.53299999 -0.17399999 150 0 0 0 0.04078
3.2839999 0.542 -0.176 152 0 0 0 0.040789999
3.2820001 0.55199999 -0.17900001 152 0 0 0 0.040800001
3.283 0.56300002 -0.182 152 0 0 0 0.04081
3.2820001 0.57300001 -0.184 151 0 0 0 0.040819999
3.2550001 0.579 -0.186 25 0 0 0 0.040830001
3.2049999 0.57999998 -0.185 23 0 0 0 0.04084
3.125 0.57499999 -0.183 24 0 0 0 0.040849999
3.069 0.57499999 -0.183 24 0 0 0 0.040860001
2.993 0.56999999 -0.18099999 24 0 0 0 0.04087
2.918 0.565 -0.178 24 0 0 0 0.040879998
2.8640001 0.56400001 -0.177 25 0 0 0 0.040890001
2.777 0.55599999 -0.17399999 24 0 0 0 0.040899999
2.664 0.542 -0.169 21 0 0 0 0.040910002
2.586 0.53399998 -0.16599999 20 0 0 0 0.040920001
2.516 0.528 -0.164 18 0 0 0 0.040929999
2.46 0.52399999 -0.162 17 0 0 0 0.040940002
2.4070001 0.52100003 -0.16 18 0 0 0 0.04095
2.352 0.51700002 -0.15800001 18 0 0 0 0.040959999
2.2739999 0.50700003 -0.155 116 0 0 0 0.040970001
2.2550001 0.50999999 -0.155 151 0 0 0 0.04098
2.243 0.514 -0.156 151 0 0 0 0.040989999
2.247 0.523 -0.15800001 151 0 0 0 0.041000001
2.2309999 0.52600002 -0.15800001 150 0 0 0 0.04101
2.2279999 0.53299999 -0.16 151 0 0 0 0.041019998
2.227 0.54000002 -0.161 150 0 0 0 0.041030001
2.224 0.54699999 -0.163 151 0 0 0 0.04104
2.224 0.55400002 -0.164 151 0 0 0 0.041049998
2.223 0.56099999 -0.16599999 151 0 0 0 0.041060001
2.22 0.56699997 -0.167 150 0 0 0 0.041069999
2.2190001 0.574 -0.168 151 0 0 0 0.041080002
2.2249999 0.583 -0.17 150 0 0 0 0.04109
2.2290001 0.59200001 -0.17200001 151 0 0 0 0.041099999
2.23 0.59899998 -0.17399999 151 0 0 0 0.041110002
2.233 0.60699999 -0.175 151 0 0 0 0.04112
2.2260001 0.61299998 -0.176 151 0 0 0 0.041129999
2.227 0.62 -0.178 151 0 0 0 0.041140001
2.233 0.63 -0.17900001 151 0 0 0 0.04115
2.296 0.65499997 -0.186 150 0 0 0 0.041159999
2.477 0.71499997 -0.20200001 150 0 0 0 0.041170001
2.484 0.72500002 -0.204 150 0 0 0 0.04118
2.4809999 0.73299998 -0.205 150 0 0 0 0.041189998
2.4809999 0.741 -0.207 150 0 0 0 0.041200001
2.3940001 0.72299999 -0.20100001 150 0 0 0 0.041209999
2.2880001 0.699 -0.193 150 0 0 0 0.041219998
1.4960001 0.46200001 -0.127 10 0 0 0 0.041230001
1.471 0.45899999 -0.126 1 0 0 0 0.041239999
1.452 0.458 -0.125 1 0 0 0 0.041250002
1.4349999 0.45699999 -0.124 1 0 0 0 0.04126
1.4220001 0.458 -0.124 1 0 0 0 0.041269999
1.396 0.454 -0.122 3 0 0 0 0.041280001
1.367 0.449 -0.12 3 0 0 0 0.04129
1.342 0.44600001 -0.119 3 0 0 0 0.041299999
1.34 0.449 -0.119 5 0 0 0 0.041310001
1.316 0.44600001 -0.117 33 0 0 0 0.04132
1.299 0.44499999 -0.117 127 0 0 0 0.041329999
1.291 0.44600001 -0.116 150 0 0 0 0.041340001
1.291 0.44999999 -0.117 150 0 0 0 0.04135
1.291 0.45500001 -0.118 150 0 0 0 0.041359998
1.29 0.45899999 -0.118 150 0 0 0 0.041370001
1.289 0.463 -0.118 150 0 0 0 0.041379999
1.29 0.46799999 -0.119 150 0 0 0 0.041390002
1.2869999 0.47099999 -0.119 150 0 0 0 0.0414
1.288 0.47600001 -0.12 150 0 0 0 0.041409999
1.285 0.479 -0.12 150 0 0 0 0.041420002
1.286 0.484 -0.12 150 0 0 0 0.04143
1.296 0.49200001 -0.122 58 0 0 0 0.041439999
1.288 0.493 -0.121 9 0 0 0 0.041450001
1.253 0.484 -0.119 0 0 0 0 0.04146
1.2359999 0.48199999 -0.117 4 0 0 0 0.041469999
3.3169999 1.304 -0.317 3 0 0 0 0.041480001
3.302 1.3099999 -0.31600001 4 0 0 0 0.04149
3.3099999 1.324 -0.31799999 5 0 0 0 0.041499998
3.3099999 1.335 -0.31900001 3 0 0 0 0.041510001
3.2980001 1.342 -0.31799999 2 0 0 0 0.04152
3.27 1.341 -0.31600001 2 0 0 0 0.041529998
3.2750001 1.355 -0.31799999 3 0 0 0 0.041540001
3.2539999 1.357 -0.31600001 3 0 0 0 0.041549999
3.2650001 1.373 -0.31799999 3 0 0 0 0.041560002
3.2309999 1.37 -0.315 2 0 0 0 0.04157
3.2279999 1.3789999 -0.315 3 0 0 0 0.041579999
3.2130001 1.3839999 -0.31400001 4 0 0 0 0.041590001
3.2079999 1.393 -0.31400001 4 0 0 0 0.0416
3.2260001 1.411 -0.317 2 0 0 0 0.041609999
3.1900001 1.406 -0.31299999 1 0 0 0 0.041620001
3.154 1.401 -0.31 0 0 0 0 0.04163
3.1199999 1.397 -0.30700001 1 0 0 0 0.041639999
3.112 1.404 -0.30599999 2 0 0 0 0.041650001
3.1110001 1.414 -0.30700001 2 0 0 0 0.04166
3.1159999 1.426 -0.30700001 3 0 0 0 0.041669998
3.1259999 1.442 -0.308 3 0 0 0 0.041680001
3.1210001 1.45 -0.308 3 0 0 0 0.041689999
3.1029999 1.452 -0.30599999 3 0 0 0 0.041700002
3.1029999 1.4630001 -0.30599999 2 0 0 0 0.04171
3.073 1.459 -0.303 2 0 0 0 0.041719999
3.0680001 1.467 -0.303 2 0 0 0 0.041730002
3.076 1.4809999 -0.303 2 0 0 0 0.04174
3.072 1.489 -0.303 2 0 0 0 0.041749999
3.0639999 1.495 -0.30199999 2 0 0 0 0.041760001
3.0510001 1.499 -0.30000001 2 0 0 0 0.04177
3.1110001 1.539 -0.30599999 1 0 0 0 0.041779999
0.91500002 0.456 -0.089000002 0 0 0 0 0.041790001
0.91299999 0.458 -0.089000002 3 0 0 0 0.0418
0.91900003 0.46399999 -0.090000004 5 0 0 0 0.041809998
0.91299999 0.463 -0.089000002 6 0 0 0 0.041820001
0.91100001 0.46599999 -0.088 5 0 0 0 0.04183
0.92000002 0.47299999 -0.089000002 5 0 0 0 0.041839998
0.91399997 0.47299999 -0.088 3 0 0 0 0.041850001
1.248 0.64999998 -0.12 5 0 0 0 0.041859999
1.3559999 0.71100003 -0.131 3 0 0 0 0.041870002
3.201 1.689 -0.308 3 0 0 0 0.04188
0 0 0 0 0 0 0 0.041889999
0 0 0 0 0 0 0 0.041900001
0 0 0 0 0 0 0 0.04191
0 0 0 0 0 0 0 0.041919999
0 0 0 0 0 0 0 0.041930001
0 0 0 0 0 0 0 0.04194
0 0 0 0 0 0 0 0.041949999
3.2390001 1.791 -0.303 8 0 0 0 0.041960001
3.2479999 1.807 -0.30199999 5 0 0 0 0.04197
3.2320001 1.808 -0.29899999 3 0 0 0 0.041979998
0 0 0 0 0 0 0 0.041990001
3.3180001 1.877 -0.30399999 1 0 0 0 0.041999999
3.257 1.852 -0.29699999 5 0 0 0 0.042010002
3.26 1.864 -0.296 10 0 0 0 0.042020001
3.2639999 1.876 -0.294 14 0 0 0 0.042029999
3.2609999 1.8839999 -0.292 11 0 0 0 0.042040002
3.2460001 1.885 -0.289 6 0 0 0 0.04205
3.221 1.88 -0.285 3 0 0 0 0.042059999
0 0 0 0 0 0 0 0.042070001
1.104 0.65100002 -0.096000001 1 0 0 0 0.04208
1.0779999 0.63800001 -0.093000002 1 0 0 0 0.042089999
1.077 0.64099997 -0.092 2 0 0 0 0.042100001
1.076 0.64399999 -0.092 5 0 0 0 0.04211
1.079 0.648 -0.090999998 2 0 0 0 0.042119998
1.0779999 0.65100002 -0.090000004 1 0 0 0 0.042130001
0 0 0 0 0 0 0 0.04214
3.0799999 1.877 -0.255 4 0 0 0 0.042149998
3.1889999 1.952 -0.26100001 3 0 0 0 0.042160001
1.189 0.73100001 -0.096000001 0 0 0 0 0.042169999
3.214 1.985 -0.25799999 12 0 0 0 0.042180002
3.217 1.995 -0.25600001 14 0 0 0 0.04219
3.2160001 2.003 -0.25299999 14 0 0 0 0.042199999
3.2149999 2.0109999 -0.25099999 12 0 0 0 0.042210001
3.2219999 2.023 -0.248 8 0 0 0 0.04222
0 0 0 0 0 0 0 0.042229999
0 0 0 0 0 0 0 0.042240001
0 0 0 0 0 0 0 0.04225
0 0 0 0 0 0 0 0.042259999
3.181 2.0369999 -0.23100001 1 0 0 0 0.042270001
0 0 0 0 0 0 0 0.04228
3.237 2.0880001 -0.229 0 0 0 0 0.042289998
3.1960001 2.069 -0.223 1 0 0 0 0.042300001
3.1659999 2.056 -0.21799999 1 0 0 0 0.042309999
0 0 0 0 0 0 0 0.042319998
1.5 0.98100001 -0.1 11 0 0 0 0.042330001
1.498 0.98299998 -0.097999997 10 0 0 0 0.042339999
1.497 0.98500001 -0.096000001 10 0 0 0 0.042350002
1.489 0.98299998 -0.093999997 10 0 0 0 0.04236
1.4809999 0.98100001 -0.092 10 0 0 0 0.042369999
1.474 0.97899997 -0.090000004 11 0 0 0 0.042380001
1.47 0.97899997 -0.088 11 0 0 0 0.04239
1.471 0.98299998 -0.086999997 11 0 0 0 0.042399999
1.461 0.97899997 -0.083999999 10 0 0 0 0.042410001
1.533 1.03 -0.086999997 15 0 0 0 0.04242
1.5140001 1.02 -0.083999999 13 0 0 0 0.042429999
1.401 0.94599998 -0.075999998 3 0 0 0 0.042440001
1.464 0.99199998 -0.078000002 1 0 0 0 0.04245
1.424 0.96600002 -0.074000001 1 0 0 0 0.042459998
1.4349999 0.97600001 -0.072999999 2 0 0 0 0.042470001
1.434 0.97799999 -0.071000002 5 0 0 0 0.042479999
1.4349999 0.98100001 -0.068999998 9 0 0 0 0.042490002
1.428 0.97799999 -0.067000002 10 0 0 0 0.0425
1.431 0.98199999 -0.064999998 9 0 0 0 0.042509999
1.426 0.98000002 -0.063000001 7 0 0 0 0.042520002
1.424 0.98100001 -0.061000001 4 0 0 0 0.04253
1.4119999 0.97399998 -0.059 2 0 0 0 0.042539999
1.482 1.025 -0.059999999 1 0 0 0 0.042550001
1.396 0.96700001 -0.055 0 0 0 0 0.04256
0 0 0 0 0 0 0 0.042569999
0 0 0 0 0 0 0 0.042580001
1.302 0.90600002 -0.046 0 0 0 0 0.04259
1.403 0.977 -0.046999998 0 0 0 0 0.042599998
0 0 0 0 0 0 0 0.042610001
0 0 0 0 0 0 0 0.042619999
0 0 0 0 0 0 0 0.042629998
0 0 0 0 0 0 0 0.042640001
1.36 0.95300001 -0.037 0 0 0 0 0.042649999
1.382 0.96899998 -0.035 0 0 0 0 0.042660002
1.408 0.98799998 -0.034000002 0 0 0 0 0.04267
1.399 0.98299998 -0.032000002 0 0 0 0 0.042679999
1.428 1.0039999 -0.030999999 0 0 0 0 0.042690001
1.399 0.98400003 -0.028000001 0 0 0 0 0.0427
1.3940001 0.98100001 -0.026000001 0 0 0 0 0.042709999
1.368 0.963 -0.023 0 0 0 0 0.042720001
1.3609999 0.958 -0.021 0 0 0 0 0.04273
1.341 0.94499999 -0.018999999 0 0 0 0 0.042739999
1.373 0.96700001 -0.017999999 0 0 0 0 0.042750001
1.373 0.96700001 -0.016000001 0 0 0 0 0.04276
1.382 0.97399998 -0.014 0 0 0 0 0.042769998
1.3839999 0.97500002 -0.012 0 0 0 0 0.042780001
1.374 0.96799999 -0.0099999998 0 0 0 0 0.042789999
1.373 0.96700001 -0.0080000004 1 0 0 0 0.042800002
1.393 0.98100001 -0.0060000001 1 0 0 0 0.04281
1.3660001 0.96100003 -0.0040000002 3 0 0 0 0.042819999
1.3710001 0.96499997 -0.0020000001 7 0 0 0 0.042830002
1.37 0.963 0 9 0 0 0 0.04284
1.368 0.96200001 0.001 10 0 0 0 0.042849999
1.364 0.958 0.003 10 0 0 0 0.042860001
1.349 0.94700003 0.0049999999 11 0 0 0 0.04287
1.344 0.94199997 0.0060000001 11 0 0 0 0.042879999
1.35 0.94599998 0.0080000004 12 0 0 0 0.042890001
1.35 0.94499999 0.0099999998 12 0 0 0 0.0429
1.36 0.95099998 0.012 12 0 0 0 0.042909998
1.374 0.95999998 0.014 13 0 0 0 0.042920001
1.386 0.96700001 0.016000001 13 0 0 0 0.04293
1.3890001 0.96799999 0.017999999 12 0 0 0 0.042939998
1.401 0.97399998 0.02 12 0 0 0 0.042950001
1.399 0.972 0.022 12 0 0 0 0.042959999
1.399 0.97000003 0.024 11 0 0 0 0.042970002
0 0 0 0 0 0 0 0.04298
1.38 0.954 0.028000001 9 0 0 0 0.042989999
1.425 0.98299998 0.029999999 1 0 0 0 0.043000001
1.408 0.97000003 0.032000002 0 0 0 0 0.04301
1.393 0.958 0.033 0 0 0 0 0.043019999
1.406 0.96499997 0.035999998 0 0 0 0 0.043030001
1.4 0.95899999 0.037 0 0 0 0 0.04304
1.399 0.95599997 0.039000001 0 0 0 0 0.043049999
1.419 0.96799999 0.041000001 0 0 0 0 0.043060001
1.434 0.97600001 0.044 0 0 0 0 0.04307
1.425 0.96700001 0.045000002 0 0 0 0 0.043079998
1.424 0.96399999 0.046999998 0 0 0 0 0.043090001
1.428 0.96499997 0.048999999 0 0 0 0 0.043099999
1.438 0.96799999 0.050999999 0 0 0 0 0.043110002
1.549 1.04 0.057 0 0 0 0 0.043120001
1.498 1.0039999 0.057 0 0 0 0 0.043129999
1.477 0.98699999 0.057999998 0 0 0 0 0.043140002
0 0 0 0 0 0 0 0.04315
0 0 0 0 0 0 0 0.043159999
1.413 0.935 0.059999999 0 0 0 0 0.043170001
1.535 1.013 0.067000002 0 0 0 0 0.04318
1.461 0.96100003 0.064999998 0 0 0 0 0.043189999
1.475 0.96700001 0.068000004 0 0 0 0 0.043200001
1.479 0.96700001 0.068999998 0 0 0 0 0.04321
1.5470001 1.008 0.074000001 0 0 0 0 0.043219998
