# .PCD v0.7 - Point Cloud Data file format
VERSION 0.7
FIELDS x y z intensity normal_x normal_y normal_z curvature
SIZE 4 4 4 4 4 4 4 4
TYPE F F F F F F F F
COUNT 1 1 1 1 1 1 1 1
WIDTH 1034
HEIGHT 1
VIEWPOINT 0 0 0 1 0 0 0
POINTS 1034
DATA ascii
3.4070001 0.142 -0.57499999 150 0 0 0 0.061799999
3.405 0.145 -0.58499998 150 0 0 0 0.061810002
3.4030001 0.149 -0.59600002 150 0 0 0 0.06182
3.405 0.152 -0.60699999 150 0 0 0 0.061829999
3.4030001 0.155 -0.61699998 150 0 0 0 0.061840001
3.4030001 0.15899999 -0.62800002 150 0 0 0 0.06185
3.402 0.162 -0.639 150 0 0 0 0.061859999
3.402 0.16500001 -0.64899999 150 0 0 0 0.061870001
3.404 0.169 -0.66000003 150 0 0 0 0.06188
3.404 0.17200001 -0.671 150 0 0 0 0.061889999
3.401 0.176 -0.68099999 150 0 0 0 0.061900001
3.3989999 0.17900001 -0.69199997 150 0 0 0 0.06191
3.4030001 0.183 -0.70300001 150 0 0 0 0.061919998
3.398 0.186 -0.713 150 0 0 0 0.061930001
3.398 0.19 -0.72399998 150 0 0 0 0.061939999
3.3989999 0.193 -0.73400003 150 0 0 0 0.061949998
3.401 0.197 -0.74599999 150 0 0 0 0.061960001
3.3940001 0.2 -0.755 150 0 0 0 0.061969999
3.398 0.204 -0.76599997 150 0 0 0 0.061980002
3.3959999 0.208 -0.77700001 150 0 0 0 0.06199
3.3970001 0.212 -0.78799999 150 0 0 0 0.061999999
3.3940001 0.215 -0.79799998 150 0 0 0 0.062010001
3.3940001 0.219 -0.80800003 150 0 0 0 0.06202
3.398 0.223 -0.81999999 150 0 0 0 0.062029999
3.392 0.226 -0.829 150 0 0 0 0.062040001
3.3940001 0.23 -0.83999997 144 0 0 0 0.06205
3.3959999 0.235 -0.852 29 0 0 0 0.062059999
3.3659999 0.236 -0.85500002 19 0 0 0 0.062070001
3.3269999 0.23800001 -0.85500002 25 0 0 0 0.06208
3.2909999 0.23899999 -0.85600001 27 0 0 0 0.062089998
3.2490001 0.23999999 -0.85600001 27 0 0 0 0.062100001
3.207 0.23999999 -0.85500002 27 0 0 0 0.062109999
3.1700001 0.241 -0.85500002 26 0 0 0 0.062120002
3.132 0.242 -0.85399997 26 0 0 0 0.06213
3.1040001 0.244 -0.85699999 27 0 0 0 0.062139999
3.075 0.245 -0.85799998 27 0 0 0 0.062150002
3.0380001 0.24600001 -0.85699999 30 0 0 0 0.06216
2.994 0.24600001 -0.85399997 29 0 0 0 0.062169999
2.96 0.24699999 -0.85399997 28 0 0 0 0.062180001
2.9230001 0.248 -0.85299999 27 0 0 0 0.06219
2.8859999 0.248 -0.85100001 27 0 0 0 0.062199999
2.8529999 0.249 -0.85000002 27 0 0 0 0.062210001
2.819 0.25 -0.84899998 28 0 0 0 0.06222
2.7909999 0.25099999 -0.84899998 25 0 0 0 0.062229998
2.7650001 0.252 -0.85000002 26 0 0 0 0.062240001
2.7360001 0.25299999 -0.84899998 27 0 0 0 0.062249999
2.7179999 0.255 -0.852 28 0 0 0 0.062259998
2.687 0.25600001 -0.85100001 28 0 0 0 0.062270001
2.6530001 0.25600001 -0.84799999 27 0 0 0 0.062279999
2.6270001 0.257 -0.84799999 27 0 0 0 0.062290002
2.5999999 0.25799999 -0.84799999 26 0 0 0 0.0623
2.575 0.259 -0.84799999 26 0 0 0 0.062309999
2.546 0.25999999 -0.84600002 25 0 0 0 0.062320001
2.5209999 0.26100001 -0.84500003 25 0 0 0 0.06233
2.4920001 0.26100001 -0.84299999 25 0 0 0 0.062339999
2.4679999 0.26199999 -0.84299999 24 0 0 0 0.062350001
2.448 0.26300001 -0.84399998 24 0 0 0 0.06236
2.4219999 0.264 -0.84200001 25 0 0 0 0.062369999
2.404 0.266 -0.84299999 25 0 0 0 0.062380001
2.382 0.26699999 -0.84299999 25 0 0 0 0.06239
2.362 0.26800001 -0.84299999 26 0 0 0 0.062399998
2.342 0.26899999 -0.84299999 25 0 0 0 0.062410001
2.3269999 0.271 -0.84500003 26 0 0 0 0.062419999
2.299 0.271 -0.84200001 25 0 0 0 0.062430002
2.2850001 0.273 -0.84399998 26 0 0 0 0.06244
2.267 0.27399999 -0.84399998 25 0 0 0 0.062449999
2.2409999 0.27399999 -0.84100002 25 0 0 0 0.062460002
2.23 0.27599999 -0.84399998 26 0 0 0 0.06247
2.2119999 0.278 -0.84399998 26 0 0 0 0.062479999
2.1900001 0.278 -0.84200001 26 0 0 0 0.062490001
2.1670001 0.27900001 -0.83999997 25 0 0 0 0.0625
2.1570001 0.28099999 -0.84200001 26 0 0 0 0.062509999
2.1370001 0.28200001 -0.84100002 28 0 0 0 0.062519997
2.1199999 0.28299999 -0.84100002 24 0 0 0 0.062530003
2.1070001 0.28400001 -0.84200001 24 0 0 0 0.062540002
2.089 0.285 -0.84100002 25 0 0 0 0.062550001
2.0710001 0.28600001 -0.83999997 26 0 0 0 0.06256
2.0569999 0.28799999 -0.83999997 26 0 0 0 0.062569998
2.039 0.289 -0.83899999 26 0 0 0 0.062579997
2.0309999 0.29100001 -0.84200001 27 0 0 0 0.062590003
2.013 0.29100001 -0.83999997 27 0 0 0 0.062600002
1.999 0.29300001 -0.84100002 28 0 0 0 0.06261
1.987 0.294 -0.84100002 29 0 0 0 0.062619999
1.972 0.296 -0.84100002 29 0 0 0 0.062629998
1.957 0.29699999 -0.83999997 28 0 0 0 0.062639996
1.943 0.29800001 -0.83999997 28 0 0 0 0.062650003
1.932 0.30000001 -0.84100002 29 0 0 0 0.062660001
1.916 0.30000001 -0.83899999 29 0 0 0 0.06267
1.902 0.30199999 -0.83899999 29 0 0 0 0.062679999
1.8890001 0.303 -0.838 29 0 0 0 0.062689997
1.878 0.30399999 -0.83899999 30 0 0 0 0.062700003
1.872 0.30700001 -0.84200001 30 0 0 0 0.062710002
1.8559999 0.308 -0.83999997 30 0 0 0 0.062720001
1.842 0.30899999 -0.83899999 31 0 0 0 0.062729999
1.8329999 0.31 -0.83999997 31 0 0 0 0.062739998
1.824 0.31200001 -0.84100002 34 0 0 0 0.062749997
1.812 0.31299999 -0.84100002 34 0 0 0 0.062760003
1.798 0.31400001 -0.83899999 36 0 0 0 0.062770002
1.79 0.31600001 -0.83999997 32 0 0 0 0.06278
1.777 0.317 -0.83899999 31 0 0 0 0.062789999
1.7640001 0.31799999 -0.83700001 29 0 0 0 0.062799998
1.757 0.31999999 -0.83899999 34 0 0 0 0.062809996
1.747 0.322 -0.83899999 38 0 0 0 0.062820002
1.7359999 0.32300001 -0.838 41 0 0 0 0.062830001
1.728 0.32499999 -0.83899999 43 0 0 0 0.06284
1.717 0.32600001 -0.838 42 0 0 0 0.062849998
1.7079999 0.32800001 -0.83899999 44 0 0 0 0.062859997
1.701 0.329 -0.83999997 45 0 0 0 0.062870003
1.688 0.33000001 -0.838 44 0 0 0 0.062880002
1.681 0.33199999 -0.838 46 0 0 0 0.062890001
1.671 0.333 -0.838 47 0 0 0 0.062899999
1.6670001 0.336 -0.83999997 46 0 0 0 0.062909998
1.656 0.33700001 -0.83899999 46 0 0 0 0.062919997
1.646 0.338 -0.838 44 0 0 0 0.062930003
1.636 0.33899999 -0.83700001 49 0 0 0 0.062940001
1.625 0.34 -0.83499998 47 0 0 0 0.06295
1.6210001 0.34299999 -0.83700001 48 0 0 0 0.062959999
1.612 0.34400001 -0.83700001 50 0 0 0 0.062969998
1.614 0.34799999 -0.84200001 13 0 0 0 0.062980004
1.609 0.34999999 -0.84299999 13 0 0 0 0.062990002
1.603 0.352 -0.84399998 13 0 0 0 0.063000001
1.592 0.35299999 -0.84200001 13 0 0 0 0.06301
1.58 0.35299999 -0.83899999 13 0 0 0 0.063019998
1.5779999 0.35600001 -0.84100002 13 0 0 0 0.063029997
1.573 0.35800001 -0.84299999 13 0 0 0 0.063040003
1.571 0.361 -0.84500003 13 0 0 0 0.063050002
1.562 0.36199999 -0.84299999 13 0 0 0 0.063060001
1.548 0.36199999 -0.83899999 13 0 0 0 0.063069999
1.5470001 0.36500001 -0.84299999 13 0 0 0 0.063079998
1.539 0.366 -0.84200001 13 0 0 0 0.063089997
1.533 0.368 -0.84100002 13 0 0 0 0.063100003
1.531 0.37099999 -0.84399998 13 0 0 0 0.063110001
1.525 0.37200001 -0.84299999 13 0 0 0 0.06312
1.512 0.37200001 -0.83899999 13 0 0 0 0.063129999
1.511 0.375 -0.84100002 13 0 0 0 0.063139997
1.495 0.37400001 -0.83600003 13 0 0 0 0.063150004
1.492 0.377 -0.83700001 13 0 0 0 0.063160002
1.489 0.37900001 -0.838 13 0 0 0 0.063170001
1.478 0.37900001 -0.83499998 12 0 0 0 0.06318
1.476 0.382 -0.83700001 12 0 0 0 0.063189998
1.474 0.384 -0.838 12 0 0 0 0.063199997
1.47 0.38600001 -0.838 12 0 0 0 0.063210003
1.467 0.38800001 -0.83899999 12 0 0 0 0.063220002
1.461 0.38999999 -0.838 12 0 0 0 0.06323
1.4579999 0.39199999 -0.83899999 13 0 0 0 0.063239999
1.455 0.39399999 -0.83999997 12 0 0 0 0.063249998
1.451 0.396 -0.83999997 12 0 0 0 0.063259996
1.443 0.39700001 -0.838 13 0 0 0 0.063270003
1.443 0.40000001 -0.83999997 13 0 0 0 0.063280001
1.436 0.40099999 -0.838 12 0 0 0 0.06329
1.4349999 0.40400001 -0.83999997 12 0 0 0 0.063299999
1.431 0.40599999 -0.83899999 11 0 0 0 0.063309997
1.427 0.40700001 -0.838 24 0 0 0 0.063320003
1.4220001 0.40900001 -0.838 28 0 0 0 0.063330002
1.4220001 0.412 -0.83999997 21 0 0 0 0.063340001
1.419 0.414 -0.83999997 21 0 0 0 0.063349999
1.4069999 0.41299999 -0.83399999 55 0 0 0 0.063359998
1.4119999 0.417 -0.83899999 24 0 0 0 0.063369997
1.401 0.417 -0.83399999 64 0 0 0 0.063380003
1.4069999 0.421 -0.83899999 23 0 0 0 0.063390002
1.392 0.41999999 -0.83200002 62 0 0 0 0.0634
1.3890001 0.421 -0.83099997 67 0 0 0 0.063409999
1.388 0.42399999 -0.83200002 61 0 0 0 0.063419998
1.386 0.426 -0.83200002 67 0 0 0 0.063429996
1.385 0.428 -0.833 62 0 0 0 0.063440003
1.383 0.43000001 -0.833 64 0 0 0 0.063450001
1.38 0.43200001 -0.83200002 58 0 0 0 0.06346
1.3789999 0.43399999 -0.83200002 44 0 0 0 0.063469999
1.376 0.43599999 -0.83099997 26 0 0 0 0.063479997
1.374 0.43799999 -0.83099997 18 0 0 0 0.063490003
1.3789999 0.442 -0.83499998 15 0 0 0 0.063500002
1.375 0.44299999 -0.83399999 12 0 0 0 0.063510001
1.374 0.44600001 -0.83399999 10 0 0 0 0.063519999
1.3710001 0.447 -0.833 9 0 0 0 0.063529998
1.36 0.44600001 -0.82700002 9 0 0 0 0.063539997
1.345 0.44299999 -0.81800002 9 0 0 0 0.063550003
1.313 0.435 -0.79900002 12 0 0 0 0.063560002
1.299 0.433 -0.79100001 29 0 0 0 0.06357
1.291 0.43200001 -0.78600001 91 0 0 0 0.063579999
1.289 0.43399999 -0.78500003 150 0 0 0 0.063589998
1.2869999 0.435 -0.78399998 150 0 0 0 0.063600004
1.285 0.43700001 -0.78299999 150 0 0 0 0.063610002
1.281 0.43700001 -0.77999997 150 0 0 0 0.063620001
1.28 0.43900001 -0.77999997 150 0 0 0 0.06363
1.275 0.43900001 -0.77700001 150 0 0 0 0.063639998
1.275 0.44100001 -0.77600002 150 0 0 0 0.063649997
1.279 0.44499999 -0.77899998 150 0 0 0 0.063660003
1.274 0.44499999 -0.77499998 150 0 0 0 0.063670002
1.278 0.44800001 -0.778 150 0 0 0 0.063680001
1.274 0.44800001 -0.77499998 150 0 0 0 0.063689999
1.274 0.44999999 -0.77399999 150 0 0 0 0.063699998
1.274 0.45199999 -0.77399999 150 0 0 0 0.063709997
1.273 0.454 -0.773 150 0 0 0 0.063720003
1.273 0.45500001 -0.77200001 150 0 0 0 0.063730001
1.272 0.45699999 -0.77100003 150 0 0 0 0.06374
1.273 0.45899999 -0.77100003 150 0 0 0 0.063749999
1.272 0.46000001 -0.76899999 150 0 0 0 0.063759997
1.277 0.463 -0.77100003 150 0 0 0 0.063770004
1.277 0.465 -0.76999998 150 0 0 0 0.063780002
1.273 0.465 -0.76700002 150 0 0 0 0.063790001
1.273 0.46700001 -0.76599997 150 0 0 0 0.0638
1.272 0.46799999 -0.764 150 0 0 0 0.063809998
1.273 0.46900001 -0.764 150 0 0 0 0.063819997
1.273 0.47099999 -0.76200002 150 0 0 0 0.063830003
1.274 0.472 -0.76099998 150 0 0 0 0.063840002
1.274 0.47400001 -0.75999999 150 0 0 0 0.063850001
1.273 0.47499999 -0.75800002 150 0 0 0 0.063859999
1.274 0.47600001 -0.75800002 150 0 0 0 0.063869998
1.274 0.477 -0.75599998 150 0 0 0 0.063879997
1.274 0.47799999 -0.75400001 150 0 0 0 0.063890003
1.275 0.47999999 -0.75300002 150 0 0 0 0.063900001
1.275 0.48100001 -0.75199997 150 0 0 0 0.06391
1.275 0.48199999 -0.75 150 0 0 0 0.063919999
1.276 0.48300001 -0.74900001 150 0 0 0 0.063929997
1.276 0.484 -0.74699998 150 0 0 0 0.063940004
1.277 0.48500001 -0.745 150 0 0 0 0.063950002
1.278 0.486 -0.74400002 150 0 0 0 0.063960001
1.271 0.48500001 -0.73799998 150 0 0 0 0.06397
1.272 0.486 -0.736 150 0 0 0 0.063979998
1.273 0.48699999 -0.73500001 150 0 0 0 0.063989997
1.274 0.48800001 -0.73299998 150 0 0 0 0.064000003
1.273 0.48800001 -0.73100001 150 0 0 0 0.064010002
1.275 0.48899999 -0.72899997 150 0 0 0 0.06402
1.273 0.48899999 -0.72600001 150 0 0 0 0.064029999
1.274 0.49000001 -0.72399998 150 0 0 0 0.064039998
1.275 0.491 -0.722 150 0 0 0 0.064049996
1.273 0.491 -0.71899998 150 0 0 0 0.064060003
1.274 0.491 -0.71700001 150 0 0 0 0.064070001
1.27 0.49000001 -0.71200001 150 0 0 0 0.06408
1.266 0.48899999 -0.70700002 150 0 0 0 0.064089999
1.278 0.49399999 -0.71100003 150 0 0 0 0.064099997
1.275 0.493 -0.70700002 150 0 0 0 0.064110003
1.2690001 0.49000001 -0.70099998 116 0 0 0 0.064120002
1.257 0.486 -0.69099998 90 0 0 0 0.064130001
1.238 0.479 -0.67799997 60 0 0 0 0.064139999
1.205 0.46599999 -0.65799999 46 0 0 0 0.064149998
1.1950001 0.46200001 -0.64899999 44 0 0 0 0.064159997
1.192 0.461 -0.64499998 75 0 0 0 0.064170003
1.189 0.45899999 -0.63999999 73 0 0 0 0.064180002
1.198 0.463 -0.64300001 71 0 0 0 0.06419
1.194 0.461 -0.63800001 150 0 0 0 0.064199999
1.204 0.465 -0.63999999 150 0 0 0 0.064209998
1.2180001 0.47 -0.64499998 70 0 0 0 0.064219996
1.222 0.47099999 -0.64399999 19 0 0 0 0.064230002
1.226 0.47299999 -0.64300001 16 0 0 0 0.064240001
1.232 0.47400001 -0.64300001 18 0 0 0 0.06425
1.2359999 0.47499999 -0.64200002 19 0 0 0 0.064259999
1.239 0.47600001 -0.64099997 20 0 0 0 0.064269997
1.247 0.479 -0.64099997 24 0 0 0 0.064280003
1.248 0.47799999 -0.639 23 0 0 0 0.064290002
1.25 0.479 -0.63599998 22 0 0 0 0.064300001
1.253 0.479 -0.63499999 23 0 0 0 0.064309999
1.258 0.47999999 -0.634 11 0 0 0 0.064319998
1.267 0.48300001 -0.63499999 12 0 0 0 0.064329997
1.273 0.48500001 -0.63499999 13 0 0 0 0.064340003
1.281 0.48699999 -0.63499999 14 0 0 0 0.064350002
1.279 0.48500001 -0.63099998 15 0 0 0 0.06436
1.2819999 0.486 -0.62900001 17 0 0 0 0.064369999
1.283 0.48500001 -0.62599999 21 0 0 0 0.064379998
1.286 0.48500001 -0.62400001 33 0 0 0 0.064390004
1.28 0.48199999 -0.61799997 48 0 0 0 0.064400002
1.279 0.48100001 -0.61400002 110 0 0 0 0.064410001
1.284 0.48100001 -0.61199999 150 0 0 0 0.06442
1.278 0.47799999 -0.60600001 150 0 0 0 0.064429998
1.276 0.47600001 -0.60100001 150 0 0 0 0.064439997
1.28 0.47600001 -0.59899998 150 0 0 0 0.064450003
1.273 0.47299999 -0.59299999 150 0 0 0 0.064460002
1.275 0.472 -0.58999997 150 0 0 0 0.064470001
1.277 0.472 -0.58700001 150 0 0 0 0.064479999
1.278 0.47099999 -0.58399999 150 0 0 0 0.064489998
1.278 0.47 -0.57999998 150 0 0 0 0.064499997
1.279 0.46900001 -0.57700002 150 0 0 0 0.064510003
1.279 0.46700001 -0.57300001 150 0 0 0 0.064520001
1.277 0.465 -0.56900001 150 0 0 0 0.06453
1.278 0.46399999 -0.565 150 0 0 0 0.064539999
1.28 0.463 -0.56300002 150 0 0 0 0.064549997
1.2819999 0.463 -0.56 150 0 0 0 0.064560004
1.279 0.46000001 -0.55500001 150 0 0 0 0.064570002
1.281 0.45899999 -0.55199999 150 0 0 0 0.064580001
1.28 0.45699999 -0.54799998 150 0 0 0 0.06459
1.279 0.45500001 -0.54400003 150 0 0 0 0.064599998
1.28 0.454 -0.54100001 150 0 0 0 0.064609997
1.2819999 0.45300001 -0.537 150 0 0 0 0.064620003
1.28 0.45100001 -0.53299999 150 0 0 0 0.064630002
1.278 0.44800001 -0.528 150 0 0 0 0.06464
1.278 0.447 -0.52499998 150 0 0 0 0.064649999
1.28 0.44600001 -0.52200001 150 0 0 0 0.064659998
1.279 0.44299999 -0.51700002 150 0 0 0 0.064669997
1.281 0.442 -0.514 150 0 0 0 0.064680003
1.279 0.44 -0.50999999 150 0 0 0 0.064690001
1.2869999 0.44100001 -0.509 150 0 0 0 0.0647
1.288 0.43900001 -0.50599998 150 0 0 0 0.064709999
1.295 0.44 -0.505 63 0 0 0 0.064719997
1.309 0.442 -0.50599998 14 0 0 0 0.064730003
1.322 0.44499999 -0.50800002 8 0 0 0 0.064740002
1.332 0.44600001 -0.50700003 2 0 0 0 0.064750001
1.341 0.447 -0.50700003 2 0 0 0 0.06476
1.347 0.447 -0.505 2 0 0 0 0.064769998
1.362 0.44999999 -0.50700003 2 0 0 0 0.064779997
1.367 0.449 -0.505 2 0 0 0 0.064790003
1.372 0.44800001 -0.50300002 2 0 0 0 0.064800002
1.383 0.44999999 -0.50300002 2 0 0 0 0.06481
1.3940001 0.45100001 -0.50300002 2 0 0 0 0.064819999
1.405 0.45199999 -0.50300002 2 0 0 0 0.064829998
1.414 0.45300001 -0.50199997 2 0 0 0 0.064839996
1.423 0.45300001 -0.50099999 2 0 0 0 0.064850003
1.432 0.454 -0.5 2 0 0 0 0.064860001
1.443 0.45500001 -0.49900001 2 0 0 0 0.06487
1.459 0.45699999 -0.5 2 0 0 0 0.064879999
1.46 0.45500001 -0.49700001 2 0 0 0 0.064889997
1.474 0.45699999 -0.49700001 1 0 0 0 0.064900003
1.49 0.45899999 -0.498 10 0 0 0 0.064910002
2.477 0.759 -0.82200003 150 0 0 0 0.064920001
2.302 0.70099998 -0.75700003 150 0 0 0 0.064929999
2.349 0.71100003 -0.76599997 150 0 0 0 0.064939998
2.447 0.736 -0.79000002 150 0 0 0 0.064949997
2.4809999 0.74199998 -0.79400003 150 0 0 0 0.064960003
2.4749999 0.73500001 -0.78500003 150 0 0 0 0.064970002
2.4779999 0.73199999 -0.77899998 150 0 0 0 0.06498
2.4809999 0.72799999 -0.773 150 0 0 0 0.064989999
2.48 0.72299999 -0.76599997 150 0 0 0 0.064999998
2.477 0.71700001 -0.75800002 150 0 0 0 0.065009996
2.48 0.71399999 -0.75199997 150 0 0 0 0.065020002
2.4219999 0.69199997 -0.727 150 0 0 0 0.065030001
2.302 0.653 -0.685 150 0 0 0 0.06504
2.2460001 0.63300002 -0.662 151 0 0 0 0.065049998
2.233 0.625 -0.65100002 151 0 0 0 0.065059997
2.221 0.61699998 -0.64200002 151 0 0 0 0.065070003
2.224 0.61400002 -0.63700002 151 0 0 0 0.065080002
2.224 0.60900003 -0.63 151 0 0 0 0.065090001
2.2190001 0.60399997 -0.62300003 151 0 0 0 0.065099999
2.221 0.60000002 -0.61699998 151 0 0 0 0.065109998
2.224 0.59600002 -0.61199999 151 0 0 0 0.065119997
2.221 0.59100002 -0.60500002 151 0 0 0 0.065130003
2.2179999 0.58499998 -0.59799999 151 0 0 0 0.065140001
2.217 0.58099997 -0.59200001 151 0 0 0 0.06515
2.214 0.57499999 -0.58499998 151 0 0 0 0.065159999
2.214 0.57099998 -0.579 151 0 0 0 0.065169998
2.2160001 0.56699997 -0.57300001 151 0 0 0 0.065180004
2.2190001 0.56300002 -0.56800002 151 0 0 0 0.065190002
2.2130001 0.55699998 -0.56099999 151 0 0 0 0.065200001
2.2149999 0.55299997 -0.55500001 151 0 0 0 0.06521
2.217 0.54900002 -0.55000001 151 0 0 0 0.065219998
2.217 0.54400003 -0.54400003 151 0 0 0 0.065229997
2.2190001 0.54000002 -0.53799999 151 0 0 0 0.065240003
2.2190001 0.53500003 -0.53200001 151 0 0 0 0.065250002
2.2160001 0.52999997 -0.52600002 151 0 0 0 0.065260001
2.223 0.52700001 -0.52100003 151 0 0 0 0.065269999
2.2249999 0.52200001 -0.51599997 151 0 0 0 0.065279998
2.24 0.52100003 -0.51300001 151 0 0 0 0.065289997
2.2449999 0.51700002 -0.509 152 0 0 0 0.065300003
2.2390001 0.51099998 -0.50099999 152 0 0 0 0.065310001
2.2409999 0.50700003 -0.49599999 152 0 0 0 0.06532
2.253 0.505 -0.493 151 0 0 0 0.065329999
2.263 0.50199997 -0.48899999 150 0 0 0 0.065339997
2.3340001 0.51300001 -0.498 28 0 0 0 0.065350004
2.3770001 0.51700002 -0.50099999 28 0 0 0 0.065360002
2.4100001 0.51899999 -0.50199997 25 0 0 0 0.065370001
2.451 0.523 -0.50400001 26 0 0 0 0.06538
2.493 0.52600002 -0.50700003 27 0 0 0 0.065389998
2.5280001 0.528 -0.50700003 26 0 0 0 0.065399997
2.566 0.52999997 -0.50800002 27 0 0 0 0.065410003
2.6170001 0.53500003 -0.51200002 28 0 0 0 0.065420002
2.6600001 0.53799999 -0.514 28 0 0 0 0.06543
2.714 0.54299998 -0.51700002 29 0 0 0 0.065439999
2.789 0.55199999 -0.52399999 32 0 0 0 0.065449998
2.8840001 0.56400001 -0.53500003 35 0 0 0 0.065459996
2.9360001 0.56800002 -0.537 34 0 0 0 0.065470003
2.9860001 0.56999999 -0.53899997 33 0 0 0 0.065480001
3.026 0.57099998 -0.53899997 32 0 0 0 0.06549
3.056 0.56999999 -0.53600001 31 0 0 0 0.065499999
3.096 0.57099998 -0.53600001 30 0 0 0 0.065509997
3.1470001 0.57300001 -0.537 29 0 0 0 0.065520003
3.2 0.57499999 -0.53799999 30 0 0 0 0.065530002
3.2309999 0.574 -0.53500003 30 0 0 0 0.065540001
3.2639999 0.57200003 -0.53299999 132 0 0 0 0.065549999
3.273 0.56599998 -0.52600002 152 0 0 0 0.065559998
3.2780001 0.56 -0.51899999 152 0 0 0 0.065569997
3.28 0.55299997 -0.51099998 152 0 0 0 0.065580003
3.28 0.54500002 -0.50300002 152 0 0 0 0.065590002
3.283 0.53799999 -0.49599999 152 0 0 0 0.0656
3.29 0.53200001 -0.48899999 150 0 0 0 0.065609999
3.3139999 0.528 -0.48500001 151 0 0 0 0.065619998
3.313 0.51999998 -0.47600001 151 0 0 0 0.065629996
3.313 0.51300001 -0.46900001 151 0 0 0 0.065640002
3.323 0.50700003 -0.46200001 150 0 0 0 0.065650001
3.369 0.50599998 -0.46000001 152 0 0 0 0.06566
3.381 0.5 -0.454 151 0 0 0 0.065669999
3.3800001 0.49200001 -0.44600001 151 0 0 0 0.065679997
3.3840001 0.484 -0.43799999 151 0 0 0 0.065690003
3.3840001 0.477 -0.43000001 151 0 0 0 0.065700002
3.3859999 0.46900001 -0.42300001 151 0 0 0 0.065710001
3.385 0.461 -0.41499999 151 0 0 0 0.065719999
3.3859999 0.45300001 -0.40700001 151 0 0 0 0.065729998
3.3870001 0.44499999 -0.39899999 151 0 0 0 0.065739997
3.3889999 0.43799999 -0.391 151 0 0 0 0.065750003
3.3900001 0.43000001 -0.384 151 0 0 0 0.065760002
3.3929999 0.42199999 -0.37599999 151 0 0 0 0.06577
3.388 0.414 -0.368 151 0 0 0 0.065779999
3.3900001 0.40599999 -0.36000001 151 0 0 0 0.065789998
3.3870001 0.398 -0.352 151 0 0 0 0.065800004
3.3889999 0.38999999 -0.345 151 0 0 0 0.065810002
3.3900001 0.382 -0.33700001 151 0 0 0 0.065820001
3.3900001 0.37400001 -0.329 151 0 0 0 0.06583
3.3870001 0.366 -0.32100001 151 0 0 0 0.065839998
3.388 0.35800001 -0.31400001 151 0 0 0 0.065849997
3.3900001 0.34999999 -0.30599999 151 0 0 0 0.065860003
3.3900001 0.34200001 -0.29899999 151 0 0 0 0.065870002
3.392 0.33399999 -0.29100001 151 0 0 0 0.065880001
3.395 0.32600001 -0.28400001 152 0 0 0 0.065889999
3.395 0.31799999 -0.27599999 152 0 0 0 0.065899998
3.398 0.31 -0.26899999 152 0 0 0 0.065909997
3.395 0.30199999 -0.26100001 152 0 0 0 0.065920003
3.401 0.294 -0.25400001 153 0 0 0 0.065930001
3.398 0.28600001 -0.24600001 153 0 0 0 0.06594
3.3989999 0.278 -0.23899999 153 0 0 0 0.065949999
3.3940001 0.26899999 -0.23100001 153 0 0 0 0.065959997
3.3870001 0.25999999 -0.223 154 0 0 0 0.065970004
3.3829999 0.252 -0.21600001 154 0 0 0 0.065980002
3.3870001 0.244 -0.208 154 0 0 0 0.065990001
3.3829999 0.236 -0.20100001 154 0 0 0 0.066
3.3759999 0.227 -0.193 154 0 0 0 0.066009998
3.3740001 0.219 -0.186 154 0 0 0 0.066019997
3.3740001 0.20999999 -0.178 155 0 0 0 0.066030003
3.3740001 0.20200001 -0.171 155 0 0 0 0.066040002
3.375 0.19400001 -0.164 155 0 0 0 0.06605
3.3770001 0.186 -0.15700001 156 0 0 0 0.066059999
3.3759999 0.178 -0.149 156 0 0 0 0.066069998
3.378 0.169 -0.142 156 0 0 0 0.066079997
3.3740001 0.161 -0.13500001 157 0 0 0 0.066090003
3.375 0.153 -0.12800001 157 0 0 0 0.066100001
3.3800001 0.145 -0.121 156 0 0 0 0.06611
3.3800001 0.13600001 -0.114 156 0 0 0 0.066119999
3.3800001 0.12800001 -0.106 155 0 0 0 0.066129997
3.382 0.12 -0.098999999 156 0 0 0 0.066140004
3.381 0.111 -0.092 156 0 0 0 0.066150002
3.3970001 0.104 -0.085000001 154 0 0 0 0.066160001
3.3970001 0.094999999 -0.078000002 154 0 0 0 0.06617
3.398 0.086999997 -0.071000002 154 0 0 0 0.066179998
3.398 0.078000002 -0.064000003 154 0 0 0 0.066189997
3.4030001 0.07 -0.057 154 0 0 0 0.066200003
3.4070001 0.061999999 -0.050000001 154 0 0 0 0.066210002
3.4070001 0.052999999 -0.043000001 153 0 0 0 0.06622
3.4119999 0.045000002 -0.035999998 153 0 0 0 0.066229999
3.418 0.035999998 -0.028999999 153 0 0 0 0.066239998
3.4230001 0.028000001 -0.022 152 0 0 0 0.066249996
3.4159999 0.018999999 -0.015 152 0 0 0 0.066260003
3.418 0.011 -0.0080000004 152 0 0 0 0.066270001
3.4230001 0.0020000001 -0.001 152 0 0 0 0.06628
3.4200001 -0.0049999999 0.0049999999 151 0 0 0 0.066289999
3.4200001 -0.014 0.012 151 0 0 0 0.066299997
3.424 -0.023 0.018999999 151 0 0 0 0.066310003
3.421 -0.030999999 0.026000001 151 0 0 0 0.066320002
3.4230001 -0.039999999 0.033 151 0 0 0 0.066330001
3.428 -0.048999999 0.039999999 151 0 0 0 0.066339999
3.428 -0.057 0.046999998 151 0 0 0 0.066349998
3.427 -0.066 0.054000001 151 0 0 0 0.066359997
3.4319999 -0.075000003 0.059999999 151 0 0 0 0.066370003
3.427 -0.082999997 0.067000002 151 0 0 0 0.066380002
3.4360001 -0.092 0.074000001 151 0 0 0 0.06639
3.4319999 -0.101 0.081 151 0 0 0 0.066399999
3.437 -0.11 0.088 151 0 0 0 0.066409998
3.4349999 -0.119 0.094999999 151 0 0 0 0.066419996
3.4360001 -0.127 0.102 151 0 0 0 0.066430002
3.4389999 -0.13600001 0.109 151 0 0 0 0.066440001
3.4360001 -0.145 0.115 151 0 0 0 0.06645
3.438 -0.154 0.122 151 0 0 0 0.066459998
3.434 -0.163 0.12899999 152 0 0 0 0.066469997
3.4419999 -0.17200001 0.13600001 152 0 0 0 0.066480003
3.3770001 -0.178 0.14 150 0 0 0 0.066490002
3.375 -0.186 0.146 152 0 0 0 0.066500001
3.369 -0.19499999 0.153 152 0 0 0 0.066509999
3.3699999 -0.20299999 0.15899999 151 0 0 0 0.066519998
3.3429999 -0.211 0.16500001 151 0 0 0 0.066529997
3.3469999 -0.22 0.171 151 0 0 0 0.066540003
3.346 -0.228 0.178 151 0 0 0 0.066550002
3.345 -0.237 0.184 151 0 0 0 0.06656
3.349 -0.24600001 0.191 152 0 0 0 0.066569999
3.336 -0.25400001 0.197 150 0 0 0 0.066579998
3.2479999 -0.25600001 0.198 94 0 0 0 0.066590004
3.2349999 -0.26300001 0.20299999 151 0 0 0 0.066600002
3.2390001 -0.27200001 0.20900001 151 0 0 0 0.066610001
3.234 -0.28 0.215 151 0 0 0 0.06662
3.2379999 -0.289 0.222 151 0 0 0 0.066629998
3.2390001 -0.29800001 0.228 151 0 0 0 0.066639997
3.2420001 -0.30700001 0.234 151 0 0 0 0.066650003
3.2249999 -0.31400001 0.23899999 150 0 0 0 0.066660002
3.21 -0.32100001 0.244 151 0 0 0 0.066670001
3.2060001 -0.329 0.25 151 0 0 0 0.066679999
3.2079999 -0.338 0.25600001 151 0 0 0 0.066689998
3.2060001 -0.34599999 0.26199999 151 0 0 0 0.066699997
3.217 -0.35600001 0.26899999 151 0 0 0 0.066710003
3.204 -0.36300001 0.27399999 151 0 0 0 0.066720001
2.902 -0.33700001 0.25299999 150 0 0 0 0.06673
2.6159999 -0.31 0.233 31 0 0 0 0.066739999
2.5469999 -0.30899999 0.23199999 28 0 0 0 0.066749997
2.5 -0.31 0.23199999 25 0 0 0 0.066760004
2.454 -0.31099999 0.23199999 20 0 0 0 0.066770002
2.3959999 -0.31 0.23100001 26 0 0 0 0.066780001
2.3800001 -0.315 0.234 22 0 0 0 0.06679
2.368 -0.31999999 0.237 1 0 0 0 0.066799998
2.381 -0.32800001 0.243 0 0 0 0 0.066809997
2.4460001 -0.34400001 0.25400001 0 0 0 0 0.066820003
2.3959999 -0.34299999 0.25299999 0 0 0 0 0.066830002
0 0 0 0 0 0 0 0.06684
0 0 0 0 0 0 0 0.066849999
0 0 0 0 0 0 0 0.066859998
0 0 0 0 0 0 0 0.066869996
0 0 0 0 0 0 0 0.066880003
0 0 0 0 0 0 0 0.066890001
0 0 0 0 0 0 0 0.0669
0 0 0 0 0 0 0 0.066909999
0 0 0 0 0 0 0 0.066919997
0 0 0 0 0 0 0 0.066930003
0 0 0 0 0 0 0 0.066940002
0 0 0 0 0 0 0 0.066950001
0 0 0 0 0 0 0 0.06696
0 0 0 0 0 0 0 0.066969998
0 0 0 0 0 0 0 0.066979997
0 0 0 0 0 0 0 0.066990003
0 0 0 0 0 0 0 0.067000002
0 0 0 0 0 0 0 0.06701
0 0 0 0 0 0 0 0.067019999
0 0 0 0 0 0 0 0.067029998
0 0 0 0 0 0 0 0.067039996
0 0 0 0 0 0 0 0.067050003
0 0 0 0 0 0 0 0.067060001
0 0 0 0 0 0 0 0.06707
0 0 0 0 0 0 0 0.067079999
0 0 0 0 0 0 0 0.067089997
0 0 0 0 0 0 0 0.067100003
0 0 0 0 0 0 0 0.067110002
0 0 0 0 0 0 0 0.067120001
0 0 0 0 0 0 0 0.067129999
0 0 0 0 0 0 0 0.067139998
0 0 0 0 0 0 0 0.067149997
0 0 0 0 0 0 0 0.067160003
0 0 0 0 0 0 0 0.067170002
0 0 0 0 0 0 0 0.06718
0 0 0 0 0 0 0 0.067189999
0 0 0 0 0 0 0 0.067199998
0 0 0 0 0 0 0 0.067209996
0 0 0 0 0 0 0 0.067220002
0 0 0 0 0 0 0 0.067230001
0 0 0 0 0 0 0 0.06724
0 0 0 0 0 0 0 0.067249998
0 0 0 0 0 0 0 0.067259997
0 0 0 0 0 0 0 0.067270003
0 0 0 0 0 0 0 0.067280002
0 0 0 0 0 0 0 0.067290001
0 0 0 0 0 0 0 0.067299999
0 0 0 0 0 0 0 0.067309998
0 0 0 0 0 0 0 0.067319997
0 0 0 0 0 0 0 0.067330003
0 0 0 0 0 0 0 0.067340001
0 0 0 0 0 0 0 0.06735
0 0 0 0 0 0 0 0.067359999
0 0 0 0 0 0 0 0.067369998
0 0 0 0 0 0 0 0.067380004
0 0 0 0 0 0 0 0.067390002
0 0 0 0 0 0 0 0.067400001
0 0 0 0 0 0 0 0.06741
0 0 0 0 0 0 0 0.067419998
0 0 0 0 0 0 0 0.067429997
0 0 0 0 0 0 0 0.067440003
0 0 0 0 0 0 0 0.067450002
0 0 0 0 0 0 0 0.067460001
0 0 0 0 0 0 0 0.067469999
0 0 0 0 0 0 0 0.067479998
0 0 0 0 0 0 0 0.067489997
0 0 0 0 0 0 0 0.067500003
0 0 0 0 0 0 0 0.067510001
2.3380001 -0.81099999 0.50700003 0 0 0 0 0.06752
4.1459999 -1.452 0.90499997 7 0 0 0 0.067529999
3.6489999 -1.289 0.80199999 3 0 0 0 0.067539997
3.6789999 -1.311 0.81300002 4 0 0 0 0.067550004
4.0500002 -1.457 0.89999998 12 0 0 0 0.067560002
4.0050001 -1.4529999 0.89499998 30 0 0 0 0.067570001
3.9920001 -1.461 0.89700001 60 0 0 0 0.06758
4.0089998 -1.48 0.90600002 31 0 0 0 0.067589998
3.977 -1.4809999 0.90399998 24 0 0 0 0.067599997
3.9460001 -1.482 0.90200001 20 0 0 0 0.067610003
3.914 -1.482 0.89999998 19 0 0 0 0.067620002
3.8900001 -1.4859999 0.89899999 20 0 0 0 0.06763
3.868 -1.49 0.898 22 0 0 0 0.067639999
3.8399999 -1.4910001 0.89600003 23 0 0 0 0.067649998
3.7709999 -1.476 0.88499999 36 0 0 0 0.067659996
3.6630001 -1.446 0.86299998 49 0 0 0 0.067670003
3.6600001 -1.456 0.86699998 68 0 0 0 0.067680001
3.6630001 -1.469 0.87199998 70 0 0 0 0.06769
3.6600001 -1.479 0.875 69 0 0 0 0.067699999
3.661 -1.492 0.87900001 66 0 0 0 0.067709997
3.6689999 -1.507 0.88499999 67 0 0 0 0.067720003
3.665 -1.517 0.88800001 66 0 0 0 0.067730002
3.664 -1.528 0.89200002 66 0 0 0 0.067740001
3.671 -1.5420001 0.89700001 69 0 0 0 0.067749999
3.6670001 -1.552 0.89999998 70 0 0 0 0.067759998
3.6700001 -1.566 0.90499997 70 0 0 0 0.067769997
3.6719999 -1.5779999 0.90899998 71 0 0 0 0.067780003
3.6689999 -1.589 0.912 69 0 0 0 0.067790002
3.675 -1.603 0.91600001 70 0 0 0 0.0678
3.675 -1.615 0.92000002 69 0 0 0 0.067809999
3.6719999 -1.625 0.92299998 68 0 0 0 0.067819998
3.6760001 -1.6390001 0.92699999 68 0 0 0 0.067829996
3.674 -1.649 0.93000001 68 0 0 0 0.067840002
3.6830001 -1.665 0.935 68 0 0 0 0.067850001
3.6789999 -1.675 0.93800002 67 0 0 0 0.06786
3.6789999 -1.687 0.94099998 67 0 0 0 0.067869999
3.6789999 -1.698 0.94400001 68 0 0 0 0.067879997
3.678 -1.71 0.94599998 69 0 0 0 0.067890003
3.6819999 -1.723 0.94999999 68 0 0 0 0.067900002
3.6789999 -1.734 0.95200002 66 0 0 0 0.067910001
3.6830001 -1.747 0.95599997 66 0 0 0 0.067919999
3.684 -1.7589999 0.95899999 66 0 0 0 0.067929998
3.6860001 -1.771 0.96200001 65 0 0 0 0.067939997
3.6889999 -1.785 0.96499997 64 0 0 0 0.067950003
3.6989999 -1.801 0.97000003 108 0 0 0 0.067960002
4.2470002 -2.0810001 1.117 151 0 0 0 0.06797
2.484 -1.225 0.65499997 0 0 0 0 0.067979999
2.493 -1.237 0.65899998 0 0 0 0 0.067989998
2.427 -1.212 0.64200002 0 0 0 0 0.068000004
2.4230001 -1.217 0.64300001 0 0 0 0 0.068010002
2.4660001 -1.2460001 0.65600002 0 0 0 0 0.068020001
2.464 -1.253 0.65600002 0 0 0 0 0.06803
2.5350001 -1.2970001 0.67699999 0 0 0 0 0.068039998
2.431 -1.251 0.64999998 0 0 0 0 0.068049997
2.46 -1.273 0.65899998 0 0 0 0 0.068060003
2.4779999 -1.29 0.66500002 0 0 0 0 0.068070002
4.7150002 -2.4690001 1.267 37 0 0 0 0.068080001
2.4360001 -1.283 0.65600002 0 0 0 0 0.068089999
2.4449999 -1.295 0.65899998 0 0 0 0 0.068099998
2.4990001 -1.331 0.67400002 0 0 0 0 0.068109997
2.4690001 -1.322 0.667 0 0 0 0 0.068120003
2.51 -1.351 0.67900002 0 0 0 0 0.068130001
2.444 -1.323 0.66100001 0 0 0 0 0.06814
2.4749999 -1.347 0.67000002 0 0 0 0 0.068149999
2.4579999 -1.345 0.667 0 0 0 0 0.068159997
2.483 -1.3660001 0.67400002 0 0 0 0 0.068170004
4.7189999 -2.609 1.2819999 38 0 0 0 0.068180002
4.7179999 -2.622 1.2819999 36 0 0 0 0.068190001
4.723 -2.638 1.284 37 0 0 0 0.0682
4.7199998 -2.6489999 1.284 35 0 0 0 0.068209998
4.7249999 -2.665 1.286 36 0 0 0 0.068219997
4.724 -2.677 1.285 34 0 0 0 0.068230003
4.7280002 -2.6930001 1.2869999 35 0 0 0 0.068240002
2.4630001 -1.409 0.67000002 0 0 0 0 0.06825
2.47 -1.42 0.67199999 0 0 0 0 0.068259999
4.723 -2.727 1.285 36 0 0 0 0.068269998
4.7249999 -2.7409999 1.285 37 0 0 0 0.068279997
4.7290001 -2.7550001 1.286 41 0 0 0 0.068290003
2.3670001 -1.385 0.64300001 0 0 0 0 0.068300001
4.697 -2.7609999 1.276 26 0 0 0 0.06831
4.6799998 -2.763 1.27 25 0 0 0 0.068319999
4.665 -2.766 1.265 23 0 0 0 0.068329997
4.6389999 -2.7620001 1.257 20 0 0 0 0.068340003
4.6220002 -2.763 1.251 17 0 0 0 0.068350002
4.5999999 -2.76 1.244 17 0 0 0 0.068360001
4.592 -2.766 1.24 16 0 0 0 0.06837
4.5739999 -2.766 1.234 15 0 0 0 0.068379998
4.5560002 -2.766 1.227 16 0 0 0 0.068389997
4.5450001 -2.7690001 1.223 24 0 0 0 0.068400003
4.5339999 -2.773 1.2180001 26 0 0 0 0.068410002
4.513 -2.77 1.21 26 0 0 0 0.06842
4.5009999 -2.7720001 1.205 24 0 0 0 0.068429999
4.4850001 -2.7720001 1.199 22 0 0 0 0.068439998
4.4679999 -2.77 1.191 19 0 0 0 0.068449996
4.448 -2.767 1.184 17 0 0 0 0.068460003
2.5 -1.5599999 0.66399997 0 0 0 0 0.068470001
2.4749999 -1.549 0.65600002 0 0 0 0 0.06848
2.454 -1.541 0.648 0 0 0 0 0.068489999
4.138 -2.6059999 1.091 9 0 0 0 0.068499997
4.3670001 -2.7590001 1.148 16 0 0 0 0.068510003
4.342 -2.7509999 1.1390001 36 0 0 0 0.068520002
4.3119998 -2.7390001 1.128 40 0 0 0 0.068530001
4.2779999 -2.7260001 1.1160001 34 0 0 0 0.068539999
4.2459998 -2.7119999 1.104 26 0 0 0 0.068549998
4.2189999 -2.7019999 1.094 21 0 0 0 0.068559997
2.513 -1.613 0.64899999 0 0 0 0 0.068570003
2.467 -1.587 0.63499999 0 0 0 0 0.068580002
2.4560001 -1.584 0.63 0 0 0 0 0.06859
4.1620002 -2.691 1.064 7 0 0 0 0.068599999
4.1669998 -2.7 1.062 7 0 0 0 0.068609998
4.1409998 -2.688 1.051 8 0 0 0 0.068619996
4.1269999 -2.6849999 1.044 13 0 0 0 0.068630002
4.1139998 -2.6819999 1.036 17 0 0 0 0.068640001
4.112 -2.6849999 1.031 18 0 0 0 0.06865
4.1079998 -2.688 1.026 19 0 0 0 0.068659998
4.0970001 -2.6849999 1.0190001 25 0 0 0 0.068669997
2.4649999 -1.618 0.61000001 0 0 0 0 0.068680003
4.0869999 -2.687 1.007 45 0 0 0 0.068690002
4.0819998 -2.687 1.001 34 0 0 0 0.068700001
4.0840001 -2.6930001 0.99699998 32 0 0 0 0.068709999
4.085 -2.697 0.99199998 32 0 0 0 0.068719998
4.0840001 -2.7 0.98699999 29 0 0 0 0.068729997
4.0819998 -2.701 0.98100001 22 0 0 0 0.068740003
4.0799999 -2.7030001 0.97600001 15 0 0 0 0.068750001
4.0669999 -2.697 0.96799999 13 0 0 0 0.06876
4.0619998 -2.6960001 0.96100003 9 0 0 0 0.068769999
4.0320001 -2.678 0.949 8 0 0 0 0.068779998
3.9909999 -2.654 0.93400002 8 0 0 0 0.068790004
4.0139999 -2.671 0.93400002 11 0 0 0 0.068800002
4.007 -2.668 0.92699999 17 0 0 0 0.068810001
4.0019999 -2.6659999 0.92000002 21 0 0 0 0.06882
4.0089998 -2.6719999 0.91600001 22 0 0 0 0.068829998
4.006 -2.6700001 0.90899998 23 0 0 0 0.068839997
4.006 -2.671 0.90399998 24 0 0 0 0.068850003
4.0110002 -2.675 0.89899999 27 0 0 0 0.068860002
4.0089998 -2.674 0.89300001 27 0 0 0 0.068870001
4.0110002 -2.675 0.88700002 27 0 0 0 0.068879999
4.0120001 -2.6760001 0.88200003 22 0 0 0 0.068889998
4.0100002 -2.675 0.875 19 0 0 0 0.068899997
4.0110002 -2.674 0.86900002 17 0 0 0 0.068910003
4.0139999 -2.6760001 0.86299998 16 0 0 0 0.068920001
4.0110002 -2.6730001 0.85699999 16 0 0 0 0.06893
4.0089998 -2.6700001 0.85000002 18 0 0 0 0.068939999
4.0110002 -2.6700001 0.84399998 19 0 0 0 0.068949997
4.0100002 -2.668 0.83700001 17 0 0 0 0.068960004
4.0120001 -2.668 0.83200002 14 0 0 0 0.068970002
4.007 -2.6630001 0.824 15 0 0 0 0.068980001
4.007 -2.6600001 0.81699997 14 0 0 0 0.06899
4.007 -2.658 0.81099999 13 0 0 0 0.068999998
3.8889999 -2.5769999 0.78100002 7 0 0 0 0.069009997
2.4260001 -1.6059999 0.48300001 0 0 0 0 0.069020003
3.9300001 -2.599 0.77600002 4 0 0 0 0.069030002
3.9419999 -2.6029999 0.77200001 3 0 0 0 0.06904
3.928 -2.5910001 0.76300001 6 0 0 0 0.069049999
3.8840001 -2.5580001 0.74699998 7 0 0 0 0.069059998
4.0089998 -2.6370001 0.76499999 9 0 0 0 0.069069996
2.9560001 -1.941 0.55900002 0 0 0 0 0.069080003
3.003 -1.969 0.56300002 0 0 0 0 0.069090001
3.6960001 -2.4189999 0.68599999 5 0 0 0 0.0691
2.967 -1.939 0.546 0 0 0 0 0.069109999
3.6830001 -2.402 0.671 5 0 0 0 0.069119997
2.994 -1.949 0.54000002 0 0 0 0 0.069130003
3.7019999 -2.405 0.662 6 0 0 0 0.069140002
3.6819999 -2.3870001 0.65200001 6 0 0 0 0.069150001
3.6760001 -2.378 0.64499998 5 0 0 0 0.069159999
2.9879999 -1.929 0.51899999 0 0 0 0 0.069169998
3.819 -2.4590001 0.65700001 5 0 0 0 0.069179997
3.937 -2.53 0.67000002 4 0 0 0 0.069190003
3.8929999 -2.4949999 0.65600002 4 0 0 0 0.069200002
2.4530001 -1.568 0.40900001 0 0 0 0 0.06921
3.9519999 -2.52 0.65200001 5 0 0 0 0.069219999
3.8789999 -2.467 0.63300002 5 0 0 0 0.069229998
3.9260001 -2.4909999 0.63499999 6 0 0 0 0.069239996
4.0040002 -2.533 0.63999999 9 0 0 0 0.069250003
3.9400001 -2.4860001 0.62400001 6 0 0 0 0.069260001
3.9059999 -2.457 0.611 6 0 0 0 0.06927
3.842 -2.4100001 0.59500003 6 0 0 0 0.069279999
3.8599999 -2.4130001 0.59100002 6 0 0 0 0.069289997
4.0009999 -2.494 0.60600001 10 0 0 0 0.069300003
3.9189999 -2.4349999 0.58700001 5 0 0 0 0.069310002
3.9679999 -2.457 0.58700001 3 0 0 0 0.069320001
3.9400001 -2.4319999 0.57599998 3 0 0 0 0.069329999
3.9630001 -2.438 0.57300001 5 0 0 0 0.069339998
3.875 -2.3759999 0.55400002 6 0 0 0 0.069349997
3.927 -2.3989999 0.55500001 4 0 0 0 0.069360003
3.8759999 -2.359 0.54100001 4 0 0 0 0.069370002
3.878 -2.3510001 0.53500003 3 0 0 0 0.06938
2.994 -1.809 0.40799999 0 0 0 0 0.069389999
3.0120001 -1.813 0.405 0 0 0 0 0.069399998
3.954 -2.3710001 0.52600002 2 0 0 0 0.069410004
2.9790001 -1.779 0.391 0 0 0 0 0.069420002
4.079 -2.4260001 0.52899998 2 0 0 0 0.069430001
4.0159998 -2.3789999 0.51499999 2 0 0 0 0.06944
4.1209998 -2.431 0.52100003 2 0 0 0 0.069449998
4.04 -2.3740001 0.505 2 0 0 0 0.069459997
4.1620002 -2.4349999 0.51300001 2 0 0 0 0.069470003
4.1830001 -2.4360001 0.509 4 0 0 0 0.069480002
2.914 -1.6900001 0.34999999 0 0 0 0 0.069490001
4.1900001 -2.4189999 0.49700001 18 0 0 0 0.069499999
4.2020001 -2.415 0.49200001 13 0 0 0 0.069509998
2.45 -1.402 0.28299999 0 0 0 0 0.069519997
2.507 -1.428 0.285 0 0 0 0 0.069530003
2.5139999 -1.425 0.28200001 0 0 0 0 0.069540001
2.474 -1.396 0.27399999 0 0 0 0 0.06955
2.8670001 -1.609 0.31299999 0 0 0 0 0.069559999
2.8789999 -1.608 0.31 0 0 0 0 0.069569997
2.467 -1.372 0.26199999 0 0 0 0 0.069580004
2.4519999 -1.357 0.257 0 0 0 0 0.069590002
2.316 -1.275 0.23899999 0 0 0 0 0.069600001
2.3740001 -1.3 0.242 0 0 0 0 0.06961
2.438 -1.3279999 0.245 0 0 0 0 0.069619998
4.4619999 -2.418 0.442 3 0 0 0 0.069629997
2.4549999 -1.323 0.23899999 0 0 0 0 0.069640003
2.4189999 -1.2970001 0.233 0 0 0 0 0.069650002
2.5050001 -1.335 0.237 0 0 0 0 0.069660001
2.4920001 -1.322 0.233 0 0 0 0 0.069669999
2.437 -1.285 0.22400001 0 0 0 0 0.069679998
4.6989999 -2.4649999 0.426 39 0 0 0 0.069689997
4.7010002 -2.4519999 0.41999999 39 0 0 0 0.069700003
2.493 -1.2920001 0.219 0 0 0 0 0.069710001
2.474 -1.275 0.214 0 0 0 0 0.06972
2.5610001 -1.313 0.21799999 0 0 0 0 0.069729999
2.5209999 -1.284 0.211 0 0 0 0 0.069739997
2.441 -1.2359999 0.20200001 0 0 0 0 0.069750004
2.4590001 -1.238 0.2 0 0 0 0 0.069760002
2.4719999 -1.237 0.198 0 0 0 0 0.069770001
2.4330001 -1.21 0.192 0 0 0 0 0.06978
2.473 -1.222 0.192 0 0 0 0 0.069789998
2.4949999 -1.225 0.19 0 0 0 0 0.069799997
2.4300001 -1.186 0.182 0 0 0 0 0.069810003
2.408 -1.168 0.178 0 0 0 0 0.069820002
2.415 -1.163 0.175 0 0 0 0 0.06983
2.448 -1.171 0.175 0 0 0 0 0.069839999
2.4579999 -1.169 0.17299999 0 0 0 0 0.069849998
2.52 -1.1900001 0.17399999 0 0 0 0 0.069859996
2.4660001 -1.1569999 0.167 0 0 0 0 0.069870003
2.507 -1.168 0.167 0 0 0 0 0.069880001
0 0 0 0 0 0 0 0.06989
0 0 0 0 0 0 0 0.069899999
4.6630001 -2.128 0.296 22 0 0 0 0.069909997
3.9419999 -1.786 0.245 6 0 0 0 0.069920003
3.675 -1.654 0.22499999 3 0 0 0 0.069930002
3.665 -1.637 0.22 2 0 0 0 0.069940001
0 0 0 0 0 0 0 0.069949999
0 0 0 0 0 0 0 0.069959998
1.204 -0.52600002 0.068000004 0 0 0 0 0.069969997
1.228 -0.53200001 0.068000004 1 0 0 0 0.069980003
1.226 -0.528 0.067000002 1 0 0 0 0.069990002
1.22 -0.52100003 0.064999998 1 0 0 0 0.07
1.214 -0.51499999 0.064000003 3 0 0 0 0.070009999
2.4159999 -1.016 0.125 150 0 0 0 0.070019998
2.425 -1.012 0.123 150 0 0 0 0.070029996
2.4070001 -0.99699998 0.12 23 0 0 0 0.070040002
2.408 -0.98900002 0.118 22 0 0 0 0.070050001
2.408 -0.98100001 0.116 20 0 0 0 0.07006
2.4089999 -0.97399998 0.114 21 0 0 0 0.070069999
2.404 -0.96399999 0.111 19 0 0 0 0.070079997
2.4070001 -0.95700002 0.109 19 0 0 0 0.070090003
2.4059999 -0.949 0.107 20 0 0 0 0.070100002
2.405 -0.94 0.105 19 0 0 0 0.070110001
2.405 -0.93300003 0.103 18 0 0 0 0.070119999
2.405 -0.92500001 0.101 18 0 0 0 0.070129998
2.402 -0.91500002 0.097999997 21 0 0 0 0.070139997
2.405 -0.90899998 0.096000001 20 0 0 0 0.070150003
2.404 -0.89999998 0.094999999 21 0 0 0 0.070160002
2.401 -0.89099997 0.092 24 0 0 0 0.07017
2.398 -0.88200003 0.090000004 25 0 0 0 0.070179999
2.398 -0.87400001 0.088 20 0 0 0 0.070189998
2.4000001 -0.86699998 0.086999997 21 0 0 0 0.070200004
2.398 -0.85799998 0.085000001 20 0 0 0 0.070210002
2.3940001 -0.84899998 0.082999997 22 0 0 0 0.070220001
2.392 -0.83999997 0.081 23 0 0 0 0.07023
2.3940001 -0.833 0.079000004 23 0 0 0 0.070239998
2.3970001 -0.82599998 0.077 23 0 0 0 0.070249997
2.3929999 -0.81699997 0.075999998 22 0 0 0 0.070260003
2.395 -0.80900002 0.074000001 22 0 0 0 0.070270002
2.395 -0.801 0.071999997 23 0 0 0 0.070280001
2.392 -0.79299998 0.071000002 23 0 0 0 0.070289999
2.3929999 -0.78500003 0.068999998 22 0 0 0 0.070299998
2.395 -0.778 0.067000002 22 0 0 0 0.070309997
2.392 -0.76899999 0.066 21 0 0 0 0.070320003
2.3929999 -0.76099998 0.064000003 19 0 0 0 0.070330001
2.388 -0.75099999 0.061999999 17 0 0 0 0.07034
2.3870001 -0.74299997 0.061000001 17 0 0 0 0.070349999
2.3929999 -0.73699999 0.059999999 20 0 0 0 0.070359997
2.3900001 -0.72799999 0.057999998 20 0 0 0 0.070370004
2.388 -0.72000003 0.057 20 0 0 0 0.070380002
2.385 -0.71100003 0.055 19 0 0 0 0.070390001
2.3870001 -0.70300001 0.054000001 22 0 0 0 0.0704
2.3889999 -0.69599998 0.052000001 24 0 0 0 0.070409998
2.3859999 -0.68699998 0.050999999 24 0 0 0 0.070419997
2.3870001 -0.68000001 0.050000001 22 0 0 0 0.070430003
2.385 -0.671 0.048 21 0 0 0 0.070440002
2.3870001 -0.66399997 0.046999998 18 0 0 0 0.07045
2.3870001 -0.65600002 0.046 16 0 0 0 0.070459999
2.3829999 -0.64700001 0.044 20 0 0 0 0.070469998
2.3840001 -0.639 0.043000001 21 0 0 0 0.070479997
2.3859999 -0.63200003 0.041999999 23 0 0 0 0.070490003
2.381 -0.62300003 0.041000001 21 0 0 0 0.070500001
2.382 -0.61500001 0.039999999 18 0 0 0 0.07051
2.381 -0.60699999 0.037999999 18 0 0 0 0.070519999
2.381 -0.59899998 0.037 18 0 0 0 0.070529997
2.381 -0.59100002 0.035999998 20 0 0 0 0.070540003
2.3840001 -0.58399999 0.035 19 0 0 0 0.070550002
2.3770001 -0.574 0.034000002 16 0 0 0 0.070560001
2.382 -0.56800002 0.033 19 0 0 0 0.07057
2.3770001 -0.55900002 0.032000002 22 0 0 0 0.070579998
2.3740001 -0.55000001 0.030999999 23 0 0 0 0.070589997
2.3800001 -0.54400003 0.029999999 22 0 0 0 0.070600003
2.3840001 -0.537 0.028999999 18 0 0 0 0.070610002
2.381 -0.528 0.028000001 15 0 0 0 0.07062
2.3789999 -0.51999998 0.027000001 16 0 0 0 0.070629999
2.372 -0.50999999 0.026000001 20 0 0 0 0.070639998
2.3729999 -0.50300002 0.025 23 0 0 0 0.070649996
2.378 -0.49599999 0.024 22 0 0 0 0.070660003
2.3759999 -0.48800001 0.023 20 0 0 0 0.070670001
2.3740001 -0.479 0.022 18 0 0 0 0.07068
2.3729999 -0.47099999 0.022 14 0 0 0 0.070689999
2.372 -0.463 0.021 14 0 0 0 0.070699997
2.3759999 -0.456 0.02 15 0 0 0 0.070710003
2.3740001 -0.44800001 0.018999999 17 0 0 0 0.070720002
2.375 -0.44100001 0.017999999 18 0 0 0 0.070730001
2.3740001 -0.433 0.017999999 18 0 0 0 0.070739999
2.3699999 -0.42399999 0.017000001 20 0 0 0 0.070749998
2.368 -0.41600001 0.016000001 24 0 0 0 0.070759997
2.3710001 -0.40900001 0.015 23 0 0 0 0.070770003
2.369 -0.40000001 0.015 22 0 0 0 0.070780002
2.369 -0.39300001 0.014 22 0 0 0 0.07079
2.368 -0.38499999 0.013 21 0 0 0 0.070799999
2.368 -0.377 0.013 18 0 0 0 0.070809998
2.368 -0.36899999 0.012 15 0 0 0 0.070819996
2.3659999 -0.361 0.012 16 0 0 0 0.070830002
2.3640001 -0.35299999 0.011 16 0 0 0 0.070840001
2.3640001 -0.34599999 0.0099999998 18 0 0 0 0.07085
2.3629999 -0.338 0.0099999998 17 0 0 0 0.070859998
2.3629999 -0.33000001 0.0089999996 20 0 0 0 0.070869997
2.372 -0.32300001 0.0089999996 22 0 0 0 0.070880003
2.402 -0.31999999 0.0080000004 26 0 0 0 0.070890002
2.447 -0.31799999 0.0080000004 23 0 0 0 0.070900001
2.5239999 -0.31999999 0.0080000004 29 0 0 0 0.070909999
2.576 -0.31799999 0.0070000002 30 0 0 0 0.070919998
2.842 -0.34099999 0.0080000004 110 0 0 0 0.070929997
3.1110001 -0.36300001 0.0080000004 150 0 0 0 0.070940003
3.21 -0.36500001 0.0080000004 150 0 0 0 0.070950001
3.2060001 -0.354 0.0070000002 150 0 0 0 0.07096
3.2049999 -0.34299999 0.0060000001 150 0 0 0 0.070969999
3.2060001 -0.333 0.0060000001 150 0 0 0 0.070979998
3.211 -0.32300001 0.0049999999 150 0 0 0 0.070990004
3.2360001 -0.315 0.0049999999 152 0 0 0 0.071000002
3.234 -0.30399999 0.0049999999 151 0 0 0 0.071010001
3.24 -0.294 0.0040000002 151 0 0 0 0.07102
3.2360001 -0.28299999 0.0040000002 152 0 0 0 0.071029998
3.237 -0.273 0.003 152 0 0 0 0.071039997
3.24 -0.26199999 0.003 151 0 0 0 0.071050003
3.3340001 -0.259 0.003 89 0 0 0 0.071060002
3.3440001 -0.249 0.0020000001 152 0 0 0 0.071070001
3.3499999 -0.23899999 0.0020000001 151 0 0 0 0.071079999
3.342 -0.227 0.0020000001 151 0 0 0 0.071089998
3.3499999 -0.21699999 0.001 151 0 0 0 0.071099997
3.3759999 -0.208 0.001 151 0 0 0 0.071110003
3.375 -0.197 0.001 151 0 0 0 0.071120001
3.3699999 -0.185 0 151 0 0 0 0.07113
3.4200001 -0.177 0 153 0 0 0 0.071139999
3.438 -0.167 0 152 0 0 0 0.071149997
3.4330001 -0.155 0 150 0 0 0 0.071160004
3.4349999 -0.14399999 0 150 0 0 0 0.071170002
3.431 -0.133 0 150 0 0 0 0.071180001
3.4360001 -0.122 0 150 0 0 0 0.07119
3.4330001 -0.111 0 150 0 0 0 0.071199998
3.4330001 -0.1 0 150 0 0 0 0.071209997
3.431 -0.089000002 0 150 0 0 0 0.071220003
3.431 -0.078000002 0 150 0 0 0 0.071230002
3.424 -0.066 0 150 0 0 0 0.07124
3.431 -0.055 0 150 0 0 0 0.071249999
3.424 -0.044 0 150 0 0 0 0.071259998
3.4289999 -0.033 0 150 0 0 0 0.071269996
3.4289999 -0.022 0 151 0 0 0 0.071280003
3.4189999 -0.011 0 150 0 0 0 0.071290001
3.4189999 0 0 151 0 0 0 0.0713
3.418 0.0099999998 0 151 0 0 0 0.071309999
3.418 0.021 0 151 0 0 0 0.071319997
3.4170001 0.032000002 0 151 0 0 0 0.071330003
3.4159999 0.043000001 0 152 0 0 0 0.071340002
3.4230001 0.054000001 0 152 0 0 0 0.071350001
3.4119999 0.064999998 0 153 0 0 0 0.071359999
3.4070001 0.075999998 0 153 0 0 0 0.071369998
3.4030001 0.086999997 0 153 0 0 0 0.071379997
3.398 0.097999997 0 154 0 0 0 0.071390003
3.382 0.109 0.001 154 0 0 0 0.071400002
3.382 0.119 0.001 154 0 0 0 0.07141
3.3829999 0.131 0.001 155 0 0 0 0.071419999
3.381 0.141 0.0020000001 156 0 0 0 0.071429998
3.369 0.152 0.0020000001 157 0 0 0 0.071439996
3.3670001 0.163 0.0020000001 157 0 0 0 0.071450002
3.3640001 0.17299999 0.003 158 0 0 0 0.071460001
3.3599999 0.184 0.003 158 0 0 0 0.07147
3.3629999 0.19499999 0.003 159 0 0 0 0.071479999
3.3599999 0.206 0.0040000002 159 0 0 0 0.071489997
3.3610001 0.21699999 0.0040000002 160 0 0 0 0.071500003
3.3610001 0.228 0.0049999999 160 0 0 0 0.071510002
3.3570001 0.23800001 0.0049999999 161 0 0 0 0.071520001
3.3559999 0.249 0.0060000001 161 0 0 0 0.071529999
3.358 0.25999999 0.0060000001 160 0 0 0 0.071539998
3.3599999 0.271 0.0070000002 160 0 0 0 0.071549997
3.355 0.28200001 0.0070000002 160 0 0 0 0.071560003
3.3540001 0.29300001 0.0080000004 159 0 0 0 0.071570002
3.3540001 0.30399999 0.0089999996 159 0 0 0 0.07158
3.3559999 0.315 0.0089999996 159 0 0 0 0.071589999
3.3659999 0.32600001 0.0099999998 157 0 0 0 0.071599998
3.3570001 0.336 0.0099999998 157 0 0 0 0.071610004
3.3540001 0.347 0.011 159 0 0 0 0.071620002
3.352 0.35800001 0.012 158 0 0 0 0.071630001
3.3599999 0.37 0.013 156 0 0 0 0.07164
3.3640001 0.38100001 0.013 155 0 0 0 0.071649998
3.3659999 0.39199999 0.014 154 0 0 0 0.071659997
3.3670001 0.403 0.015 154 0 0 0 0.071670003
3.3740001 0.41499999 0.016000001 154 0 0 0 0.071680002
3.385 0.428 0.017000001 153 0 0 0 0.071690001
3.392 0.43900001 0.017000001 152 0 0 0 0.071699999
3.3940001 0.45100001 0.017999999 152 0 0 0 0.071709998
3.3900001 0.461 0.018999999 152 0 0 0 0.071719997
3.3840001 0.472 0.02 152 0 0 0 0.071730003
3.388 0.48300001 0.021 152 0 0 0 0.071740001
3.3859999 0.49399999 0.022 152 0 0 0 0.07175
3.385 0.505 0.023 152 0 0 0 0.071759999
3.352 0.51099998 0.024 154 0 0 0 0.071769997
3.326 0.51800001 0.025 152 0 0 0 0.071780004
3.322 0.528 0.026000001 152 0 0 0 0.071790002
3.3010001 0.53600001 0.026000001 150 0 0 0 0.071800001
3.2809999 0.54299998 0.027000001 154 0 0 0 0.07181
3.2679999 0.55199999 0.028000001 154 0 0 0 0.071819998
3.266 0.56199998 0.028999999 154 0 0 0 0.071829997
3.2750001 0.574 0.030999999 154 0 0 0 0.071840003
3.2679999 0.58399999 0.032000002 42 0 0 0 0.071850002
3.2249999 0.58700001 0.032000002 25 0 0 0 0.07186
3.1659999 0.58600003 0.033 25 0 0 0 0.071869999
3.102 0.58499998 0.033 25 0 0 0 0.071879998
3.0020001 0.57599998 0.033 25 0 0 0 0.071889997
2.934 0.57200003 0.034000002 25 0 0 0 0.071900003
2.895 0.574 0.034000002 27 0 0 0 0.071910001
2.8069999 0.56599998 0.035 27 0 0 0 0.07192
2.707 0.55500001 0.034000002 25 0 0 0 0.071929999
2.6029999 0.542 0.034000002 23 0 0 0 0.071939997
2.536 0.53600001 0.034000002 20 0 0 0 0.071950004
2.48 0.53299999 0.035 21 0 0 0 0.071960002
2.4159999 0.52700001 0.035 21 0 0 0 0.071970001
2.3599999 0.52200001 0.035 20 0 0 0 0.07198
2.2750001 0.51099998 0.035 150 0 0 0 0.071989998
2.2479999 0.51200002 0.035 151 0 0 0 0.071999997
2.237 0.51700002 0.035999998 152 0 0 0 0.072010003
2.2449999 0.52700001 0.037 151 0 0 0 0.072020002
2.2349999 0.53100002 0.037999999 150 0 0 0 0.07203
2.2260001 0.537 0.039000001 150 0 0 0 0.072039999
2.2260001 0.54400003 0.039999999 151 0 0 0 0.072049998
2.224 0.551 0.041000001 151 0 0 0 0.072059996
2.227 0.55900002 0.043000001 151 0 0 0 0.072070003
2.227 0.56599998 0.044 151 0 0 0 0.072080001
2.224 0.57300001 0.045000002 151 0 0 0 0.07209
2.223 0.57999998 0.046 151 0 0 0 0.072099999
2.227 0.58899999 0.046999998 150 0 0 0 0.072109997
2.233 0.59799999 0.048999999 151 0 0 0 0.072120003
2.2420001 0.60699999 0.050000001 151 0 0 0 0.072130002
