# .PCD v0.7 - Point Cloud Data file format
VERSION 0.7
FIELDS x y z intensity normal_x normal_y normal_z curvature
SIZE 4 4 4 4 4 4 4 4
TYPE F F F F F F F F
COUNT 1 1 1 1 1 1 1 1
WIDTH 1061
HEIGHT 1
VIEWPOINT 0 0 0 1 0 0 0
POINTS 1061
DATA ascii
3.438 -0.147 0.40799999 150 0 0 0 0.01692
3.4389999 -0.14399999 0.398 150 0 0 0 0.016930001
3.438 -0.14 0.38699999 150 0 0 0 0.01694
3.4389999 -0.13699999 0.37599999 150 0 0 0 0.01695
3.4360001 -0.133 0.36500001 150 0 0 0 0.016960001
3.438 -0.13 0.35499999 150 0 0 0 0.016969999
3.4389999 -0.126 0.34400001 150 0 0 0 0.01698
3.438 -0.123 0.33399999 150 0 0 0 0.01699
3.434 -0.119 0.32300001 150 0 0 0 0.017000001
3.4349999 -0.115 0.31200001 150 0 0 0 0.01701
3.4360001 -0.112 0.30199999 150 0 0 0 0.01702
3.4300001 -0.108 0.29100001 150 0 0 0 0.017030001
3.4330001 -0.104 0.28 150 0 0 0 0.017039999
3.438 -0.101 0.27000001 150 0 0 0 0.01705
3.4289999 -0.097000003 0.259 150 0 0 0 0.01706
3.4300001 -0.093000002 0.248 150 0 0 0 0.017069999
3.431 -0.090000004 0.23800001 150 0 0 0 0.01708
3.4300001 -0.086000003 0.227 150 0 0 0 0.01709
3.4300001 -0.082000002 0.21699999 150 0 0 0 0.017100001
3.431 -0.078000002 0.206 150 0 0 0 0.017109999
3.4289999 -0.075000003 0.19599999 150 0 0 0 0.01712
3.4330001 -0.071000002 0.186 150 0 0 0 0.017130001
3.427 -0.067000002 0.175 150 0 0 0 0.017139999
3.428 -0.063000001 0.164 150 0 0 0 0.01715
3.428 -0.059 0.154 150 0 0 0 0.01716
3.4289999 -0.055 0.14399999 150 0 0 0 0.017170001
3.4289999 -0.052000001 0.133 150 0 0 0 0.01718
3.427 -0.048 0.123 150 0 0 0 0.01719
3.427 -0.044 0.112 150 0 0 0 0.017200001
3.4260001 -0.039999999 0.102 150 0 0 0 0.017209999
3.4230001 -0.035999998 0.090999998 150 0 0 0 0.01722
3.4260001 -0.032000002 0.081 150 0 0 0 0.01723
3.4230001 -0.028000001 0.071000002 151 0 0 0 0.017240001
3.4219999 -0.024 0.059999999 151 0 0 0 0.01725
3.4230001 -0.02 0.050000001 151 0 0 0 0.01726
3.4189999 -0.016000001 0.039999999 151 0 0 0 0.017270001
3.418 -0.012 0.029999999 150 0 0 0 0.017279999
3.4219999 -0.0080000004 0.018999999 151 0 0 0 0.01729
3.418 -0.0040000002 0.0089999996 151 0 0 0 0.0173
3.418 0 0 151 0 0 0 0.017309999
3.4159999 0.003 -0.011 151 0 0 0 0.01732
3.4200001 0.0080000004 -0.021 151 0 0 0 0.01733
3.4200001 0.012 -0.030999999 151 0 0 0 0.017340001
3.4200001 0.016000001 -0.041000001 151 0 0 0 0.017349999
3.4159999 0.02 -0.052000001 151 0 0 0 0.01736
3.418 0.024 -0.061999999 151 0 0 0 0.01737
3.421 0.028000001 -0.071999997 151 0 0 0 0.017379999
3.421 0.033 -0.082000002 151 0 0 0 0.01739
3.4189999 0.037 -0.093000002 151 0 0 0 0.0174
3.4159999 0.041000001 -0.103 152 0 0 0 0.017410001
3.421 0.046 -0.113 151 0 0 0 0.017419999
3.421 0.050000001 -0.123 151 0 0 0 0.01743
3.4189999 0.054000001 -0.134 151 0 0 0 0.017440001
3.4159999 0.057999998 -0.14399999 151 0 0 0 0.017449999
3.4189999 0.063000001 -0.154 151 0 0 0 0.01746
3.4170001 0.067000002 -0.164 151 0 0 0 0.01747
3.4159999 0.071999997 -0.17399999 151 0 0 0 0.017480001
3.4170001 0.075999998 -0.184 151 0 0 0 0.01749
3.4119999 0.079999998 -0.19400001 151 0 0 0 0.0175
3.4089999 0.085000001 -0.204 151 0 0 0 0.017510001
3.411 0.089000002 -0.214 151 0 0 0 0.017519999
3.4130001 0.093999997 -0.22499999 151 0 0 0 0.01753
3.4089999 0.097999997 -0.235 151 0 0 0 0.01754
3.408 0.103 -0.245 151 0 0 0 0.017550001
3.4070001 0.107 -0.255 151 0 0 0 0.01756
3.408 0.112 -0.26499999 151 0 0 0 0.01757
3.411 0.116 -0.27500001 151 0 0 0 0.017580001
3.4100001 0.121 -0.285 151 0 0 0 0.017589999
3.4089999 0.126 -0.29499999 150 0 0 0 0.0176
3.408 0.13 -0.30500001 151 0 0 0 0.01761
3.4070001 0.13500001 -0.315 150 0 0 0 0.017619999
3.4089999 0.139 -0.32499999 151 0 0 0 0.01763
3.4000001 0.14399999 -0.33500001 150 0 0 0 0.01764
3.4119999 0.149 -0.34599999 150 0 0 0 0.017650001
3.4070001 0.153 -0.35499999 150 0 0 0 0.017659999
3.4059999 0.15800001 -0.36500001 150 0 0 0 0.01767
3.4070001 0.163 -0.37599999 150 0 0 0 0.017680001
3.4059999 0.168 -0.38600001 150 0 0 0 0.017689999
3.405 0.17299999 -0.39500001 150 0 0 0 0.0177
3.4000001 0.177 -0.405 150 0 0 0 0.01771
3.404 0.182 -0.41499999 150 0 0 0 0.017720001
3.4030001 0.18700001 -0.42500001 150 0 0 0 0.017729999
3.405 0.192 -0.43599999 150 0 0 0 0.01774
3.402 0.197 -0.44499999 150 0 0 0 0.017750001
3.402 0.20200001 -0.45500001 150 0 0 0 0.017759999
3.401 0.207 -0.465 150 0 0 0 0.01777
3.3989999 0.212 -0.47499999 150 0 0 0 0.01778
3.3970001 0.21600001 -0.484 150 0 0 0 0.017790001
3.4030001 0.222 -0.495 150 0 0 0 0.0178
3.402 0.227 -0.505 150 0 0 0 0.01781
3.3989999 0.23199999 -0.51499999 150 0 0 0 0.017820001
3.398 0.237 -0.52499998 150 0 0 0 0.017829999
3.3959999 0.242 -0.53399998 150 0 0 0 0.01784
3.4030001 0.24699999 -0.54500002 150 0 0 0 0.01785
3.401 0.252 -0.55500001 150 0 0 0 0.017859999
3.4000001 0.257 -0.565 150 0 0 0 0.01787
3.398 0.26300001 -0.574 150 0 0 0 0.01788
3.398 0.26800001 -0.58399999 150 0 0 0 0.017890001
3.3959999 0.273 -0.59399998 150 0 0 0 0.017899999
3.392 0.278 -0.60299999 150 0 0 0 0.01791
3.395 0.28299999 -0.61400002 150 0 0 0 0.01792
3.3970001 0.289 -0.62400001 150 0 0 0 0.017929999
3.3940001 0.294 -0.63300002 150 0 0 0 0.01794
3.3940001 0.29899999 -0.64300001 150 0 0 0 0.01795
3.3889999 0.30399999 -0.65200001 150 0 0 0 0.017960001
3.391 0.31 -0.662 150 0 0 0 0.017969999
3.3900001 0.315 -0.67199999 150 0 0 0 0.01798
3.391 0.32100001 -0.68199998 150 0 0 0 0.017990001
3.388 0.32600001 -0.69099998 150 0 0 0 0.017999999
3.3889999 0.331 -0.70099998 150 0 0 0 0.01801
3.3889999 0.33700001 -0.71100003 150 0 0 0 0.01802
3.388 0.34299999 -0.72100002 150 0 0 0 0.018030001
3.385 0.34799999 -0.73000002 150 0 0 0 0.01804
3.385 0.35299999 -0.73900002 150 0 0 0 0.01805
3.3840001 0.359 -0.74900001 150 0 0 0 0.018060001
3.3829999 0.36500001 -0.759 150 0 0 0 0.018069999
3.3829999 0.37 -0.76899999 150 0 0 0 0.01808
3.3840001 0.37599999 -0.778 150 0 0 0 0.01809
3.381 0.38100001 -0.78799999 150 0 0 0 0.018100001
3.3789999 0.38699999 -0.79699999 150 0 0 0 0.01811
3.381 0.39300001 -0.80699998 150 0 0 0 0.01812
3.381 0.39899999 -0.81699997 150 0 0 0 0.018130001
3.3800001 0.405 -0.82599998 150 0 0 0 0.018139999
3.3759999 0.41 -0.83499998 150 0 0 0 0.01815
3.3800001 0.417 -0.84600002 138 0 0 0 0.01816
3.378 0.42199999 -0.85500002 38 0 0 0 0.018169999
3.3510001 0.42500001 -0.85799998 26 0 0 0 0.01818
3.313 0.426 -0.85799998 25 0 0 0 0.01819
3.277 0.42699999 -0.85799998 25 0 0 0 0.018200001
3.2460001 0.42899999 -0.85900003 26 0 0 0 0.018209999
3.207 0.42899999 -0.85799998 26 0 0 0 0.01822
3.1659999 0.42899999 -0.85600001 26 0 0 0 0.018230001
3.141 0.43200001 -0.85799998 26 0 0 0 0.018239999
3.1199999 0.435 -0.861 27 0 0 0 0.01825
3.082 0.435 -0.85900003 26 0 0 0 0.01826
3.056 0.43700001 -0.861 26 0 0 0 0.018270001
3.03 0.43900001 -0.86199999 27 0 0 0 0.018279999
2.9909999 0.43900001 -0.86000001 26 0 0 0 0.01829
2.96 0.44 -0.85900003 24 0 0 0 0.018300001
2.928 0.44 -0.85799998 24 0 0 0 0.018309999
2.8970001 0.44100001 -0.85699999 24 0 0 0 0.01832
2.862 0.44100001 -0.85500002 23 0 0 0 0.01833
2.829 0.442 -0.85299999 25 0 0 0 0.018340001
2.8050001 0.44299999 -0.85399997 24 0 0 0 0.01835
2.7709999 0.44299999 -0.85100001 22 0 0 0 0.01836
2.753 0.44600001 -0.85299999 22 0 0 0 0.018370001
2.73 0.447 -0.85399997 22 0 0 0 0.018379999
2.7049999 0.44800001 -0.85299999 23 0 0 0 0.01839
2.6830001 0.44999999 -0.85399997 24 0 0 0 0.0184
2.6559999 0.45100001 -0.85299999 23 0 0 0 0.018409999
2.625 0.45100001 -0.85000002 23 0 0 0 0.01842
2.596 0.45100001 -0.84799999 23 0 0 0 0.01843
2.576 0.45199999 -0.84799999 22 0 0 0 0.018440001
2.553 0.454 -0.84799999 25 0 0 0 0.018449999
2.5309999 0.45500001 -0.84799999 24 0 0 0 0.01846
2.5090001 0.456 -0.847 24 0 0 0 0.01847
2.4879999 0.45699999 -0.847 24 0 0 0 0.018479999
2.467 0.458 -0.847 27 0 0 0 0.01849
2.448 0.46000001 -0.847 27 0 0 0 0.0185
2.4300001 0.461 -0.847 25 0 0 0 0.018510001
2.414 0.46399999 -0.84799999 26 0 0 0 0.018519999
2.3900001 0.46399999 -0.84600002 26 0 0 0 0.01853
2.3729999 0.465 -0.847 25 0 0 0 0.018540001
2.352 0.46599999 -0.84500003 26 0 0 0 0.018549999
2.339 0.46900001 -0.847 26 0 0 0 0.01856
2.3199999 0.47 -0.84600002 26 0 0 0 0.01857
2.3039999 0.47099999 -0.847 26 0 0 0 0.018580001
2.2939999 0.47400001 -0.84899998 26 0 0 0 0.01859
2.27 0.47400001 -0.84600002 26 0 0 0 0.0186
2.2550001 0.47600001 -0.847 26 0 0 0 0.018610001
2.2409999 0.47799999 -0.847 25 0 0 0 0.018619999
2.224 0.479 -0.847 26 0 0 0 0.01863
2.21 0.48100001 -0.847 26 0 0 0 0.01864
2.1960001 0.48199999 -0.847 26 0 0 0 0.018650001
2.1800001 0.484 -0.847 26 0 0 0 0.01866
2.1630001 0.48500001 -0.84600002 26 0 0 0 0.01867
2.145 0.48500001 -0.84500003 26 0 0 0 0.018680001
2.132 0.48699999 -0.84500003 24 0 0 0 0.018689999
2.125 0.49000001 -0.847 24 0 0 0 0.0187
2.112 0.49200001 -0.84799999 20 0 0 0 0.01871
2.099 0.49399999 -0.84799999 20 0 0 0 0.018719999
2.082 0.49399999 -0.84600002 20 0 0 0 0.01873
2.0699999 0.49599999 -0.847 24 0 0 0 0.01874
2.056 0.498 -0.84600002 25 0 0 0 0.018750001
2.0450001 0.5 -0.84600002 27 0 0 0 0.018759999
2.0339999 0.50099999 -0.847 27 0 0 0 0.01877
2.0209999 0.50300002 -0.84600002 28 0 0 0 0.018780001
2.0050001 0.50400001 -0.84500003 27 0 0 0 0.018789999
2 0.50700003 -0.847 28 0 0 0 0.0188
1.987 0.50800002 -0.847 29 0 0 0 0.01881
1.976 0.50999999 -0.847 29 0 0 0 0.018820001
1.9630001 0.51099998 -0.84600002 29 0 0 0 0.018829999
1.952 0.51300001 -0.84600002 29 0 0 0 0.01884
1.9450001 0.51599997 -0.847 28 0 0 0 0.018850001
1.933 0.51700002 -0.84600002 29 0 0 0 0.018859999
1.926 0.51899999 -0.84799999 30 0 0 0 0.01887
1.915 0.52100003 -0.84799999 31 0 0 0 0.01888
1.898 0.52100003 -0.84399998 29 0 0 0 0.018890001
1.891 0.52399999 -0.84500003 29 0 0 0 0.0189
1.886 0.52700001 -0.847 30 0 0 0 0.01891
1.875 0.528 -0.847 29 0 0 0 0.018920001
1.864 0.52899998 -0.84600002 30 0 0 0 0.018929999
1.854 0.53100002 -0.84500003 29 0 0 0 0.01894
1.847 0.53299999 -0.84600002 30 0 0 0 0.01895
1.836 0.53500003 -0.84500003 30 0 0 0 0.018959999
1.826 0.53600001 -0.84500003 32 0 0 0 0.01897
1.804 0.53399998 -0.838 14 0 0 0 0.01898
1.7309999 0.51700002 -0.80800003 16 0 0 0 0.018990001
1.595 0.47999999 -0.74800003 11 0 0 0 0.018999999
1.484 0.44999999 -0.699 2 0 0 0 0.01901
1.465 0.44800001 -0.69300002 2 0 0 0 0.01902
1.45 0.447 -0.68900001 2 0 0 0 0.019029999
1.439 0.447 -0.68599999 2 0 0 0 0.01904
1.426 0.44600001 -0.68300003 2 0 0 0 0.01905
1.415 0.44600001 -0.68000001 2 0 0 0 0.019060001
1.405 0.44600001 -0.67799997 2 0 0 0 0.019069999
1.393 0.44600001 -0.67500001 2 0 0 0 0.01908
1.377 0.44400001 -0.67000002 2 0 0 0 0.019090001
1.367 0.44400001 -0.667 2 0 0 0 0.019099999
1.35 0.442 -0.662 2 0 0 0 0.01911
1.336 0.44100001 -0.65700001 2 0 0 0 0.01912
1.318 0.43799999 -0.65100002 8 0 0 0 0.019130001
1.301 0.435 -0.64499998 18 0 0 0 0.01914
1.29 0.435 -0.64099997 150 0 0 0 0.01915
1.2819999 0.435 -0.639 150 0 0 0 0.019160001
1.279 0.43700001 -0.63999999 150 0 0 0 0.019169999
1.274 0.43900001 -0.639 150 0 0 0 0.01918
1.277 0.44299999 -0.64300001 150 0 0 0 0.01919
1.272 0.44400001 -0.64300001 150 0 0 0 0.019200001
1.279 0.449 -0.648 150 0 0 0 0.01921
1.279 0.45300001 -0.64999998 150 0 0 0 0.01922
1.277 0.45500001 -0.65100002 150 0 0 0 0.019230001
1.276 0.458 -0.65200001 150 0 0 0 0.019239999
1.275 0.46000001 -0.65399998 150 0 0 0 0.01925
1.273 0.463 -0.65399998 150 0 0 0 0.01926
1.275 0.46599999 -0.65700001 150 0 0 0 0.019269999
1.278 0.47 -0.66000003 150 0 0 0 0.01928
1.266 0.46900001 -0.65600002 150 0 0 0 0.01929
1.266 0.472 -0.65700001 104 0 0 0 0.019300001
1.2460001 0.46700001 -0.648 99 0 0 0 0.019309999
1.237 0.46700001 -0.64499998 83 0 0 0 0.01932
1.24 0.47099999 -0.648 69 0 0 0 0.019330001
1.235 0.472 -0.64600003 44 0 0 0 0.019339999
1.226 0.47099999 -0.64300001 44 0 0 0 0.01935
1.23 0.47499999 -0.64600003 54 0 0 0 0.01936
1.228 0.477 -0.64600003 57 0 0 0 0.019370001
1.221 0.47799999 -0.64399999 54 0 0 0 0.019379999
1.212 0.477 -0.63999999 51 0 0 0 0.01939
1.202 0.47499999 -0.63599998 54 0 0 0 0.019400001
1.196 0.47499999 -0.634 48 0 0 0 0.019409999
1.189 0.47600001 -0.63099998 46 0 0 0 0.01942
1.181 0.47499999 -0.62800002 49 0 0 0 0.01943
1.173 0.47400001 -0.625 50 0 0 0 0.019440001
1.17 0.47499999 -0.62300003 56 0 0 0 0.01945
1.1569999 0.47299999 -0.61699998 52 0 0 0 0.01946
1.154 0.47400001 -0.616 49 0 0 0 0.019470001
1.146 0.47299999 -0.61299998 49 0 0 0 0.019479999
1.1440001 0.47400001 -0.61199999 48 0 0 0 0.01949
1.137 0.47400001 -0.60900003 56 0 0 0 0.0195
1.127 0.472 -0.60399997 47 0 0 0 0.019509999
1.123 0.472 -0.602 49 0 0 0 0.01952
1.113 0.47 -0.59799999 49 0 0 0 0.01953
1.112 0.472 -0.597 56 0 0 0 0.019540001
1.112 0.47400001 -0.597 56 0 0 0 0.019549999
1.1059999 0.47400001 -0.59500003 56 0 0 0 0.01956
1.091 0.46900001 -0.58700001 50 0 0 0 0.01957
1.0880001 0.47 -0.58499998 50 0 0 0 0.019579999
1.081 0.46900001 -0.58200002 51 0 0 0 0.01959
1.076 0.46900001 -0.579 52 0 0 0 0.0196
1.073 0.46900001 -0.57700002 50 0 0 0 0.019610001
1.067 0.46900001 -0.574 48 0 0 0 0.019619999
1.0599999 0.46700001 -0.56999999 49 0 0 0 0.01963
1.056 0.46700001 -0.56800002 48 0 0 0 0.019640001
1.05 0.46599999 -0.56400001 50 0 0 0 0.019649999
1.0470001 0.46700001 -0.56300002 48 0 0 0 0.01966
1.044 0.46700001 -0.56 48 0 0 0 0.01967
1.038 0.46599999 -0.55699998 52 0 0 0 0.019680001
1.0319999 0.465 -0.55299997 51 0 0 0 0.01969
1.029 0.465 -0.551 51 0 0 0 0.0197
1.025 0.465 -0.54900002 49 0 0 0 0.019710001
1.021 0.46399999 -0.546 53 0 0 0 0.019719999
1.021 0.46599999 -0.54500002 51 0 0 0 0.01973
1.0190001 0.46599999 -0.54400003 50 0 0 0 0.01974
1.01 0.463 -0.53799999 52 0 0 0 0.019750001
1.0089999 0.46399999 -0.537 51 0 0 0 0.01976
1.005 0.46399999 -0.53399998 55 0 0 0 0.01977
1.001 0.463 -0.53100002 50 0 0 0 0.019780001
0.99800003 0.463 -0.52899998 49 0 0 0 0.019789999
0.995 0.463 -0.52700001 54 0 0 0 0.0198
0.99400002 0.463 -0.52499998 49 0 0 0 0.01981
0.98900002 0.46200001 -0.52200001 49 0 0 0 0.019819999
0.98799998 0.46200001 -0.51999998 50 0 0 0 0.01983
0.98100001 0.46000001 -0.51499999 52 0 0 0 0.01984
0.98100001 0.461 -0.51499999 49 0 0 0 0.019850001
0.98000002 0.46200001 -0.51300001 51 0 0 0 0.019859999
0.97600001 0.461 -0.509 49 0 0 0 0.01987
0.97600001 0.461 -0.50800002 51 0 0 0 0.019880001
0.97399998 0.461 -0.50599998 50 0 0 0 0.019889999
0.97000003 0.46000001 -0.50300002 48 0 0 0 0.0199
0.97100002 0.461 -0.50199997 54 0 0 0 0.01991
0.96399999 0.45899999 -0.49700001 52 0 0 0 0.019920001
0.97100002 0.463 -0.5 54 0 0 0 0.019929999
0.96499997 0.46000001 -0.495 50 0 0 0 0.01994
0.95999998 0.45899999 -0.491 56 0 0 0 0.019950001
0.96100003 0.45899999 -0.49000001 59 0 0 0 0.019959999
0.95700002 0.458 -0.48699999 58 0 0 0 0.01997
0.95599997 0.458 -0.48500001 52 0 0 0 0.01998
0.95899999 0.46000001 -0.48500001 55 0 0 0 0.019990001
0.95599997 0.45899999 -0.48199999 56 0 0 0 0.02
0.95700002 0.46000001 -0.47999999 56 0 0 0 0.02001
0.954 0.45899999 -0.477 61 0 0 0 0.020020001
0.95499998 0.45899999 -0.47600001 57 0 0 0 0.020029999
0.95200002 0.458 -0.47299999 57 0 0 0 0.02004
0.95200002 0.458 -0.47099999 59 0 0 0 0.02005
0.95099998 0.458 -0.46900001 55 0 0 0 0.020059999
0.95099998 0.458 -0.46700001 52 0 0 0 0.02007
0.95099998 0.458 -0.465 48 0 0 0 0.02008
0.94700003 0.456 -0.46200001 43 0 0 0 0.020090001
0.94800001 0.456 -0.46000001 46 0 0 0 0.020099999
0.94800001 0.45699999 -0.45899999 47 0 0 0 0.02011
0.94700003 0.456 -0.456 58 0 0 0 0.02012
0.95099998 0.458 -0.456 60 0 0 0 0.020129999
0.95099998 0.458 -0.454 60 0 0 0 0.02014
0.95099998 0.45699999 -0.45199999 61 0 0 0 0.02015
0.95300001 0.458 -0.45100001 69 0 0 0 0.020160001
0.95300001 0.45699999 -0.449 67 0 0 0 0.020169999
0.95599997 0.45899999 -0.44800001 63 0 0 0 0.02018
0.95700002 0.45899999 -0.447 65 0 0 0 0.020190001
0.95700002 0.45899999 -0.44499999 60 0 0 0 0.020199999
0.958 0.45899999 -0.44299999 58 0 0 0 0.02021
0.95899999 0.45899999 -0.442 63 0 0 0 0.02022
0.958 0.45699999 -0.43900001 62 0 0 0 0.020230001
0.95999998 0.458 -0.43799999 58 0 0 0 0.02024
0.95999998 0.45699999 -0.435 62 0 0 0 0.02025
0.963 0.458 -0.43399999 60 0 0 0 0.020260001
0.96100003 0.45699999 -0.43099999 62 0 0 0 0.020269999
0.96100003 0.456 -0.42899999 53 0 0 0 0.02028
0.96600002 0.458 -0.42899999 59 0 0 0 0.02029
0.96700001 0.45699999 -0.42699999 55 0 0 0 0.020300001
0.97399998 0.46000001 -0.428 59 0 0 0 0.02031
0.96899998 0.45699999 -0.42300001 57 0 0 0 0.02032
0.97000003 0.456 -0.42199999 56 0 0 0 0.020330001
0.97100002 0.456 -0.41999999 64 0 0 0 0.020339999
0.97799999 0.458 -0.41999999 58 0 0 0 0.02035
0.97600001 0.456 -0.417 62 0 0 0 0.02036
0.98299998 0.45899999 -0.417 56 0 0 0 0.020369999
0.98199999 0.45699999 -0.41499999 64 0 0 0 0.02038
0.98400003 0.45699999 -0.41299999 62 0 0 0 0.02039
0.98900002 0.458 -0.412 57 0 0 0 0.020400001
0.99699998 0.461 -0.41299999 67 0 0 0 0.020409999
0.99199998 0.45699999 -0.40900001 61 0 0 0 0.02042
1.003 0.461 -0.41 63 0 0 0 0.02043
1.0039999 0.46000001 -0.40799999 63 0 0 0 0.020439999
1.012 0.463 -0.40900001 67 0 0 0 0.02045
1.01 0.46000001 -0.405 65 0 0 0 0.02046
1.0140001 0.461 -0.405 70 0 0 0 0.020470001
1.015 0.46000001 -0.40200001 71 0 0 0 0.020479999
1.021 0.461 -0.40200001 69 0 0 0 0.02049
1.022 0.46000001 -0.40000001 70 0 0 0 0.020500001
1.027 0.461 -0.39899999 68 0 0 0 0.020509999
1.03 0.461 -0.39700001 75 0 0 0 0.02052
1.0369999 0.463 -0.398 75 0 0 0 0.02053
1.0369999 0.461 -0.39500001 76 0 0 0 0.020540001
1.041 0.461 -0.39300001 79 0 0 0 0.02055
1.049 0.463 -0.39399999 80 0 0 0 0.02056
1.053 0.463 -0.39199999 84 0 0 0 0.020570001
1.049 0.46000001 -0.38800001 85 0 0 0 0.020579999
1.061 0.463 -0.38999999 39 0 0 0 0.02059
1.069 0.465 -0.38999999 39 0 0 0 0.0206
1.074 0.465 -0.389 40 0 0 0 0.020609999
1.081 0.46700001 -0.389 39 0 0 0 0.02062
1.082 0.465 -0.38600001 41 0 0 0 0.02063
1.0880001 0.46599999 -0.38600001 38 0 0 0 0.020640001
1.0930001 0.46599999 -0.384 33 0 0 0 0.020649999
1.096 0.465 -0.382 27 0 0 0 0.02066
1.098 0.46399999 -0.38 28 0 0 0 0.02067
1.11 0.46700001 -0.382 30 0 0 0 0.020679999
1.113 0.46599999 -0.38 28 0 0 0 0.02069
1.117 0.46599999 -0.37799999 26 0 0 0 0.0207
1.124 0.46700001 -0.377 29 0 0 0 0.020710001
1.135 0.46900001 -0.37799999 29 0 0 0 0.020719999
1.137 0.46799999 -0.37599999 30 0 0 0 0.02073
1.145 0.46900001 -0.37599999 28 0 0 0 0.020740001
1.149 0.46799999 -0.37400001 32 0 0 0 0.020749999
1.1569999 0.46900001 -0.373 32 0 0 0 0.02076
1.165 0.47 -0.373 1 0 0 0 0.02077
1.169 0.46900001 -0.37099999 1 0 0 0 0.020780001
1.176 0.47 -0.37 1 0 0 0 0.02079
1.1849999 0.47099999 -0.37 1 0 0 0 0.0208
2.7449999 1.085 -0.85000002 1 0 0 0 0.020810001
2.7709999 1.09 -0.85100001 0 0 0 0 0.020819999
2.803 1.096 -0.85399997 0 0 0 0 0.02083
1.223 0.47600001 -0.36899999 1 0 0 0 0.02084
1.2309999 0.47600001 -0.368 2 0 0 0 0.020850001
1.2460001 0.479 -0.37 3 0 0 0 0.02086
1.28 0.49000001 -0.37599999 7 0 0 0 0.02087
1.289 0.49000001 -0.37599999 12 0 0 0 0.020880001
1.289 0.48699999 -0.37200001 74 0 0 0 0.020889999
1.286 0.48300001 -0.368 150 0 0 0 0.0209
1.283 0.479 -0.36399999 150 0 0 0 0.02091
1.279 0.47499999 -0.36000001 150 0 0 0 0.020919999
1.281 0.47299999 -0.35699999 150 0 0 0 0.02093
1.2819999 0.47 -0.354 150 0 0 0 0.02094
1.283 0.46799999 -0.35100001 150 0 0 0 0.020950001
1.285 0.465 -0.34900001 150 0 0 0 0.020959999
1.285 0.46200001 -0.345 150 0 0 0 0.02097
1.285 0.46000001 -0.34200001 150 0 0 0 0.02098
1.2869999 0.45699999 -0.34 150 0 0 0 0.020989999
1.286 0.454 -0.336 150 0 0 0 0.021
1.285 0.45100001 -0.333 150 0 0 0 0.02101
1.286 0.44800001 -0.33000001 150 0 0 0 0.021020001
1.289 0.44600001 -0.32699999 150 0 0 0 0.021029999
1.2869999 0.442 -0.324 150 0 0 0 0.02104
1.291 0.44 -0.32100001 119 0 0 0 0.021050001
1.311 0.44400001 -0.32300001 13 0 0 0 0.021059999
1.3279999 0.447 -0.324 6 0 0 0 0.02107
1.339 0.447 -0.324 1 0 0 0 0.02108
1.344 0.44600001 -0.322 1 0 0 0 0.021090001
1.362 0.44800001 -0.32300001 1 0 0 0 0.0211
1.391 0.45500001 -0.32600001 1 0 0 0 0.02111
1.399 0.454 -0.32499999 1 0 0 0 0.021120001
1.415 0.45500001 -0.32499999 1 0 0 0 0.021129999
1.428 0.456 -0.32499999 1 0 0 0 0.02114
1.443 0.45699999 -0.32499999 1 0 0 0 0.02115
1.455 0.458 -0.324 1 0 0 0 0.021159999
1.466 0.45699999 -0.32300001 1 0 0 0 0.02117
1.4859999 0.46000001 -0.324 1 0 0 0 0.02118
2.5009999 0.76800001 -0.54000002 150 0 0 0 0.021190001
2.3139999 0.70499998 -0.49399999 150 0 0 0 0.021199999
2.4059999 0.727 -0.50800002 150 0 0 0 0.02121
2.48 0.74299997 -0.51800001 150 0 0 0 0.02122
2.483 0.73799998 -0.51300001 150 0 0 0 0.021229999
2.483 0.73100001 -0.50700003 150 0 0 0 0.02124
2.4820001 0.72500002 -0.50099999 150 0 0 0 0.02125
2.48 0.71799999 -0.495 150 0 0 0 0.021260001
2.427 0.69599998 -0.479 150 0 0 0 0.021269999
2.2739999 0.64700001 -0.44400001 151 0 0 0 0.02128
2.2320001 0.62900001 -0.43000001 151 0 0 0 0.021290001
2.221 0.62 -0.42300001 151 0 0 0 0.021299999
2.217 0.61400002 -0.41800001 151 0 0 0 0.02131
2.2249999 0.61000001 -0.414 151 0 0 0 0.02132
2.2219999 0.60299999 -0.40900001 151 0 0 0 0.021330001
2.221 0.597 -0.40400001 151 0 0 0 0.02134
2.223 0.59200001 -0.39899999 151 0 0 0 0.02135
2.22 0.58600003 -0.39399999 151 0 0 0 0.021360001
2.2160001 0.579 -0.38800001 151 0 0 0 0.021369999
2.2160001 0.57300001 -0.38299999 151 0 0 0 0.02138
2.2149999 0.56699997 -0.37799999 151 0 0 0 0.02139
2.217 0.56199998 -0.37400001 151 0 0 0 0.021400001
2.2160001 0.55599999 -0.36899999 151 0 0 0 0.02141
2.2149999 0.55000001 -0.36399999 151 0 0 0 0.02142
2.2119999 0.54299998 -0.359 151 0 0 0 0.021430001
2.2190001 0.53899997 -0.35499999 151 0 0 0 0.021439999
2.2160001 0.53299999 -0.34999999 151 0 0 0 0.02145
2.217 0.52700001 -0.34599999 151 0 0 0 0.02146
2.233 0.52499998 -0.34400001 151 0 0 0 0.021469999
2.24 0.51999998 -0.34 151 0 0 0 0.02148
2.2390001 0.514 -0.33500001 152 0 0 0 0.02149
2.244 0.509 -0.331 151 0 0 0 0.021500001
2.2590001 0.50700003 -0.329 150 0 0 0 0.021509999
2.2969999 0.509 -0.33000001 33 0 0 0 0.02152
2.3659999 0.51800001 -0.33500001 26 0 0 0 0.02153
2.4000001 0.51899999 -0.33500001 22 0 0 0 0.021539999
2.4489999 0.52399999 -0.336 23 0 0 0 0.02155
2.49 0.52600002 -0.33700001 22 0 0 0 0.02156
2.5439999 0.52999997 -0.33899999 23 0 0 0 0.021570001
2.5929999 0.53399998 -0.34099999 23 0 0 0 0.021579999
2.645 0.537 -0.34200001 24 0 0 0 0.02159
2.7049999 0.542 -0.34400001 26 0 0 0 0.021600001
2.777 0.54900002 -0.34799999 28 0 0 0 0.021609999
2.852 0.55599999 -0.352 26 0 0 0 0.02162
2.928 0.56300002 -0.35499999 28 0 0 0 0.02163
3.0079999 0.57099998 -0.359 28 0 0 0 0.021640001
3.0409999 0.56900001 -0.35699999 27 0 0 0 0.02165
3.0899999 0.56999999 -0.35699999 26 0 0 0 0.02166
3.155 0.57300001 -0.35800001 27 0 0 0 0.021670001
3.2190001 0.57599998 -0.359 27 0 0 0 0.021679999
3.266 0.57599998 -0.35800001 96 0 0 0 0.02169
3.28 0.56900001 -0.354 152 0 0 0 0.0217
3.2880001 0.56199998 -0.34799999 152 0 0 0 0.021709999
3.29 0.55299997 -0.34200001 152 0 0 0 0.02172
3.286 0.54400003 -0.336 152 0 0 0 0.02173
3.29 0.53500003 -0.33000001 151 0 0 0 0.021740001
3.309 0.52899998 -0.32499999 151 0 0 0 0.021749999
3.312 0.52100003 -0.31900001 152 0 0 0 0.02176
3.3150001 0.51200002 -0.31400001 151 0 0 0 0.02177
3.3559999 0.50999999 -0.31099999 151 0 0 0 0.021779999
3.3740001 0.50300002 -0.30700001 152 0 0 0 0.02179
3.3789999 0.495 -0.301 151 0 0 0 0.0218
3.381 0.486 -0.29499999 151 0 0 0 0.021810001
3.3829999 0.477 -0.289 151 0 0 0 0.021819999
3.381 0.46700001 -0.28200001 151 0 0 0 0.02183
3.3829999 0.458 -0.27599999 151 0 0 0 0.021840001
3.381 0.449 -0.27000001 151 0 0 0 0.021849999
3.3829999 0.44 -0.264 151 0 0 0 0.02186
3.3870001 0.43099999 -0.25799999 152 0 0 0 0.02187
3.3900001 0.42199999 -0.252 152 0 0 0 0.021880001
3.3829999 0.412 -0.24600001 152 0 0 0 0.02189
3.3889999 0.403 -0.23999999 152 0 0 0 0.0219
3.391 0.39399999 -0.234 152 0 0 0 0.021910001
3.391 0.38499999 -0.228 152 0 0 0 0.021919999
3.3900001 0.37599999 -0.222 153 0 0 0 0.02193
3.3859999 0.366 -0.21600001 153 0 0 0 0.02194
3.3929999 0.35699999 -0.20999999 153 0 0 0 0.021950001
3.3840001 0.347 -0.204 154 0 0 0 0.02196
3.3800001 0.33700001 -0.198 154 0 0 0 0.02197
3.381 0.32800001 -0.192 154 0 0 0 0.021980001
3.3789999 0.31799999 -0.186 154 0 0 0 0.021989999
3.368 0.308 -0.17900001 155 0 0 0 0.022
3.3670001 0.29899999 -0.17299999 156 0 0 0 0.02201
3.3659999 0.289 -0.168 156 0 0 0 0.022019999
3.365 0.28 -0.162 156 0 0 0 0.02203
3.359 0.27000001 -0.156 157 0 0 0 0.02204
3.3610001 0.26100001 -0.15000001 158 0 0 0 0.022050001
3.3610001 0.252 -0.145 158 0 0 0 0.022059999
3.358 0.242 -0.139 159 0 0 0 0.02207
3.3599999 0.233 -0.133 159 0 0 0 0.02208
3.358 0.223 -0.127 159 0 0 0 0.022089999
3.3570001 0.214 -0.122 159 0 0 0 0.0221
3.3599999 0.205 -0.116 160 0 0 0 0.02211
3.3599999 0.19499999 -0.111 159 0 0 0 0.022120001
3.3640001 0.186 -0.105 160 0 0 0 0.022129999
3.3670001 0.177 -0.1 158 0 0 0 0.02214
3.362 0.167 -0.093999997 159 0 0 0 0.022150001
3.3629999 0.15800001 -0.089000002 159 0 0 0 0.022159999
3.3699999 0.149 -0.082999997 158 0 0 0 0.02217
3.378 0.14 -0.078000002 157 0 0 0 0.02218
3.382 0.13 -0.072999999 156 0 0 0 0.022190001
3.378 0.121 -0.067000002 157 0 0 0 0.0222
3.382 0.111 -0.061999999 155 0 0 0 0.02221
3.3870001 0.102 -0.056000002 154 0 0 0 0.022220001
3.398 0.093000002 -0.050999999 154 0 0 0 0.022229999
3.3900001 0.082999997 -0.045000002 154 0 0 0 0.02224
3.398 0.074000001 -0.039999999 154 0 0 0 0.02225
3.404 0.064000003 -0.035 154 0 0 0 0.022260001
3.4119999 0.055 -0.029999999 153 0 0 0 0.02227
3.418 0.045000002 -0.024 153 0 0 0 0.02228
3.418 0.035 -0.018999999 153 0 0 0 0.022290001
3.4219999 0.026000001 -0.013 152 0 0 0 0.022299999
3.421 0.016000001 -0.0080000004 151 0 0 0 0.02231
3.418 0.0060000001 -0.003 151 0 0 0 0.02232
3.421 -0.0020000001 0.0020000001 151 0 0 0 0.022329999
3.4200001 -0.012 0.0070000002 151 0 0 0 0.02234
3.421 -0.022 0.012 151 0 0 0 0.02235
3.4260001 -0.032000002 0.017999999 151 0 0 0 0.022360001
3.428 -0.041999999 0.023 151 0 0 0 0.022369999
3.427 -0.050999999 0.028000001 151 0 0 0 0.02238
3.428 -0.061000001 0.033 151 0 0 0 0.022390001
3.427 -0.071000002 0.039000001 151 0 0 0 0.022399999
3.4319999 -0.081 0.044 151 0 0 0 0.02241
3.427 -0.090000004 0.048999999 151 0 0 0 0.02242
3.4319999 -0.1 0.054000001 151 0 0 0 0.022430001
3.431 -0.11 0.059 151 0 0 0 0.02244
3.4360001 -0.12 0.064999998 151 0 0 0 0.02245
3.4300001 -0.13 0.07 151 0 0 0 0.022460001
3.438 -0.14 0.075000003 151 0 0 0 0.022469999
3.4389999 -0.15000001 0.079999998 151 0 0 0 0.02248
3.4319999 -0.16 0.085000001 151 0 0 0 0.02249
3.4230001 -0.169 0.090000004 154 0 0 0 0.022500001
3.3940001 -0.178 0.093999997 150 0 0 0 0.02251
3.3759999 -0.186 0.097999997 151 0 0 0 0.02252
3.3699999 -0.19599999 0.103 152 0 0 0 0.022530001
3.3670001 -0.205 0.108 151 0 0 0 0.022539999
3.346 -0.214 0.112 151 0 0 0 0.02255
3.3469999 -0.22400001 0.117 151 0 0 0 0.02256
3.3469999 -0.233 0.122 151 0 0 0 0.022569999
3.345 -0.243 0.126 152 0 0 0 0.02258
3.339 -0.252 0.131 151 0 0 0 0.02259
3.2720001 -0.257 0.133 73 0 0 0 0.022600001
3.2309999 -0.26300001 0.13600001 151 0 0 0 0.022609999
3.237 -0.273 0.141 151 0 0 0 0.02262
3.2360001 -0.28200001 0.145 151 0 0 0 0.02263
3.233 -0.292 0.15000001 151 0 0 0 0.022639999
3.234 -0.301 0.154 151 0 0 0 0.02265
3.2379999 -0.31099999 0.15899999 151 0 0 0 0.02266
3.2160001 -0.31799999 0.162 150 0 0 0 0.022670001
3.211 -0.32800001 0.167 151 0 0 0 0.022679999
3.21 -0.33700001 0.171 151 0 0 0 0.02269
3.2090001 -0.34599999 0.175 151 0 0 0 0.022700001
3.211 -0.35600001 0.18000001 151 0 0 0 0.022709999
3.204 -0.36500001 0.184 151 0 0 0 0.02272
2.8699999 -0.33500001 0.169 150 0 0 0 0.02273
2.575 -0.30899999 0.155 24 0 0 0 0.022740001
2.54 -0.31200001 0.156 29 0 0 0 0.02275
2.4809999 -0.31200001 0.156 26 0 0 0 0.02276
2.4230001 -0.31200001 0.155 18 0 0 0 0.022770001
2.3870001 -0.31400001 0.156 23 0 0 0 0.022779999
2.378 -0.31999999 0.15899999 10 0 0 0 0.02279
2.382 -0.32800001 0.162 2 0 0 0 0.0228
2.3759999 -0.33399999 0.16500001 1 0 0 0 0.022810001
2.385 -0.34299999 0.169 2 0 0 0 0.02282
2.385 -0.34999999 0.17200001 1 0 0 0 0.02283
2.3900001 -0.35800001 0.175 1 0 0 0 0.022840001
2.378 -0.36300001 0.178 1 0 0 0 0.022849999
2.3599999 -0.368 0.17900001 0 0 0 0 0.02286
2.3829999 -0.37799999 0.184 0 0 0 0 0.02287
2.4100001 -0.38999999 0.189 0 0 0 0 0.022879999
2.4230001 -0.40000001 0.19400001 0 0 0 0 0.02289
2.4119999 -0.405 0.19599999 0 0 0 0 0.0229
2.4059999 -0.412 0.198 0 0 0 0 0.022910001
2.411 -0.41999999 0.20200001 0 0 0 0 0.022919999
2.3959999 -0.42399999 0.20299999 0 0 0 0 0.02293
0 0 0 0 0 0 0 0.022940001
0 0 0 0 0 0 0 0.022949999
0 0 0 0 0 0 0 0.02296
2.427 -0.46000001 0.21799999 0 0 0 0 0.02297
0 0 0 0 0 0 0 0.022980001
0 0 0 0 0 0 0 0.02299
0 0 0 0 0 0 0 0.023
0 0 0 0 0 0 0 0.023010001
0 0 0 0 0 0 0 0.023019999
0 0 0 0 0 0 0 0.02303
0 0 0 0 0 0 0 0.02304
0 0 0 0 0 0 0 0.023050001
0 0 0 0 0 0 0 0.02306
2.401 -0.52899998 0.245 0 0 0 0 0.02307
2.415 -0.54000002 0.249 0 0 0 0 0.023080001
0 0 0 0 0 0 0 0.023089999
0 0 0 0 0 0 0 0.0231
0 0 0 0 0 0 0 0.02311
0 0 0 0 0 0 0 0.023119999
0 0 0 0 0 0 0 0.02313
0 0 0 0 0 0 0 0.02314
0 0 0 0 0 0 0 0.023150001
0 0 0 0 0 0 0 0.023159999
0 0 0 0 0 0 0 0.02317
0 0 0 0 0 0 0 0.02318
2.4360001 -0.62900001 0.28099999 0 0 0 0 0.023189999
2.4130001 -0.63099998 0.28099999 0 0 0 0 0.0232
0 0 0 0 0 0 0 0.02321
0 0 0 0 0 0 0 0.023220001
0 0 0 0 0 0 0 0.023229999
0 0 0 0 0 0 0 0.02324
0 0 0 0 0 0 0 0.023250001
0 0 0 0 0 0 0 0.023259999
0 0 0 0 0 0 0 0.02327
0 0 0 0 0 0 0 0.02328
0 0 0 0 0 0 0 0.023290001
0 0 0 0 0 0 0 0.0233
0 0 0 0 0 0 0 0.02331
0 0 0 0 0 0 0 0.023320001
0 0 0 0 0 0 0 0.023329999
0 0 0 0 0 0 0 0.02334
0 0 0 0 0 0 0 0.02335
0 0 0 0 0 0 0 0.023360001
0 0 0 0 0 0 0 0.02337
2.819 -0.90200001 0.38 0 0 0 0 0.02338
0 0 0 0 0 0 0 0.023390001
0 0 0 0 0 0 0 0.023399999
0 0 0 0 0 0 0 0.02341
0 0 0 0 0 0 0 0.02342
0 0 0 0 0 0 0 0.023429999
0 0 0 0 0 0 0 0.02344
0 0 0 0 0 0 0 0.02345
0 0 0 0 0 0 0 0.023460001
0 0 0 0 0 0 0 0.023469999
2.6819999 -0.94599998 0.38499999 0 0 0 0 0.02348
0 0 0 0 0 0 0 0.023490001
0 0 0 0 0 0 0 0.023499999
0 0 0 0 0 0 0 0.02351
0 0 0 0 0 0 0 0.02352
2.3870001 -0.88200003 0.352 0 0 0 0 0.023530001
0 0 0 0 0 0 0 0.023539999
0 0 0 0 0 0 0 0.02355
0 0 0 0 0 0 0 0.023560001
0 0 0 0 0 0 0 0.023569999
0 0 0 0 0 0 0 0.02358
0 0 0 0 0 0 0 0.02359
0 0 0 0 0 0 0 0.023600001
0 0 0 0 0 0 0 0.02361
2.3410001 -0.935 0.361 0 0 0 0 0.02362
2.395 -0.96399999 0.37099999 0 0 0 0 0.023630001
0 0 0 0 0 0 0 0.023639999
2.3940001 -0.98000002 0.37400001 0 0 0 0 0.02365
0 0 0 0 0 0 0 0.02366
2.3900001 -0.995 0.37599999 0 0 0 0 0.023669999
2.424 -1.017 0.38299999 0 0 0 0 0.02368
2.444 -1.033 0.38800001 0 0 0 0 0.02369
2.4530001 -1.046 0.391 0 0 0 0 0.023700001
2.448 -1.051 0.391 0 0 0 0 0.023709999
2.8080001 -1.215 0.44999999 0 0 0 0 0.02372
2.45 -1.069 0.39399999 0 0 0 0 0.02373
2.477 -1.089 0.40000001 0 0 0 0 0.023739999
2.428 -1.075 0.39300001 0 0 0 0 0.02375
2.392 -1.068 0.38800001 0 0 0 0 0.02376
0 0 0 0 0 0 0 0.023770001
2.4260001 -1.099 0.396 0 0 0 0 0.023779999
2.4119999 -1.1 0.39500001 0 0 0 0 0.02379
2.437 -1.12 0.40000001 0 0 0 0 0.023800001
2.418 -1.119 0.398 0 0 0 0 0.023809999
0 0 0 0 0 0 0 0.02382
2.3729999 -1.115 0.39199999 0 0 0 0 0.02383
2.431 -1.15 0.403 0 0 0 0 0.023840001
2.431 -1.158 0.40400001 0 0 0 0 0.02385
2.4300001 -1.165 0.40400001 0 0 0 0 0.02386
2.5 -1.207 0.417 0 0 0 0 0.023870001
2.5239999 -1.227 0.42199999 0 0 0 0 0.023879999
4.6950002 -2.2980001 0.78600001 42 0 0 0 0.02389
2.4159999 -1.1900001 0.405 0 0 0 0 0.0239
2.474 -1.227 0.41499999 0 0 0 0 0.023910001
2.4260001 -1.211 0.40799999 0 0 0 0 0.02392
2.4460001 -1.229 0.41100001 0 0 0 0 0.02393
2.4330001 -1.2309999 0.41 0 0 0 0 0.023940001
2.4719999 -1.258 0.417 0 0 0 0 0.023949999
2.5239999 -1.293 0.426 0 0 0 0 0.02396
2.4909999 -1.284 0.421 0 0 0 0 0.02397
2.355 -1.221 0.398 0 0 0 0 0.023979999
2.3970001 -1.251 0.40599999 0 0 0 0 0.02399
4.6830001 -2.4590001 0.79299998 8 0 0 0 0.024
2.385 -1.26 0.40400001 0 0 0 0 0.024010001
2.464 -1.3099999 0.417 0 0 0 0 0.024019999
2.474 -1.323 0.419 0 0 0 0 0.02403
2.5840001 -1.39 0.43799999 0 0 0 0 0.024040001
2.471 -1.337 0.419 0 0 0 0 0.024049999
2.5150001 -1.368 0.426 0 0 0 0 0.02406
2.5020001 -1.369 0.42399999 0 0 0 0 0.02407
2.5220001 -1.388 0.42699999 0 0 0 0 0.024080001
2.4849999 -1.375 0.421 0 0 0 0 0.024089999
2.4289999 -1.352 0.41100001 0 0 0 0 0.0241
2.388 -1.336 0.40400001 0 0 0 0 0.024110001
2.895 -1.6289999 0.48899999 0 0 0 0 0.024119999
2.994 -1.693 0.50599998 0 0 0 0 0.02413
2.5009999 -1.4220001 0.42199999 0 0 0 0 0.02414
2.5079999 -1.433 0.42199999 0 0 0 0 0.024150001
4.2529998 -2.444 0.71600002 1 0 0 0 0.02416
4.2389998 -2.448 0.713 2 0 0 0 0.02417
2.4460001 -1.419 0.41 0 0 0 0 0.024180001
2.9530001 -1.722 0.495 0 0 0 0 0.024189999
2.892 -1.6950001 0.484 0 0 0 0 0.0242
4.0320001 -2.375 0.67299998 1 0 0 0 0.02421
2.421 -1.433 0.403 0 0 0 0 0.024219999
2.948 -1.753 0.49000001 0 0 0 0 0.02423
3.013 -1.8 0.5 0 0 0 0 0.02424
3.023 -1.8150001 0.5 0 0 0 0 0.024250001
3.9349999 -2.3729999 0.64899999 2 0 0 0 0.024259999
4.0370002 -2.4449999 0.66399997 3 0 0 0 0.02427
4.0289998 -2.451 0.66100001 3 0 0 0 0.02428
3.9909999 -2.4389999 0.653 4 0 0 0 0.024289999
3.9849999 -2.4460001 0.64999998 5 0 0 0 0.0243
2.8099999 -1.732 0.45699999 0 0 0 0 0.02431
3.9189999 -2.425 0.63499999 2 0 0 0 0.024320001
3.967 -2.4649999 0.64099997 6 0 0 0 0.024329999
4.0029998 -2.4979999 0.64399999 10 0 0 0 0.02434
3.9489999 -2.474 0.63300002 6 0 0 0 0.024350001
3.9319999 -2.473 0.62800002 6 0 0 0 0.024359999
3.951 -2.494 0.62900001 7 0 0 0 0.02437
2.9089999 -1.8430001 0.461 0 0 0 0 0.02438
3.848 -2.447 0.60699999 6 0 0 0 0.024390001
3.934 -2.5109999 0.61799997 5 0 0 0 0.0244
2.875 -1.841 0.449 0 0 0 0 0.02441
2.974 -1.9119999 0.463 0 0 0 0 0.024420001
3.5739999 -2.306 0.55299997 2 0 0 0 0.024429999
2.4560001 -1.59 0.37799999 0 0 0 0 0.02444
3.4979999 -2.2720001 0.53600001 5 0 0 0 0.02445
2.4189999 -1.576 0.368 0 0 0 0 0.024460001
3.4960001 -2.2839999 0.52999997 5 0 0 0 0.02447
2.4590001 -1.612 0.37 0 0 0 0 0.02448
2.983 -1.961 0.447 0 0 0 0 0.024490001
3.885 -2.562 0.57800001 7 0 0 0 0.024499999
2.9920001 -1.979 0.44299999 0 0 0 0 0.02451
3.0309999 -2.01 0.44499999 0 0 0 0 0.02452
3.8110001 -2.5339999 0.55599999 7 0 0 0 0.024529999
3.7709999 -2.5139999 0.54699999 6 0 0 0 0.02454
2.934 -1.961 0.42199999 0 0 0 0 0.02455
2.9649999 -1.987 0.42399999 0 0 0 0 0.024560001
3.5829999 -2.4070001 0.509 5 0 0 0 0.024569999
3.599 -2.4230001 0.50700003 5 0 0 0 0.02458
3.677 -2.4809999 0.514 6 0 0 0 0.024590001
2.477 -1.675 0.34400001 0 0 0 0 0.024599999
2.4690001 -1.673 0.34 0 0 0 0 0.02461
2.4360001 -1.654 0.33199999 0 0 0 0 0.02462
2.454 -1.669 0.33199999 0 0 0 0 0.024630001
2.4790001 -1.6900001 0.333 0 0 0 0 0.024639999
2.471 -1.688 0.329 0 0 0 0 0.02465
3.5 -2.3940001 0.46200001 5 0 0 0 0.024660001
3.6059999 -2.471 0.47099999 5 0 0 0 0.024669999
3.006 -2.063 0.389 0 0 0 0 0.02468
3.691 -2.5369999 0.47299999 6 0 0 0 0.02469
2.9790001 -2.0510001 0.37799999 0 0 0 0 0.024700001
2.924 -2.0150001 0.36700001 0 0 0 0 0.02471
3.7950001 -2.619 0.472 6 0 0 0 0.02472
3.7690001 -2.605 0.46399999 6 0 0 0 0.024730001
3.0420001 -2.1040001 0.37 0 0 0 0 0.024739999
2.98 -2.063 0.359 0 0 0 0 0.02475
3.698 -2.563 0.44100001 5 0 0 0 0.02476
3.0220001 -2.0969999 0.35600001 0 0 0 0 0.024769999
3.681 -2.556 0.42899999 5 0 0 0 0.02478
2.9920001 -2.079 0.345 0 0 0 0 0.02479
2.98 -2.072 0.33899999 0 0 0 0 0.024800001
2.9590001 -2.0580001 0.333 0 0 0 0 0.024809999
2.925 -2.036 0.32499999 0 0 0 0 0.02482
2.994 -2.085 0.32800001 0 0 0 0 0.02483
3.0020001 -2.0899999 0.32499999 0 0 0 0 0.024839999
3.5929999 -2.503 0.384 5 0 0 0 0.02485
3.598 -2.507 0.37900001 5 0 0 0 0.02486
3.596 -2.5050001 0.37400001 5 0 0 0 0.024870001
2.4530001 -1.709 0.25099999 0 0 0 0 0.024879999
3.572 -2.4890001 0.361 5 0 0 0 0.02489
3.0079999 -2.096 0.30000001 0 0 0 0 0.024900001
2.97 -2.069 0.292 0 0 0 0 0.024909999
3.0139999 -2.099 0.29100001 0 0 0 0 0.02492
3.033 -2.1110001 0.289 0 0 0 0 0.02493
3.8069999 -2.648 0.35699999 6 0 0 0 0.024940001
2.98 -2.072 0.27500001 0 0 0 0 0.02495
3.7650001 -2.6159999 0.34200001 6 0 0 0 0.02496
3.017 -2.095 0.26899999 0 0 0 0 0.024970001
3.7809999 -2.6229999 0.33199999 6 0 0 0 0.024979999
3.7950001 -2.631 0.32800001 6 0 0 0 0.02499
3.0380001 -2.1040001 0.25799999 0 0 0 0 0.025
3.079 -2.1300001 0.257 0 0 0 0 0.025010001
2.908 -2.01 0.23800001 0 0 0 0 0.02502
3.885 -2.6819999 0.31200001 6 0 0 0 0.02503
3.878 -2.674 0.30599999 6 0 0 0 0.025040001
3.9430001 -2.7149999 0.30500001 6 0 0 0 0.025049999
3.9760001 -2.733 0.30199999 7 0 0 0 0.02506
3.967 -2.723 0.29499999 6 0 0 0 0.02507
3.9749999 -2.724 0.28999999 6 0 0 0 0.025079999
3.9860001 -2.7279999 0.285 6 0 0 0 0.02509
3.973 -2.714 0.278 5 0 0 0 0.0251
3.9719999 -2.7090001 0.27200001 4 0 0 0 0.025110001
4 -2.723 0.26800001 2 0 0 0 0.025119999
4.0139999 -2.727 0.26300001 1 0 0 0 0.02513
0 0 0 0 0 0 0 0.025140001
1.257 -0.85000002 0.078000002 0 0 0 0 0.025149999
1.258 -0.84899998 0.077 3 0 0 0 0.02516
1.2539999 -0.84399998 0.074000001 5 0 0 0 0.02517
1.255 -0.84299999 0.072999999 6 0 0 0 0.025180001
1.256 -0.84200001 0.071000002 6 0 0 0 0.025189999
1.2539999 -0.83899999 0.068999998 7 0 0 0 0.0252
1.2539999 -0.83700001 0.067000002 7 0 0 0 0.025210001
1.252 -0.833 0.064999998 7 0 0 0 0.025219999
1.252 -0.83099997 0.064000003 7 0 0 0 0.02523
1.253 -0.829 0.061999999 7 0 0 0 0.02524
1.253 -0.82700002 0.059999999 6 0 0 0 0.025250001
1.252 -0.824 0.057999998 7 0 0 0 0.02526
1.253 -0.82200003 0.057 5 0 0 0 0.02527
1.2539999 -0.81999999 0.055 5 0 0 0 0.025280001
1.25 -0.815 0.052999999 5 0 0 0 0.025289999
1.251 -0.81300002 0.050999999 4 0 0 0 0.0253
1.252 -0.81099999 0.050000001 5 0 0 0 0.02531
1.252 -0.80800003 0.048 4 0 0 0 0.025319999
1.249 -0.80400002 0.046 4 0 0 0 0.02533
1.251 -0.80199999 0.045000002 5 0 0 0 0.02534
1.248 -0.79699999 0.043000001 4 0 0 0 0.025350001
1.249 -0.79500002 0.041000001 4 0 0 0 0.025359999
1.245 -0.79000002 0.039999999 4 0 0 0 0.02537
1.247 -0.78799999 0.037999999 4 0 0 0 0.02538
1.247 -0.78500003 0.035999998 4 0 0 0 0.025389999
1.249 -0.78399998 0.035 4 0 0 0 0.0254
1.244 -0.77700001 0.033 4 0 0 0 0.02541
1.247 -0.77600002 0.032000002 4 0 0 0 0.025420001
1.243 -0.76999998 0.029999999 5 0 0 0 0.025429999
1.243 -0.76700002 0.028999999 4 0 0 0 0.02544
1.245 -0.76499999 0.027000001 4 0 0 0 0.025450001
1.242 -0.75999999 0.026000001 5 0 0 0 0.025459999
1.242 -0.75700003 0.024 4 0 0 0 0.02547
1.24 -0.75199997 0.023 4 0 0 0 0.02548
1.2410001 -0.75 0.021 4 0 0 0 0.025490001
1.2410001 -0.74599999 0.02 4 0 0 0 0.0255
1.2359999 -0.74000001 0.017999999 3 0 0 0 0.02551
1.237 -0.73699999 0.017000001 4 0 0 0 0.025520001
1.239 -0.73500001 0.016000001 3 0 0 0 0.025529999
1.238 -0.73100001 0.014 3 0 0 0 0.02554
1.2410001 -0.72899997 0.013 3 0 0 0 0.02555
1.2359999 -0.722 0.012 4 0 0 0 0.025560001
1.237 -0.72000003 0.0099999998 3 0 0 0 0.02557
1.235 -0.71499997 0.0089999996 3 0 0 0 0.02558
1.234 -0.71100003 0.0080000004 3 0 0 0 0.025590001
1.235 -0.708 0.0070000002 3 0 0 0 0.025599999
1.2309999 -0.70200002 0.0049999999 3 0 0 0 0.02561
1.233 -0.699 0.0040000002 3 0 0 0 0.02562
1.227 -0.69300002 0.003 3 0 0 0 0.025629999
1.232 -0.69099998 0.0020000001 3 0 0 0 0.02564
1.2309999 -0.68699998 0.001 3 0 0 0 0.02565
1.23 -0.68300003 0 3 0 0 0 0.025660001
1.232 -0.68000001 0 3 0 0 0 0.025669999
1.224 -0.67199999 -0.0020000001 2 0 0 0 0.02568
1.226 -0.66900003 -0.003 2 0 0 0 0.025690001
1.227 -0.66600001 -0.0040000002 3 0 0 0 0.025699999
1.223 -0.66000003 -0.0049999999 2 0 0 0 0.02571
1.226 -0.65799999 -0.0060000001 3 0 0 0 0.02572
1.223 -0.65200001 -0.0070000002 2 0 0 0 0.025730001
1.22 -0.64700001 -0.0080000004 2 0 0 0 0.025739999
1.2180001 -0.64200002 -0.0089999996 2 0 0 0 0.02575
1.222 -0.63999999 -0.0099999998 2 0 0 0 0.025760001
1.223 -0.63599998 -0.011 2 0 0 0 0.025769999
1.212 -0.62699997 -0.011 2 0 0 0 0.02578
1.215 -0.625 -0.012 2 0 0 0 0.02579
1.214 -0.62 -0.013 1 0 0 0 0.025800001
1.215 -0.61699998 -0.014 2 0 0 0 0.02581
1.2130001 -0.61199999 -0.015 1 0 0 0 0.02582
1.212 -0.60699999 -0.016000001 2 0 0 0 0.025830001
1.21 -0.602 -0.016000001 1 0 0 0 0.025839999
1.2079999 -0.597 -0.017000001 1 0 0 0 0.02585
1.21 -0.59500003 -0.017999999 1 0 0 0 0.02586
1.206 -0.58899999 -0.018999999 1 0 0 0 0.025869999
1.207 -0.58499998 -0.018999999 1 0 0 0 0.02588
1.205 -0.57999998 -0.02 1 0 0 0 0.02589
1.202 -0.57499999 -0.021 1 0 0 0 0.025900001
1.202 -0.57099998 -0.021 1 0 0 0 0.025909999
1.2 -0.56599998 -0.022 1 0 0 0 0.02592
1.196 -0.56 -0.023 1 0 0 0 0.02593
1.192 -0.55400002 -0.023 1 0 0 0 0.025939999
1.191 -0.55000001 -0.024 1 0 0 0 0.02595
1.189 -0.54500002 -0.024 1 0 0 0 0.02596
1.1900001 -0.54100001 -0.025 1 0 0 0 0.025970001
1.187 -0.53600001 -0.025 1 0 0 0 0.025979999
1.186 -0.53100002 -0.026000001 2 0 0 0 0.02599
1.183 -0.52600002 -0.026000001 11 0 0 0 0.026000001
2.421 -1.069 -0.056000002 150 0 0 0 0.026009999
2.4170001 -1.059 -0.057 150 0 0 0 0.02602
2.4059999 -1.046 -0.057 21 0 0 0 0.02603
2.4089999 -1.039 -0.057999998 23 0 0 0 0.026040001
2.4089999 -1.031 -0.059 24 0 0 0 0.02605
2.408 -1.022 -0.059999999 20 0 0 0 0.02606
2.408 -1.0140001 -0.061000001 24 0 0 0 0.026070001
2.405 -1.005 -0.061999999 29 0 0 0 0.026079999
2.408 -0.99800003 -0.063000001 23 0 0 0 0.02609
2.405 -0.98799998 -0.064000003 22 0 0 0 0.0261
2.4070001 -0.98100001 -0.064000003 29 0 0 0 0.026110001
2.401 -0.97000003 -0.064999998 24 0 0 0 0.02612
2.402 -0.96200001 -0.066 20 0 0 0 0.02613
2.405 -0.95499998 -0.066 21 0 0 0 0.026140001
2.401 -0.94599998 -0.067000002 19 0 0 0 0.026149999
2.4030001 -0.93800002 -0.068000004 19 0 0 0 0.02616
2.408 -0.93199998 -0.068000004 20 0 0 0 0.02617
2.401 -0.921 -0.068999998 21 0 0 0 0.026179999
2.3989999 -0.912 -0.068999998 22 0 0 0 0.02619
2.4030001 -0.90600002 -0.07 25 0 0 0 0.0262
2.4000001 -0.89600003 -0.07 26 0 0 0 0.026210001
2.398 -0.88700002 -0.071000002 27 0 0 0 0.026219999
2.3989999 -0.87900001 -0.071000002 24 0 0 0 0.02623
2.3929999 -0.86900002 -0.071000002 22 0 0 0 0.026240001
2.395 -0.86199999 -0.071999997 24 0 0 0 0.026249999
2.3929999 -0.85299999 -0.071999997 24 0 0 0 0.02626
2.3959999 -0.84500003 -0.072999999 25 0 0 0 0.02627
2.395 -0.83700001 -0.072999999 25 0 0 0 0.026280001
2.395 -0.829 -0.072999999 28 0 0 0 0.026289999
2.3929999 -0.81999999 -0.072999999 24 0 0 0 0.0263
2.392 -0.81199998 -0.074000001 22 0 0 0 0.026310001
2.392 -0.80400002 -0.074000001 24 0 0 0 0.026319999
2.3929999 -0.796 -0.074000001 25 0 0 0 0.02633
2.392 -0.787 -0.074000001 23 0 0 0 0.02634
2.3900001 -0.778 -0.074000001 22 0 0 0 0.026350001
2.392 -0.77100003 -0.074000001 19 0 0 0 0.02636
2.392 -0.76300001 -0.075000003 17 0 0 0 0.02637
2.3859999 -0.75300002 -0.074000001 18 0 0 0 0.026380001
2.391 -0.74699998 -0.075000003 20 0 0 0 0.026389999
2.3889999 -0.73799998 -0.075000003 19 0 0 0 0.0264
2.3870001 -0.72899997 -0.075000003 19 0 0 0 0.02641
2.388 -0.72100002 -0.075000003 22 0 0 0 0.026419999
2.3840001 -0.71200001 -0.074000001 24 0 0 0 0.02643
2.385 -0.704 -0.074000001 25 0 0 0 0.02644
2.3859999 -0.69599998 -0.074000001 24 0 0 0 0.026450001
2.385 -0.68800002 -0.074000001 24 0 0 0 0.026459999
2.3840001 -0.68000001 -0.074000001 25 0 0 0 0.02647
2.3840001 -0.67199999 -0.074000001 21 0 0 0 0.02648
2.385 -0.66399997 -0.074000001 19 0 0 0 0.026489999
2.382 -0.65499997 -0.074000001 20 0 0 0 0.0265
2.382 -0.64700001 -0.072999999 21 0 0 0 0.02651
2.382 -0.639 -0.072999999 22 0 0 0 0.026520001
2.3800001 -0.63099998 -0.072999999 26 0 0 0 0.026529999
2.381 -0.62300003 -0.072999999 26 0 0 0 0.02654
2.3800001 -0.61500001 -0.071999997 23 0 0 0 0.026550001
2.3840001 -0.60799998 -0.071999997 22 0 0 0 0.026559999
2.385 -0.60000002 -0.071999997 21 0 0 0 0.02657
2.378 -0.58999997 -0.071000002 20 0 0 0 0.02658
2.3840001 -0.58399999 -0.071000002 19 0 0 0 0.026590001
2.3789999 -0.57499999 -0.071000002 19 0 0 0 0.0266
2.3800001 -0.56699997 -0.07 20 0 0 0 0.02661
2.3789999 -0.55900002 -0.07 20 0 0 0 0.026620001
2.382 -0.551 -0.068999998 24 0 0 0 0.026629999
2.378 -0.54299998 -0.068999998 20 0 0 0 0.02664
2.375 -0.53399998 -0.068000004 18 0 0 0 0.02665
2.3789999 -0.52700001 -0.068000004 16 0 0 0 0.026660001
2.375 -0.51800001 -0.067000002 18 0 0 0 0.02667
2.3759999 -0.51099998 -0.067000002 22 0 0 0 0.02668
2.3740001 -0.50199997 -0.066 23 0 0 0 0.026690001
2.3740001 -0.49399999 -0.066 20 0 0 0 0.026699999
2.375 -0.48699999 -0.064999998 20 0 0 0 0.02671
2.3729999 -0.47799999 -0.064999998 17 0 0 0 0.02672
2.3770001 -0.47099999 -0.064000003 17 0 0 0 0.026729999
2.372 -0.463 -0.063000001 14 0 0 0 0.02674
2.3759999 -0.456 -0.063000001 16 0 0 0 0.02675
2.3729999 -0.447 -0.061999999 18 0 0 0 0.026760001
2.3729999 -0.43900001 -0.061000001 19 0 0 0 0.026769999
2.3699999 -0.43099999 -0.061000001 18 0 0 0 0.02678
2.3640001 -0.42199999 -0.059999999 23 0 0 0 0.02679
2.3659999 -0.41499999 -0.059 26 0 0 0 0.026799999
2.372 -0.40799999 -0.059 23 0 0 0 0.02681
2.368 -0.39899999 -0.057999998 21 0 0 0 0.02682
2.365 -0.391 -0.057 21 0 0 0 0.026830001
2.3699999 -0.384 -0.056000002 20 0 0 0 0.026839999
2.3699999 -0.37599999 -0.056000002 17 0 0 0 0.02685
2.3670001 -0.368 -0.055 15 0 0 0 0.026860001
2.368 -0.361 -0.054000001 15 0 0 0 0.026869999
2.369 -0.35299999 -0.052999999 15 0 0 0 0.02688
2.362 -0.34400001 -0.052000001 19 0 0 0 0.02689
2.3629999 -0.33700001 -0.050999999 19 0 0 0 0.026900001
2.3640001 -0.329 -0.050000001 21 0 0 0 0.02691
2.3789999 -0.324 -0.050000001 25 0 0 0 0.02692
2.415 -0.32100001 -0.050000001 24 0 0 0 0.026930001
2.457 -0.31799999 -0.050000001 25 0 0 0 0.026939999
2.54 -0.32100001 -0.050000001 33 0 0 0 0.02695
2.5869999 -0.31799999 -0.050000001 33 0 0 0 0.02696
2.872 -0.34400001 -0.055 150 0 0 0 0.026969999
3.188 -0.37200001 -0.059999999 150 0 0 0 0.02698
3.2119999 -0.36399999 -0.059 150 0 0 0 0.02699
3.2060001 -0.35299999 -0.057 150 0 0 0 0.027000001
3.207 -0.34299999 -0.056000002 150 0 0 0 0.027009999
3.2079999 -0.333 -0.054000001 150 0 0 0 0.02702
3.2090001 -0.322 -0.052999999 150 0 0 0 0.02703
3.2360001 -0.315 -0.052000001 152 0 0 0 0.027039999
3.2409999 -0.30500001 -0.050999999 151 0 0 0 0.02705
3.2360001 -0.294 -0.048999999 152 0 0 0 0.02706
3.237 -0.28299999 -0.048 152 0 0 0 0.027070001
3.2360001 -0.273 -0.046 152 0 0 0 0.027079999
3.24 -0.26300001 -0.045000002 151 0 0 0 0.02709
3.336 -0.25999999 -0.044 108 0 0 0 0.027100001
3.3410001 -0.25 -0.043000001 152 0 0 0 0.027109999
3.346 -0.23899999 -0.041000001 151 0 0 0 0.02712
3.346 -0.228 -0.039999999 151 0 0 0 0.02713
3.346 -0.21799999 -0.037999999 151 0 0 0 0.027140001
3.372 -0.20900001 -0.037 152 0 0 0 0.02715
3.3699999 -0.198 -0.035 151 0 0 0 0.02716
3.372 -0.18700001 -0.033 151 0 0 0 0.027170001
3.4189999 -0.17900001 -0.032000002 152 0 0 0 0.027179999
3.4289999 -0.168 -0.029999999 152 0 0 0 0.02719
3.4330001 -0.15700001 -0.028000001 150 0 0 0 0.0272
3.431 -0.146 -0.027000001 150 0 0 0 0.027210001
3.4319999 -0.13500001 -0.025 150 0 0 0 0.02722
3.4319999 -0.124 -0.023 150 0 0 0 0.02723
3.4330001 -0.113 -0.021 150 0 0 0 0.027240001
3.431 -0.102 -0.018999999 150 0 0 0 0.027249999
3.431 -0.090999998 -0.017000001 150 0 0 0 0.02726
3.431 -0.079999998 -0.015 150 0 0 0 0.02727
3.4289999 -0.068999998 -0.013 150 0 0 0 0.027279999
3.427 -0.059 -0.011 150 0 0 0 0.02729
3.431 -0.048 -0.0089999996 150 0 0 0 0.0273
3.428 -0.037 -0.0070000002 150 0 0 0 0.027310001
3.4289999 -0.026000001 -0.0049999999 151 0 0 0 0.027319999
3.4189999 -0.015 -0.003 151 0 0 0 0.02733
3.4230001 -0.0040000002 -0.001 150 0 0 0 0.02734
3.4230001 0.0060000001 0 151 0 0 0 0.027349999
3.418 0.017000001 0.0020000001 151 0 0 0 0.02736
3.418 0.028000001 0.0049999999 151 0 0 0 0.02737
3.4200001 0.039000001 0.0070000002 152 0 0 0 0.027380001
3.418 0.048999999 0.0089999996 152 0 0 0 0.027389999
3.4170001 0.059999999 0.011 152 0 0 0 0.0274
3.4070001 0.071000002 0.013 153 0 0 0 0.027410001
3.4059999 0.082000002 0.015 153 0 0 0 0.027419999
3.4030001 0.092 0.017999999 153 0 0 0 0.02743
3.404 0.103 0.02 154 0 0 0 0.02744
3.3900001 0.113 0.022 154 0 0 0 0.027450001
3.3870001 0.124 0.024 154 0 0 0 0.02746
3.3840001 0.13500001 0.027000001 154 0 0 0 0.02747
3.382 0.145 0.028999999 155 0 0 0 0.027480001
3.3770001 0.156 0.030999999 156 0 0 0 0.027489999
3.368 0.16599999 0.033 156 0 0 0 0.0275
3.369 0.177 0.035999998 157 0 0 0 0.02751
3.3699999 0.18700001 0.037999999 157 0 0 0 0.027519999
