# .PCD v0.7 - Point Cloud Data file format
VERSION 0.7
FIELDS x y z intensity normal_x normal_y normal_z curvature
SIZE 4 4 4 4 4 4 4 4
TYPE F F F F F F F F
COUNT 1 1 1 1 1 1 1 1
WIDTH 1051
HEIGHT 1
VIEWPOINT 0 0 0 1 0 0 0
POINTS 1051
DATA ascii
1.476 0.46700001 0.454 11 0 0 0 0.01849
1.487 0.46599999 0.454 1 0 0 0 0.0185
3.9960001 1.2410001 1.2130001 10 0 0 0 0.018510001
1.506 0.463 0.454 2 0 0 0 0.018519999
0 0 0 0 0 0 0 0.01853
4.0190001 1.214 1.197 62 0 0 0 0.018540001
4.0219998 1.204 1.1900001 61 0 0 0 0.018549999
4.0170002 1.191 1.1799999 60 0 0 0 0.01856
2.2360001 0.65700001 0.65200001 0 0 0 0 0.01857
0 0 0 0 0 0 0 0.018580001
0 0 0 0 0 0 0 0.01859
2.237 0.63800001 0.639 151 0 0 0 0.0186
2.2349999 0.63200003 0.634 151 0 0 0 0.018610001
2.233 0.625 0.62900001 151 0 0 0 0.018619999
2.23 0.61799997 0.62400001 151 0 0 0 0.01863
2.233 0.61299998 0.62 151 0 0 0 0.01864
2.2349999 0.60699999 0.616 150 0 0 0 0.018650001
2.2260001 0.59899998 0.60900003 151 0 0 0 0.01866
2.227 0.59299999 0.60399997 151 0 0 0 0.01867
2.227 0.58700001 0.60000002 151 0 0 0 0.018680001
2.2219999 0.57999998 0.59399998 151 0 0 0 0.018689999
2.2249999 0.574 0.58999997 151 0 0 0 0.0187
2.217 0.56599998 0.583 150 0 0 0 0.01871
2.223 0.56199998 0.57999998 151 0 0 0 0.018719999
2.2219999 0.55599999 0.57499999 151 0 0 0 0.01873
2.224 0.55000001 0.57099998 151 0 0 0 0.01874
2.227 0.54500002 0.56699997 151 0 0 0 0.018750001
2.2290001 0.54000002 0.56199998 150 0 0 0 0.018759999
2.25 0.53899997 0.56300002 150 0 0 0 0.01877
2.2639999 0.53600001 0.56199998 151 0 0 0 0.018780001
2.263 0.52999997 0.55699998 151 0 0 0 0.018789999
2.266 0.52499998 0.55199999 151 0 0 0 0.0188
2.2639999 0.51899999 0.54699999 150 0 0 0 0.01881
2.2839999 0.51700002 0.54699999 63 0 0 0 0.018820001
2.3640001 0.52899998 0.56099999 18 0 0 0 0.018829999
2.3970001 0.52999997 0.56300002 16 0 0 0 0.01884
2.4449999 0.53500003 0.56900001 17 0 0 0 0.018850001
2.4979999 0.54000002 0.57599998 19 0 0 0 0.018859999
2.5450001 0.54400003 0.58099997 20 0 0 0 0.01887
2.5929999 0.54699999 0.58700001 21 0 0 0 0.01888
2.6400001 0.551 0.59100002 21 0 0 0 0.018890001
2.6930001 0.55500001 0.597 21 0 0 0 0.0189
2.757 0.56099999 0.60500002 22 0 0 0 0.01891
2.8180001 0.56599998 0.61199999 24 0 0 0 0.018920001
2.8889999 0.57300001 0.62099999 24 0 0 0 0.018929999
2.9460001 0.57700002 0.62699997 25 0 0 0 0.01894
3.016 0.583 0.63499999 25 0 0 0 0.01895
3.0899999 0.58999997 0.64399999 26 0 0 0 0.018959999
3.145 0.59299999 0.648 25 0 0 0 0.01897
3.2019999 0.59500003 0.65200001 25 0 0 0 0.01898
3.2479999 0.59600002 0.65399998 26 0 0 0 0.018990001
3.28 0.59399998 0.653 49 0 0 0 0.018999999
3.286 0.58700001 0.64700001 150 0 0 0 0.01901
3.289 0.579 0.63999999 150 0 0 0 0.01902
3.2909999 0.57099998 0.63300002 150 0 0 0 0.019029999
3.2909999 0.56400001 0.625 150 0 0 0 0.01904
3.29 0.55500001 0.61699998 150 0 0 0 0.01905
3.2939999 0.54799998 0.611 150 0 0 0 0.019060001
3.323 0.54500002 0.60799998 150 0 0 0 0.019069999
3.3269999 0.537 0.60100001 150 0 0 0 0.01908
3.3210001 0.528 0.59200001 150 0 0 0 0.019090001
3.3310001 0.52200001 0.58600003 150 0 0 0 0.019099999
3.381 0.52200001 0.588 150 0 0 0 0.01911
3.3929999 0.51599997 0.58200002 151 0 0 0 0.01912
3.392 0.50700003 0.574 150 0 0 0 0.019130001
3.3940001 0.49900001 0.56599998 150 0 0 0 0.01914
3.3940001 0.491 0.55800003 150 0 0 0 0.01915
3.392 0.48300001 0.55000001 150 0 0 0 0.019160001
3.3940001 0.47499999 0.542 150 0 0 0 0.019169999
3.3940001 0.46700001 0.53399998 150 0 0 0 0.01918
3.3929999 0.46000001 0.52600002 150 0 0 0 0.01919
3.3929999 0.45199999 0.51800001 150 0 0 0 0.019200001
3.3929999 0.44400001 0.50999999 150 0 0 0 0.01921
3.3940001 0.43599999 0.50199997 150 0 0 0 0.01922
3.3959999 0.428 0.49399999 150 0 0 0 0.019230001
3.398 0.421 0.486 150 0 0 0 0.019239999
3.398 0.41299999 0.47799999 150 0 0 0 0.01925
3.4000001 0.40599999 0.47099999 150 0 0 0 0.01926
3.3989999 0.398 0.46200001 150 0 0 0 0.019269999
3.401 0.38999999 0.454 150 0 0 0 0.01928
3.401 0.382 0.44600001 150 0 0 0 0.01929
3.3970001 0.37400001 0.43799999 150 0 0 0 0.019300001
3.405 0.36700001 0.43099999 151 0 0 0 0.019309999
3.4059999 0.36000001 0.42300001 151 0 0 0 0.01932
3.402 0.352 0.414 150 0 0 0 0.019330001
3.3970001 0.34400001 0.405 150 0 0 0 0.019339999
3.401 0.33700001 0.39700001 150 0 0 0 0.01935
3.4000001 0.329 0.389 150 0 0 0 0.01936
3.402 0.322 0.38100001 150 0 0 0 0.019370001
3.398 0.31400001 0.37200001 150 0 0 0 0.019379999
3.404 0.30700001 0.36500001 150 0 0 0 0.01939
3.404 0.29899999 0.35699999 150 0 0 0 0.019400001
3.405 0.292 0.34900001 150 0 0 0 0.019409999
3.405 0.28400001 0.34 151 0 0 0 0.01942
3.402 0.27700001 0.33199999 151 0 0 0 0.01943
3.4030001 0.26899999 0.324 150 0 0 0 0.019440001
3.408 0.26199999 0.31600001 150 0 0 0 0.01945
3.401 0.25400001 0.30700001 151 0 0 0 0.01946
3.402 0.24699999 0.29899999 151 0 0 0 0.019470001
3.404 0.23999999 0.28999999 151 0 0 0 0.019479999
3.408 0.233 0.28200001 151 0 0 0 0.01949
3.405 0.22499999 0.27399999 151 0 0 0 0.0195
3.4100001 0.21799999 0.266 151 0 0 0 0.019509999
3.4030001 0.211 0.257 151 0 0 0 0.01952
3.4070001 0.204 0.249 151 0 0 0 0.01953
3.404 0.19599999 0.23999999 151 0 0 0 0.019540001
3.4030001 0.189 0.23199999 151 0 0 0 0.019549999
3.4059999 0.182 0.223 151 0 0 0 0.01956
3.4100001 0.175 0.215 151 0 0 0 0.01957
3.408 0.167 0.207 151 0 0 0 0.019579999
3.4089999 0.16 0.198 151 0 0 0 0.01959
3.4119999 0.153 0.19 151 0 0 0 0.0196
3.4089999 0.146 0.18099999 151 0 0 0 0.019610001
3.414 0.139 0.17299999 151 0 0 0 0.019619999
3.4130001 0.132 0.16500001 151 0 0 0 0.01963
3.4100001 0.125 0.156 151 0 0 0 0.019640001
3.4130001 0.118 0.148 151 0 0 0 0.019649999
3.4119999 0.111 0.139 151 0 0 0 0.01966
3.415 0.104 0.131 151 0 0 0 0.01967
3.4170001 0.097000003 0.122 152 0 0 0 0.019680001
3.414 0.090000004 0.113 152 0 0 0 0.01969
3.415 0.082999997 0.105 152 0 0 0 0.0197
3.4159999 0.075999998 0.096000001 152 0 0 0 0.019710001
3.4159999 0.068999998 0.088 152 0 0 0 0.019719999
3.4159999 0.061999999 0.079000004 152 0 0 0 0.01973
3.4219999 0.055 0.071000002 152 0 0 0 0.01974
3.4230001 0.048 0.061999999 152 0 0 0 0.019750001
3.4170001 0.041000001 0.052999999 152 0 0 0 0.01976
3.418 0.034000002 0.045000002 152 0 0 0 0.01977
3.4219999 0.027000001 0.035999998 151 0 0 0 0.019780001
3.421 0.021 0.027000001 151 0 0 0 0.019789999
3.4159999 0.014 0.017999999 151 0 0 0 0.0198
3.4159999 0.0070000002 0.0099999998 151 0 0 0 0.01981
3.4200001 0 0.001 151 0 0 0 0.019819999
3.414 -0.0060000001 -0.0070000002 151 0 0 0 0.01983
3.418 -0.012 -0.015 151 0 0 0 0.01984
3.418 -0.018999999 -0.024 151 0 0 0 0.019850001
3.4200001 -0.026000001 -0.033 151 0 0 0 0.019859999
3.4200001 -0.033 -0.041999999 151 0 0 0 0.01987
3.418 -0.039000001 -0.050000001 151 0 0 0 0.019880001
3.418 -0.046 -0.059 151 0 0 0 0.019889999
3.4189999 -0.052999999 -0.068000004 151 0 0 0 0.0199
3.418 -0.059999999 -0.077 151 0 0 0 0.01991
3.4230001 -0.066 -0.086000003 151 0 0 0 0.019920001
3.425 -0.072999999 -0.094999999 151 0 0 0 0.019929999
3.4219999 -0.079999998 -0.104 151 0 0 0 0.01994
3.425 -0.086000003 -0.113 151 0 0 0 0.019950001
3.425 -0.093000002 -0.122 150 0 0 0 0.019959999
3.421 -0.098999999 -0.13 150 0 0 0 0.01997
3.428 -0.106 -0.139 150 0 0 0 0.01998
3.427 -0.113 -0.148 151 0 0 0 0.019990001
3.428 -0.119 -0.15700001 150 0 0 0 0.02
3.4349999 -0.126 -0.167 151 0 0 0 0.02001
3.4289999 -0.133 -0.175 150 0 0 0 0.020020001
3.428 -0.139 -0.184 150 0 0 0 0.020029999
3.428 -0.145 -0.193 151 0 0 0 0.02004
3.4289999 -0.152 -0.20200001 150 0 0 0 0.02005
3.4330001 -0.15899999 -0.212 150 0 0 0 0.020059999
3.4289999 -0.16500001 -0.221 150 0 0 0 0.02007
3.428 -0.171 -0.23 151 0 0 0 0.02008
3.437 -0.178 -0.23899999 151 0 0 0 0.020090001
3.402 -0.183 -0.24600001 150 0 0 0 0.020099999
3.365 -0.18700001 -0.252 150 0 0 0 0.02011
3.3640001 -0.193 -0.26100001 151 0 0 0 0.02012
3.369 -0.2 -0.27000001 151 0 0 0 0.020129999
3.3670001 -0.206 -0.27900001 151 0 0 0 0.02014
3.3670001 -0.212 -0.28799999 151 0 0 0 0.02015
3.3529999 -0.21799999 -0.296 150 0 0 0 0.020160001
3.3380001 -0.223 -0.30399999 150 0 0 0 0.020169999
3.3380001 -0.229 -0.31299999 151 0 0 0 0.02018
3.335 -0.235 -0.322 151 0 0 0 0.020190001
3.3369999 -0.241 -0.331 151 0 0 0 0.020199999
3.3369999 -0.24699999 -0.34 151 0 0 0 0.02021
3.339 -0.25400001 -0.34900001 151 0 0 0 0.02022
3.335 -0.259 -0.35800001 151 0 0 0 0.020230001
3.3280001 -0.26499999 -0.366 131 0 0 0 0.02024
3.2679999 -0.266 -0.368 43 0 0 0 0.02025
3.2379999 -0.27000001 -0.37400001 150 0 0 0 0.020260001
3.2290001 -0.27500001 -0.382 150 0 0 0 0.020269999
3.233 -0.28099999 -0.391 150 0 0 0 0.02028
3.234 -0.287 -0.40000001 150 0 0 0 0.02029
3.23 -0.292 -0.40799999 150 0 0 0 0.020300001
3.2309999 -0.29800001 -0.417 150 0 0 0 0.02031
3.2379999 -0.30399999 -0.42699999 150 0 0 0 0.02032
3.2360001 -0.31 -0.43599999 150 0 0 0 0.020330001
3.2390001 -0.31600001 -0.44499999 150 0 0 0 0.020339999
3.234 -0.32100001 -0.454 151 0 0 0 0.02035
3.227 -0.32600001 -0.46200001 150 0 0 0 0.02036
3.207 -0.33000001 -0.46799999 150 0 0 0 0.020369999
3.2049999 -0.33500001 -0.47600001 150 0 0 0 0.02038
3.2090001 -0.34099999 -0.486 150 0 0 0 0.02039
3.2079999 -0.347 -0.495 150 0 0 0 0.020400001
3.211 -0.35299999 -0.50400001 150 0 0 0 0.020409999
3.204 -0.35699999 -0.51200002 150 0 0 0 0.02042
3.2079999 -0.36300001 -0.52200001 150 0 0 0 0.02043
3.2119999 -0.36899999 -0.53100002 150 0 0 0 0.020439999
3.21 -0.375 -0.54000002 150 0 0 0 0.02045
3.2030001 -0.37900001 -0.54799998 150 0 0 0 0.02046
2.9790001 -0.35800001 -0.51800001 150 0 0 0 0.020470001
2.836 -0.34599999 -0.50099999 150 0 0 0 0.020479999
2.6400001 -0.32600001 -0.47400001 32 0 0 0 0.02049
2.5550001 -0.31999999 -0.46599999 20 0 0 0 0.020500001
2.53 -0.32100001 -0.46900001 19 0 0 0 0.020509999
2.5050001 -0.322 -0.472 19 0 0 0 0.02052
2.4879999 -0.324 -0.47499999 17 0 0 0 0.02053
2.4619999 -0.32499999 -0.47799999 17 0 0 0 0.020540001
2.4389999 -0.32600001 -0.47999999 16 0 0 0 0.02055
2.414 -0.32699999 -0.48199999 17 0 0 0 0.02056
2.3989999 -0.329 -0.486 21 0 0 0 0.020570001
2.3759999 -0.329 -0.48899999 17 0 0 0 0.020579999
2.3629999 -0.33199999 -0.493 19 0 0 0 0.02059
2.3599999 -0.33500001 -0.49900001 20 0 0 0 0.0206
2.368 -0.34 -0.50800002 16 0 0 0 0.020609999
2.3759999 -0.345 -0.51599997 15 0 0 0 0.02062
2.3629999 -0.347 -0.51999998 14 0 0 0 0.02063
2.3559999 -0.34999999 -0.52600002 15 0 0 0 0.020640001
2.3610001 -0.354 -0.53399998 16 0 0 0 0.020649999
2.3610001 -0.35800001 -0.54100001 15 0 0 0 0.02066
2.359 -0.36199999 -0.54699999 15 0 0 0 0.02067
2.3570001 -0.36500001 -0.55400002 16 0 0 0 0.020679999
2.3559999 -0.36899999 -0.56099999 17 0 0 0 0.02069
2.359 -0.373 -0.56900001 18 0 0 0 0.0207
2.358 -0.37599999 -0.57499999 16 0 0 0 0.020710001
2.3570001 -0.38 -0.58200002 15 0 0 0 0.020719999
2.3610001 -0.384 -0.58999997 17 0 0 0 0.02073
2.3559999 -0.38699999 -0.59600002 20 0 0 0 0.020740001
2.3559999 -0.391 -0.60299999 22 0 0 0 0.020749999
2.358 -0.39500001 -0.61000001 22 0 0 0 0.02076
2.359 -0.39899999 -0.61799997 22 0 0 0 0.02077
2.3599999 -0.40200001 -0.625 22 0 0 0 0.020780001
2.3599999 -0.40599999 -0.63200003 21 0 0 0 0.02079
2.359 -0.40900001 -0.639 20 0 0 0 0.0208
2.359 -0.41299999 -0.64700001 18 0 0 0 0.020810001
2.3599999 -0.417 -0.65399998 16 0 0 0 0.020819999
2.359 -0.41999999 -0.66100001 15 0 0 0 0.02083
2.3610001 -0.42399999 -0.66900003 17 0 0 0 0.02084
2.362 -0.42699999 -0.676 21 0 0 0 0.020850001
2.3640001 -0.43099999 -0.68400002 23 0 0 0 0.02086
2.358 -0.433 -0.68900001 21 0 0 0 0.02087
2.3610001 -0.43700001 -0.69800001 20 0 0 0 0.020880001
2.3599999 -0.44100001 -0.70499998 18 0 0 0 0.020889999
2.3599999 -0.44400001 -0.71200001 17 0 0 0 0.0209
2.3599999 -0.447 -0.71899998 17 0 0 0 0.02091
2.3559999 -0.44999999 -0.72600001 21 0 0 0 0.020919999
2.3610001 -0.454 -0.73400003 22 0 0 0 0.02093
2.3610001 -0.45699999 -0.741 22 0 0 0 0.02094
2.3640001 -0.461 -0.75 20 0 0 0 0.020950001
2.3610001 -0.46399999 -0.75599998 17 0 0 0 0.020959999
2.3629999 -0.46799999 -0.764 19 0 0 0 0.02097
2.3640001 -0.47099999 -0.77200001 18 0 0 0 0.02098
2.3640001 -0.47400001 -0.77999997 17 0 0 0 0.020989999
2.3629999 -0.477 -0.787 14 0 0 0 0.021
2.3629999 -0.47999999 -0.79400003 16 0 0 0 0.02101
2.365 -0.484 -0.80199999 17 0 0 0 0.021020001
2.3659999 -0.48699999 -0.81 19 0 0 0 0.021029999
2.365 -0.49000001 -0.81800002 24 0 0 0 0.02104
2.3629999 -0.49200001 -0.824 30 0 0 0 0.021050001
2.346 -0.49200001 -0.82599998 28 0 0 0 0.021059999
2.3239999 -0.49000001 -0.82499999 27 0 0 0 0.02107
2.303 -0.48899999 -0.82499999 27 0 0 0 0.02108
2.2869999 -0.48800001 -0.82700002 27 0 0 0 0.021090001
2.2620001 -0.486 -0.82499999 27 0 0 0 0.0211
2.2420001 -0.484 -0.82499999 27 0 0 0 0.02111
2.227 -0.48300001 -0.82599998 27 0 0 0 0.021120001
2.2049999 -0.48100001 -0.82499999 28 0 0 0 0.021129999
2.1889999 -0.47999999 -0.82599998 31 0 0 0 0.02114
2.1659999 -0.47799999 -0.824 29 0 0 0 0.02115
2.145 -0.47600001 -0.82300001 26 0 0 0 0.021159999
2.131 -0.47499999 -0.82499999 26 0 0 0 0.02117
2.1159999 -0.47400001 -0.82599998 27 0 0 0 0.02118
2.0969999 -0.472 -0.82499999 27 0 0 0 0.021190001
2.0769999 -0.47 -0.824 27 0 0 0 0.021199999
2.062 -0.46900001 -0.824 27 0 0 0 0.02121
2.0409999 -0.46599999 -0.82300001 27 0 0 0 0.02122
2.026 -0.465 -0.82300001 26 0 0 0 0.021229999
2.01 -0.463 -0.82300001 27 0 0 0 0.02124
1.993 -0.461 -0.82300001 28 0 0 0 0.02125
1.978 -0.46000001 -0.82300001 27 0 0 0 0.021260001
1.96 -0.458 -0.82200003 28 0 0 0 0.021269999
1.951 -0.45699999 -0.824 28 0 0 0 0.02128
1.929 -0.454 -0.82099998 28 0 0 0 0.021290001
1.914 -0.45199999 -0.82099998 28 0 0 0 0.021299999
1.903 -0.45199999 -0.82200003 28 0 0 0 0.02131
1.8890001 -0.44999999 -0.82200003 28 0 0 0 0.02132
1.87 -0.447 -0.81999999 27 0 0 0 0.021330001
1.862 -0.447 -0.82200003 27 0 0 0 0.02134
1.852 -0.44600001 -0.824 29 0 0 0 0.02135
1.836 -0.44400001 -0.82300001 28 0 0 0 0.021360001
1.818 -0.44100001 -0.82099998 27 0 0 0 0.021369999
1.807 -0.44 -0.82099998 32 0 0 0 0.02138
1.801 -0.44 -0.824 33 0 0 0 0.02139
1.781 -0.43599999 -0.82099998 33 0 0 0 0.021400001
1.766 -0.43399999 -0.81999999 34 0 0 0 0.02141
1.7539999 -0.43200001 -0.81900001 36 0 0 0 0.02142
1.745 -0.43200001 -0.82099998 34 0 0 0 0.021430001
1.735 -0.43000001 -0.82200003 34 0 0 0 0.021439999
1.721 -0.428 -0.82099998 34 0 0 0 0.02145
1.714 -0.42699999 -0.82300001 35 0 0 0 0.02146
1.7029999 -0.426 -0.82300001 13 0 0 0 0.021469999
1.691 -0.42399999 -0.82200003 13 0 0 0 0.02148
1.6720001 -0.41999999 -0.81800002 34 0 0 0 0.02149
1.664 -0.419 -0.81999999 40 0 0 0 0.021500001
1.6619999 -0.41999999 -0.824 13 0 0 0 0.021509999
1.654 -0.41800001 -0.82499999 13 0 0 0 0.02152
1.638 -0.41499999 -0.82200003 13 0 0 0 0.02153
1.627 -0.41299999 -0.82200003 13 0 0 0 0.021539999
1.619 -0.412 -0.82300001 13 0 0 0 0.02155
1.612 -0.41100001 -0.824 13 0 0 0 0.02156
1.598 -0.40799999 -0.82200003 13 0 0 0 0.021570001
1.59 -0.40700001 -0.82300001 13 0 0 0 0.021579999
1.582 -0.40599999 -0.82300001 13 0 0 0 0.02159
1.579 -0.405 -0.82599998 13 0 0 0 0.021600001
1.5650001 -0.40200001 -0.824 13 0 0 0 0.021609999
1.5549999 -0.40000001 -0.82300001 12 0 0 0 0.02162
1.546 -0.398 -0.82300001 13 0 0 0 0.02163
1.5319999 -0.39500001 -0.81999999 12 0 0 0 0.021640001
1.528 -0.39500001 -0.82300001 12 0 0 0 0.02165
1.517 -0.39199999 -0.82099998 13 0 0 0 0.02166
1.502 -0.389 -0.81800002 12 0 0 0 0.021670001
1.49 -0.38600001 -0.81599998 13 0 0 0 0.021679999
1.494 -0.38699999 -0.82200003 13 0 0 0 0.02169
1.485 -0.38499999 -0.82099998 12 0 0 0 0.0217
1.476 -0.38299999 -0.81999999 13 0 0 0 0.021709999
1.4680001 -0.38100001 -0.81999999 14 0 0 0 0.02172
1.457 -0.37799999 -0.81800002 14 0 0 0 0.02173
1.4529999 -0.377 -0.81999999 14 0 0 0 0.021740001
1.448 -0.37599999 -0.82099998 15 0 0 0 0.021749999
1.441 -0.37400001 -0.82099998 14 0 0 0 0.02176
1.433 -0.37200001 -0.82099998 14 0 0 0 0.02177
1.424 -0.37 -0.81900001 14 0 0 0 0.021779999
1.418 -0.368 -0.81999999 14 0 0 0 0.02179
1.413 -0.36700001 -0.81999999 14 0 0 0 0.0218
1.404 -0.36399999 -0.81900001 14 0 0 0 0.021810001
1.4 -0.36300001 -0.82099998 14 0 0 0 0.021819999
1.395 -0.361 -0.82099998 14 0 0 0 0.02183
1.391 -0.36000001 -0.82200003 14 0 0 0 0.021840001
1.383 -0.35800001 -0.82099998 14 0 0 0 0.021849999
1.375 -0.35600001 -0.81999999 14 0 0 0 0.02186
1.37 -0.354 -0.81999999 14 0 0 0 0.02187
1.365 -0.352 -0.81999999 14 0 0 0 0.021880001
1.357 -0.34999999 -0.81900001 14 0 0 0 0.02189
1.352 -0.34799999 -0.81900001 14 0 0 0 0.0219
1.347 -0.34599999 -0.81900001 15 0 0 0 0.021910001
1.3430001 -0.345 -0.81999999 15 0 0 0 0.021919999
1.337 -0.34299999 -0.81900001 14 0 0 0 0.02193
1.3329999 -0.34099999 -0.81999999 14 0 0 0 0.02194
1.327 -0.33899999 -0.81900001 15 0 0 0 0.021950001
1.323 -0.33700001 -0.81900001 14 0 0 0 0.02196
1.3200001 -0.336 -0.82099998 14 0 0 0 0.02197
1.314 -0.333 -0.81999999 14 0 0 0 0.021980001
1.309 -0.331 -0.81900001 14 0 0 0 0.021989999
1.3049999 -0.33000001 -0.81900001 14 0 0 0 0.022
1.303 -0.32800001 -0.81999999 14 0 0 0 0.02201
1.295 -0.32600001 -0.81800002 14 0 0 0 0.022019999
1.2920001 -0.324 -0.81900001 14 0 0 0 0.02203
1.293 -0.32300001 -0.82099998 15 0 0 0 0.02204
1.2869999 -0.32100001 -0.81999999 14 0 0 0 0.022050001
1.28 -0.31799999 -0.81800002 15 0 0 0 0.022059999
1.281 -0.317 -0.82099998 15 0 0 0 0.02207
1.275 -0.315 -0.81900001 15 0 0 0 0.02208
1.272 -0.31299999 -0.81900001 15 0 0 0 0.022089999
1.2690001 -0.31099999 -0.81900001 15 0 0 0 0.0221
1.263 -0.30899999 -0.81800002 15 0 0 0 0.02211
1.262 -0.30700001 -0.81900001 15 0 0 0 0.022120001
1.26 -0.30500001 -0.81900001 15 0 0 0 0.022129999
1.256 -0.303 -0.81900001 15 0 0 0 0.02214
1.253 -0.301 -0.81800002 14 0 0 0 0.022150001
1.252 -0.30000001 -0.81999999 14 0 0 0 0.022159999
1.249 -0.29800001 -0.81900001 15 0 0 0 0.02217
1.248 -0.296 -0.81999999 15 0 0 0 0.02218
1.2460001 -0.294 -0.81999999 15 0 0 0 0.022190001
1.24 -0.292 -0.81800002 14 0 0 0 0.0222
1.239 -0.28999999 -0.81900001 15 0 0 0 0.02221
1.239 -0.289 -0.81999999 15 0 0 0 0.022220001
1.238 -0.287 -0.81999999 14 0 0 0 0.022229999
1.237 -0.28600001 -0.82099998 15 0 0 0 0.02224
1.2359999 -0.28400001 -0.82099998 15 0 0 0 0.02225
1.232 -0.28099999 -0.81999999 15 0 0 0 0.022260001
1.233 -0.28 -0.82099998 15 0 0 0 0.02227
1.234 -0.27900001 -0.82300001 15 0 0 0 0.02228
1.23 -0.27599999 -0.82099998 14 0 0 0 0.022290001
1.23 -0.27500001 -0.82200003 14 0 0 0 0.022299999
1.23 -0.273 -0.82200003 15 0 0 0 0.02231
1.224 -0.27000001 -0.81900001 15 0 0 0 0.02232
1.224 -0.26899999 -0.81999999 15 0 0 0 0.022329999
1.226 -0.26699999 -0.82099998 15 0 0 0 0.02234
1.227 -0.266 -0.82300001 14 0 0 0 0.02235
1.221 -0.26300001 -0.81900001 14 0 0 0 0.022360001
1.224 -0.26199999 -0.82099998 14 0 0 0 0.022369999
1.219 -0.259 -0.81800002 14 0 0 0 0.02238
1.222 -0.25799999 -0.81999999 14 0 0 0 0.022390001
1.221 -0.25600001 -0.81999999 15 0 0 0 0.022399999
1.222 -0.25400001 -0.82099998 15 0 0 0 0.02241
1.226 -0.25299999 -0.82300001 14 0 0 0 0.02242
1.226 -0.25099999 -0.82300001 12 0 0 0 0.022430001
1.227 -0.25 -0.82300001 11 0 0 0 0.02244
1.2309999 -0.249 -0.82599998 10 0 0 0 0.02245
1.233 -0.24699999 -0.82700002 9 0 0 0 0.022460001
1.234 -0.24600001 -0.82800001 9 0 0 0 0.022469999
1.234 -0.244 -0.82700002 10 0 0 0 0.02248
1.234 -0.242 -0.82700002 11 0 0 0 0.02249
1.2309999 -0.23899999 -0.824 12 0 0 0 0.022500001
1.2309999 -0.237 -0.824 13 0 0 0 0.02251
1.229 -0.235 -0.82200003 14 0 0 0 0.02252
1.232 -0.233 -0.82300001 16 0 0 0 0.022530001
1.232 -0.23100001 -0.82200003 16 0 0 0 0.022539999
1.233 -0.229 -0.82200003 16 0 0 0 0.02255
1.234 -0.228 -0.82200003 16 0 0 0 0.02256
1.238 -0.226 -0.82300001 15 0 0 0 0.022569999
1.239 -0.22499999 -0.82300001 15 0 0 0 0.02258
1.24 -0.223 -0.82200003 16 0 0 0 0.02259
1.242 -0.221 -0.82300001 15 0 0 0 0.022600001
1.245 -0.22 -0.824 16 0 0 0 0.022609999
1.245 -0.21699999 -0.82200003 16 0 0 0 0.02262
1.247 -0.21600001 -0.82200003 16 0 0 0 0.02263
1.253 -0.215 -0.82499999 16 0 0 0 0.022639999
1.2539999 -0.213 -0.824 16 0 0 0 0.02265
1.255 -0.211 -0.82300001 16 0 0 0 0.02266
1.258 -0.20900001 -0.82300001 15 0 0 0 0.022670001
1.2589999 -0.207 -0.82200003 16 0 0 0 0.022679999
1.261 -0.205 -0.82200003 15 0 0 0 0.02269
1.265 -0.204 -0.82200003 16 0 0 0 0.022700001
1.268 -0.20200001 -0.82300001 16 0 0 0 0.022709999
1.273 -0.20100001 -0.824 16 0 0 0 0.02272
1.275 -0.199 -0.82300001 16 0 0 0 0.02273
1.28 -0.198 -0.82499999 16 0 0 0 0.022740001
1.279 -0.19499999 -0.82200003 16 0 0 0 0.02275
1.285 -0.19400001 -0.82300001 16 0 0 0 0.02276
1.291 -0.193 -0.82499999 17 0 0 0 0.022770001
1.294 -0.191 -0.82499999 16 0 0 0 0.022779999
1.296 -0.189 -0.824 16 0 0 0 0.02279
1.296 -0.18700001 -0.82200003 17 0 0 0 0.0228
1.299 -0.185 -0.82099998 16 0 0 0 0.022810001
1.306 -0.184 -0.82300001 16 0 0 0 0.02282
1.3099999 -0.182 -0.82300001 16 0 0 0 0.02283
1.313 -0.18099999 -0.82200003 16 0 0 0 0.022840001
1.3200001 -0.18000001 -0.824 16 0 0 0 0.022849999
1.321 -0.178 -0.82200003 16 0 0 0 0.02286
1.33 -0.176 -0.824 16 0 0 0 0.02287
1.331 -0.17399999 -0.82200003 16 0 0 0 0.022879999
1.34 -0.17299999 -0.82499999 16 0 0 0 0.02289
1.342 -0.17200001 -0.824 16 0 0 0 0.0229
1.346 -0.17 -0.82200003 16 0 0 0 0.022910001
1.353 -0.169 -0.824 16 0 0 0 0.022919999
1.359 -0.167 -0.824 16 0 0 0 0.02293
1.3660001 -0.16599999 -0.82499999 16 0 0 0 0.022940001
1.368 -0.164 -0.824 16 0 0 0 0.022949999
1.376 -0.163 -0.82499999 16 0 0 0 0.02296
1.38 -0.161 -0.824 16 0 0 0 0.02297
1.385 -0.15899999 -0.824 16 0 0 0 0.022980001
1.391 -0.15800001 -0.824 17 0 0 0 0.02299
1.399 -0.15700001 -0.82499999 17 0 0 0 0.023
1.405 -0.155 -0.82499999 16 0 0 0 0.023010001
1.4119999 -0.154 -0.82599998 17 0 0 0 0.023019999
1.4170001 -0.152 -0.82499999 16 0 0 0 0.02303
1.425 -0.15099999 -0.82499999 16 0 0 0 0.02304
1.431 -0.149 -0.82499999 16 0 0 0 0.023050001
1.4349999 -0.148 -0.824 16 0 0 0 0.02306
1.4450001 -0.147 -0.82599998 16 0 0 0 0.02307
1.454 -0.145 -0.82700002 15 0 0 0 0.023080001
1.46 -0.14399999 -0.82700002 14 0 0 0 0.023089999
1.467 -0.142 -0.82700002 14 0 0 0 0.0231
1.475 -0.141 -0.82700002 16 0 0 0 0.02311
1.484 -0.14 -0.82800001 14 0 0 0 0.023119999
1.4910001 -0.138 -0.82700002 14 0 0 0 0.02313
1.5 -0.13699999 -0.82800001 14 0 0 0 0.02314
1.505 -0.13500001 -0.82700002 14 0 0 0 0.023150001
1.5140001 -0.134 -0.82700002 13 0 0 0 0.023159999
1.518 -0.132 -0.82499999 13 0 0 0 0.02317
1.534 -0.131 -0.829 14 0 0 0 0.02318
1.543 -0.13 -0.829 15 0 0 0 0.023189999
1.546 -0.12800001 -0.82700002 14 0 0 0 0.0232
1.564 -0.12800001 -0.83200002 13 0 0 0 0.02321
1.572 -0.126 -0.83099997 13 0 0 0 0.023220001
1.584 -0.125 -0.833 13 0 0 0 0.023229999
1.594 -0.124 -0.83399999 14 0 0 0 0.02324
1.602 -0.123 -0.833 14 0 0 0 0.023250001
1.608 -0.121 -0.83099997 13 0 0 0 0.023259999
1.608 -0.119 -0.82599998 59 0 0 0 0.02327
1.627 -0.118 -0.83099997 13 0 0 0 0.02328
1.642 -0.117 -0.83399999 14 0 0 0 0.023290001
1.64 -0.115 -0.82700002 55 0 0 0 0.0233
1.658 -0.115 -0.83099997 14 0 0 0 0.02331
1.673 -0.114 -0.83399999 14 0 0 0 0.023320001
1.683 -0.112 -0.83399999 14 0 0 0 0.023329999
1.692 -0.111 -0.833 14 0 0 0 0.02334
1.701 -0.109 -0.83200002 14 0 0 0 0.02335
1.715 -0.108 -0.833 13 0 0 0 0.023360001
1.727 -0.107 -0.833 14 0 0 0 0.02337
1.7309999 -0.106 -0.82999998 14 0 0 0 0.02338
1.749 -0.105 -0.833 14 0 0 0 0.023390001
1.76 -0.103 -0.833 14 0 0 0 0.023399999
1.774 -0.102 -0.83399999 14 0 0 0 0.02341
1.789 -0.101 -0.83499998 14 0 0 0 0.02342
1.798 -0.1 -0.83399999 14 0 0 0 0.023429999
1.8099999 -0.097999997 -0.833 14 0 0 0 0.02344
1.824 -0.097000003 -0.83399999 15 0 0 0 0.02345
1.8380001 -0.096000001 -0.83399999 14 0 0 0 0.023460001
1.851 -0.094999999 -0.83399999 14 0 0 0 0.023469999
1.863 -0.093999997 -0.83399999 43 0 0 0 0.02348
1.873 -0.092 -0.83200002 42 0 0 0 0.023490001
1.891 -0.090999998 -0.83399999 40 0 0 0 0.023499999
1.903 -0.090000004 -0.833 38 0 0 0 0.02351
1.919 -0.089000002 -0.83399999 41 0 0 0 0.02352
1.931 -0.088 -0.83200002 37 0 0 0 0.023530001
1.948 -0.086999997 -0.833 36 0 0 0 0.023539999
1.961 -0.086000003 -0.833 35 0 0 0 0.02355
1.982 -0.085000001 -0.83499998 35 0 0 0 0.023560001
1.994 -0.082999997 -0.83399999 35 0 0 0 0.023569999
2.013 -0.082000002 -0.83499998 36 0 0 0 0.02358
2.033 -0.081 -0.83700001 37 0 0 0 0.02359
2.0450001 -0.079999998 -0.83499998 35 0 0 0 0.023600001
2.062 -0.079000004 -0.83499998 34 0 0 0 0.02361
2.0769999 -0.078000002 -0.83399999 34 0 0 0 0.02362
2.099 -0.077 -0.83600003 34 0 0 0 0.023630001
2.115 -0.075999998 -0.83499998 33 0 0 0 0.023639999
2.1400001 -0.075000003 -0.838 33 0 0 0 0.02365
2.1589999 -0.074000001 -0.838 31 0 0 0 0.02366
2.1760001 -0.072999999 -0.83700001 30 0 0 0 0.023669999
2.1930001 -0.071999997 -0.83700001 30 0 0 0 0.02368
2.2119999 -0.071000002 -0.83700001 30 0 0 0 0.02369
2.2360001 -0.07 -0.838 31 0 0 0 0.023700001
2.2579999 -0.068999998 -0.83899999 32 0 0 0 0.023709999
2.2679999 -0.067000002 -0.83499998 31 0 0 0 0.02372
2.2969999 -0.067000002 -0.838 32 0 0 0 0.02373
2.319 -0.066 -0.838 31 0 0 0 0.023739999
2.3440001 -0.064999998 -0.83999997 32 0 0 0 0.02375
2.365 -0.064000003 -0.83999997 32 0 0 0 0.02376
2.3870001 -0.063000001 -0.83899999 32 0 0 0 0.023770001
2.4119999 -0.061999999 -0.83999997 33 0 0 0 0.023779999
2.437 -0.061000001 -0.84100002 32 0 0 0 0.02379
2.4630001 -0.059999999 -0.84100002 31 0 0 0 0.023800001
2.4849999 -0.059 -0.84100002 32 0 0 0 0.023809999
2.51 -0.057999998 -0.84100002 33 0 0 0 0.02382
2.5439999 -0.057 -0.84299999 30 0 0 0 0.02383
2.5650001 -0.056000002 -0.84200001 30 0 0 0 0.023840001
2.592 -0.055 -0.84200001 29 0 0 0 0.02385
2.6229999 -0.054000001 -0.84299999 30 0 0 0 0.02386
2.654 -0.052999999 -0.84399998 29 0 0 0 0.023870001
2.678 -0.052000001 -0.84299999 29 0 0 0 0.023879999
2.7130001 -0.050999999 -0.84500003 31 0 0 0 0.02389
2.7409999 -0.050000001 -0.84500003 30 0 0 0 0.0239
2.7720001 -0.048999999 -0.84500003 29 0 0 0 0.023910001
2.806 -0.048 -0.84600002 29 0 0 0 0.02392
2.836 -0.046999998 -0.84600002 29 0 0 0 0.02393
2.8740001 -0.046999998 -0.847 29 0 0 0 0.023940001
2.918 -0.046 -0.85000002 29 0 0 0 0.023949999
2.9549999 -0.045000002 -0.85100001 28 0 0 0 0.02396
2.994 -0.044 -0.85299999 28 0 0 0 0.02397
3.033 -0.043000001 -0.85399997 29 0 0 0 0.023979999
3.0780001 -0.041999999 -0.85600001 30 0 0 0 0.02399
3.1140001 -0.041000001 -0.85600001 30 0 0 0 0.024
3.154 -0.039999999 -0.85600001 30 0 0 0 0.024010001
3.187 -0.039000001 -0.85500002 30 0 0 0 0.024019999
3.227 -0.037999999 -0.85500002 30 0 0 0 0.02403
3.267 -0.037 -0.85399997 30 0 0 0 0.024040001
3.3139999 -0.037 -0.85600001 31 0 0 0 0.024049999
3.3429999 -0.035999998 -0.852 30 0 0 0 0.02406
3.3900001 -0.035 -0.85299999 31 0 0 0 0.02407
3.418 -0.034000002 -0.84899998 64 0 0 0 0.024080001
3.4119999 -0.032000002 -0.83600003 150 0 0 0 0.024089999
3.411 -0.030999999 -0.824 151 0 0 0 0.0241
3.4119999 -0.029999999 -0.81300002 151 0 0 0 0.024110001
3.4159999 -0.028999999 -0.80299997 150 0 0 0 0.024119999
3.414 -0.027000001 -0.79100001 151 0 0 0 0.02413
3.414 -0.026000001 -0.77999997 151 0 0 0 0.02414
3.4159999 -0.025 -0.76899999 151 0 0 0 0.024150001
3.4159999 -0.024 -0.75700003 151 0 0 0 0.02416
3.4170001 -0.023 -0.74599999 151 0 0 0 0.02417
3.4170001 -0.022 -0.73500001 151 0 0 0 0.024180001
3.4189999 -0.021 -0.72399998 151 0 0 0 0.024189999
3.4200001 -0.02 -0.713 151 0 0 0 0.0242
3.4170001 -0.018999999 -0.70099998 151 0 0 0 0.02421
3.4170001 -0.017999999 -0.69 151 0 0 0 0.024219999
3.415 -0.017000001 -0.67799997 151 0 0 0 0.02423
3.421 -0.016000001 -0.66799998 151 0 0 0 0.02424
3.415 -0.015 -0.65600002 151 0 0 0 0.024250001
3.4159999 -0.014 -0.64499998 151 0 0 0 0.024259999
3.418 -0.013 -0.634 151 0 0 0 0.02427
3.418 -0.012 -0.62199998 151 0 0 0 0.02428
3.4200001 -0.011 -0.61199999 151 0 0 0 0.024289999
3.4119999 -0.011 -0.59899998 151 0 0 0 0.0243
3.4189999 -0.0099999998 -0.58899999 151 0 0 0 0.02431
3.421 -0.0089999996 -0.57800001 151 0 0 0 0.024320001
3.421 -0.0080000004 -0.56699997 151 0 0 0 0.024329999
3.421 -0.0080000004 -0.55599999 151 0 0 0 0.02434
3.4189999 -0.0070000002 -0.54400003 151 0 0 0 0.024350001
3.418 -0.0060000001 -0.53299999 151 0 0 0 0.024359999
3.4200001 -0.0060000001 -0.52200001 151 0 0 0 0.02437
3.4219999 -0.0049999999 -0.51099998 151 0 0 0 0.02438
3.4200001 -0.0040000002 -0.49900001 151 0 0 0 0.024390001
3.415 -0.0040000002 -0.48699999 151 0 0 0 0.0244
3.4159999 -0.003 -0.47600001 151 0 0 0 0.02441
3.4200001 -0.003 -0.46599999 151 0 0 0 0.024420001
3.415 -0.0020000001 -0.454 151 0 0 0 0.024429999
3.4189999 -0.0020000001 -0.44299999 151 0 0 0 0.02444
3.4200001 -0.001 -0.43200001 151 0 0 0 0.02445
3.4200001 -0.001 -0.421 151 0 0 0 0.024460001
3.4200001 0 -0.41 151 0 0 0 0.02447
3.4159999 0 -0.398 151 0 0 0 0.02448
3.4200001 0 -0.38699999 151 0 0 0 0.024490001
3.421 0 -0.37599999 151 0 0 0 0.024499999
3.4219999 0 -0.36500001 151 0 0 0 0.02451
3.4189999 0 -0.354 151 0 0 0 0.02452
3.4170001 0.001 -0.34200001 151 0 0 0 0.024529999
3.418 0.001 -0.331 151 0 0 0 0.02454
3.4189999 0.001 -0.32100001 151 0 0 0 0.02455
3.4200001 0.001 -0.31 151 0 0 0 0.024560001
3.418 0.0020000001 -0.29800001 151 0 0 0 0.024569999
3.4200001 0.0020000001 -0.287 151 0 0 0 0.02458
3.4159999 0.0020000001 -0.27599999 151 0 0 0 0.024590001
3.4219999 0.0020000001 -0.26499999 151 0 0 0 0.024599999
3.4170001 0.0020000001 -0.25400001 151 0 0 0 0.02461
3.4189999 0.0020000001 -0.243 151 0 0 0 0.02462
3.4189999 0.0020000001 -0.23199999 151 0 0 0 0.024630001
3.418 0.0020000001 -0.221 151 0 0 0 0.024639999
3.421 0.003 -0.20999999 151 0 0 0 0.02465
3.4189999 0.003 -0.198 152 0 0 0 0.024660001
3.418 0.003 -0.18700001 151 0 0 0 0.024669999
3.421 0.003 -0.176 151 0 0 0 0.02468
3.418 0.003 -0.16500001 151 0 0 0 0.02469
3.4189999 0.003 -0.154 151 0 0 0 0.024700001
3.418 0.0020000001 -0.14300001 151 0 0 0 0.02471
3.4219999 0.0020000001 -0.132 151 0 0 0 0.02472
3.4200001 0.0020000001 -0.121 151 0 0 0 0.024730001
3.421 0.0020000001 -0.11 151 0 0 0 0.024739999
3.4219999 0.0020000001 -0.098999999 152 0 0 0 0.02475
3.4219999 0.0020000001 -0.088 152 0 0 0 0.02476
3.4230001 0.0020000001 -0.077 152 0 0 0 0.024769999
3.4230001 0.0020000001 -0.064999998 152 0 0 0 0.02478
3.4289999 0.001 -0.054000001 152 0 0 0 0.02479
3.421 0.001 -0.043000001 152 0 0 0 0.024800001
3.424 0.001 -0.032000002 152 0 0 0 0.024809999
3.4230001 0.001 -0.021 152 0 0 0 0.02482
3.4219999 0 -0.0099999998 152 0 0 0 0.02483
3.424 0 0 152 0 0 0 0.024839999
3.4219999 0 0.011 151 0 0 0 0.02485
3.4230001 0 0.022 151 0 0 0 0.02486
3.425 0 0.033 152 0 0 0 0.024870001
3.4219999 0 0.044 152 0 0 0 0.024879999
3.425 -0.001 0.056000002 151 0 0 0 0.02489
3.424 -0.001 0.067000002 151 0 0 0 0.024900001
3.4260001 -0.0020000001 0.078000002 151 0 0 0 0.024909999
3.4230001 -0.0020000001 0.089000002 151 0 0 0 0.02492
3.424 -0.003 0.1 151 0 0 0 0.02493
3.424 -0.003 0.111 151 0 0 0 0.024940001
3.425 -0.0040000002 0.122 151 0 0 0 0.02495
3.425 -0.0040000002 0.133 151 0 0 0 0.02496
3.4219999 -0.0049999999 0.14399999 151 0 0 0 0.024970001
3.424 -0.0049999999 0.155 151 0 0 0 0.024979999
3.4230001 -0.0060000001 0.16599999 151 0 0 0 0.02499
3.4230001 -0.0070000002 0.177 151 0 0 0 0.025
3.4219999 -0.0070000002 0.18799999 151 0 0 0 0.025010001
3.4230001 -0.0080000004 0.199 151 0 0 0 0.02502
3.4260001 -0.0089999996 0.211 151 0 0 0 0.02503
3.428 -0.0089999996 0.222 151 0 0 0 0.025040001
3.427 -0.0099999998 0.233 151 0 0 0 0.025049999
3.4260001 -0.011 0.244 151 0 0 0 0.02506
3.425 -0.011 0.255 151 0 0 0 0.02507
3.424 -0.012 0.266 151 0 0 0 0.025079999
3.428 -0.013 0.278 151 0 0 0 0.02509
3.427 -0.014 0.289 151 0 0 0 0.0251
3.428 -0.015 0.30000001 151 0 0 0 0.025110001
3.425 -0.015 0.31099999 151 0 0 0 0.025119999
3.4289999 -0.016000001 0.322 151 0 0 0 0.02513
3.428 -0.017000001 0.333 151 0 0 0 0.025140001
3.428 -0.017999999 0.34400001 151 0 0 0 0.025149999
3.4289999 -0.018999999 0.35499999 151 0 0 0 0.02516
3.428 -0.02 0.36700001 151 0 0 0 0.02517
3.431 -0.021 0.37799999 151 0 0 0 0.025180001
3.425 -0.022 0.389 151 0 0 0 0.025189999
3.4260001 -0.023 0.40000001 151 0 0 0 0.0252
3.427 -0.024 0.41100001 151 0 0 0 0.025210001
3.425 -0.025 0.42199999 151 0 0 0 0.025219999
3.425 -0.026000001 0.433 151 0 0 0 0.02523
3.424 -0.027000001 0.44400001 151 0 0 0 0.02524
3.4219999 -0.028000001 0.45500001 151 0 0 0 0.025250001
3.428 -0.029999999 0.46700001 151 0 0 0 0.02526
3.4300001 -0.030999999 0.47799999 151 0 0 0 0.02527
3.4319999 -0.032000002 0.49000001 151 0 0 0 0.025280001
3.431 -0.033 0.50099999 151 0 0 0 0.025289999
3.4300001 -0.034000002 0.51200002 151 0 0 0 0.0253
3.4300001 -0.035999998 0.523 151 0 0 0 0.02531
3.4330001 -0.037 0.53500003 151 0 0 0 0.025319999
3.434 -0.037999999 0.546 151 0 0 0 0.02533
3.431 -0.039999999 0.55699998 151 0 0 0 0.02534
3.4349999 -0.041000001 0.56900001 151 0 0 0 0.025350001
3.437 -0.041999999 0.57999998 151 0 0 0 0.025359999
3.4360001 -0.044 0.59100002 151 0 0 0 0.02537
3.4360001 -0.045000002 0.602 151 0 0 0 0.02538
3.4389999 -0.046999998 0.61400002 151 0 0 0 0.025389999
3.4389999 -0.048 0.62599999 151 0 0 0 0.0254
3.4330001 -0.050000001 0.63599998 151 0 0 0 0.02541
3.437 -0.050999999 0.648 151 0 0 0 0.025420001
3.4330001 -0.052999999 0.65799999 150 0 0 0 0.025429999
3.4360001 -0.054000001 0.67000002 151 0 0 0 0.02544
3.434 -0.056000002 0.68099999 150 0 0 0 0.025450001
3.4349999 -0.057 0.69199997 151 0 0 0 0.025459999
3.438 -0.059 0.704 151 0 0 0 0.02547
3.4360001 -0.061000001 0.71499997 151 0 0 0 0.02548
3.4360001 -0.061999999 0.72600001 151 0 0 0 0.025490001
3.434 -0.064000003 0.73699999 151 0 0 0 0.0255
3.4319999 -0.066 0.74800003 151 0 0 0 0.02551
3.438 -0.068000004 0.76099998 151 0 0 0 0.025520001
3.4349999 -0.068999998 0.77200001 151 0 0 0 0.025529999
3.437 -0.071000002 0.78299999 150 0 0 0 0.02554
3.4360001 -0.072999999 0.79400003 150 0 0 0 0.02555
3.438 -0.075000003 0.80599999 150 0 0 0 0.025560001
3.4360001 -0.077 0.81699997 150 0 0 0 0.02557
3.4360001 -0.079000004 0.82800001 150 0 0 0 0.02558
3.4389999 -0.081 0.83999997 150 0 0 0 0.025590001
3.4360001 -0.082999997 0.85100001 150 0 0 0 0.025599999
3.4389999 -0.085000001 0.86299998 150 0 0 0 0.02561
3.4389999 -0.086999997 0.87400001 150 0 0 0 0.02562
3.438 -0.089000002 0.88499999 150 0 0 0 0.025629999
3.4400001 -0.090999998 0.89700001 150 0 0 0 0.02564
3.4389999 -0.093000002 0.90799999 150 0 0 0 0.02565
3.437 -0.094999999 0.91900003 150 0 0 0 0.025660001
3.437 -0.097000003 0.93099999 150 0 0 0 0.025669999
3.4389999 -0.1 0.94199997 150 0 0 0 0.02568
3.4419999 -0.102 0.954 150 0 0 0 0.025690001
3.4419999 -0.104 0.96600002 150 0 0 0 0.025699999
3.4389999 -0.107 0.97600001 150 0 0 0 0.02571
3.4419999 -0.109 0.98799998 150 0 0 0 0.02572
3.4430001 -0.111 1 150 0 0 0 0.025730001
3.447 -0.114 1.013 150 0 0 0 0.025739999
3.444 -0.116 1.023 150 0 0 0 0.02575
3.441 -0.119 1.034 150 0 0 0 0.025760001
3.4419999 -0.121 1.045 150 0 0 0 0.025769999
3.4419999 -0.124 1.057 150 0 0 0 0.02578
3.438 -0.126 1.067 150 0 0 0 0.02579
3.4449999 -0.12899999 1.08 150 0 0 0 0.025800001
3.4430001 -0.132 1.091 150 0 0 0 0.02581
3.4400001 -0.134 1.101 150 0 0 0 0.02582
3.4460001 -0.13699999 1.115 150 0 0 0 0.025830001
3.4449999 -0.14 1.126 150 0 0 0 0.025839999
3.4460001 -0.142 1.137 150 0 0 0 0.02585
3.4460001 -0.145 1.149 150 0 0 0 0.02586
3.4460001 -0.148 1.16 150 0 0 0 0.025869999
3.444 -0.15099999 1.171 150 0 0 0 0.02588
3.431 -0.153 1.178 150 0 0 0 0.02589
3.408 -0.155 1.181 150 0 0 0 0.025900001
3.3900001 -0.15700001 1.186 150 0 0 0 0.025909999
3.378 -0.16 1.193 150 0 0 0 0.02592
3.378 -0.163 1.204 150 0 0 0 0.02593
3.3829999 -0.16599999 1.217 150 0 0 0 0.025939999
3.3840001 -0.169 1.229 150 0 0 0 0.02595
3.3840001 -0.17200001 1.24 150 0 0 0 0.02596
3.3840001 -0.175 1.251 150 0 0 0 0.025970001
3.3889999 -0.17900001 1.2640001 150 0 0 0 0.025979999
3.3800001 -0.18099999 1.272 150 0 0 0 0.02599
3.368 -0.184 1.278 150 0 0 0 0.026000001
3.352 -0.186 1.283 150 0 0 0 0.026009999
3.358 -0.19 1.296 150 0 0 0 0.02602
3.3540001 -0.193 1.306 150 0 0 0 0.02603
3.355 -0.19599999 1.317 150 0 0 0 0.026040001
3.3570001 -0.2 1.329 150 0 0 0 0.02605
3.3610001 -0.20299999 1.341 150 0 0 0 0.02606
3.3599999 -0.207 1.352 150 0 0 0 0.026070001
3.358 -0.20999999 1.362 150 0 0 0 0.026079999
3.358 -0.214 1.373 150 0 0 0 0.02609
3.358 -0.21699999 1.3839999 150 0 0 0 0.0261
3.3610001 -0.221 1.396 150 0 0 0 0.026110001
3.3540001 -0.22400001 1.404 150 0 0 0 0.02612
3.3570001 -0.228 1.416 124 0 0 0 0.02613
3.3540001 -0.23199999 1.425 55 0 0 0 0.026140001
3.3429999 -0.235 1.432 43 0 0 0 0.026149999
3.3269999 -0.23800001 1.436 39 0 0 0 0.02616
3.3139999 -0.23999999 1.441 37 0 0 0 0.02617
3.296 -0.243 1.443 37 0 0 0 0.026179999
3.279 -0.245 1.446 39 0 0 0 0.02619
3.267 -0.248 1.451 41 0 0 0 0.0262
3.2550001 -0.25099999 1.457 42 0 0 0 0.026210001
3.2460001 -0.255 1.4630001 43 0 0 0 0.026219999
3.2260001 -0.257 1.464 43 0 0 0 0.02623
3.1900001 -0.25799999 1.4579999 44 0 0 0 0.026240001
3.1559999 -0.259 1.452 44 0 0 0 0.026249999
3.1270001 -0.26100001 1.449 43 0 0 0 0.02626
3.095 -0.26199999 1.444 43 0 0 0 0.02627
3.0699999 -0.264 1.442 43 0 0 0 0.026280001
3.0550001 -0.266 1.444 45 0 0 0 0.026289999
3.0209999 -0.26699999 1.437 44 0 0 0 0.0263
2.9630001 -0.266 1.419 40 0 0 0 0.026310001
2.925 -0.266 1.41 37 0 0 0 0.026319999
2.8889999 -0.26699999 1.401 36 0 0 0 0.02633
2.865 -0.26899999 1.398 36 0 0 0 0.02634
2.835 -0.27000001 1.393 35 0 0 0 0.026350001
2.803 -0.27000001 1.385 34 0 0 0 0.02636
2.7739999 -0.27200001 1.3789999 33 0 0 0 0.02637
2.75 -0.273 1.376 33 0 0 0 0.026380001
2.721 -0.27399999 1.369 32 0 0 0 0.026389999
2.6919999 -0.27500001 1.363 32 0 0 0 0.0264
2.6719999 -0.27700001 1.3609999 32 0 0 0 0.02641
2.651 -0.278 1.358 33 0 0 0 0.026419999
2.631 -0.28 1.355 33 0 0 0 0.02643
2.6070001 -0.28099999 1.35 33 0 0 0 0.02644
2.5799999 -0.28200001 1.344 32 0 0 0 0.026450001
2.5580001 -0.28299999 1.34 32 0 0 0 0.026459999
2.5450001 -0.28600001 1.34 32 0 0 0 0.02647
2.5250001 -0.287 1.337 32 0 0 0 0.02648
2.5 -0.28799999 1.331 31 0 0 0 0.026489999
2.4749999 -0.289 1.325 31 0 0 0 0.0265
2.448 -0.28999999 1.317 30 0 0 0 0.02651
2.4119999 -0.289 1.304 27 0 0 0 0.026520001
2.3859999 -0.28999999 1.2970001 25 0 0 0 0.026529999
2.3759999 -0.292 1.298 23 0 0 0 0.02654
2.3759999 -0.296 1.3049999 25 0 0 0 0.026550001
2.3770001 -0.30000001 1.312 25 0 0 0 0.026559999
2.3800001 -0.30399999 1.3200001 26 0 0 0 0.02657
2.381 -0.308 1.327 26 0 0 0 0.02658
2.381 -0.31200001 1.3329999 26 0 0 0 0.026590001
2.3759999 -0.315 1.337 26 0 0 0 0.0266
2.378 -0.31900001 1.344 26 0 0 0 0.02661
2.3770001 -0.32300001 1.349 26 0 0 0 0.026620001
2.3770001 -0.32699999 1.3559999 26 0 0 0 0.026629999
2.3800001 -0.331 1.363 26 0 0 0 0.02664
2.378 -0.33500001 1.368 26 0 0 0 0.02665
2.3800001 -0.33899999 1.375 26 0 0 0 0.026660001
2.3770001 -0.34200001 1.3789999 26 0 0 0 0.02667
2.3800001 -0.347 1.387 26 0 0 0 0.02668
2.3829999 -0.35100001 1.3940001 27 0 0 0 0.026690001
2.3800001 -0.35499999 1.398 27 0 0 0 0.026699999
2.382 -0.359 1.405 28 0 0 0 0.02671
2.385 -0.36399999 1.4119999 28 0 0 0 0.02672
2.3829999 -0.368 1.416 25 0 0 0 0.026729999
2.3829999 -0.37200001 1.4220001 24 0 0 0 0.02674
2.3870001 -0.377 1.4299999 25 0 0 0 0.02675
2.388 -0.38100001 1.436 25 0 0 0 0.026760001
2.3840001 -0.384 1.438 27 0 0 0 0.026769999
2.3829999 -0.38800001 1.443 26 0 0 0 0.02678
2.3829999 -0.39199999 1.447 24 0 0 0 0.02679
2.3870001 -0.39700001 1.455 21 0 0 0 0.026799999
2.3870001 -0.40200001 1.46 20 0 0 0 0.02681
2.385 -0.40599999 1.4630001 20 0 0 0 0.02682
2.3900001 -0.41100001 1.471 19 0 0 0 0.026830001
2.3870001 -0.414 1.474 19 0 0 0 0.026839999
2.3859999 -0.41800001 1.478 14 0 0 0 0.02685
2.3870001 -0.42300001 1.483 14 0 0 0 0.026860001
2.3889999 -0.42699999 1.489 13 0 0 0 0.026869999
2.3900001 -0.43200001 1.493 14 0 0 0 0.02688
2.3940001 -0.43700001 1.5 15 0 0 0 0.02689
2.3889999 -0.44 1.501 14 0 0 0 0.026900001
2.391 -0.44499999 1.506 15 0 0 0 0.02691
2.3900001 -0.449 1.5089999 16 0 0 0 0.02692
2.392 -0.45300001 1.5140001 20 0 0 0 0.026930001
2.388 -0.45699999 1.516 21 0 0 0 0.026939999
2.3889999 -0.461 1.5190001 22 0 0 0 0.02695
2.3929999 -0.46599999 1.526 21 0 0 0 0.02696
2.3929999 -0.47 1.529 21 0 0 0 0.026969999
2.3929999 -0.47499999 1.5319999 24 0 0 0 0.02698
2.3929999 -0.479 1.535 24 0 0 0 0.02699
2.392 -0.48300001 1.538 22 0 0 0 0.027000001
2.395 -0.48800001 1.543 23 0 0 0 0.027009999
2.395 -0.49200001 1.545 22 0 0 0 0.02702
2.3959999 -0.49599999 1.548 25 0 0 0 0.02703
2.3989999 -0.50099999 1.553 29 0 0 0 0.027039999
2.3959999 -0.505 1.554 27 0 0 0 0.02705
2.398 -0.509 1.557 27 0 0 0 0.02706
2.395 -0.51300001 1.557 30 0 0 0 0.027070001
2.3940001 -0.51700002 1.559 32 0 0 0 0.027079999
2.392 -0.51999998 1.5599999 33 0 0 0 0.02709
2.395 -0.52499998 1.564 25 0 0 0 0.027100001
2.402 -0.53100002 1.5700001 20 0 0 0 0.027109999
2.3970001 -0.53399998 1.569 15 0 0 0 0.02712
2.398 -0.53799999 1.5700001 16 0 0 0 0.02713
2.3989999 -0.542 1.573 17 0 0 0 0.027140001
2.4000001 -0.546 1.575 19 0 0 0 0.02715
2.3989999 -0.55000001 1.575 21 0 0 0 0.02716
2.3940001 -0.55299997 1.573 22 0 0 0 0.027170001
2.395 -0.55699998 1.575 24 0 0 0 0.027179999
2.3989999 -0.56199998 1.5779999 18 0 0 0 0.02719
2.4030001 -0.56599998 1.581 14 0 0 0 0.0272
2.402 -0.56999999 1.581 13 0 0 0 0.027210001
2.402 -0.574 1.581 14 0 0 0 0.02722
2.404 -0.57800001 1.5829999 15 0 0 0 0.02723
2.401 -0.58099997 1.581 17 0 0 0 0.027240001
2.4000001 -0.58399999 1.581 19 0 0 0 0.027249999
2.402 -0.588 1.582 20 0 0 0 0.02726
2.3989999 -0.59100002 1.58 22 0 0 0 0.02727
2.4000001 -0.59500003 1.58 22 0 0 0 0.027279999
2.3989999 -0.59799999 1.579 21 0 0 0 0.02729
2.405 -0.60299999 1.582 21 0 0 0 0.0273
2.405 -0.60600001 1.582 21 0 0 0 0.027310001
2.3989999 -0.60799998 1.577 19 0 0 0 0.027319999
2.4030001 -0.61199999 1.5779999 19 0 0 0 0.02733
2.405 -0.616 1.579 18 0 0 0 0.02734
2.4000001 -0.61799997 1.574 18 0 0 0 0.027349999
2.402 -0.62199998 1.574 19 0 0 0 0.02736
2.4059999 -0.62599999 1.576 20 0 0 0 0.02737
2.402 -0.62800002 1.571 19 0 0 0 0.027380001
2.404 -0.63099998 1.571 17 0 0 0 0.027389999
2.4030001 -0.634 1.569 16 0 0 0 0.0274
2.405 -0.63800001 1.568 15 0 0 0 0.027410001
2.402 -0.63999999 1.564 17 0 0 0 0.027419999
2.405 -0.64300001 1.563 19 0 0 0 0.02743
2.4000001 -0.64499998 1.558 20 0 0 0 0.02744
2.402 -0.648 1.557 20 0 0 0 0.027450001
2.4030001 -0.65100002 1.5549999 20 0 0 0 0.02746
2.4030001 -0.653 1.552 18 0 0 0 0.02747
2.404 -0.65600002 1.55 18 0 0 0 0.027480001
2.405 -0.65899998 1.548 18 0 0 0 0.027489999
2.405 -0.66100001 1.545 18 0 0 0 0.0275
2.405 -0.66299999 1.541 19 0 0 0 0.02751
2.4070001 -0.66600001 1.54 21 0 0 0 0.027519999
2.4030001 -0.667 1.534 21 0 0 0 0.02753
2.404 -0.67000002 1.531 20 0 0 0 0.02754
2.408 -0.67299998 1.53 22 0 0 0 0.027550001
2.4030001 -0.67400002 1.523 21 0 0 0 0.027559999
2.4100001 -0.67699999 1.523 21 0 0 0 0.02757
2.4059999 -0.67799997 1.517 21 0 0 0 0.02758
2.4070001 -0.68000001 1.5140001 21 0 0 0 0.027589999
2.4059999 -0.68199998 1.5089999 22 0 0 0 0.0276
2.4070001 -0.68400002 1.506 23 0 0 0 0.02761
2.402 -0.68400002 1.498 23 0 0 0 0.027620001
2.405 -0.68599999 1.4960001 24 0 0 0 0.027629999
2.4030001 -0.68699998 1.49 26 0 0 0 0.02764
2.4030001 -0.68900001 1.4859999 25 0 0 0 0.027650001
2.4059999 -0.69099998 1.482 26 0 0 0 0.027659999
2.4070001 -0.69199997 1.478 26 0 0 0 0.02767
2.405 -0.69300002 1.472 27 0 0 0 0.02768
2.4070001 -0.69499999 1.469 27 0 0 0 0.027690001
2.408 -0.69599998 1.464 29 0 0 0 0.0277
2.4070001 -0.69700003 1.4579999 30 0 0 0 0.02771
2.408 -0.69800001 1.454 30 0 0 0 0.027720001
2.4089999 -0.699 1.449 30 0 0 0 0.027729999
2.411 -0.70099998 1.444 29 0 0 0 0.02774
2.4070001 -0.69999999 1.437 28 0 0 0 0.02775
2.4070001 -0.70099998 1.432 26 0 0 0 0.027760001
2.4030001 -0.69999999 1.423 27 0 0 0 0.02777
2.4070001 -0.70200002 1.42 24 0 0 0 0.02778
2.4070001 -0.70300001 1.414 24 0 0 0 0.027790001
2.4070001 -0.70300001 1.408 24 0 0 0 0.027799999
2.4059999 -0.70300001 1.402 21 0 0 0 0.02781
2.4070001 -0.704 1.396 22 0 0 0 0.02782
2.408 -0.704 1.391 20 0 0 0 0.027829999
2.408 -0.704 1.3839999 19 0 0 0 0.02784
2.411 -0.70499998 1.38 19 0 0 0 0.02785
2.4059999 -0.704 1.3710001 18 0 0 0 0.027860001
2.4059999 -0.704 1.365 17 0 0 0 0.027869999
2.404 -0.70300001 1.358 17 0 0 0 0.02788
2.405 -0.70300001 1.352 18 0 0 0 0.02789
2.4070001 -0.704 1.346 18 0 0 0 0.027899999
2.4030001 -0.70200002 1.337 21 0 0 0 0.02791
2.4059999 -0.70300001 1.332 21 0 0 0 0.02792
2.405 -0.70200002 1.325 22 0 0 0 0.027930001
2.4059999 -0.70200002 1.319 23 0 0 0 0.027939999
2.401 -0.69999999 1.3099999 24 0 0 0 0.02795
2.401 -0.699 1.303 23 0 0 0 0.027960001
2.4030001 -0.699 1.2970001 24 0 0 0 0.027969999
2.4059999 -0.699 1.2920001 24 0 0 0 0.02798
2.4030001 -0.69700003 1.284 23 0 0 0 0.02799
2.4030001 -0.69599998 1.276 26 0 0 0 0.028000001
2.404 -0.69599998 1.27 25 0 0 0 0.02801
2.404 -0.69499999 1.263 25 0 0 0 0.02802
2.404 -0.69400001 1.256 26 0 0 0 0.028030001
2.4000001 -0.69199997 1.247 23 0 0 0 0.028039999
2.4070001 -0.69300002 1.243 25 0 0 0 0.02805
2.404 -0.69 1.235 24 0 0 0 0.02806
2.405 -0.69 1.228 21 0 0 0 0.028069999
2.404 -0.68800002 1.22 14 0 0 0 0.02808
2.424 -0.69199997 1.223 47 0 0 0 0.02809
3.128 -0.89200002 1.569 127 0 0 0 0.028100001
3.2509999 -0.92500001 1.6210001 32 0 0 0 0.028109999
3.2579999 -0.92500001 1.615 37 0 0 0 0.02812
3.276 -0.92799997 1.613 38 0 0 0 0.02813
3.299 -0.93199998 1.615 37 0 0 0 0.028139999
3.319 -0.935 1.614 36 0 0 0 0.02815
3.339 -0.93800002 1.614 37 0 0 0 0.02816
3.3570001 -0.94099998 1.612 35 0 0 0 0.028170001
3.381 -0.94499999 1.613 35 0 0 0 0.028179999
3.4030001 -0.949 1.613 33 0 0 0 0.02819
3.4230001 -0.95200002 1.612 34 0 0 0 0.028200001
3.4530001 -0.95700002 1.615 36 0 0 0 0.028209999
3.471 -0.95899999 1.613 33 0 0 0 0.02822
3.497 -0.963 1.614 30 0 0 0 0.02823
3.5190001 -0.96600002 1.613 30 0 0 0 0.028240001
3.5439999 -0.97000003 1.613 30 0 0 0 0.02825
3.569 -0.97399998 1.614 27 0 0 0 0.02826
3.5940001 -0.977 1.614 27 0 0 0 0.028270001
3.618 -0.98000002 1.613 26 0 0 0 0.028279999
3.645 -0.98400003 1.613 25 0 0 0 0.02829
3.6670001 -0.986 1.612 27 0 0 0 0.0283
3.6949999 -0.99000001 1.612 28 0 0 0 0.028310001
3.7179999 -0.99199998 1.6109999 29 0 0 0 0.02832
3.7479999 -0.99699998 1.612 30 0 0 0 0.02833
3.773 -0.99900001 1.6109999 27 0 0 0 0.028340001
3.7980001 -1.002 1.609 28 0 0 0 0.028349999
3.8280001 -1.006 1.61 27 0 0 0 0.02836
3.8540001 -1.008 1.609 27 0 0 0 0.02837
3.8789999 -1.01 1.607 27 0 0 0 0.028379999
3.9130001 -1.0140001 1.609 25 0 0 0 0.02839
3.9460001 -1.0190001 1.61 27 0 0 0 0.0284
3.977 -1.022 1.61 27 0 0 0 0.028410001
4.007 -1.025 1.609 27 0 0 0 0.028419999
4.0300002 -1.026 1.6059999 25 0 0 0 0.02843
4.0650001 -1.03 1.607 25 0 0 0 0.02844
4.0999999 -1.034 1.608 24 0 0 0 0.028449999
4.131 -1.0369999 1.607 26 0 0 0 0.02846
4.1630001 -1.039 1.6059999 26 0 0 0 0.02847
4.197 -1.043 1.6059999 24 0 0 0 0.028480001
2.819 -0.69700003 1.0700001 0 0 0 0 0.028489999
4.2690001 -1.049 1.607 23 0 0 0 0.0285
2.7590001 -0.67500001 1.03 0 0 0 0 0.028510001
2.8570001 -0.69499999 1.057 0 0 0 0 0.028519999
2.8139999 -0.68099999 1.033 0 0 0 0 0.02853
0 0 0 0 0 0 0 0.02854
0 0 0 0 0 0 0 0.028550001
2.898 -0.68900001 1.036 0 0 0 0 0.02856
2.4170001 -0.57099998 0.85699999 0 0 0 0 0.02857
0 0 0 0 0 0 0 0.028580001
0 0 0 0 0 0 0 0.028589999
0 0 0 0 0 0 0 0.0286
0 0 0 0 0 0 0 0.02861
0 0 0 0 0 0 0 0.028620001
0 0 0 0 0 0 0 0.02863
0 0 0 0 0 0 0 0.02864
0 0 0 0 0 0 0 0.028650001
0 0 0 0 0 0 0 0.028659999
0 0 0 0 0 0 0 0.02867
0 0 0 0 0 0 0 0.02868
0 0 0 0 0 0 0 0.028689999
0 0 0 0 0 0 0 0.0287
0 0 0 0 0 0 0 0.02871
2.444 -0.52399999 0.75300002 0 0 0 0 0.028720001
0 0 0 0 0 0 0 0.028729999
0 0 0 0 0 0 0 0.02874
0 0 0 0 0 0 0 0.028750001
0 0 0 0 0 0 0 0.028759999
0 0 0 0 0 0 0 0.02877
0 0 0 0 0 0 0 0.02878
0 0 0 0 0 0 0 0.028790001
0 0 0 0 0 0 0 0.0288
0 0 0 0 0 0 0 0.02881
0 0 0 0 0 0 0 0.028820001
0 0 0 0 0 0 0 0.028829999
0 0 0 0 0 0 0 0.02884
0 0 0 0 0 0 0 0.02885
0 0 0 0 0 0 0 0.028860001
0 0 0 0 0 0 0 0.02887
0 0 0 0 0 0 0 0.02888
0 0 0 0 0 0 0 0.028890001
0 0 0 0 0 0 0 0.028899999
0 0 0 0 0 0 0 0.02891
0 0 0 0 0 0 0 0.02892
0 0 0 0 0 0 0 0.028929999
0 0 0 0 0 0 0 0.02894
0 0 0 0 0 0 0 0.02895
0 0 0 0 0 0 0 0.028960001
0 0 0 0 0 0 0 0.028969999
0 0 0 0 0 0 0 0.02898
0 0 0 0 0 0 0 0.02899
