# .PCD v0.7 - Point Cloud Data file format
VERSION 0.7
FIELDS x y z intensity normal_x normal_y normal_z curvature
SIZE 4 4 4 4 4 4 4 4
TYPE F F F F F F F F
COUNT 1 1 1 1 1 1 1 1
WIDTH 1007
HEIGHT 1
VIEWPOINT 0 0 0 1 0 0 0
POINTS 1007
DATA ascii
0 0 0 0 0 0 0 0.05263
0 0 0 0 0 0 0 0.052639998
0 0 0 0 0 0 0 0.052650001
0 0 0 0 0 0 0 0.05266
0 0 0 0 0 0 0 0.052669998
0 0 0 0 0 0 0 0.052680001
0 0 0 0 0 0 0 0.052689999
0 0 0 0 0 0 0 0.052700002
0 0 0 0 0 0 0 0.05271
0 0 0 0 0 0 0 0.052719999
0 0 0 0 0 0 0 0.052730002
0 0 0 0 0 0 0 0.05274
0 0 0 0 0 0 0 0.052749999
0 0 0 0 0 0 0 0.052760001
0 0 0 0 0 0 0 0.05277
0 0 0 0 0 0 0 0.052779999
0 0 0 0 0 0 0 0.052790001
0 0 0 0 0 0 0 0.0528
0 0 0 0 0 0 0 0.052809998
0 0 0 0 0 0 0 0.052820001
0 0 0 0 0 0 0 0.052829999
0 0 0 0 0 0 0 0.052839998
0 0 0 0 0 0 0 0.052850001
0 0 0 0 0 0 0 0.052859999
0 0 0 0 0 0 0 0.052870002
2.3929999 -0.32800001 0.359 0 0 0 0 0.05288
2.381 -0.322 0.35100001 0 0 0 0 0.052889999
2.3840001 -0.317 0.345 3 0 0 0 0.052900001
2.381 -0.31200001 0.33899999 19 0 0 0 0.05291
2.3870001 -0.30700001 0.333 21 0 0 0 0.052919999
2.4230001 -0.30700001 0.33199999 13 0 0 0 0.052930001
2.4590001 -0.30599999 0.331 14 0 0 0 0.05294
2.494 -0.30599999 0.329 15 0 0 0 0.052949999
2.5320001 -0.30500001 0.32800001 16 0 0 0 0.052960001
2.563 -0.303 0.32499999 17 0 0 0 0.05297
2.855 -0.33199999 0.35499999 150 0 0 0 0.052979998
3.059 -0.34900001 0.373 150 0 0 0 0.052990001
3.217 -0.36000001 0.384 150 0 0 0 0.052999999
3.2090001 -0.352 0.375 150 0 0 0 0.053010002
3.211 -0.34599999 0.368 150 0 0 0 0.05302
3.2119999 -0.33899999 0.36000001 150 0 0 0 0.053029999
3.211 -0.33199999 0.352 150 0 0 0 0.053040002
3.2130001 -0.32499999 0.34400001 150 0 0 0 0.05305
3.211 -0.31799999 0.336 150 0 0 0 0.053059999
3.22 -0.31200001 0.329 150 0 0 0 0.053070001
3.2409999 -0.30700001 0.32300001 150 0 0 0 0.05308
3.237 -0.30000001 0.315 150 0 0 0 0.053089999
3.2360001 -0.29300001 0.30700001 150 0 0 0 0.053100001
3.237 -0.28600001 0.29899999 150 0 0 0 0.05311
3.23 -0.278 0.28999999 150 0 0 0 0.053119998
3.2349999 -0.271 0.28299999 150 0 0 0 0.053130001
3.2320001 -0.264 0.27500001 150 0 0 0 0.05314
3.2409999 -0.25799999 0.26800001 150 0 0 0 0.053149998
3.3039999 -0.25600001 0.26499999 26 0 0 0 0.053160001
3.345 -0.25099999 0.25999999 150 0 0 0 0.053169999
3.345 -0.244 0.252 151 0 0 0 0.053180002
3.3410001 -0.236 0.243 150 0 0 0 0.05319
3.346 -0.229 0.236 150 0 0 0 0.053199999
3.345 -0.222 0.228 150 0 0 0 0.053210001
3.339 -0.214 0.219 150 0 0 0 0.05322
3.352 -0.208 0.212 150 0 0 0 0.053229999
3.372 -0.20100001 0.205 150 0 0 0 0.053240001
3.3740001 -0.19400001 0.198 151 0 0 0 0.05325
3.372 -0.186 0.189 150 0 0 0 0.053259999
3.3759999 -0.17900001 0.182 150 0 0 0 0.053270001
3.4219999 -0.17399999 0.176 150 0 0 0 0.05328
3.4419999 -0.167 0.169 151 0 0 0 0.053289998
3.4360001 -0.15899999 0.161 150 0 0 0 0.053300001
3.4389999 -0.152 0.153 150 0 0 0 0.053309999
3.4389999 -0.14399999 0.145 150 0 0 0 0.053320002
3.431 -0.13600001 0.13600001 150 0 0 0 0.05333
3.434 -0.12800001 0.12800001 150 0 0 0 0.053339999
3.4319999 -0.12 0.12 150 0 0 0 0.053350002
3.431 -0.113 0.112 150 0 0 0 0.05336
3.434 -0.105 0.104 150 0 0 0 0.053369999
3.4319999 -0.097000003 0.096000001 150 0 0 0 0.053380001
3.4219999 -0.089000002 0.088 150 0 0 0 0.05339
3.4300001 -0.081 0.079999998 150 0 0 0 0.053399999
3.4330001 -0.074000001 0.072999999 150 0 0 0 0.053410001
3.4230001 -0.066 0.064000003 150 0 0 0 0.05342
3.424 -0.057999998 0.057 150 0 0 0 0.053429998
3.4289999 -0.050000001 0.048999999 150 0 0 0 0.053440001
3.424 -0.041999999 0.041000001 150 0 0 0 0.05345
3.4189999 -0.034000002 0.033 150 0 0 0 0.053459998
3.427 -0.027000001 0.025 150 0 0 0 0.053470001
3.4189999 -0.018999999 0.017999999 150 0 0 0 0.053479999
3.4189999 -0.011 0.0099999998 150 0 0 0 0.053490002
3.418 -0.003 0.0020000001 150 0 0 0 0.0535
3.418 0.0040000002 -0.0049999999 150 0 0 0 0.053509999
3.421 0.012 -0.012 150 0 0 0 0.053520001
3.4200001 0.02 -0.02 151 0 0 0 0.05353
3.418 0.028000001 -0.028000001 151 0 0 0 0.053539999
3.4200001 0.035999998 -0.035999998 151 0 0 0 0.053550001
3.421 0.044 -0.043000001 152 0 0 0 0.05356
3.418 0.052000001 -0.050999999 152 0 0 0 0.053569999
3.4159999 0.059999999 -0.059 152 0 0 0 0.053580001
3.411 0.068000004 -0.066 152 0 0 0 0.05359
3.4059999 0.075999998 -0.074000001 153 0 0 0 0.053599998
3.4100001 0.083999999 -0.081 153 0 0 0 0.053610001
3.405 0.092 -0.089000002 153 0 0 0 0.053619999
3.402 0.1 -0.096000001 153 0 0 0 0.053630002
3.3959999 0.108 -0.104 153 0 0 0 0.053640001
3.3959999 0.116 -0.111 153 0 0 0 0.053649999
3.392 0.124 -0.118 154 0 0 0 0.053660002
3.395 0.132 -0.126 154 0 0 0 0.05367
3.3940001 0.14 -0.133 154 0 0 0 0.053679999
3.382 0.147 -0.14 154 0 0 0 0.053690001
3.3900001 0.156 -0.148 154 0 0 0 0.0537
3.392 0.164 -0.155 154 0 0 0 0.053709999
3.391 0.17200001 -0.163 153 0 0 0 0.053720001
3.3900001 0.18000001 -0.17 153 0 0 0 0.05373
3.3900001 0.18799999 -0.178 154 0 0 0 0.053739998
3.3889999 0.197 -0.185 153 0 0 0 0.053750001
3.388 0.205 -0.192 153 0 0 0 0.05376
3.392 0.213 -0.2 153 0 0 0 0.053769998
3.3940001 0.222 -0.207 153 0 0 0 0.053780001
3.398 0.23 -0.215 153 0 0 0 0.053789999
3.4030001 0.23899999 -0.222 152 0 0 0 0.053800002
3.4070001 0.24699999 -0.23 152 0 0 0 0.05381
3.3970001 0.255 -0.237 151 0 0 0 0.053819999
3.398 0.26300001 -0.244 151 0 0 0 0.053830002
3.398 0.27200001 -0.25099999 151 0 0 0 0.05384
3.3970001 0.28 -0.259 151 0 0 0 0.053849999
3.398 0.28799999 -0.266 151 0 0 0 0.053860001
3.395 0.29699999 -0.273 151 0 0 0 0.05387
3.388 0.30399999 -0.28 151 0 0 0 0.053879999
3.398 0.31400001 -0.28799999 151 0 0 0 0.053890001
3.392 0.322 -0.294 150 0 0 0 0.0539
3.3900001 0.33000001 -0.301 150 0 0 0 0.053909998
3.3889999 0.338 -0.308 150 0 0 0 0.053920001
3.392 0.347 -0.31600001 150 0 0 0 0.053929999
3.391 0.35499999 -0.32300001 150 0 0 0 0.053939998
3.3889999 0.36399999 -0.33000001 150 0 0 0 0.053950001
3.3870001 0.37200001 -0.33700001 150 0 0 0 0.053959999
3.3889999 0.38100001 -0.34400001 150 0 0 0 0.053970002
3.3870001 0.389 -0.35100001 150 0 0 0 0.05398
3.385 0.398 -0.35800001 150 0 0 0 0.053989999
3.3840001 0.40599999 -0.36500001 150 0 0 0 0.054000001
3.3840001 0.41499999 -0.37200001 150 0 0 0 0.05401
3.382 0.42300001 -0.37799999 150 0 0 0 0.054019999
3.381 0.43200001 -0.38499999 150 0 0 0 0.054030001
3.385 0.44100001 -0.39300001 150 0 0 0 0.05404
3.381 0.449 -0.39899999 150 0 0 0 0.054049999
3.375 0.45699999 -0.40599999 150 0 0 0 0.054060001
3.385 0.46700001 -0.414 150 0 0 0 0.05407
3.3829999 0.47600001 -0.41999999 150 0 0 0 0.054079998
3.3789999 0.484 -0.42699999 150 0 0 0 0.054090001
3.382 0.493 -0.43399999 150 0 0 0 0.054099999
3.381 0.50199997 -0.44100001 151 0 0 0 0.054110002
3.325 0.50199997 -0.44 150 0 0 0 0.05412
3.3099999 0.509 -0.44499999 150 0 0 0 0.054129999
3.3110001 0.51700002 -0.45199999 150 0 0 0 0.054140002
3.303 0.52499998 -0.45699999 150 0 0 0 0.05415
3.2739999 0.52899998 -0.46000001 150 0 0 0 0.054159999
3.2739999 0.537 -0.46700001 151 0 0 0 0.054170001
3.276 0.546 -0.47299999 151 0 0 0 0.05418
3.277 0.55500001 -0.47999999 151 0 0 0 0.054189999
3.267 0.56199998 -0.48500001 150 0 0 0 0.054200001
3.256 0.56900001 -0.49000001 33 0 0 0 0.05421
3.214 0.56999999 -0.49000001 22 0 0 0 0.054219998
3.174 0.57200003 -0.49000001 25 0 0 0 0.054230001
3.095 0.56599998 -0.484 25 0 0 0 0.05424
3.039 0.56400001 -0.48199999 25 0 0 0 0.054249998
2.993 0.56300002 -0.47999999 26 0 0 0 0.054260001
2.9319999 0.56 -0.47600001 25 0 0 0 0.054269999
2.868 0.55500001 -0.47099999 25 0 0 0 0.054280002
2.786 0.54699999 -0.463 25 0 0 0 0.05429
2.694 0.53600001 -0.45300001 23 0 0 0 0.054299999
2.6210001 0.52899998 -0.44600001 20 0 0 0 0.054310001
2.562 0.52399999 -0.44100001 19 0 0 0 0.05432
2.523 0.523 -0.43900001 19 0 0 0 0.054329999
2.471 0.51899999 -0.435 19 0 0 0 0.054340001
2.421 0.51499999 -0.43099999 19 0 0 0 0.05435
2.3789999 0.51300001 -0.428 19 0 0 0 0.054359999
2.3169999 0.50599998 -0.421 20 0 0 0 0.054370001
2.2590001 0.49900001 -0.41499999 150 0 0 0 0.05438
2.2520001 0.50400001 -0.41800001 151 0 0 0 0.054389998
2.2509999 0.50999999 -0.42199999 151 0 0 0 0.054400001
2.2520001 0.51700002 -0.426 151 0 0 0 0.054409999
2.2320001 0.51800001 -0.42699999 150 0 0 0 0.054420002
2.221 0.52200001 -0.42899999 150 0 0 0 0.05443
2.2219999 0.52899998 -0.433 150 0 0 0 0.054439999
2.2219999 0.53500003 -0.43700001 150 0 0 0 0.054450002
2.2179999 0.54000002 -0.44100001 150 0 0 0 0.05446
2.2179999 0.54699999 -0.44499999 150 0 0 0 0.054469999
2.2190001 0.55299997 -0.449 151 0 0 0 0.054480001
2.217 0.55900002 -0.45300001 151 0 0 0 0.05449
2.2179999 0.56599998 -0.45699999 151 0 0 0 0.054499999
2.2160001 0.57099998 -0.46000001 151 0 0 0 0.054510001
2.2179999 0.579 -0.465 151 0 0 0 0.05452
2.2279999 0.58700001 -0.47099999 151 0 0 0 0.054529998
2.2249999 0.59299999 -0.47400001 151 0 0 0 0.054540001
2.224 0.59899998 -0.47799999 151 0 0 0 0.05455
2.2249999 0.60600001 -0.48199999 151 0 0 0 0.054559998
2.221 0.611 -0.48500001 151 0 0 0 0.054570001
2.2249999 0.61900002 -0.49000001 151 0 0 0 0.054579999
2.2609999 0.63499999 -0.50199997 150 0 0 0 0.054590002
2.3670001 0.67199999 -0.52999997 150 0 0 0 0.0546
2.48 0.71200001 -0.56 150 0 0 0 0.054609999
2.4779999 0.71799999 -0.56300002 150 0 0 0 0.054620001
2.477 0.72500002 -0.56699997 150 0 0 0 0.05463
2.4790001 0.73299998 -0.57200003 150 0 0 0 0.054639999
2.431 0.72600001 -0.565 150 0 0 0 0.054650001
2.325 0.70200002 -0.54500002 150 0 0 0 0.05466
2.5009999 0.76200002 -0.58999997 150 0 0 0 0.054669999
1.4809999 0.456 -0.352 6 0 0 0 0.054680001
1.461 0.454 -0.34900001 6 0 0 0 0.05469
1.444 0.45300001 -0.34799999 6 0 0 0 0.054699998
1.429 0.45199999 -0.34599999 5 0 0 0 0.054710001
1.403 0.44800001 -0.34200001 5 0 0 0 0.054719999
1.396 0.44999999 -0.34299999 5 0 0 0 0.054730002
1.381 0.44999999 -0.34200001 5 0 0 0 0.054740001
1.358 0.44600001 -0.338 3 0 0 0 0.054749999
1.346 0.44600001 -0.33700001 3 0 0 0 0.054760002
1.324 0.44299999 -0.33399999 10 0 0 0 0.05477
1.296 0.43799999 -0.329 84 0 0 0 0.054779999
1.281 0.43599999 -0.32699999 150 0 0 0 0.054790001
1.279 0.44 -0.329 150 0 0 0 0.0548
1.28 0.44400001 -0.331 150 0 0 0 0.054809999
1.278 0.447 -0.33199999 150 0 0 0 0.054820001
1.279 0.45100001 -0.33399999 150 0 0 0 0.05483
1.276 0.454 -0.33500001 150 0 0 0 0.054839998
1.276 0.458 -0.33700001 150 0 0 0 0.054850001
1.275 0.461 -0.33899999 150 0 0 0 0.05486
1.278 0.46599999 -0.34200001 150 0 0 0 0.054869998
1.281 0.472 -0.34400001 150 0 0 0 0.054880001
1.273 0.47299999 -0.34400001 150 0 0 0 0.054889999
1.28 0.479 -0.34799999 150 0 0 0 0.054900002
1.2819999 0.484 -0.34999999 51 0 0 0 0.05491
1.275 0.48500001 -0.34999999 9 0 0 0 0.054919999
1.244 0.477 -0.34299999 6 0 0 0 0.054930001
1.22 0.472 -0.338 6 0 0 0 0.05494
1.2029999 0.46900001 -0.33500001 5 0 0 0 0.054949999
1.188 0.46700001 -0.333 5 0 0 0 0.054960001
1.179 0.46599999 -0.33199999 5 0 0 0 0.05497
1.1670001 0.46599999 -0.33000001 5 0 0 0 0.054979999
1.159 0.46599999 -0.329 5 0 0 0 0.054990001
1.15 0.46599999 -0.32800001 5 0 0 0 0.055
1.14 0.465 -0.32699999 5 0 0 0 0.055009998
1.1289999 0.46399999 -0.32499999 5 0 0 0 0.055020001
1.12 0.46399999 -0.324 5 0 0 0 0.055029999
1.1109999 0.46399999 -0.322 5 0 0 0 0.055039998
1.102 0.46399999 -0.32100001 5 0 0 0 0.055050001
1.091 0.46200001 -0.31900001 5 0 0 0 0.055059999
1.084 0.46200001 -0.31799999 5 0 0 0 0.055070002
1.074 0.46200001 -0.317 5 0 0 0 0.05508
1.0650001 0.461 -0.315 4 0 0 0 0.055089999
1.0549999 0.46000001 -0.31299999 4 0 0 0 0.055100001
1.0470001 0.46000001 -0.31200001 4 0 0 0 0.05511
1.044 0.46200001 -0.31200001 4 0 0 0 0.055119999
1.036 0.461 -0.31099999 4 0 0 0 0.055130001
1.026 0.46000001 -0.30899999 4 0 0 0 0.05514
1.015 0.458 -0.30700001 4 0 0 0 0.055149999
1.01 0.45899999 -0.30599999 4 0 0 0 0.055160001
1.003 0.45899999 -0.30500001 4 0 0 0 0.05517
0.99299997 0.45699999 -0.303 4 0 0 0 0.055179998
0.98500001 0.45699999 -0.30199999 4 0 0 0 0.055190001
0.98000002 0.45699999 -0.301 4 0 0 0 0.055199999
0.96799999 0.45500001 -0.29800001 4 0 0 0 0.055210002
0.95999998 0.454 -0.296 4 0 0 0 0.05522
0.94199997 0.44800001 -0.292 3 0 0 0 0.055229999
0.93900001 0.44999999 -0.29100001 3 0 0 0 0.055240002
0.935 0.45100001 -0.29100001 3 0 0 0 0.05525
0.93199998 0.45199999 -0.29100001 3 0 0 0 0.055259999
0.92299998 0.44999999 -0.28799999 0 0 0 0 0.055270001
0.91600001 0.44999999 -0.287 0 0 0 0 0.05528
0.91299999 0.45100001 -0.287 0 0 0 0 0.055289999
0.91000003 0.45199999 -0.28600001 7 0 0 0 0.055300001
0.90499997 0.45199999 -0.285 18 0 0 0 0.05531
0.90100002 0.45199999 -0.285 32 0 0 0 0.055319998
0.89700001 0.45300001 -0.28400001 47 0 0 0 0.055330001
0.898 0.45699999 -0.285 38 0 0 0 0.055339999
0.89600003 0.458 -0.285 28 0 0 0 0.055349998
0.903 0.46399999 -0.28799999 23 0 0 0 0.055360001
0.90399998 0.46700001 -0.28799999 17 0 0 0 0.055369999
0.90200001 0.46900001 -0.28799999 14 0 0 0 0.055380002
0.90499997 0.47299999 -0.289 15 0 0 0 0.05539
0.91100001 0.47799999 -0.292 12 0 0 0 0.055399999
0.91799998 0.48500001 -0.294 10 0 0 0 0.055410001
0.93099999 0.495 -0.29899999 7 0 0 0 0.05542
0.949 0.50700003 -0.30500001 6 0 0 0 0.055429999
0.96799999 0.51999998 -0.31200001 6 0 0 0 0.055440001
0.97000003 0.523 -0.31200001 6 0 0 0 0.05545
0.97000003 0.52499998 -0.31299999 6 0 0 0 0.055459999
0.96799999 0.528 -0.31200001 5 0 0 0 0.055470001
0.972 0.53200001 -0.31400001 6 0 0 0 0.05548
0.972 0.53500003 -0.31400001 6 0 0 0 0.055489998
0.97399998 0.53799999 -0.315 6 0 0 0 0.055500001
0.972 0.54000002 -0.31400001 6 0 0 0 0.055509999
0.97500002 0.54400003 -0.315 6 0 0 0 0.055520002
0.97100002 0.54400003 -0.31400001 6 0 0 0 0.05553
0.97000003 0.546 -0.31400001 6 0 0 0 0.055539999
0.96899998 0.54799998 -0.31400001 6 0 0 0 0.055550002
0.972 0.55199999 -0.315 6 0 0 0 0.05556
0.97500002 0.55599999 -0.31600001 6 0 0 0 0.055569999
0.97000003 0.55599999 -0.31400001 6 0 0 0 0.055580001
0.96499997 0.55500001 -0.31200001 6 0 0 0 0.05559
0.97000003 0.56 -0.31400001 6 0 0 0 0.055599999
0.963 0.55800003 -0.31099999 6 0 0 0 0.055610001
0.96200001 0.56 -0.31099999 6 0 0 0 0.05562
0.95899999 0.56 -0.31 6 0 0 0 0.055629998
0.95300001 0.55900002 -0.30700001 6 0 0 0 0.055640001
0.94099998 0.55400002 -0.303 6 0 0 0 0.05565
0.94599998 0.55900002 -0.30500001 7 0 0 0 0.055659998
0.93699998 0.55599999 -0.301 7 0 0 0 0.055670001
0.93099999 0.55400002 -0.29899999 9 0 0 0 0.055679999
0.93099999 0.55599999 -0.29899999 9 0 0 0 0.055690002
0.926 0.55500001 -0.29699999 11 0 0 0 0.0557
0.921 0.55400002 -0.29499999 12 0 0 0 0.055709999
0.92000002 0.55500001 -0.294 14 0 0 0 0.055720001
0.91399997 0.55299997 -0.292 13 0 0 0 0.05573
0.90899998 0.55199999 -0.28999999 11 0 0 0 0.055739999
0.90100002 0.54900002 -0.28600001 10 0 0 0 0.055750001
0.90100002 0.55000001 -0.28600001 10 0 0 0 0.05576
0.898 0.55000001 -0.28400001 10 0 0 0 0.055769999
0.898 0.551 -0.28400001 12 0 0 0 0.055780001
0.898 0.55299997 -0.28299999 12 0 0 0 0.05579
0.89700001 0.55400002 -0.28200001 10 0 0 0 0.055799998
0.89499998 0.55400002 -0.28099999 11 0 0 0 0.055810001
0.89600003 0.55599999 -0.28099999 11 0 0 0 0.055819999
0.89600003 0.55699998 -0.28 11 0 0 0 0.055830002
0.89600003 0.55900002 -0.27900001 10 0 0 0 0.055840001
0.89700001 0.56 -0.278 10 0 0 0 0.055849999
0.89499998 0.56099999 -0.27700001 9 0 0 0 0.055860002
0.89899999 0.56400001 -0.278 9 0 0 0 0.05587
0.903 0.56800002 -0.278 8 0 0 0 0.055879999
0.90200001 0.56800002 -0.27700001 7 0 0 0 0.055890001
0.90399998 0.56999999 -0.27599999 6 0 0 0 0.0559
0.912 0.57700002 -0.278 5 0 0 0 0.055909999
0.90899998 0.57599998 -0.27599999 5 0 0 0 0.055920001
0.91399997 0.57999998 -0.27700001 6 0 0 0 0.05593
0.91500002 0.58099997 -0.27599999 6 0 0 0 0.055939998
0.91500002 0.58200002 -0.27500001 6 0 0 0 0.055950001
0.91900003 0.58499998 -0.27500001 6 0 0 0 0.05596
0.91500002 0.58399999 -0.273 6 0 0 0 0.055969998
0.91799998 0.58600003 -0.273 6 0 0 0 0.055980001
0.91500002 0.58499998 -0.271 6 0 0 0 0.055989999
0.91799998 0.588 -0.27000001 6 0 0 0 0.056000002
0.912 0.58499998 -0.26699999 5 0 0 0 0.05601
0.91399997 0.58600003 -0.26699999 4 0 0 0 0.056019999
0.90499997 0.58099997 -0.26300001 3 0 0 0 0.056030001
0.89499998 0.57499999 -0.259 1 0 0 0 0.05604
0.90799999 0.583 -0.26100001 1 0 0 0 0.056049999
0.91399997 0.588 -0.26199999 0 0 0 0 0.056060001
0.91399997 0.588 -0.26100001 0 0 0 0 0.05607
0.90799999 0.58399999 -0.25799999 0 0 0 0 0.056079999
0.89399999 0.57599998 -0.252 0 0 0 0 0.056090001
0.88599998 0.57099998 -0.249 0 0 0 0 0.0561
0.88099998 0.56699997 -0.24600001 0 0 0 0 0.056109998
0.85799998 0.55299997 -0.23800001 0 0 0 0 0.056120001
0 0 0 0 0 0 0 0.056129999
0 0 0 0 0 0 0 0.056139998
0.847 0.546 -0.23100001 0 0 0 0 0.056150001
0.84299999 0.54299998 -0.229 0 0 0 0 0.056159999
0.847 0.54500002 -0.229 0 0 0 0 0.056170002
0.87099999 0.56 -0.233 0 0 0 0 0.05618
0.85699999 0.551 -0.228 0 0 0 0 0.056189999
0.86699998 0.55800003 -0.23 0 0 0 0 0.056200001
0.87699997 0.56300002 -0.23100001 0 0 0 0 0.05621
0.86699998 0.55699998 -0.227 0 0 0 0 0.056219999
0.86000001 0.55199999 -0.22400001 0 0 0 0 0.056230001
0.889 0.56999999 -0.229 0 0 0 0 0.05624
0.90200001 0.57800001 -0.23100001 0 0 0 0 0.056249999
0.90200001 0.57700002 -0.23 0 0 0 0 0.056260001
0.90200001 0.57599998 -0.228 1 0 0 0 0.05627
0.91100001 0.58200002 -0.229 1 0 0 0 0.056279998
0.91000003 0.57999998 -0.227 1 0 0 0 0.056290001
0.91799998 0.58399999 -0.227 1 0 0 0 0.056299999
0.90399998 0.57499999 -0.222 2 0 0 0 0.056310002
0.91600001 0.58099997 -0.223 2 0 0 0 0.05632
0.91399997 0.579 -0.221 3 0 0 0 0.056329999
0.917 0.57999998 -0.221 4 0 0 0 0.056340002
0.91299999 0.57700002 -0.21799999 3 0 0 0 0.05635
0.91900003 0.57999998 -0.21799999 4 0 0 0 0.056359999
0.917 0.57700002 -0.21600001 4 0 0 0 0.056370001
0.91900003 0.57700002 -0.214 4 0 0 0 0.05638
0.92400002 0.579 -0.214 4 0 0 0 0.056389999
0.93099999 0.583 -0.214 4 0 0 0 0.056400001
0.94599998 0.59100002 -0.215 4 0 0 0 0.05641
0.949 0.59100002 -0.214 5 0 0 0 0.056419998
0.94300002 0.58600003 -0.211 4 0 0 0 0.056430001
0.95599997 0.59299999 -0.212 5 0 0 0 0.056439999
0.949 0.58700001 -0.20900001 5 0 0 0 0.056449998
0.95599997 0.58999997 -0.20900001 5 0 0 0 0.056460001
0.95899999 0.58999997 -0.208 4 0 0 0 0.056469999
0.96200001 0.58999997 -0.206 5 0 0 0 0.056480002
0.96700001 0.59200001 -0.206 4 0 0 0 0.05649
0.96799999 0.59100002 -0.204 5 0 0 0 0.056499999
0.96899998 0.58999997 -0.20299999 5 0 0 0 0.056510001
0.977 0.59299999 -0.20200001 5 0 0 0 0.05652
0.97799999 0.59200001 -0.20100001 5 0 0 0 0.056529999
0.986 0.59500003 -0.20100001 5 0 0 0 0.056540001
0.98500001 0.59200001 -0.199 5 0 0 0 0.05655
0.98799998 0.59299999 -0.197 5 0 0 0 0.056559999
0.991 0.59200001 -0.19599999 5 0 0 0 0.056570001
0.99400002 0.59200001 -0.19499999 5 0 0 0 0.05658
0.995 0.59100002 -0.193 5 0 0 0 0.056589998
0.991 0.58600003 -0.19 5 0 0 0 0.056600001
0.96100003 0.56599998 -0.183 5 0 0 0 0.056609999
0.93199998 0.54699999 -0.176 5 0 0 0 0.056620002
0.92799997 0.54299998 -0.17299999 5 0 0 0 0.05663
0.917 0.53500003 -0.169 5 0 0 0 0.056639999
0.89499998 0.51999998 -0.164 4 0 0 0 0.056650002
0.91900003 0.53100002 -0.16599999 5 0 0 0 0.05666
0.91299999 0.52600002 -0.164 4 0 0 0 0.056669999
0.91399997 0.52499998 -0.162 4 0 0 0 0.056680001
0.91299999 0.52200001 -0.16 4 0 0 0 0.05669
0.91000003 0.51800001 -0.15800001 4 0 0 0 0.056699999
0.91500002 0.51800001 -0.15700001 5 0 0 0 0.056710001
0.91500002 0.51599997 -0.156 5 0 0 0 0.05672
0.91500002 0.514 -0.154 5 0 0 0 0.056729998
0.91100001 0.50999999 -0.152 5 0 0 0 0.056740001
0.912 0.50800002 -0.15000001 5 0 0 0 0.05675
0.90499997 0.50199997 -0.148 5 0 0 0 0.056759998
0.91000003 0.50199997 -0.147 5 0 0 0 0.056770001
0.912 0.50099999 -0.145 5 0 0 0 0.056779999
0.91100001 0.498 -0.14399999 5 0 0 0 0.056790002
0.903 0.491 -0.141 4 0 0 0 0.0568
0.91900003 0.49700001 -0.142 2 0 0 0 0.056809999
0.917 0.49399999 -0.14 0 0 0 0 0.056820001
0.93000001 0.49900001 -0.14 0 0 0 0 0.05683
0.93099999 0.49700001 -0.139 0 0 0 0 0.056839999
0.91100001 0.484 -0.134 0 0 0 0 0.056850001
0.90200001 0.47600001 -0.132 0 0 0 0 0.05686
0.91000003 0.47799999 -0.131 0 0 0 0 0.056869999
0.921 0.48100001 -0.131 0 0 0 0 0.056880001
0.90399998 0.47 -0.127 0 0 0 0 0.05689
0.90499997 0.46799999 -0.126 3 0 0 0 0.056899998
0.898 0.46200001 -0.124 4 0 0 0 0.056910001
0.91299999 0.46700001 -0.124 5 0 0 0 0.056919999
0.91299999 0.46399999 -0.123 5 0 0 0 0.056930002
0.91399997 0.46200001 -0.121 4 0 0 0 0.056940001
0.91000003 0.45699999 -0.119 4 0 0 0 0.056949999
0.90700001 0.454 -0.118 0 0 0 0 0.056960002
3.072 1.527 -0.39399999 0 0 0 0 0.05697
3.073 1.518 -0.38999999 1 0 0 0 0.056979999
3.0650001 1.506 -0.384 2 0 0 0 0.056990001
3.075 1.502 -0.38 2 0 0 0 0.057
3.0680001 1.489 -0.375 2 0 0 0 0.057009999
3.0639999 1.478 -0.37 2 0 0 0 0.057020001
3.072 1.473 -0.366 2 0 0 0 0.05703
3.0710001 1.4630001 -0.361 2 0 0 0 0.057039998
3.0840001 1.46 -0.35800001 2 0 0 0 0.057050001
3.0969999 1.456 -0.35499999 3 0 0 0 0.05706
3.1129999 1.455 -0.352 3 0 0 0 0.057069998
3.1170001 1.447 -0.34799999 3 0 0 0 0.057080001
3.118 1.438 -0.34400001 3 0 0 0 0.057089999
3.122 1.431 -0.34 3 0 0 0 0.057100002
3.1129999 1.4170001 -0.33399999 3 0 0 0 0.05711
3.1240001 1.4119999 -0.331 3 0 0 0 0.057119999
3.1029999 1.393 -0.32499999 2 0 0 0 0.057130001
3.155 1.4069999 -0.32600001 1 0 0 0 0.05714
3.1889999 1.4119999 -0.32499999 1 0 0 0 0.057149999
3.2219999 1.4170001 -0.324 3 0 0 0 0.057160001
3.2130001 1.403 -0.31799999 5 0 0 0 0.05717
3.2090001 1.391 -0.31400001 5 0 0 0 0.057179999
3.2090001 1.381 -0.31 5 0 0 0 0.057190001
3.2130001 1.373 -0.30599999 4 0 0 0 0.0572
3.2409999 1.374 -0.30399999 3 0 0 0 0.057209998
3.256 1.37 -0.301 3 0 0 0 0.057220001
3.2379999 1.352 -0.29499999 5 0 0 0 0.057229999
3.2390001 1.3430001 -0.29100001 5 0 0 0 0.057240002
3.2709999 1.345 -0.28999999 3 0 0 0 0.057250001
3.283 1.34 -0.287 2 0 0 0 0.057259999
3.3110001 1.341 -0.285 3 0 0 0 0.057270002
3.3080001 1.329 -0.28099999 5 0 0 0 0.05728
3.3080001 1.319 -0.27700001 5 0 0 0 0.057289999
3.3099999 1.309 -0.273 5 0 0 0 0.057300001
3.313 1.3 -0.27000001 3 0 0 0 0.05731
1.244 0.484 -0.098999999 0 0 0 0 0.057319999
1.266 0.48800001 -0.1 7 0 0 0 0.057330001
1.291 0.49399999 -0.1 22 0 0 0 0.05734
1.296 0.491 -0.098999999 112 0 0 0 0.057349999
1.288 0.484 -0.097000003 150 0 0 0 0.057360001
1.289 0.48100001 -0.096000001 150 0 0 0 0.05737
1.289 0.47600001 -0.093999997 150 0 0 0 0.057379998
1.288 0.472 -0.093000002 150 0 0 0 0.057390001
1.293 0.46900001 -0.092 150 0 0 0 0.057399999
1.2869999 0.463 -0.090000004 150 0 0 0 0.057410002
1.288 0.45899999 -0.088 150 0 0 0 0.05742
1.289 0.456 -0.086999997 150 0 0 0 0.057429999
1.293 0.45300001 -0.086000003 150 0 0 0 0.057440002
1.2920001 0.44800001 -0.085000001 150 0 0 0 0.05745
1.294 0.44499999 -0.082999997 150 0 0 0 0.057459999
1.311 0.44600001 -0.082999997 52 0 0 0 0.057470001
1.327 0.44800001 -0.082999997 7 0 0 0 0.05748
1.342 0.44800001 -0.082000002 3 0 0 0 0.057489999
1.358 0.449 -0.082000002 0 0 0 0 0.057500001
1.365 0.447 -0.081 1 0 0 0 0.05751
1.4119999 0.458 -0.082000002 1 0 0 0 0.057519998
1.4220001 0.456 -0.082000002 1 0 0 0 0.057530001
1.439 0.45699999 -0.081 1 0 0 0 0.057539999
1.46 0.45899999 -0.081 1 0 0 0 0.057549998
1.479 0.46000001 -0.081 1 0 0 0 0.057560001
2.516 0.77499998 -0.13500001 150 0 0 0 0.057569999
2.316 0.70599997 -0.122 150 0 0 0 0.057580002
2.4809999 0.74800003 -0.12899999 150 0 0 0 0.05759
2.483 0.741 -0.127 150 0 0 0 0.057599999
2.4849999 0.73299998 -0.125 150 0 0 0 0.057610001
2.4860001 0.72500002 -0.122 150 0 0 0 0.05762
2.418 0.69800001 -0.117 150 0 0 0 0.057629999
2.257 0.64399999 -0.107 150 0 0 0 0.057640001
2.2249999 0.62699997 -0.104 151 0 0 0 0.05765
2.22 0.61900002 -0.101 151 0 0 0 0.057659999
2.221 0.61199999 -0.1 151 0 0 0 0.057670001
2.223 0.60500002 -0.097999997 151 0 0 0 0.05768
2.2249999 0.59799999 -0.096000001 151 0 0 0 0.057689998
2.2260001 0.59100002 -0.093999997 151 0 0 0 0.057700001
2.22 0.583 -0.092 151 0 0 0 0.057709999
2.2219999 0.57599998 -0.090999998 151 0 0 0 0.057720002
2.221 0.56800002 -0.089000002 151 0 0 0 0.05773
2.2219999 0.56099999 -0.086999997 151 0 0 0 0.057739999
2.2249999 0.55500001 -0.086000003 151 0 0 0 0.057750002
2.224 0.54699999 -0.083999999 151 0 0 0 0.05776
2.2249999 0.54000002 -0.082000002 151 0 0 0 0.057769999
2.221 0.53200001 -0.079999998 151 0 0 0 0.057780001
2.234 0.528 -0.079000004 151 0 0 0 0.05779
2.227 0.51899999 -0.077 152 0 0 0 0.057799999
2.2290001 0.51200002 -0.075999998 152 0 0 0 0.057810001
2.2379999 0.50700003 -0.074000001 151 0 0 0 0.05782
2.277 0.50800002 -0.074000001 138 0 0 0 0.057829998
2.3529999 0.51800001 -0.075000003 17 0 0 0 0.057840001
2.418 0.52399999 -0.075000003 20 0 0 0 0.05785
2.4820001 0.52999997 -0.075999998 22 0 0 0 0.057859998
2.5450001 0.53500003 -0.075999998 23 0 0 0 0.057870001
2.6229999 0.54299998 -0.075999998 25 0 0 0 0.057879999
2.733 0.55699998 -0.078000002 28 0 0 0 0.057890002
2.8570001 0.57300001 -0.079000004 32 0 0 0 0.0579
2.961 0.58399999 -0.079999998 32 0 0 0 0.057909999
2.9990001 0.58200002 -0.079999998 30 0 0 0 0.057920001
3.072 0.58600003 -0.079000004 29 0 0 0 0.05793
3.1300001 0.58700001 -0.079000004 27 0 0 0 0.057939999
3.174 0.58499998 -0.078000002 25 0 0 0 0.057950001
3.224 0.58399999 -0.077 25 0 0 0 0.05796
3.2679999 0.58099997 -0.077 60 0 0 0 0.057969999
3.2639999 0.56999999 -0.075000003 154 0 0 0 0.057980001
3.2739999 0.56099999 -0.072999999 153 0 0 0 0.05799
3.2820001 0.55199999 -0.071000002 153 0 0 0 0.057999998
3.2679999 0.53899997 -0.068999998 154 0 0 0 0.058010001
3.299 0.53299999 -0.068000004 151 0 0 0 0.058019999
3.3039999 0.523 -0.066 153 0 0 0 0.058030002
3.3139999 0.514 -0.064000003 153 0 0 0 0.05804
3.3440001 0.50800002 -0.063000001 154 0 0 0 0.058049999
3.381 0.50300002 -0.061999999 152 0 0 0 0.058060002
3.382 0.49200001 -0.059999999 153 0 0 0 0.05807
3.3840001 0.48100001 -0.057999998 153 0 0 0 0.058079999
3.3789999 0.47 -0.056000002 153 0 0 0 0.058090001
3.3870001 0.46000001 -0.055 153 0 0 0 0.0581
3.375 0.447 -0.052999999 154 0 0 0 0.058109999
3.3759999 0.43599999 -0.050999999 153 0 0 0 0.058120001
3.375 0.42500001 -0.048999999 154 0 0 0 0.05813
3.359 0.41299999 -0.046999998 155 0 0 0 0.058139998
3.3610001 0.40200001 -0.046 155 0 0 0 0.058150001
3.3599999 0.391 -0.044 156 0 0 0 0.05816
3.3510001 0.37900001 -0.041999999 158 0 0 0 0.058169998
3.346 0.368 -0.041000001 158 0 0 0 0.058180001
3.349 0.35699999 -0.039000001 160 0 0 0 0.058189999
3.349 0.34599999 -0.037999999 161 0 0 0 0.058200002
3.3499999 0.336 -0.035999998 159 0 0 0 0.05821
3.3499999 0.32499999 -0.035 161 0 0 0 0.058219999
3.3469999 0.31400001 -0.033 163 0 0 0 0.058230001
3.349 0.303 -0.032000002 163 0 0 0 0.05824
3.3510001 0.29300001 -0.030999999 164 0 0 0 0.058249999
3.3540001 0.28200001 -0.028999999 165 0 0 0 0.058260001
3.355 0.271 -0.028000001 165 0 0 0 0.05827
3.3529999 0.25999999 -0.026000001 166 0 0 0 0.058279999
3.3540001 0.25 -0.025 164 0 0 0 0.058290001
3.359 0.23899999 -0.024 164 0 0 0 0.0583
3.3559999 0.228 -0.022 164 0 0 0 0.058309998
3.3570001 0.21699999 -0.021 165 0 0 0 0.058320001
3.3570001 0.207 -0.02 164 0 0 0 0.058329999
3.3599999 0.19599999 -0.018999999 162 0 0 0 0.058340002
3.3629999 0.185 -0.017000001 163 0 0 0 0.058350001
3.3629999 0.17399999 -0.016000001 162 0 0 0 0.058359999
3.3599999 0.163 -0.015 162 0 0 0 0.058370002
3.3640001 0.153 -0.014 160 0 0 0 0.05838
3.369 0.142 -0.013 159 0 0 0 0.058389999
3.3699999 0.131 -0.011 157 0 0 0 0.058400001
3.3800001 0.121 -0.0099999998 157 0 0 0 0.05841
3.3829999 0.11 -0.0089999996 155 0 0 0 0.058419999
3.3870001 0.098999999 -0.0080000004 154 0 0 0 0.058430001
3.3900001 0.088 -0.0070000002 154 0 0 0 0.05844
3.3989999 0.078000002 -0.0060000001 154 0 0 0 0.058449998
3.4070001 0.067000002 -0.0049999999 154 0 0 0 0.058460001
3.415 0.056000002 -0.0040000002 153 0 0 0 0.05847
3.4170001 0.045000002 -0.003 153 0 0 0 0.058479998
3.4200001 0.034000002 -0.0020000001 152 0 0 0 0.058490001
3.4159999 0.023 -0.001 151 0 0 0 0.058499999
3.418 0.012 0 151 0 0 0 0.058510002
3.421 0.001 0 151 0 0 0 0.05852
3.418 -0.0089999996 0.001 151 0 0 0 0.058529999
3.4200001 -0.02 0.0020000001 151 0 0 0 0.058540002
3.4200001 -0.030999999 0.003 151 0 0 0 0.05855
3.424 -0.041999999 0.003 151 0 0 0 0.058559999
3.427 -0.054000001 0.0040000002 151 0 0 0 0.058570001
3.427 -0.064999998 0.0049999999 151 0 0 0 0.05858
3.427 -0.075999998 0.0060000001 151 0 0 0 0.058589999
3.4319999 -0.086999997 0.0070000002 151 0 0 0 0.058600001
3.4319999 -0.097999997 0.0070000002 151 0 0 0 0.05861
3.4319999 -0.109 0.0080000004 151 0 0 0 0.058619998
3.431 -0.12 0.0089999996 151 0 0 0 0.058630001
3.4360001 -0.131 0.0099999998 151 0 0 0 0.058639999
3.434 -0.142 0.0099999998 151 0 0 0 0.058649998
3.438 -0.154 0.011 151 0 0 0 0.058660001
3.4349999 -0.164 0.012 152 0 0 0 0.058669999
3.4100001 -0.17399999 0.012 154 0 0 0 0.058680002
3.3770001 -0.184 0.013 151 0 0 0 0.05869
3.3699999 -0.19400001 0.013 151 0 0 0 0.058699999
3.3699999 -0.205 0.014 152 0 0 0 0.058710001
3.3429999 -0.214 0.014 151 0 0 0 0.05872
3.346 -0.22499999 0.015 151 0 0 0 0.058729999
3.349 -0.236 0.015 152 0 0 0 0.058740001
3.342 -0.24699999 0.016000001 153 0 0 0 0.05875
3.3399999 -0.257 0.016000001 150 0 0 0 0.058759999
3.237 -0.25999999 0.016000001 151 0 0 0 0.058770001
3.2260001 -0.27000001 0.017000001 153 0 0 0 0.05878
3.23 -0.28 0.017000001 153 0 0 0 0.058789998
3.2379999 -0.292 0.017000001 152 0 0 0 0.058800001
3.2349999 -0.30199999 0.017999999 151 0 0 0 0.058809999
3.2219999 -0.31099999 0.017999999 153 0 0 0 0.058820002
3.2130001 -0.32100001 0.017999999 150 0 0 0 0.05883
3.2090001 -0.331 0.018999999 151 0 0 0 0.058839999
3.2090001 -0.34099999 0.018999999 151 0 0 0 0.058850002
3.2130001 -0.352 0.018999999 151 0 0 0 0.05886
3.2119999 -0.36300001 0.018999999 151 0 0 0 0.058869999
3.1110001 -0.361 0.018999999 150 0 0 0 0.058880001
2.832 -0.338 0.017000001 120 0 0 0 0.05889
2.5829999 -0.317 0.016000001 32 0 0 0 0.058899999
2.52 -0.317 0.016000001 30 0 0 0 0.058910001
2.451 -0.317 0.015 23 0 0 0 0.05892
2.401 -0.31799999 0.015 30 0 0 0 0.058929998
2.372 -0.322 0.015 26 0 0 0 0.058940001
2.3629999 -0.32800001 0.015 23 0 0 0 0.05895
2.365 -0.33700001 0.015 19 0 0 0 0.058959998
2.3610001 -0.34400001 0.015 20 0 0 0 0.058970001
2.365 -0.352 0.015 18 0 0 0 0.058979999
2.365 -0.36000001 0.015 16 0 0 0 0.058990002
2.3640001 -0.36700001 0.015 16 0 0 0 0.059
2.3699999 -0.37599999 0.015 19 0 0 0 0.059009999
2.368 -0.384 0.015 23 0 0 0 0.059020001
2.368 -0.391 0.015 24 0 0 0 0.05903
2.369 -0.39899999 0.015 23 0 0 0 0.059039999
2.3659999 -0.40700001 0.015 26 0 0 0 0.059050001
2.362 -0.414 0.015 27 0 0 0 0.05906
2.369 -0.42300001 0.015 23 0 0 0 0.059069999
2.375 -0.43200001 0.015 20 0 0 0 0.059080001
2.3759999 -0.44 0.014 21 0 0 0 0.05909
2.3729999 -0.447 0.014 21 0 0 0 0.059099998
2.372 -0.45500001 0.014 17 0 0 0 0.059110001
2.3759999 -0.463 0.014 17 0 0 0 0.059119999
2.3699999 -0.47 0.014 18 0 0 0 0.059130002
2.3740001 -0.479 0.013 21 0 0 0 0.05914
2.3729999 -0.486 0.013 25 0 0 0 0.059149999
2.3699999 -0.493 0.013 28 0 0 0 0.059160002
2.368 -0.50099999 0.013 29 0 0 0 0.05917
2.3759999 -0.51099998 0.012 25 0 0 0 0.059179999
2.378 -0.51899999 0.012 17 0 0 0 0.059190001
2.382 -0.528 0.012 15 0 0 0 0.0592
2.3800001 -0.53500003 0.011 20 0 0 0 0.059209999
2.375 -0.542 0.011 22 0 0 0 0.059220001
2.3789999 -0.551 0.011 26 0 0 0 0.05923
2.381 -0.55900002 0.0099999998 24 0 0 0 0.059239998
2.378 -0.56599998 0.0099999998 21 0 0 0 0.059250001
2.3829999 -0.57499999 0.0089999996 18 0 0 0 0.05926
2.381 -0.583 0.0089999996 22 0 0 0 0.059269998
2.378 -0.58999997 0.0080000004 21 0 0 0 0.059280001
2.3789999 -0.59899998 0.0080000004 20 0 0 0 0.059289999
2.3789999 -0.60600001 0.0070000002 21 0 0 0 0.059300002
2.378 -0.61400002 0.0070000002 22 0 0 0 0.05931
2.3800001 -0.62300003 0.0060000001 26 0 0 0 0.059319999
2.3829999 -0.63099998 0.0060000001 25 0 0 0 0.059330001
2.3759999 -0.63800001 0.0049999999 24 0 0 0 0.05934
2.382 -0.64700001 0.0040000002 22 0 0 0 0.059349999
2.382 -0.65499997 0.0040000002 18 0 0 0 0.059360001
2.381 -0.66299999 0.003 20 0 0 0 0.05937
2.3859999 -0.67199999 0.0020000001 24 0 0 0 0.059379999
2.388 -0.68099999 0.0020000001 24 0 0 0 0.059390001
2.3840001 -0.68699998 0.001 27 0 0 0 0.0594
2.3870001 -0.69599998 0 27 0 0 0 0.059409998
2.391 -0.70599997 0 26 0 0 0 0.059420001
2.385 -0.71200001 0 23 0 0 0 0.059429999
2.3870001 -0.72000003 -0.001 24 0 0 0 0.059440002
2.3900001 -0.72899997 -0.0020000001 21 0 0 0 0.059450001
2.392 -0.73799998 -0.003 22 0 0 0 0.059459999
2.3859999 -0.74400002 -0.0040000002 18 0 0 0 0.059470002
2.3900001 -0.75400001 -0.0049999999 19 0 0 0 0.05948
2.391 -0.76200002 -0.0060000001 20 0 0 0 0.059489999
2.391 -0.76999998 -0.0070000002 23 0 0 0 0.059500001
2.3900001 -0.778 -0.0080000004 25 0 0 0 0.05951
2.392 -0.78600001 -0.0089999996 26 0 0 0 0.059519999
2.3929999 -0.79500002 -0.0099999998 27 0 0 0 0.059530001
2.395 -0.80299997 -0.011 24 0 0 0 0.05954
2.3900001 -0.81 -0.012 27 0 0 0 0.059549998
2.395 -0.81999999 -0.013 28 0 0 0 0.059560001
2.3929999 -0.82700002 -0.014 28 0 0 0 0.05957
2.395 -0.83600003 -0.015 26 0 0 0 0.059579998
2.3970001 -0.84399998 -0.016000001 27 0 0 0 0.059590001
2.398 -0.85299999 -0.017000001 25 0 0 0 0.059599999
2.3959999 -0.861 -0.018999999 24 0 0 0 0.059610002
2.3989999 -0.86900002 -0.02 24 0 0 0 0.05962
2.3959999 -0.87699997 -0.021 27 0 0 0 0.059629999
2.3970001 -0.88499999 -0.023 29 0 0 0 0.059640002
2.3970001 -0.89300001 -0.024 29 0 0 0 0.05965
2.401 -0.903 -0.025 27 0 0 0 0.059659999
2.402 -0.91100001 -0.027000001 25 0 0 0 0.059670001
2.404 -0.92000002 -0.028000001 22 0 0 0 0.05968
2.405 -0.92900002 -0.028999999 18 0 0 0 0.059689999
2.402 -0.93599999 -0.030999999 19 0 0 0 0.059700001
2.404 -0.94400001 -0.032000002 21 0 0 0 0.05971
2.402 -0.95200002 -0.034000002 23 0 0 0 0.059719998
2.405 -0.96100003 -0.035 21 0 0 0 0.059730001
2.404 -0.96899998 -0.037 26 0 0 0 0.059739999
2.4059999 -0.977 -0.039000001 30 0 0 0 0.059749998
2.408 -0.986 -0.039999999 24 0 0 0 0.059760001
2.4100001 -0.995 -0.041999999 25 0 0 0 0.059769999
2.408 -1.002 -0.043000001 32 0 0 0 0.059780002
2.4089999 -1.011 -0.045000002 27 0 0 0 0.05979
2.4119999 -1.02 -0.046999998 22 0 0 0 0.059799999
2.408 -1.027 -0.048999999 26 0 0 0 0.059810001
2.4100001 -1.035 -0.050000001 26 0 0 0 0.05982
2.4100001 -1.043 -0.052000001 21 0 0 0 0.059829999
2.267 -0.98900002 -0.050999999 142 0 0 0 0.059840001
2.4130001 -1.061 -0.056000002 150 0 0 0 0.05985
1.182 -0.523 -0.028000001 36 0 0 0 0.059859999
1.1799999 -0.52600002 -0.028999999 4 0 0 0 0.059870001
1.1849999 -0.53200001 -0.029999999 3 0 0 0 0.05988
1.183 -0.53600001 -0.030999999 2 0 0 0 0.059889998
1.184 -0.54000002 -0.032000002 1 0 0 0 0.059900001
1.188 -0.54500002 -0.033 1 0 0 0 0.059909999
1.188 -0.54900002 -0.034000002 1 0 0 0 0.059920002
1.187 -0.55299997 -0.035 2 0 0 0 0.05993
1.1900001 -0.55800003 -0.035999998 1 0 0 0 0.059939999
1.192 -0.56300002 -0.037999999 1 0 0 0 0.059950002
1.192 -0.56699997 -0.039000001 1 0 0 0 0.05996
1.1950001 -0.57200003 -0.039999999 1 0 0 0 0.059969999
1.192 -0.57499999 -0.041000001 1 0 0 0 0.059980001
1.1849999 -0.57499999 -0.041999999 1 0 0 0 0.05999
1.183 -0.57800001 -0.043000001 1 0 0 0 0.059999999
1.161 -0.57099998 -0.043000001 1 0 0 0 0.060010001
1.141 -0.565 -0.043000001 0 0 0 0 0.06002
1.168 -0.58200002 -0.046 0 0 0 0 0.060029998
1.159 -0.58099997 -0.046999998 0 0 0 0 0.060040001
1.155 -0.58200002 -0.048 0 0 0 0 0.06005
1.0930001 -0.55500001 -0.046 0 0 0 0 0.060059998
1.0140001 -0.51800001 -0.044 0 0 0 0 0.060070001
0.96799999 -0.49700001 -0.043000001 0 0 0 0 0.060079999
0.89899999 -0.46399999 -0.041000001 0 0 0 0 0.060090002
0.85000002 -0.442 -0.039000001 0 0 0 0 0.0601
0.83899999 -0.43900001 -0.039999999 0 0 0 0 0.060109999
0.82700002 -0.435 -0.039999999 0 0 0 0 0.060120001
0.81999999 -0.43399999 -0.041000001 0 0 0 0 0.06013
0.81300002 -0.433 -0.041000001 0 0 0 0 0.060139999
0.79299998 -0.42399999 -0.041000001 0 0 0 0 0.060150001
0.78399998 -0.42199999 -0.041999999 0 0 0 0 0.06016
0.78799999 -0.42699999 -0.043000001 0 0 0 0 0.060169999
0.79500002 -0.433 -0.044 0 0 0 0 0.060180001
0.79000002 -0.43200001 -0.045000002 0 0 0 0 0.06019
0.78299999 -0.43099999 -0.045000002 0 0 0 0 0.060199998
0.77999997 -0.43099999 -0.046 0 0 0 0 0.060210001
0.77600002 -0.43200001 -0.046999998 0 0 0 0 0.060219999
0.755 -0.42199999 -0.046999998 0 0 0 0 0.060230002
0.76599997 -0.43099999 -0.048 0 0 0 0 0.06024
0.76499999 -0.43200001 -0.048999999 0 0 0 0 0.060249999
0.76200002 -0.43200001 -0.050000001 0 0 0 0 0.060260002
0.76099998 -0.43399999 -0.050999999 0 0 0 0 0.06027
0.755 -0.433 -0.050999999 0 0 0 0 0.060279999
0.76499999 -0.44100001 -0.052999999 0 0 0 0 0.060290001
0.75700003 -0.43799999 -0.054000001 0 0 0 0 0.0603
0.75400001 -0.43900001 -0.054000001 0 0 0 0 0.060309999
0.75300002 -0.44 -0.055 0 0 0 0 0.060320001
0.74000001 -0.435 -0.055 0 0 0 0 0.06033
0.75199997 -0.44299999 -0.057 0 0 0 0 0.060339998
0.745 -0.44100001 -0.057999998 0 0 0 0 0.060350001
0.745 -0.44299999 -0.059 0 0 0 0 0.06036
0.74000001 -0.442 -0.059 0 0 0 0 0.060369998
0.73500001 -0.44100001 -0.059999999 0 0 0 0 0.060380001
0.73799998 -0.44499999 -0.061000001 0 0 0 0 0.060389999
0.73799998 -0.44600001 -0.061999999 0 0 0 0 0.060400002
0.72899997 -0.44299999 -0.063000001 0 0 0 0 0.06041
0.72500002 -0.442 -0.063000001 0 0 0 0 0.060419999
0.73799998 -0.45199999 -0.066 0 0 0 0 0.060430001
0.73000002 -0.449 -0.066 0 0 0 0 0.06044
0.73699999 -0.45500001 -0.068000004 0 0 0 0 0.060449999
0.72799999 -0.45100001 -0.068000004 0 0 0 0 0.060460001
0.72399998 -0.44999999 -0.068999998 0 0 0 0 0.06047
0.73100001 -0.456 -0.071000002 0 0 0 0 0.060479999
0.71899998 -0.44999999 -0.071000002 0 0 0 0 0.060490001
0.73299998 -0.46000001 -0.072999999 0 0 0 0 0.0605
0.72600001 -0.458 -0.072999999 0 0 0 0 0.060509998
0.72500002 -0.45899999 -0.074000001 0 0 0 0 0.060520001
0.74900001 -0.47499999 -0.078000002 0 0 0 0 0.060529999
0.77100003 -0.491 -0.082000002 0 0 0 0 0.060540002
0.801 -0.51200002 -0.086000003 0 0 0 0 0.060550001
0.90899998 -0.58200002 -0.098999999 0 0 0 0 0.060559999
1.0880001 -0.699 -0.12 2 0 0 0 0.060570002
1.1950001 -0.76999998 -0.134 8 0 0 0 0.06058
1.1849999 -0.76599997 -0.13500001 8 0 0 0 0.060589999
1.181 -0.76599997 -0.13600001 8 0 0 0 0.060600001
1.169 -0.75999999 -0.13699999 7 0 0 0 0.06061
1.1670001 -0.75999999 -0.138 7 0 0 0 0.060619999
1.165 -0.76099998 -0.14 4 0 0 0 0.060630001
1.17 -0.76700002 -0.14300001 6 0 0 0 0.06064
1.175 -0.77200001 -0.145 7 0 0 0 0.060649998
1.179 -0.77600002 -0.147 7 0 0 0 0.060660001
1.181 -0.77899998 -0.15000001 5 0 0 0 0.06067
1.189 -0.78600001 -0.152 5 0 0 0 0.060679998
1.187 -0.78600001 -0.154 4 0 0 0 0.060690001
1.184 -0.78600001 -0.156 4 0 0 0 0.060699999
1.186 -0.78899997 -0.15800001 4 0 0 0 0.060710002
1.1849999 -0.79000002 -0.16 4 0 0 0 0.06072
1.184 -0.79100001 -0.162 4 0 0 0 0.060729999
1.1849999 -0.79299998 -0.164 4 0 0 0 0.060740001
1.182 -0.792 -0.16500001 4 0 0 0 0.06075
1.184 -0.79500002 -0.167 4 0 0 0 0.060759999
1.184 -0.796 -0.169 4 0 0 0 0.060770001
1.181 -0.79500002 -0.17 4 0 0 0 0.06078
1.181 -0.796 -0.17299999 4 0 0 0 0.060789999
1.182 -0.79799998 -0.17399999 4 0 0 0 0.060800001
1.183 -0.79900002 -0.176 4 0 0 0 0.06081
1.1799999 -0.79900002 -0.178 4 0 0 0 0.060819998
1.178 -0.79799998 -0.18000001 4 0 0 0 0.060830001
1.179 -0.80000001 -0.18099999 4 0 0 0 0.060839999
1.177 -0.79900002 -0.183 4 0 0 0 0.060849998
1.178 -0.80000001 -0.185 4 0 0 0 0.060860001
1.178 -0.801 -0.18700001 4 0 0 0 0.060869999
1.177 -0.801 -0.189 3 0 0 0 0.060880002
1.177 -0.801 -0.19 4 0 0 0 0.06089
1.174 -0.79900002 -0.192 4 0 0 0 0.060899999
1.176 -0.801 -0.19400001 4 0 0 0 0.060910001
1.179 -0.80400002 -0.19599999 4 0 0 0 0.06092
1.175 -0.801 -0.197 4 0 0 0 0.060929999
1.177 -0.80199999 -0.199 4 0 0 0 0.060940001
1.177 -0.80199999 -0.20100001 4 0 0 0 0.06095
1.178 -0.80299997 -0.20299999 4 0 0 0 0.060959999
1.178 -0.80299997 -0.205 4 0 0 0 0.060970001
1.174 -0.80000001 -0.206 5 0 0 0 0.06098
1.173 -0.79900002 -0.207 4 0 0 0 0.060989998
1.173 -0.79900002 -0.20900001 4 0 0 0 0.061000001
1.174 -0.80000001 -0.211 4 0 0 0 0.061009999
1.1720001 -0.79799998 -0.212 4 0 0 0 0.061020002
1.1720001 -0.79799998 -0.214 3 0 0 0 0.06103
1.1720001 -0.79699999 -0.215 4 0 0 0 0.061039999
1.1720001 -0.79699999 -0.21699999 4 0 0 0 0.061050002
1.1720001 -0.796 -0.21799999 4 0 0 0 0.06106
1.173 -0.79699999 -0.22 5 0 0 0 0.061069999
1.171 -0.79400003 -0.221 4 0 0 0 0.061080001
1.173 -0.79500002 -0.223 5 0 0 0 0.06109
1.1720001 -0.79299998 -0.22400001 4 0 0 0 0.061099999
1.169 -0.79000002 -0.22499999 4 0 0 0 0.061110001
1.169 -0.79000002 -0.227 4 0 0 0 0.06112
1.169 -0.78799999 -0.228 5 0 0 0 0.061129998
1.168 -0.78600001 -0.229 4 0 0 0 0.061140001
1.17 -0.78600001 -0.23100001 4 0 0 0 0.061149999
1.168 -0.78399998 -0.23199999 5 0 0 0 0.061159998
1.17 -0.78500003 -0.234 5 0 0 0 0.061170001
1.168 -0.78200001 -0.235 5 0 0 0 0.061179999
1.169 -0.78100002 -0.236 4 0 0 0 0.061190002
1.168 -0.77899998 -0.237 4 0 0 0 0.0612
1.17 -0.778 -0.23899999 4 0 0 0 0.061209999
1.17 -0.77700001 -0.23999999 4 0 0 0 0.061220001
1.166 -0.773 -0.241 4 0 0 0 0.06123
1.164 -0.76999998 -0.241 4 0 0 0 0.061239999
1.17 -0.77200001 -0.244 4 0 0 0 0.061250001
1.165 -0.76700002 -0.244 4 0 0 0 0.06126
1.165 -0.76499999 -0.245 4 0 0 0 0.061269999
1.1619999 -0.76200002 -0.245 5 0 0 0 0.061280001
1.166 -0.76200002 -0.24699999 5 0 0 0 0.06129
1.159 -0.755 -0.24699999 5 0 0 0 0.061299998
1.163 -0.75599998 -0.249 4 0 0 0 0.061310001
1.16 -0.75199997 -0.249 5 0 0 0 0.061319999
1.158 -0.74900001 -0.249 4 0 0 0 0.061330002
1.1619999 -0.74900001 -0.25099999 5 0 0 0 0.06134
1.16 -0.745 -0.25099999 5 0 0 0 0.061349999
1.159 -0.74299997 -0.252 5 0 0 0 0.061360002
1.155 -0.73799998 -0.252 4 0 0 0 0.06137
1.161 -0.73900002 -0.25400001 4 0 0 0 0.061379999
1.1569999 -0.73400003 -0.25400001 4 0 0 0 0.061390001
1.163 -0.73500001 -0.25600001 4 0 0 0 0.0614
1.159 -0.73100001 -0.25600001 4 0 0 0 0.061409999
1.16 -0.72899997 -0.257 4 0 0 0 0.061420001
1.159 -0.72500002 -0.257 4 0 0 0 0.06143
1.161 -0.72399998 -0.25799999 4 0 0 0 0.061439998
1.155 -0.71799999 -0.25799999 4 0 0 0 0.061450001
1.16 -0.71799999 -0.259 5 0 0 0 0.06146
1.1569999 -0.71399999 -0.259 4 0 0 0 0.061469998
1.156 -0.70999998 -0.259 4 0 0 0 0.061480001
1.1569999 -0.708 -0.25999999 4 0 0 0 0.061489999
1.155 -0.704 -0.25999999 4 0 0 0 0.061500002
1.158 -0.70300001 -0.26100001 4 0 0 0 0.06151
1.153 -0.69700003 -0.26100001 4 0 0 0 0.061519999
1.156 -0.69599998 -0.26199999 4 0 0 0 0.061530001
1.154 -0.69099998 -0.26199999 4 0 0 0 0.06154
1.158 -0.69099998 -0.26300001 4 0 0 0 0.061549999
1.153 -0.685 -0.26199999 4 0 0 0 0.061560001
1.1569999 -0.68400002 -0.26300001 4 0 0 0 0.06157
1.154 -0.67900002 -0.26300001 4 0 0 0 0.061579999
1.154 -0.676 -0.26300001 4 0 0 0 0.061590001
1.154 -0.67299998 -0.26300001 4 0 0 0 0.0616
1.152 -0.66900003 -0.26300001 3 0 0 0 0.061609998
1.152 -0.66600001 -0.26300001 4 0 0 0 0.061620001
1.153 -0.66299999 -0.26300001 4 0 0 0 0.061629999
1.15 -0.65799999 -0.26300001 4 0 0 0 0.061640002
1.151 -0.65499997 -0.26300001 4 0 0 0 0.061650001
1.15 -0.65100002 -0.26300001 4 0 0 0 0.061659999
1.154 -0.64999998 -0.264 3 0 0 0 0.061670002
1.15 -0.64499998 -0.26300001 4 0 0 0 0.06168
1.15 -0.64200002 -0.26300001 4 0 0 0 0.061689999
1.146 -0.63599998 -0.26199999 4 0 0 0 0.061700001
1.147 -0.63300002 -0.26199999 4 0 0 0 0.06171
1.146 -0.62900001 -0.26100001 4 0 0 0 0.061719999
1.148 -0.62699997 -0.26199999 4 0 0 0 0.061730001
1.145 -0.62099999 -0.26100001 4 0 0 0 0.06174
1.147 -0.61900002 -0.26100001 3 0 0 0 0.061749998
1.146 -0.61500001 -0.26100001 3 0 0 0 0.061760001
1.145 -0.611 -0.25999999 3 0 0 0 0.06177
1.146 -0.60799998 -0.25999999 4 0 0 0 0.061779998
1.146 -0.60500002 -0.25999999 3 0 0 0 0.061790001
1.141 -0.59899998 -0.25799999 3 0 0 0 0.061799999
1.143 -0.59600002 -0.25799999 3 0 0 0 0.061810002
1.135 -0.588 -0.25600001 4 0 0 0 0.06182
1.137 -0.58600003 -0.25600001 4 0 0 0 0.061829999
1.138 -0.583 -0.25600001 4 0 0 0 0.061840001
1.138 -0.579 -0.25600001 4 0 0 0 0.06185
1.136 -0.574 -0.255 4 0 0 0 0.061859999
1.136 -0.57099998 -0.25400001 4 0 0 0 0.061870001
1.14 -0.56900001 -0.255 3 0 0 0 0.06188
1.133 -0.56199998 -0.252 2 0 0 0 0.061889999
1.124 -0.55400002 -0.25 1 0 0 0 0.061900001
1.128 -0.55199999 -0.25 2 0 0 0 0.06191
1.123 -0.546 -0.249 3 0 0 0 0.061919998
1.124 -0.54299998 -0.248 4 0 0 0 0.061930001
1.1210001 -0.53799999 -0.24699999 5 0 0 0 0.061939999
1.118 -0.53299999 -0.24600001 6 0 0 0 0.061949998
1.123 -0.53200001 -0.24600001 6 0 0 0 0.061960001
1.1289999 -0.53100002 -0.24699999 127 0 0 0 0.061969999
2.267 -1.059 -0.49399999 150 0 0 0 0.061980002
2.392 -1.11 -0.51999998 37 0 0 0 0.06199
2.4059999 -1.109 -0.52200001 21 0 0 0 0.061999999
2.4089999 -1.102 -0.52100003 22 0 0 0 0.062010001
2.4100001 -1.095 -0.51899999 21 0 0 0 0.06202
2.405 -1.085 -0.51599997 18 0 0 0 0.062029999
2.4059999 -1.077 -0.51499999 17 0 0 0 0.062040001
2.4059999 -1.069 -0.51300001 18 0 0 0 0.06205
2.405 -1.061 -0.51099998 17 0 0 0 0.062059999
2.4100001 -1.0549999 -0.50999999 17 0 0 0 0.062070001
2.4119999 -1.049 -0.509 19 0 0 0 0.06208
2.415 -1.0420001 -0.50700003 16 0 0 0 0.062089998
2.414 -1.034 -0.505 12 0 0 0 0.062100001
2.4159999 -1.027 -0.50400001 16 0 0 0 0.062109999
2.414 -1.018 -0.50099999 16 0 0 0 0.062120002
2.4070001 -1.007 -0.498 18 0 0 0 0.06213
2.408 -1 -0.49599999 20 0 0 0 0.062139999
2.4030001 -0.99000001 -0.493 20 0 0 0 0.062150002
2.401 -0.98100001 -0.49000001 21 0 0 0 0.06216
2.3989999 -0.972 -0.48699999 22 0 0 0 0.062169999
2.3970001 -0.96399999 -0.48500001 20 0 0 0 0.062180001
2.395 -0.95499998 -0.48199999 21 0 0 0 0.06219
2.3970001 -0.94800001 -0.47999999 20 0 0 0 0.062199999
2.398 -0.94 -0.47799999 15 0 0 0 0.062210001
2.3959999 -0.93199998 -0.47499999 21 0 0 0 0.06222
2.3959999 -0.92400002 -0.47299999 24 0 0 0 0.062229998
2.3959999 -0.91600001 -0.47 24 0 0 0 0.062240001
2.398 -0.90899998 -0.46799999 19 0 0 0 0.062249999
2.3970001 -0.90100002 -0.46599999 24 0 0 0 0.062259998
2.3970001 -0.89300001 -0.463 27 0 0 0 0.062270001
2.3889999 -0.88300002 -0.45899999 19 0 0 0 0.062279999
2.395 -0.87699997 -0.458 17 0 0 0 0.062290002
2.395 -0.86900002 -0.45500001 18 0 0 0 0.0623
2.3870001 -0.85900003 -0.45100001 20 0 0 0 0.062309999
2.3929999 -0.85299999 -0.44999999 23 0 0 0 0.062320001
2.3889999 -0.84399998 -0.44600001 24 0 0 0 0.06233
2.3889999 -0.83600003 -0.44299999 24 0 0 0 0.062339999
2.385 -0.82700002 -0.44 24 0 0 0 0.062350001
2.388 -0.81999999 -0.43799999 23 0 0 0 0.06236
2.3889999 -0.81300002 -0.435 23 0 0 0 0.062369999
2.388 -0.80500001 -0.43200001 22 0 0 0 0.062380001
2.385 -0.796 -0.42899999 24 0 0 0 0.06239
2.3829999 -0.78799999 -0.426 24 0 0 0 0.062399998
2.385 -0.78100002 -0.42300001 20 0 0 0 0.062410001
2.3870001 -0.77399999 -0.421 20 0 0 0 0.062419999
2.3859999 -0.76599997 -0.417 18 0 0 0 0.062430002
2.3859999 -0.759 -0.41499999 17 0 0 0 0.06244
2.3870001 -0.75099999 -0.412 17 0 0 0 0.062449999
2.381 -0.74199998 -0.40799999 21 0 0 0 0.062460002
2.3829999 -0.73500001 -0.405 24 0 0 0 0.06247
2.381 -0.727 -0.40200001 24 0 0 0 0.062479999
2.378 -0.71899998 -0.398 24 0 0 0 0.062490001
2.3859999 -0.713 -0.396 20 0 0 0 0.0625
2.385 -0.70599997 -0.39300001 21 0 0 0 0.062509999
2.381 -0.69700003 -0.38999999 23 0 0 0 0.062519997
2.3800001 -0.68900001 -0.38600001 24 0 0 0 0.062530003
2.378 -0.68099999 -0.38299999 23 0 0 0 0.062540002
2.381 -0.67400002 -0.38 22 0 0 0 0.062550001
2.3800001 -0.667 -0.377 23 0 0 0 0.06256
2.378 -0.65899998 -0.373 22 0 0 0 0.062569998
2.3800001 -0.65200001 -0.37 22 0 0 0 0.062579997
2.3800001 -0.64499998 -0.36700001 24 0 0 0 0.062590003
2.378 -0.63700002 -0.36399999 25 0 0 0 0.062600002
2.3759999 -0.62900001 -0.36000001 22 0 0 0 0.06261
2.378 -0.62199998 -0.35699999 22 0 0 0 0.062619999
2.3770001 -0.61400002 -0.354 17 0 0 0 0.062629998
2.3740001 -0.60600001 -0.34999999 18 0 0 0 0.062639996
2.3770001 -0.60000002 -0.347 24 0 0 0 0.062650003
2.375 -0.59200001 -0.34299999 26 0 0 0 0.062660001
2.378 -0.58499998 -0.34 24 0 0 0 0.06267
2.3759999 -0.57800001 -0.33700001 25 0 0 0 0.062679999
2.3759999 -0.57099998 -0.333 29 0 0 0 0.062689997
