# .PCD v0.7 - Point Cloud Data file format
VERSION 0.7
FIELDS x y z intensity normal_x normal_y normal_z curvature
SIZE 4 4 4 4 4 4 4 4
TYPE F F F F F F F F
COUNT 1 1 1 1 1 1 1 1
WIDTH 1037
HEIGHT 1
VIEWPOINT 0 0 0 1 0 0 0
POINTS 1037
DATA ascii
3.421 -0.171 -0.13500001 153 0 0 0 0.038290001
3.4319999 -0.162 -0.12899999 151 0 0 0 0.0383
3.4349999 -0.154 -0.122 150 0 0 0 0.038309999
3.431 -0.145 -0.115 150 0 0 0 0.038320001
3.434 -0.13600001 -0.108 150 0 0 0 0.03833
3.4319999 -0.127 -0.101 150 0 0 0 0.038339999
3.4319999 -0.118 -0.094999999 150 0 0 0 0.038350001
3.4330001 -0.11 -0.088 151 0 0 0 0.03836
3.4300001 -0.101 -0.081 150 0 0 0 0.038369998
3.431 -0.092 -0.074000001 151 0 0 0 0.038380001
3.4230001 -0.082999997 -0.067000002 151 0 0 0 0.038389999
1.263 0.47099999 0.59200001 150 0 0 0 0.040320002
1.262 0.47099999 0.59500003 150 0 0 0 0.04033
1.26 0.472 0.597 150 0 0 0 0.040339999
1.2589999 0.472 0.60000002 150 0 0 0 0.040350001
1.265 0.47499999 0.60699999 150 0 0 0 0.04036
1.266 0.477 0.611 150 0 0 0 0.040369999
1.2640001 0.477 0.61299998 150 0 0 0 0.040380001
1.27 0.47999999 0.61900002 150 0 0 0 0.04039
1.266 0.47999999 0.62099999 150 0 0 0 0.040399998
1.2640001 0.47999999 0.62400001 150 0 0 0 0.040410001
1.2589999 0.479 0.62400001 150 0 0 0 0.04042
1.267 0.48199999 0.63200003 150 0 0 0 0.040429998
1.265 0.48300001 0.634 150 0 0 0 0.040440001
1.2640001 0.48300001 0.63700002 150 0 0 0 0.040449999
1.262 0.48300001 0.639 150 0 0 0 0.040460002
1.266 0.48500001 0.64499998 150 0 0 0 0.04047
1.267 0.486 0.64899999 150 0 0 0 0.040479999
1.266 0.486 0.65100002 150 0 0 0 0.040490001
1.265 0.486 0.65399998 150 0 0 0 0.0405
1.263 0.486 0.65600002 150 0 0 0 0.040509999
1.2640001 0.48699999 0.66000003 150 0 0 0 0.040520001
1.266 0.48800001 0.66399997 150 0 0 0 0.04053
1.265 0.48800001 0.66600001 150 0 0 0 0.040539999
1.263 0.48800001 0.66900003 150 0 0 0 0.040550001
1.265 0.48800001 0.67199999 150 0 0 0 0.04056
1.266 0.48899999 0.676 150 0 0 0 0.040569998
1.265 0.48899999 0.67799997 150 0 0 0 0.040580001
1.261 0.48800001 0.67900002 150 0 0 0 0.040589999
1.284 0.49700001 0.69499999 150 0 0 0 0.040600002
1.283 0.49599999 0.69700003 150 0 0 0 0.04061
1.26 0.48699999 0.68800002 150 0 0 0 0.040619999
1.2640001 0.48899999 0.69300002 150 0 0 0 0.040630002
1.286 0.49700001 0.70700002 150 0 0 0 0.04064
1.283 0.49599999 0.708 150 0 0 0 0.040649999
1.285 0.49700001 0.71200001 150 0 0 0 0.040660001
1.267 0.48899999 0.70499998 150 0 0 0 0.04067
1.289 0.498 0.72000003 150 0 0 0 0.040679999
1.265 0.48800001 0.70899999 150 0 0 0 0.040690001
1.288 0.49700001 0.72500002 150 0 0 0 0.0407
1.263 0.48699999 0.713 150 0 0 0 0.040709998
1.267 0.48800001 0.71799999 150 0 0 0 0.040720001
1.267 0.48699999 0.72000003 150 0 0 0 0.04073
1.286 0.495 0.73299998 150 0 0 0 0.040739998
1.27 0.48800001 0.72600001 150 0 0 0 0.040750001
1.2690001 0.48699999 0.72799999 150 0 0 0 0.040759999
1.271 0.48699999 0.73100001 150 0 0 0 0.040770002
1.268 0.48500001 0.73199999 150 0 0 0 0.04078
1.27 0.48500001 0.73500001 150 0 0 0 0.040789999
1.2690001 0.484 0.73699999 150 0 0 0 0.040800001
1.266 0.48199999 0.73699999 150 0 0 0 0.04081
1.288 0.49000001 0.75099999 150 0 0 0 0.040819999
1.267 0.48100001 0.74199998 150 0 0 0 0.040830001
1.2690001 0.48100001 0.745 150 0 0 0 0.04084
1.2690001 0.47999999 0.74599999 150 0 0 0 0.040849999
1.268 0.479 0.74800003 150 0 0 0 0.040860001
1.275 0.47999999 0.75300002 150 0 0 0 0.04087
1.274 0.479 0.75400001 150 0 0 0 0.040879998
1.274 0.477 0.75599998 150 0 0 0 0.040890001
1.274 0.47600001 0.75700003 150 0 0 0 0.040899999
1.273 0.47499999 0.75800002 150 0 0 0 0.040910002
1.273 0.47299999 0.75999999 150 0 0 0 0.040920001
1.273 0.472 0.76099998 150 0 0 0 0.040929999
1.273 0.47099999 0.76200002 150 0 0 0 0.040940002
1.272 0.46900001 0.76300001 150 0 0 0 0.04095
1.272 0.46799999 0.764 150 0 0 0 0.040959999
1.272 0.46599999 0.76499999 150 0 0 0 0.040970001
1.277 0.46700001 0.76899999 150 0 0 0 0.04098
1.272 0.463 0.76700002 150 0 0 0 0.040989999
1.279 0.46399999 0.773 150 0 0 0 0.041000001
1.277 0.46200001 0.77200001 150 0 0 0 0.04101
1.277 0.46000001 0.773 150 0 0 0 0.041019998
1.277 0.45899999 0.77399999 150 0 0 0 0.041030001
1.277 0.45699999 0.77499998 150 0 0 0 0.04104
1.277 0.45500001 0.77499998 150 0 0 0 0.041049998
1.2819999 0.45500001 0.778 150 0 0 0 0.041060001
1.289 0.456 0.78299999 150 0 0 0 0.041069999
1.286 0.45300001 0.78200001 150 0 0 0 0.041080002
1.296 0.454 0.78799999 133 0 0 0 0.04109
1.302 0.45500001 0.792 68 0 0 0 0.041099999
1.3150001 0.45699999 0.801 22 0 0 0 0.041110002
1.331 0.461 0.81099999 14 0 0 0 0.04112
1.341 0.46200001 0.81699997 13 0 0 0 0.041129999
1.35 0.463 0.82200003 14 0 0 0 0.041140001
1.3559999 0.463 0.82599998 14 0 0 0 0.04115
1.369 0.465 0.83399999 14 0 0 0 0.041159999
1.3789999 0.46599999 0.83999997 14 0 0 0 0.041170001
1.39 0.46799999 0.84600002 15 0 0 0 0.04118
1.3940001 0.46700001 0.84899998 16 0 0 0 0.041189998
1.403 0.46700001 0.85399997 16 0 0 0 0.041200001
1.41 0.46700001 0.85799998 16 0 0 0 0.041209999
1.423 0.46900001 0.86500001 10 0 0 0 0.041219998
1.434 0.47 0.87099999 10 0 0 0 0.041230001
1.442 0.47 0.875 10 0 0 0 0.041239999
1.4579999 0.47299999 0.88499999 10 0 0 0 0.041250002
1.4680001 0.47299999 0.88999999 10 0 0 0 0.04126
1.482 0.47499999 0.89700001 11 0 0 0 0.041269999
1.5089999 0.48100001 0.91299999 93 0 0 0 0.041280001
1.724 0.546 1.0420001 150 0 0 0 0.04129
1.819 0.57300001 1.098 150 0 0 0 0.041299999
2.04 0.639 1.23 151 0 0 0 0.041310001
2.2420001 0.69800001 1.35 150 0 0 0 0.04132
2.223 0.68800002 1.336 150 0 0 0 0.041329999
2.1860001 0.67199999 1.312 150 0 0 0 0.041340001
2.1210001 0.648 1.271 114 0 0 0 0.04135
2.125 0.64499998 1.272 110 0 0 0 0.041359998
2.1259999 0.64099997 1.27 109 0 0 0 0.041370001
2.128 0.63800001 1.2690001 112 0 0 0 0.041379999
2.1389999 0.63700002 1.273 108 0 0 0 0.041390002
2.138 0.63200003 1.27 108 0 0 0 0.0414
2.1440001 0.63 1.271 111 0 0 0 0.041409999
2.1459999 0.62599999 1.27 107 0 0 0 0.041420002
2.154 0.62400001 1.272 115 0 0 0 0.04143
2.154 0.61900002 1.2690001 107 0 0 0 0.041439999
2.1559999 0.616 1.267 97 0 0 0 0.041450001
2.1559999 0.611 1.2640001 86 0 0 0 0.04146
2.161 0.60799998 1.2640001 91 0 0 0 0.041469999
2.1659999 0.60500002 1.263 86 0 0 0 0.041480001
2.1719999 0.602 1.2640001 91 0 0 0 0.04149
2.177 0.59899998 1.263 90 0 0 0 0.041499998
2.1830001 0.597 1.2640001 96 0 0 0 0.041510001
2.187 0.59299999 1.262 99 0 0 0 0.04152
2.1960001 0.59100002 1.263 99 0 0 0 0.041529998
2.201 0.588 1.263 98 0 0 0 0.041540001
2.2079999 0.58499998 1.263 107 0 0 0 0.041549999
2.2149999 0.58200002 1.263 120 0 0 0 0.041560002
2.2219999 0.57999998 1.263 150 0 0 0 0.04157
2.233 0.57800001 1.265 150 0 0 0 0.041579999
2.2349999 0.574 1.262 150 0 0 0 0.041590001
2.2360001 0.56900001 1.2589999 150 0 0 0 0.0416
2.2409999 0.56599998 1.257 150 0 0 0 0.041609999
2.237 0.56 1.25 150 0 0 0 0.041620001
2.2390001 0.55599999 1.247 150 0 0 0 0.04163
2.247 0.55299997 1.247 150 0 0 0 0.041639999
2.266 0.55299997 1.253 150 0 0 0 0.041650001
2.2709999 0.55000001 1.251 150 0 0 0 0.04166
2.2679999 0.54400003 1.245 150 0 0 0 0.041669998
2.2720001 0.54100001 1.242 150 0 0 0 0.041680001
2.2709999 0.53600001 1.237 150 0 0 0 0.041689999
2.2850001 0.53399998 1.239 64 0 0 0 0.041700002
2.325 0.53899997 1.255 27 0 0 0 0.04171
2.3929999 0.55000001 1.2869999 22 0 0 0 0.041719999
2.418 0.551 1.295 21 0 0 0 0.041730002
2.448 0.55199999 1.3049999 20 0 0 0 0.04174
2.493 0.55800003 1.324 15 0 0 0 0.041749999
2.536 0.56199998 1.341 14 0 0 0 0.041760001
2.5780001 0.56599998 1.3559999 16 0 0 0 0.04177
2.6099999 0.56800002 1.368 15 0 0 0 0.041779999
2.645 0.56999999 1.3789999 14 0 0 0 0.041790001
2.6900001 0.574 1.396 13 0 0 0 0.0418
2.734 0.57800001 1.4119999 13 0 0 0 0.041809998
2.7679999 0.57999998 1.423 12 0 0 0 0.041820001
2.8169999 0.58499998 1.441 13 0 0 0 0.04183
2.8670001 0.58899999 1.459 12 0 0 0 0.041839998
2.911 0.59299999 1.474 11 0 0 0 0.041850001
2.951 0.59500003 1.488 11 0 0 0 0.041859999
3 0.59899998 1.5039999 12 0 0 0 0.041870002
3.046 0.602 1.52 12 0 0 0 0.04188
3.102 0.60699999 1.54 13 0 0 0 0.041889999
3.1500001 0.611 1.5549999 13 0 0 0 0.041900001
3.1960001 0.61299998 1.569 15 0 0 0 0.04191
3.2349999 0.61500001 1.58 24 0 0 0 0.041919999
3.253 0.61199999 1.58 41 0 0 0 0.041930001
3.2780001 0.61000001 1.5829999 72 0 0 0 0.04194
3.2920001 0.60699999 1.581 150 0 0 0 0.041949999
3.299 0.602 1.575 150 0 0 0 0.041960001
3.2980001 0.59600002 1.566 150 0 0 0 0.04197
3.299 0.58899999 1.557 150 0 0 0 0.041979998
3.2980001 0.583 1.548 150 0 0 0 0.041990001
3.299 0.57700002 1.539 150 0 0 0 0.041999999
3.303 0.57200003 1.5319999 150 0 0 0 0.042010002
3.3 0.565 1.521 150 0 0 0 0.042020001
3.302 0.55900002 1.512 150 0 0 0 0.042029999
3.306 0.55400002 1.505 150 0 0 0 0.042040002
3.3050001 0.54799998 1.495 150 0 0 0 0.04205
3.302 0.54100001 1.484 150 0 0 0 0.042059999
3.3039999 0.53600001 1.476 150 0 0 0 0.042070001
3.302 0.52999997 1.466 150 0 0 0 0.04208
3.303 0.52399999 1.457 150 0 0 0 0.042089999
3.3080001 0.51899999 1.449 150 0 0 0 0.042100001
3.3039999 0.51300001 1.438 150 0 0 0 0.04211
3.3069999 0.50800002 1.4299999 150 0 0 0 0.042119998
3.306 0.50199997 1.419 150 0 0 0 0.042130001
3.3080001 0.49599999 1.411 150 0 0 0 0.04214
3.303 0.49000001 1.399 150 0 0 0 0.042149998
3.306 0.48500001 1.39 150 0 0 0 0.042160001
3.3080001 0.47999999 1.381 150 0 0 0 0.042169999
3.309 0.47400001 1.372 150 0 0 0 0.042180002
3.306 0.46799999 1.3609999 150 0 0 0 0.04219
3.3050001 0.463 1.351 150 0 0 0 0.042199999
3.3050001 0.45699999 1.34 150 0 0 0 0.042210001
3.302 0.45100001 1.33 150 0 0 0 0.04222
3.303 0.44600001 1.3200001 150 0 0 0 0.042229999
3.3039999 0.44100001 1.3099999 150 0 0 0 0.042240001
3.3080001 0.43599999 1.302 150 0 0 0 0.04225
3.3069999 0.43099999 1.2920001 150 0 0 0 0.042259999
3.319 0.42699999 1.286 150 0 0 0 0.042270001
3.332 0.42399999 1.281 150 0 0 0 0.04228
3.3429999 0.41999999 1.275 150 0 0 0 0.042289998
3.3399999 0.41499999 1.2640001 150 0 0 0 0.042300001
3.3510001 0.41100001 1.258 102 0 0 0 0.042309999
3.3740001 0.40799999 1.256 62 0 0 0 0.042319998
3.3989999 0.40599999 1.255 150 0 0 0 0.042330001
3.4059999 0.40200001 1.247 150 0 0 0 0.042339999
3.4030001 0.39700001 1.2359999 150 0 0 0 0.042350002
3.405 0.39199999 1.226 150 0 0 0 0.04236
3.4070001 0.38699999 1.216 150 0 0 0 0.042369999
3.4089999 0.382 1.206 150 0 0 0 0.042380001
3.404 0.377 1.194 150 0 0 0 0.04239
3.411 0.37200001 1.186 150 0 0 0 0.042399999
3.4059999 0.36700001 1.174 150 0 0 0 0.042410001
3.4059999 0.36199999 1.163 150 0 0 0 0.04242
3.4089999 0.35800001 1.153 150 0 0 0 0.042429999
3.404 0.352 1.141 150 0 0 0 0.042440001
3.408 0.34799999 1.132 150 0 0 0 0.04245
3.411 0.34299999 1.122 150 0 0 0 0.042459998
3.4000001 0.338 1.108 150 0 0 0 0.042470001
3.404 0.333 1.099 150 0 0 0 0.042479999
3.405 0.329 1.089 150 0 0 0 0.042490002
3.4089999 0.32499999 1.079 150 0 0 0 0.0425
3.408 0.31999999 1.068 150 0 0 0 0.042509999
3.411 0.31600001 1.059 150 0 0 0 0.042520002
3.4100001 0.31099999 1.0470001 150 0 0 0 0.04253
3.4089999 0.30700001 1.0369999 150 0 0 0 0.042539999
3.411 0.303 1.027 150 0 0 0 0.042550001
3.4089999 0.29800001 1.015 150 0 0 0 0.04256
3.4119999 0.294 1.006 150 0 0 0 0.042569999
3.4130001 0.28999999 0.995 150 0 0 0 0.042580001
3.4100001 0.285 0.98400003 150 0 0 0 0.04259
3.411 0.28099999 0.97299999 150 0 0 0 0.042599998
3.411 0.27700001 0.963 150 0 0 0 0.042610001
3.411 0.27200001 0.95200002 150 0 0 0 0.042619999
3.408 0.26800001 0.94 150 0 0 0 0.042629998
3.411 0.264 0.93000001 150 0 0 0 0.042640001
3.4089999 0.25999999 0.91900003 150 0 0 0 0.042649999
3.405 0.255 0.90700001 150 0 0 0 0.042660002
3.414 0.252 0.89899999 150 0 0 0 0.04267
3.4070001 0.24699999 0.88599998 150 0 0 0 0.042679999
3.4100001 0.244 0.87599999 150 0 0 0 0.042690001
3.411 0.23999999 0.866 150 0 0 0 0.0427
3.4100001 0.236 0.85500002 150 0 0 0 0.042709999
3.4130001 0.23199999 0.84500003 150 0 0 0 0.042720001
3.4130001 0.228 0.83399999 150 0 0 0 0.04273
3.4100001 0.22400001 0.82300001 150 0 0 0 0.042739999
3.4130001 0.22 0.81300002 150 0 0 0 0.042750001
3.4159999 0.21699999 0.80299997 150 0 0 0 0.04276
3.415 0.213 0.792 150 0 0 0 0.042769998
3.415 0.20900001 0.78100002 150 0 0 0 0.042780001
3.4189999 0.206 0.77100003 150 0 0 0 0.042789999
3.4130001 0.20200001 0.759 150 0 0 0 0.042800002
3.4159999 0.198 0.74900001 150 0 0 0 0.04281
3.4130001 0.19400001 0.73799998 150 0 0 0 0.042819999
3.415 0.191 0.727 150 0 0 0 0.042830002
3.4159999 0.18700001 0.71700001 150 0 0 0 0.04284
3.4159999 0.184 0.70599997 150 0 0 0 0.042849999
3.414 0.18000001 0.69499999 150 0 0 0 0.042860001
3.4189999 0.177 0.685 150 0 0 0 0.04287
3.415 0.17299999 0.67299998 150 0 0 0 0.042879999
3.4159999 0.169 0.66299999 150 0 0 0 0.042890001
3.418 0.16599999 0.65200001 150 0 0 0 0.0429
3.418 0.163 0.64099997 150 0 0 0 0.042909998
3.4159999 0.15899999 0.63 150 0 0 0 0.042920001
3.418 0.156 0.62 150 0 0 0 0.04293
3.4200001 0.153 0.61000001 150 0 0 0 0.042939998
3.4189999 0.149 0.59899998 150 0 0 0 0.042950001
3.4159999 0.146 0.58700001 150 0 0 0 0.042959999
3.418 0.14300001 0.57700002 150 0 0 0 0.042970002
3.4159999 0.139 0.56599998 150 0 0 0 0.04298
3.418 0.13600001 0.55500001 150 0 0 0 0.042989999
3.415 0.133 0.54400003 150 0 0 0 0.043000001
3.4200001 0.13 0.53399998 150 0 0 0 0.04301
3.4170001 0.127 0.523 150 0 0 0 0.043019999
3.4200001 0.124 0.51200002 150 0 0 0 0.043030001
3.418 0.12 0.50099999 150 0 0 0 0.04304
3.4189999 0.117 0.491 150 0 0 0 0.043049999
3.418 0.114 0.47999999 150 0 0 0 0.043060001
3.4200001 0.111 0.46900001 150 0 0 0 0.04307
3.421 0.108 0.45899999 150 0 0 0 0.043079998
3.4159999 0.105 0.447 150 0 0 0 0.043090001
3.4159999 0.102 0.43599999 150 0 0 0 0.043099999
3.418 0.098999999 0.426 150 0 0 0 0.043110002
3.4170001 0.096000001 0.41499999 150 0 0 0 0.043120001
3.4189999 0.093999997 0.40400001 150 0 0 0 0.043129999
3.418 0.090999998 0.39300001 151 0 0 0 0.043140002
3.4189999 0.088 0.38299999 151 0 0 0 0.04315
3.4170001 0.085000001 0.37200001 150 0 0 0 0.043159999
3.418 0.082000002 0.361 151 0 0 0 0.043170001
3.4200001 0.079000004 0.34999999 150 0 0 0 0.04318
3.421 0.077 0.34 150 0 0 0 0.043189999
3.4170001 0.074000001 0.329 151 0 0 0 0.043200001
3.418 0.071000002 0.31799999 150 0 0 0 0.04321
3.4130001 0.068000004 0.30700001 150 0 0 0 0.043219998
3.415 0.064999998 0.296 151 0 0 0 0.043230001
3.421 0.063000001 0.28600001 151 0 0 0 0.04324
3.4159999 0.059999999 0.27500001 151 0 0 0 0.043249998
3.4170001 0.057999998 0.264 151 0 0 0 0.043260001
3.4170001 0.055 0.25299999 151 0 0 0 0.043269999
3.4130001 0.052000001 0.242 151 0 0 0 0.043280002
3.415 0.050000001 0.23100001 151 0 0 0 0.04329
3.414 0.046999998 0.22 151 0 0 0 0.043299999
3.414 0.045000002 0.20999999 151 0 0 0 0.043310001
3.414 0.041999999 0.199 151 0 0 0 0.04332
3.4159999 0.039999999 0.18799999 151 0 0 0 0.043329999
3.4159999 0.037 0.177 151 0 0 0 0.043340001
3.414 0.035 0.167 151 0 0 0 0.04335
3.4170001 0.032000002 0.156 151 0 0 0 0.043359999
3.415 0.029999999 0.145 151 0 0 0 0.043370001
3.418 0.027000001 0.134 151 0 0 0 0.04338
3.4219999 0.025 0.124 151 0 0 0 0.043389998
3.415 0.023 0.113 151 0 0 0 0.043400001
3.4200001 0.02 0.102 151 0 0 0 0.043409999
3.4200001 0.017999999 0.090999998 151 0 0 0 0.043419998
3.4159999 0.016000001 0.079999998 151 0 0 0 0.043430001
3.4130001 0.013 0.068999998 151 0 0 0 0.043439999
3.4159999 0.011 0.059 151 0 0 0 0.043450002
3.421 0.0089999996 0.048 151 0 0 0 0.04346
3.4219999 0.0070000002 0.037 151 0 0 0 0.043469999
3.421 0.0040000002 0.026000001 151 0 0 0 0.043480001
3.415 0.0020000001 0.015 151 0 0 0 0.04349
3.4159999 0 0.0040000002 151 0 0 0 0.043499999
3.4159999 -0.001 -0.0060000001 151 0 0 0 0.043510001
3.415 -0.003 -0.016000001 151 0 0 0 0.04352
3.4170001 -0.0049999999 -0.027000001 151 0 0 0 0.043529999
3.418 -0.0080000004 -0.037999999 151 0 0 0 0.043540001
3.4170001 -0.0099999998 -0.048999999 151 0 0 0 0.04355
3.4170001 -0.012 -0.059999999 151 0 0 0 0.043559998
3.4200001 -0.014 -0.071000002 151 0 0 0 0.043570001
3.4189999 -0.016000001 -0.082000002 151 0 0 0 0.043579999
3.4170001 -0.017999999 -0.092 151 0 0 0 0.043590002
3.415 -0.02 -0.103 151 0 0 0 0.0436
3.4130001 -0.022 -0.114 151 0 0 0 0.043609999
3.418 -0.024 -0.125 151 0 0 0 0.043620002
3.4189999 -0.026000001 -0.13600001 151 0 0 0 0.04363
3.415 -0.028000001 -0.147 151 0 0 0 0.043639999
3.425 -0.029999999 -0.15800001 151 0 0 0 0.043650001
3.418 -0.030999999 -0.169 151 0 0 0 0.04366
3.4230001 -0.033 -0.18000001 151 0 0 0 0.043669999
3.4230001 -0.035 -0.191 151 0 0 0 0.043680001
3.421 -0.037 -0.20200001 151 0 0 0 0.04369
3.421 -0.039000001 -0.213 151 0 0 0 0.043699998
3.4200001 -0.041000001 -0.22400001 151 0 0 0 0.043710001
3.4189999 -0.041999999 -0.235 151 0 0 0 0.043719999
3.4230001 -0.044 -0.24600001 151 0 0 0 0.043729998
3.4230001 -0.046 -0.257 150 0 0 0 0.043740001
3.4219999 -0.048 -0.26800001 150 0 0 0 0.043749999
3.421 -0.048999999 -0.27900001 151 0 0 0 0.043760002
3.421 -0.050999999 -0.28999999 151 0 0 0 0.04377
3.4200001 -0.052999999 -0.301 150 0 0 0 0.043779999
3.421 -0.054000001 -0.31200001 151 0 0 0 0.043790001
3.421 -0.056000002 -0.32300001 150 0 0 0 0.0438
3.4219999 -0.057999998 -0.33399999 150 0 0 0 0.043809999
3.4260001 -0.059 -0.345 150 0 0 0 0.043820001
3.424 -0.061000001 -0.35600001 151 0 0 0 0.04383
3.425 -0.061999999 -0.36700001 150 0 0 0 0.043839999
3.424 -0.064000003 -0.37799999 150 0 0 0 0.043850001
3.418 -0.064999998 -0.38800001 150 0 0 0 0.04386
3.421 -0.067000002 -0.40000001 150 0 0 0 0.043869998
3.425 -0.068000004 -0.412 150 0 0 0 0.043880001
3.425 -0.07 -0.42300001 150 0 0 0 0.043889999
3.425 -0.071000002 -0.43399999 150 0 0 0 0.043900002
3.424 -0.072999999 -0.44499999 150 0 0 0 0.04391
3.425 -0.074000001 -0.456 150 0 0 0 0.043919999
3.421 -0.075000003 -0.46700001 150 0 0 0 0.043930002
3.424 -0.077 -0.47799999 150 0 0 0 0.04394
3.421 -0.078000002 -0.48899999 150 0 0 0 0.043949999
3.4260001 -0.079000004 -0.50099999 150 0 0 0 0.043960001
3.4230001 -0.081 -0.51200002 150 0 0 0 0.04397
3.4219999 -0.082000002 -0.523 150 0 0 0 0.043979999
3.425 -0.082999997 -0.53399998 150 0 0 0 0.043990001
3.425 -0.083999999 -0.546 150 0 0 0 0.044
3.425 -0.085000001 -0.55699998 150 0 0 0 0.044009998
3.424 -0.086999997 -0.56800002 150 0 0 0 0.044020001
3.4260001 -0.088 -0.579 150 0 0 0 0.04403
3.4260001 -0.089000002 -0.58999997 150 0 0 0 0.044039998
3.424 -0.090000004 -0.60100001 150 0 0 0 0.044050001
3.4260001 -0.090999998 -0.61299998 150 0 0 0 0.044059999
3.4200001 -0.092 -0.62300003 150 0 0 0 0.044070002
3.4219999 -0.093000002 -0.63499999 150 0 0 0 0.04408
3.4230001 -0.093999997 -0.64600003 150 0 0 0 0.044089999
3.421 -0.094999999 -0.65700001 150 0 0 0 0.044100001
3.421 -0.096000001 -0.66799998 150 0 0 0 0.04411
3.4189999 -0.097000003 -0.67900002 150 0 0 0 0.044119999
3.425 -0.097999997 -0.69199997 150 0 0 0 0.044130001
3.425 -0.098999999 -0.70300001 150 0 0 0 0.04414
3.421 -0.1 -0.71399999 150 0 0 0 0.044149999
3.4200001 -0.101 -0.72500002 150 0 0 0 0.044160001
3.418 -0.101 -0.73500001 150 0 0 0 0.04417
3.415 -0.102 -0.74599999 150 0 0 0 0.044179998
3.4200001 -0.103 -0.759 150 0 0 0 0.044190001
3.4219999 -0.104 -0.76999998 150 0 0 0 0.044199999
3.425 -0.105 -0.78200001 150 0 0 0 0.044210002
3.4230001 -0.105 -0.79400003 150 0 0 0 0.044220001
3.421 -0.106 -0.80400002 150 0 0 0 0.044229999
3.418 -0.107 -0.815 150 0 0 0 0.044240002
3.425 -0.107 -0.82800001 150 0 0 0 0.04425
3.421 -0.108 -0.83899999 54 0 0 0 0.044259999
3.405 -0.108 -0.84600002 22 0 0 0 0.044270001
3.3599999 -0.107 -0.84600002 20 0 0 0 0.04428
3.322 -0.106 -0.84799999 25 0 0 0 0.044289999
3.2820001 -0.106 -0.84799999 27 0 0 0 0.044300001
3.2420001 -0.105 -0.84899998 27 0 0 0 0.04431
3.1989999 -0.104 -0.84799999 26 0 0 0 0.044319998
3.164 -0.103 -0.85000002 26 0 0 0 0.044330001
3.1300001 -0.102 -0.85100001 27 0 0 0 0.04434
3.0899999 -0.101 -0.85100001 26 0 0 0 0.044349998
3.049 -0.1 -0.85000002 26 0 0 0 0.044360001
3.0009999 -0.098999999 -0.84600002 26 0 0 0 0.044369999
2.9660001 -0.097999997 -0.847 25 0 0 0 0.044380002
2.921 -0.097000003 -0.84399998 24 0 0 0 0.04439
2.8859999 -0.096000001 -0.84299999 24 0 0 0 0.044399999
2.8499999 -0.094999999 -0.84200001 22 0 0 0 0.044410001
2.812 -0.093000002 -0.84100002 22 0 0 0 0.04442
2.7839999 -0.093000002 -0.84200001 23 0 0 0 0.044429999
2.7539999 -0.092 -0.84200001 25 0 0 0 0.044440001
2.723 -0.090999998 -0.84200001 26 0 0 0 0.04445
2.6900001 -0.090000004 -0.84100002 26 0 0 0 0.044459999
2.6559999 -0.088 -0.83899999 26 0 0 0 0.044470001
2.6289999 -0.086999997 -0.83899999 25 0 0 0 0.04448
2.5999999 -0.086000003 -0.83899999 25 0 0 0 0.044489998
2.5739999 -0.086000003 -0.83899999 25 0 0 0 0.044500001
2.539 -0.083999999 -0.83600003 25 0 0 0 0.044509999
2.513 -0.082999997 -0.83600003 25 0 0 0 0.044520002
2.4909999 -0.082000002 -0.83700001 23 0 0 0 0.044530001
2.4630001 -0.081 -0.83600003 24 0 0 0 0.044539999
2.438 -0.079999998 -0.83600003 25 0 0 0 0.044550002
2.4119999 -0.079000004 -0.83499998 25 0 0 0 0.04456
2.392 -0.078000002 -0.83700001 24 0 0 0 0.044569999
2.365 -0.077 -0.83499998 25 0 0 0 0.044580001
2.3469999 -0.075999998 -0.83700001 25 0 0 0 0.04459
2.3210001 -0.075000003 -0.83600003 25 0 0 0 0.044599999
2.3010001 -0.074000001 -0.83600003 25 0 0 0 0.044610001
2.273 -0.072999999 -0.83399999 25 0 0 0 0.04462
2.257 -0.071999997 -0.83499998 25 0 0 0 0.044629999
2.2379999 -0.071000002 -0.83600003 25 0 0 0 0.044640001
2.2160001 -0.07 -0.83600003 24 0 0 0 0.04465
2.1900001 -0.068999998 -0.833 23 0 0 0 0.044659998
2.175 -0.068000004 -0.83499998 24 0 0 0 0.044670001
2.152 -0.067000002 -0.833 24 0 0 0 0.044679999
2.132 -0.064999998 -0.833 24 0 0 0 0.044690002
2.1159999 -0.064000003 -0.83399999 24 0 0 0 0.0447
2.0940001 -0.063000001 -0.83200002 24 0 0 0 0.044709999
2.075 -0.061999999 -0.83200002 24 0 0 0 0.044720002
2.059 -0.061000001 -0.83200002 24 0 0 0 0.04473
2.039 -0.059999999 -0.83099997 25 0 0 0 0.044739999
2.023 -0.059 -0.83200002 25 0 0 0 0.044750001
2.0109999 -0.057999998 -0.833 25 0 0 0 0.04476
1.9910001 -0.057 -0.83200002 26 0 0 0 0.044769999
1.969 -0.055 -0.82999998 25 0 0 0 0.044780001
1.9579999 -0.054000001 -0.83200002 25 0 0 0 0.04479
1.942 -0.052999999 -0.83200002 25 0 0 0 0.044799998
1.923 -0.052000001 -0.82999998 26 0 0 0 0.044810001
1.913 -0.050999999 -0.83200002 27 0 0 0 0.044819999
1.9 -0.050000001 -0.833 27 0 0 0 0.044829998
1.8839999 -0.048999999 -0.83200002 28 0 0 0 0.044840001
1.864 -0.046999998 -0.829 27 0 0 0 0.044849999
1.854 -0.046 -0.83099997 27 0 0 0 0.044860002
1.842 -0.045000002 -0.83200002 28 0 0 0 0.04487
1.825 -0.044 -0.83099997 28 0 0 0 0.044879999
1.808 -0.043000001 -0.829 38 0 0 0 0.044890001
1.7970001 -0.041999999 -0.82999998 30 0 0 0 0.0449
1.784 -0.039999999 -0.82999998 35 0 0 0 0.044909999
1.7690001 -0.039000001 -0.829 42 0 0 0 0.044920001
1.766 -0.037999999 -0.833 14 0 0 0 0.04493
1.7460001 -0.037 -0.82999998 45 0 0 0 0.044939999
1.735 -0.035999998 -0.82999998 44 0 0 0 0.044950001
1.728 -0.035 -0.833 14 0 0 0 0.04496
1.7130001 -0.033 -0.83099997 14 0 0 0 0.044969998
1.702 -0.032000002 -0.83099997 14 0 0 0 0.044980001
1.692 -0.030999999 -0.83200002 14 0 0 0 0.044989999
1.6799999 -0.029999999 -0.83099997 13 0 0 0 0.045000002
1.666 -0.028000001 -0.82999998 13 0 0 0 0.04501
1.656 -0.027000001 -0.83099997 14 0 0 0 0.045019999
1.647 -0.026000001 -0.83200002 14 0 0 0 0.045030002
1.636 -0.024 -0.83099997 14 0 0 0 0.04504
1.623 -0.023 -0.82999998 14 0 0 0 0.045049999
1.618 -0.022 -0.833 14 0 0 0 0.045060001
1.608 -0.021 -0.833 14 0 0 0 0.04507
1.594 -0.018999999 -0.83099997 14 0 0 0 0.045079999
1.586 -0.017999999 -0.83099997 13 0 0 0 0.045090001
1.576 -0.017000001 -0.83099997 14 0 0 0 0.0451
1.564 -0.015 -0.82999998 13 0 0 0 0.045109998
1.558 -0.014 -0.83200002 14 0 0 0 0.045120001
1.534 -0.013 -0.824 13 0 0 0 0.04513
1.53 -0.011 -0.82700002 13 0 0 0 0.045139998
1.524 -0.0099999998 -0.82800001 13 0 0 0 0.045150001
1.516 -0.0089999996 -0.82800001 13 0 0 0 0.045159999
1.508 -0.0070000002 -0.82800001 14 0 0 0 0.045170002
1.498 -0.0060000001 -0.82800001 13 0 0 0 0.04518
1.4910001 -0.0049999999 -0.82800001 13 0 0 0 0.045189999
1.483 -0.003 -0.82800001 13 0 0 0 0.045200001
1.474 -0.0020000001 -0.82800001 14 0 0 0 0.04521
1.466 -0.001 -0.82800001 13 0 0 0 0.045219999
1.456 0 -0.82700002 12 0 0 0 0.045230001
1.451 0.001 -0.82800001 12 0 0 0 0.04524
1.442 0.003 -0.82700002 13 0 0 0 0.045249999
1.433 0.0040000002 -0.82599998 14 0 0 0 0.045260001
1.426 0.0049999999 -0.82599998 14 0 0 0 0.04527
1.421 0.0070000002 -0.82700002 14 0 0 0 0.045279998
1.416 0.0080000004 -0.829 14 0 0 0 0.045290001
1.406 0.0099999998 -0.82700002 14 0 0 0 0.045299999
1.396 0.011 -0.82499999 14 0 0 0 0.045310002
1.392 0.012 -0.82700002 14 0 0 0 0.04532
1.385 0.014 -0.82599998 14 0 0 0 0.045329999
1.377 0.015 -0.82499999 14 0 0 0 0.045340002
1.374 0.017000001 -0.82700002 14 0 0 0 0.04535
1.365 0.017999999 -0.82499999 14 0 0 0 0.045359999
1.363 0.02 -0.82800001 14 0 0 0 0.045370001
1.354 0.021 -0.82599998 14 0 0 0 0.04538
1.347 0.023 -0.82499999 13 0 0 0 0.045389999
1.346 0.024 -0.82800001 14 0 0 0 0.045400001
1.339 0.025 -0.82700002 13 0 0 0 0.04541
1.331 0.027000001 -0.82599998 13 0 0 0 0.045419998
1.322 0.028000001 -0.82300001 13 0 0 0 0.045430001
1.318 0.029999999 -0.824 13 0 0 0 0.04544
1.316 0.030999999 -0.82599998 13 0 0 0 0.045449998
1.3099999 0.033 -0.82499999 13 0 0 0 0.045460001
1.308 0.035 -0.82800001 14 0 0 0 0.045469999
1.301 0.035999998 -0.82599998 14 0 0 0 0.045480002
1.2970001 0.037999999 -0.82599998 13 0 0 0 0.04549
1.293 0.039000001 -0.82700002 14 0 0 0 0.045499999
1.2869999 0.041000001 -0.82599998 14 0 0 0 0.045510001
1.286 0.041999999 -0.82800001 14 0 0 0 0.04552
1.28 0.044 -0.82700002 14 0 0 0 0.045529999
1.273 0.045000002 -0.82599998 13 0 0 0 0.045540001
1.272 0.046999998 -0.82700002 14 0 0 0 0.04555
1.268 0.048999999 -0.82800001 13 0 0 0 0.045559999
1.262 0.050000001 -0.82599998 14 0 0 0 0.045570001
1.261 0.052000001 -0.82800001 14 0 0 0 0.04558
1.2589999 0.052999999 -0.829 14 0 0 0 0.045589998
1.253 0.055 -0.82700002 14 0 0 0 0.045600001
1.249 0.056000002 -0.82700002 15 0 0 0 0.045609999
1.2460001 0.057999998 -0.82700002 15 0 0 0 0.045620002
1.244 0.059999999 -0.82800001 15 0 0 0 0.045630001
1.2410001 0.061000001 -0.82800001 15 0 0 0 0.045639999
1.24 0.063000001 -0.82999998 15 0 0 0 0.045650002
1.234 0.064000003 -0.82800001 15 0 0 0 0.04566
1.232 0.066 -0.829 15 0 0 0 0.045669999
1.229 0.068000004 -0.82800001 15 0 0 0 0.045680001
1.222 0.068999998 -0.82599998 16 0 0 0 0.04569
1.221 0.071000002 -0.82700002 16 0 0 0 0.045699999
1.22 0.071999997 -0.82800001 16 0 0 0 0.045710001
1.2180001 0.074000001 -0.82800001 16 0 0 0 0.04572
1.2130001 0.075999998 -0.82599998 16 0 0 0 0.045729998
1.2130001 0.077 -0.82800001 16 0 0 0 0.045740001
1.21 0.079000004 -0.82700002 15 0 0 0 0.04575
1.21 0.081 -0.829 15 0 0 0 0.045759998
1.207 0.082000002 -0.82800001 15 0 0 0 0.045770001
1.202 0.083999999 -0.82599998 16 0 0 0 0.045779999
1.201 0.085000001 -0.82599998 15 0 0 0 0.045790002
1.2029999 0.086999997 -0.829 15 0 0 0 0.0458
1.205 0.089000002 -0.83099997 13 0 0 0 0.045809999
1.2029999 0.090999998 -0.83099997 11 0 0 0 0.045820002
1.206 0.093000002 -0.83399999 10 0 0 0 0.04583
1.204 0.094999999 -0.83399999 9 0 0 0 0.045839999
1.199 0.096000001 -0.83099997 9 0 0 0 0.045850001
1.202 0.097999997 -0.83399999 10 0 0 0 0.04586
1.201 0.1 -0.83399999 11 0 0 0 0.045869999
1.1950001 0.101 -0.83099997 12 0 0 0 0.045880001
1.192 0.103 -0.829 15 0 0 0 0.04589
1.189 0.104 -0.82700002 16 0 0 0 0.045899998
1.188 0.106 -0.82700002 17 0 0 0 0.045910001
1.192 0.108 -0.83099997 17 0 0 0 0.045919999
1.1900001 0.109 -0.829 17 0 0 0 0.045929998
1.184 0.111 -0.82499999 18 0 0 0 0.045940001
1.184 0.112 -0.82499999 17 0 0 0 0.045949999
1.183 0.114 -0.82499999 18 0 0 0 0.045960002
1.187 0.116 -0.82800001 16 0 0 0 0.04597
1.186 0.118 -0.82700002 16 0 0 0 0.045979999
1.183 0.119 -0.82499999 17 0 0 0 0.045990001
1.186 0.121 -0.82700002 17 0 0 0 0.046
1.189 0.123 -0.829 17 0 0 0 0.046009999
1.189 0.125 -0.82800001 17 0 0 0 0.046020001
1.1900001 0.127 -0.829 17 0 0 0 0.04603
1.1900001 0.12800001 -0.829 17 0 0 0 0.046039999
1.187 0.12899999 -0.82599998 16 0 0 0 0.046050001
1.192 0.132 -0.829 17 0 0 0 0.04606
1.192 0.133 -0.82800001 17 0 0 0 0.046069998
1.191 0.13500001 -0.82700002 17 0 0 0 0.046080001
1.1950001 0.13699999 -0.829 17 0 0 0 0.046089999
1.196 0.138 -0.829 17 0 0 0 0.046100002
1.1950001 0.14 -0.82700002 17 0 0 0 0.04611
1.196 0.142 -0.82700002 17 0 0 0 0.046119999
1.198 0.14300001 -0.82800001 16 0 0 0 0.046130002
1.198 0.145 -0.82700002 16 0 0 0 0.04614
1.2029999 0.147 -0.829 16 0 0 0 0.046149999
1.2029999 0.149 -0.82700002 17 0 0 0 0.046160001
1.2029999 0.15000001 -0.82599998 17 0 0 0 0.04617
1.207 0.152 -0.82800001 17 0 0 0 0.046179999
1.209 0.154 -0.82800001 17 0 0 0 0.046190001
1.209 0.155 -0.82700002 17 0 0 0 0.0462
1.2130001 0.15700001 -0.82700002 17 0 0 0 0.046209998
1.219 0.15899999 -0.82999998 16 0 0 0 0.046220001
1.22 0.161 -0.829 16 0 0 0 0.04623
1.221 0.162 -0.82800001 16 0 0 0 0.046239998
1.228 0.16500001 -0.83099997 16 0 0 0 0.046250001
1.226 0.16599999 -0.82800001 16 0 0 0 0.046259999
1.227 0.167 -0.82700002 16 0 0 0 0.046270002
1.234 0.169 -0.829 16 0 0 0 0.04628
1.239 0.17200001 -0.83099997 16 0 0 0 0.046289999
1.24 0.17299999 -0.82999998 16 0 0 0 0.046300001
1.244 0.175 -0.82999998 16 0 0 0 0.04631
1.248 0.176 -0.82999998 16 0 0 0 0.046319999
1.253 0.178 -0.83200002 16 0 0 0 0.046330001
1.255 0.18000001 -0.82999998 16 0 0 0 0.04634
1.258 0.182 -0.82999998 1 0 0 0 0.046349999
1.2589999 0.183 -0.829 15 0 0 0 0.046360001
1.268 0.185 -0.83200002 16 0 0 0 0.04637
1.2690001 0.186 -0.82999998 16 0 0 0 0.046379998
1.272 0.18799999 -0.82999998 16 0 0 0 0.046390001
1.277 0.19 -0.82999998 16 0 0 0 0.046399999
1.283 0.192 -0.83099997 16 0 0 0 0.046410002
1.2869999 0.193 -0.83099997 16 0 0 0 0.04642
1.288 0.19499999 -0.829 16 0 0 0 0.046429999
1.293 0.19599999 -0.829 16 0 0 0 0.046440002
1.298 0.198 -0.829 15 0 0 0 0.04645
1.303 0.2 -0.829 16 0 0 0 0.046459999
1.306 0.20100001 -0.82800001 16 0 0 0 0.046470001
1.319 0.204 -0.833 16 0 0 0 0.04648
1.3200001 0.205 -0.83099997 15 0 0 0 0.046489999
1.325 0.207 -0.83099997 15 0 0 0 0.046500001
1.3329999 0.20900001 -0.83200002 16 0 0 0 0.04651
1.335 0.20999999 -0.82999998 15 0 0 0 0.046519998
1.342 0.212 -0.83200002 15 0 0 0 0.046530001
1.348 0.213 -0.83200002 15 0 0 0 0.04654
1.355 0.215 -0.833 16 0 0 0 0.046549998
1.359 0.21699999 -0.83200002 15 0 0 0 0.046560001
1.365 0.21799999 -0.83099997 15 0 0 0 0.046569999
1.372 0.22 -0.83200002 15 0 0 0 0.046580002
1.383 0.222 -0.83499998 15 0 0 0 0.04659
1.388 0.22400001 -0.83399999 16 0 0 0 0.046599999
1.395 0.22499999 -0.83399999 15 0 0 0 0.046610001
1.399 0.227 -0.833 15 0 0 0 0.04662
1.41 0.229 -0.83499998 15 0 0 0 0.046629999
1.414 0.23 -0.83399999 15 0 0 0 0.046640001
1.421 0.23199999 -0.83399999 14 0 0 0 0.04665
1.428 0.233 -0.83399999 13 0 0 0 0.046659999
1.4400001 0.236 -0.83700001 13 0 0 0 0.046670001
1.446 0.237 -0.83600003 13 0 0 0 0.04668
1.449 0.23800001 -0.833 15 0 0 0 0.046689998
1.462 0.23999999 -0.83600003 14 0 0 0 0.046700001
1.466 0.241 -0.83499998 15 0 0 0 0.046709999
1.476 0.243 -0.83600003 15 0 0 0 0.046720002
1.482 0.244 -0.83499998 15 0 0 0 0.046730001
1.492 0.24600001 -0.83499998 14 0 0 0 0.046739999
1.499 0.248 -0.83499998 14 0 0 0 0.046750002
1.506 0.249 -0.83399999 14 0 0 0 0.04676
1.5190001 0.25099999 -0.83700001 15 0 0 0 0.046769999
1.526 0.25299999 -0.83600003 15 0 0 0 0.046780001
1.543 0.25600001 -0.83999997 15 0 0 0 0.04679
1.553 0.257 -0.84100002 15 0 0 0 0.046799999
1.563 0.259 -0.84200001 15 0 0 0 0.046810001
1.574 0.26100001 -0.84299999 15 0 0 0 0.04682
1.58 0.26199999 -0.84100002 15 0 0 0 0.046829998
1.587 0.26300001 -0.83899999 15 0 0 0 0.046840001
1.6 0.26499999 -0.84100002 15 0 0 0 0.04685
1.614 0.26699999 -0.84299999 15 0 0 0 0.046859998
1.609 0.266 -0.83600003 64 0 0 0 0.046870001
1.622 0.26800001 -0.83700001 61 0 0 0 0.046879999
1.631 0.26899999 -0.83600003 58 0 0 0 0.046890002
1.638 0.27000001 -0.83499998 58 0 0 0 0.0469
1.652 0.27200001 -0.83600003 55 0 0 0 0.046909999
1.6670001 0.27500001 -0.83899999 55 0 0 0 0.046920002
1.678 0.27599999 -0.83899999 55 0 0 0 0.04693
1.686 0.27700001 -0.838 53 0 0 0 0.046939999
1.702 0.27900001 -0.83999997 53 0 0 0 0.046950001
1.717 0.28099999 -0.84100002 15 0 0 0 0.04696
1.722 0.28200001 -0.838 52 0 0 0 0.046969999
1.737 0.28400001 -0.83999997 15 0 0 0 0.046980001
1.751 0.285 -0.84100002 15 0 0 0 0.04699
1.765 0.287 -0.84200001 15 0 0 0 0.046999998
1.78 0.289 -0.84299999 15 0 0 0 0.047010001
1.7920001 0.28999999 -0.84200001 15 0 0 0 0.047019999
1.8049999 0.292 -0.84299999 15 0 0 0 0.047029998
1.818 0.29300001 -0.84299999 16 0 0 0 0.047040001
1.829 0.294 -0.84200001 16 0 0 0 0.047049999
1.847 0.296 -0.84399998 16 0 0 0 0.047060002
1.85 0.296 -0.83899999 42 0 0 0 0.04707
1.87 0.29800001 -0.84200001 43 0 0 0 0.047079999
1.88 0.29899999 -0.83999997 40 0 0 0 0.047090001
1.897 0.301 -0.84200001 41 0 0 0 0.0471
1.906 0.301 -0.83899999 41 0 0 0 0.047109999
1.923 0.303 -0.83999997 40 0 0 0 0.047120001
1.939 0.30500001 -0.83999997 41 0 0 0 0.04713
1.957 0.30599999 -0.84200001 40 0 0 0 0.047139999
1.969 0.30700001 -0.84100002 40 0 0 0 0.047150001
1.99 0.31 -0.84299999 41 0 0 0 0.04716
2.0020001 0.31 -0.84100002 42 0 0 0 0.047169998
2.02 0.31200001 -0.84200001 41 0 0 0 0.047180001
2.0350001 0.31299999 -0.84100002 34 0 0 0 0.047189999
2.0510001 0.31400001 -0.84100002 35 0 0 0 0.047200002
2.0699999 0.31600001 -0.84200001 35 0 0 0 0.04721
2.089 0.317 -0.84200001 33 0 0 0 0.047219999
2.1140001 0.31999999 -0.84600002 32 0 0 0 0.047230002
2.128 0.31999999 -0.84399998 33 0 0 0 0.04724
2.142 0.32100001 -0.84299999 34 0 0 0 0.047249999
2.1619999 0.32300001 -0.84299999 35 0 0 0 0.047260001
2.1830001 0.324 -0.84399998 34 0 0 0 0.04727
2.2060001 0.32600001 -0.84600002 35 0 0 0 0.047279999
2.223 0.32699999 -0.84500003 35 0 0 0 0.047290001
2.25 0.329 -0.847 35 0 0 0 0.0473
2.2620001 0.33000001 -0.84399998 33 0 0 0 0.047309998
2.2880001 0.33199999 -0.84600002 35 0 0 0 0.047320001
2.309 0.333 -0.84600002 34 0 0 0 0.04733
2.3299999 0.33399999 -0.84600002 34 0 0 0 0.047339998
2.352 0.336 -0.84600002 34 0 0 0 0.047350001
2.3740001 0.33700001 -0.84600002 34 0 0 0 0.047359999
2.391 0.33700001 -0.84500003 34 0 0 0 0.047370002
2.4200001 0.33899999 -0.847 34 0 0 0 0.04738
2.4419999 0.34 -0.847 35 0 0 0 0.047389999
2.4619999 0.34099999 -0.84500003 37 0 0 0 0.047400001
2.4879999 0.34299999 -0.84600002 36 0 0 0 0.04741
2.5209999 0.345 -0.84899998 35 0 0 0 0.047419999
2.543 0.34599999 -0.84799999 36 0 0 0 0.047430001
2.573 0.34799999 -0.84899998 35 0 0 0 0.04744
2.5969999 0.34900001 -0.84899998 36 0 0 0 0.047449999
2.628 0.34999999 -0.85000002 37 0 0 0 0.047460001
2.654 0.352 -0.85000002 37 0 0 0 0.04747
2.6949999 0.354 -0.85399997 40 0 0 0 0.047479998
2.714 0.354 -0.85100001 37 0 0 0 0.047490001
2.7420001 0.35600001 -0.85100001 36 0 0 0 0.047499999
2.776 0.35699999 -0.85299999 37 0 0 0 0.047510002
2.803 0.35800001 -0.852 39 0 0 0 0.04752
2.8299999 0.359 -0.85100001 39 0 0 0 0.047529999
2.865 0.361 -0.852 36 0 0 0 0.047540002
2.9070001 0.36300001 -0.85500002 36 0 0 0 0.04755
2.944 0.36500001 -0.85600001 37 0 0 0 0.047559999
2.9820001 0.366 -0.85799998 35 0 0 0 0.047570001
3.029 0.36899999 -0.861 36 0 0 0 0.04758
3.062 0.37 -0.861 37 0 0 0 0.047589999
3.0940001 0.37099999 -0.86000001 37 0 0 0 0.047600001
3.1259999 0.37200001 -0.85900003 36 0 0 0 0.04761
3.1559999 0.37200001 -0.85699999 35 0 0 0 0.047619998
3.1900001 0.373 -0.85600001 36 0 0 0 0.047630001
3.2390001 0.375 -0.85900003 36 0 0 0 0.04764
3.28 0.37599999 -0.85900003 32 0 0 0 0.047649998
3.3169999 0.377 -0.85799998 32 0 0 0 0.047660001
3.3510001 0.377 -0.85699999 33 0 0 0 0.047669999
3.3859999 0.37799999 -0.85500002 52 0 0 0 0.047680002
3.385 0.37400001 -0.84399998 150 0 0 0 0.04769
3.3859999 0.37 -0.833 152 0 0 0 0.047699999
3.385 0.366 -0.82200003 151 0 0 0 0.047710001
3.385 0.36300001 -0.81099999 151 0 0 0 0.04772
3.3840001 0.359 -0.801 151 0 0 0 0.047729999
3.3870001 0.35499999 -0.79100001 151 0 0 0 0.047740001
3.3829999 0.35100001 -0.77899998 151 0 0 0 0.04775
3.392 0.34799999 -0.76999998 151 0 0 0 0.047759999
3.3940001 0.34400001 -0.75999999 151 0 0 0 0.047770001
3.3900001 0.34 -0.74800003 151 0 0 0 0.04778
3.3889999 0.336 -0.73799998 151 0 0 0 0.047789998
3.3889999 0.33199999 -0.727 151 0 0 0 0.047800001
3.395 0.329 -0.71799999 151 0 0 0 0.047809999
3.392 0.32499999 -0.70599997 151 0 0 0 0.047820002
3.391 0.31999999 -0.69599998 151 0 0 0 0.047830001
3.395 0.317 -0.68599999 151 0 0 0 0.047839999
3.3940001 0.31299999 -0.67500001 151 0 0 0 0.047850002
3.3940001 0.30899999 -0.66500002 151 0 0 0 0.04786
3.395 0.30500001 -0.65399998 151 0 0 0 0.047869999
3.3940001 0.30000001 -0.64399999 151 0 0 0 0.047880001
3.3929999 0.296 -0.63300002 151 0 0 0 0.04789
3.3989999 0.292 -0.62400001 151 0 0 0 0.047899999
3.398 0.28799999 -0.61299998 151 0 0 0 0.047910001
3.395 0.28400001 -0.602 151 0 0 0 0.04792
3.3970001 0.28 -0.59200001 151 0 0 0 0.047929998
3.3989999 0.27599999 -0.58200002 151 0 0 0 0.047940001
3.3989999 0.271 -0.57200003 151 0 0 0 0.04795
3.402 0.26699999 -0.56199998 151 0 0 0 0.047959998
3.395 0.26300001 -0.55000001 151 0 0 0 0.047970001
3.3970001 0.25799999 -0.54000002 151 0 0 0 0.047979999
3.3989999 0.25400001 -0.52999997 151 0 0 0 0.047990002
3.398 0.25 -0.51999998 151 0 0 0 0.048
3.405 0.24600001 -0.50999999 151 0 0 0 0.048009999
3.3989999 0.241 -0.49900001 151 0 0 0 0.048020002
3.4030001 0.237 -0.48899999 151 0 0 0 0.04803
3.4000001 0.23199999 -0.479 151 0 0 0 0.048039999
3.405 0.228 -0.46900001 151 0 0 0 0.048050001
3.401 0.22400001 -0.458 151 0 0 0 0.04806
3.4030001 0.219 -0.44800001 151 0 0 0 0.048069999
3.404 0.215 -0.43799999 151 0 0 0 0.048080001
3.401 0.20999999 -0.428 151 0 0 0 0.04809
3.4030001 0.206 -0.41800001 151 0 0 0 0.048099998
3.4030001 0.20100001 -0.40799999 151 0 0 0 0.048110001
3.405 0.197 -0.398 151 0 0 0 0.048119999
3.4059999 0.192 -0.38800001 151 0 0 0 0.048129998
3.4070001 0.18799999 -0.37799999 151 0 0 0 0.048140001
3.4100001 0.183 -0.368 151 0 0 0 0.048149999
3.4059999 0.178 -0.35699999 151 0 0 0 0.048160002
3.405 0.17399999 -0.347 151 0 0 0 0.04817
3.4059999 0.169 -0.33700001 151 0 0 0 0.048179999
3.408 0.164 -0.32699999 151 0 0 0 0.048190001
3.4070001 0.16 -0.317 152 0 0 0 0.0482
3.408 0.155 -0.30700001 152 0 0 0 0.048209999
3.405 0.15000001 -0.29699999 152 0 0 0 0.048220001
3.4089999 0.146 -0.287 152 0 0 0 0.04823
3.4089999 0.141 -0.27700001 152 0 0 0 0.048239999
3.4100001 0.13600001 -0.26699999 152 0 0 0 0.048250001
3.408 0.131 -0.257 152 0 0 0 0.04826
3.4130001 0.127 -0.24699999 152 0 0 0 0.048269998
3.4159999 0.122 -0.237 152 0 0 0 0.048280001
3.4170001 0.117 -0.228 152 0 0 0 0.048289999
3.415 0.112 -0.21699999 152 0 0 0 0.048300002
3.4089999 0.107 -0.207 152 0 0 0 0.04831
3.4159999 0.102 -0.198 152 0 0 0 0.048319999
3.4089999 0.097000003 -0.18700001 153 0 0 0 0.048330002
3.4100001 0.092 -0.178 153 0 0 0 0.04834
3.4130001 0.086999997 -0.168 153 0 0 0 0.048349999
3.4030001 0.082000002 -0.15700001 153 0 0 0 0.048360001
3.408 0.077 -0.148 153 0 0 0 0.04837
3.404 0.071999997 -0.138 153 0 0 0 0.048379999
3.4089999 0.067000002 -0.12800001 153 0 0 0 0.048390001
3.402 0.061999999 -0.118 153 0 0 0 0.0484
3.4100001 0.057 -0.108 153 0 0 0 0.048409998
3.4059999 0.052000001 -0.098999999 153 0 0 0 0.048420001
3.411 0.046999998 -0.089000002 153 0 0 0 0.04843
3.411 0.041999999 -0.079000004 153 0 0 0 0.048439998
3.418 0.037 -0.068999998 153 0 0 0 0.048450001
3.4230001 0.032000002 -0.059999999 152 0 0 0 0.048459999
3.4230001 0.027000001 -0.050000001 152 0 0 0 0.048470002
3.4230001 0.022 -0.039999999 152 0 0 0 0.04848
3.4219999 0.017000001 -0.029999999 152 0 0 0 0.048489999
3.4219999 0.011 -0.021 152 0 0 0 0.048500001
3.4219999 0.0060000001 -0.011 152 0 0 0 0.04851
3.4219999 0.001 -0.001 152 0 0 0 0.048519999
3.424 -0.003 0.0080000004 152 0 0 0 0.048530001
3.425 -0.0089999996 0.017999999 151 0 0 0 0.04854
3.425 -0.014 0.027000001 151 0 0 0 0.048549999
3.425 -0.018999999 0.037 151 0 0 0 0.048560001
3.425 -0.025 0.046999998 151 0 0 0 0.04857
3.425 -0.029999999 0.056000002 151 0 0 0 0.048579998
3.4260001 -0.035 0.066 151 0 0 0 0.048590001
3.4260001 -0.041000001 0.075999998 151 0 0 0 0.048599999
3.4260001 -0.046 0.086000003 151 0 0 0 0.048610002
3.425 -0.052000001 0.094999999 151 0 0 0 0.04862
3.427 -0.057 0.105 151 0 0 0 0.048629999
3.4300001 -0.063000001 0.115 151 0 0 0 0.048640002
3.4319999 -0.068000004 0.124 151 0 0 0 0.04865
3.4300001 -0.072999999 0.134 151 0 0 0 0.048659999
3.431 -0.079000004 0.14399999 151 0 0 0 0.048670001
3.4300001 -0.085000001 0.153 151 0 0 0 0.04868
3.434 -0.090000004 0.163 151 0 0 0 0.048689999
3.4289999 -0.096000001 0.17299999 151 0 0 0 0.048700001
3.4349999 -0.101 0.183 151 0 0 0 0.04871
3.4319999 -0.107 0.192 151 0 0 0 0.048719998
3.434 -0.113 0.20200001 151 0 0 0 0.048730001
3.4360001 -0.118 0.212 151 0 0 0 0.04874
3.437 -0.124 0.221 151 0 0 0 0.048749998
3.437 -0.13 0.23100001 151 0 0 0 0.048760001
3.438 -0.13500001 0.241 151 0 0 0 0.048769999
3.4349999 -0.141 0.25 151 0 0 0 0.048780002
3.4349999 -0.147 0.25999999 151 0 0 0 0.04879
3.4360001 -0.152 0.26899999 151 0 0 0 0.048799999
3.438 -0.15800001 0.27900001 151 0 0 0 0.048810001
3.4389999 -0.164 0.289 152 0 0 0 0.04882
3.434 -0.17 0.29800001 151 0 0 0 0.048829999
3.3870001 -0.17299999 0.303 150 0 0 0 0.048840001
3.375 -0.178 0.31099999 151 0 0 0 0.04885
3.3740001 -0.184 0.32100001 151 0 0 0 0.048859999
3.3759999 -0.19 0.33000001 151 0 0 0 0.048870001
3.3770001 -0.19599999 0.34 151 0 0 0 0.04888
3.3659999 -0.20100001 0.34799999 150 0 0 0 0.048889998
3.3469999 -0.206 0.35499999 150 0 0 0 0.048900001
3.3429999 -0.211 0.36399999 151 0 0 0 0.048909999
3.345 -0.21699999 0.373 151 0 0 0 0.048920002
3.346 -0.223 0.38299999 151 0 0 0 0.048930001
3.352 -0.23 0.39300001 151 0 0 0 0.048939999
3.348 -0.235 0.40200001 151 0 0 0 0.048950002
3.3499999 -0.241 0.41100001 151 0 0 0 0.04896
3.348 -0.24699999 0.41999999 150 0 0 0 0.048969999
3.3340001 -0.252 0.428 39 0 0 0 0.048980001
3.256 -0.252 0.426 45 0 0 0 0.04899
3.2379999 -0.25600001 0.433 150 0 0 0 0.048999999
3.2360001 -0.26199999 0.442 151 0 0 0 0.049010001
3.2360001 -0.26800001 0.45100001 151 0 0 0 0.04902
3.2360001 -0.27399999 0.45899999 151 0 0 0 0.049029998
3.234 -0.27900001 0.46799999 151 0 0 0 0.049040001
3.2409999 -0.28600001 0.47799999 151 0 0 0 0.04905
3.2360001 -0.292 0.486 151 0 0 0 0.049059998
3.24 -0.29800001 0.495 151 0 0 0 0.049070001
3.24 -0.30399999 0.50400001 151 0 0 0 0.049079999
3.224 -0.308 0.51099998 150 0 0 0 0.049090002
3.2149999 -0.31299999 0.51800001 150 0 0 0 0.0491
3.2149999 -0.31900001 0.52700001 151 0 0 0 0.049109999
3.2130001 -0.32499999 0.53500003 150 0 0 0 0.049120001
3.2160001 -0.33199999 0.54400003 151 0 0 0 0.04913
3.2190001 -0.338 0.55400002 151 0 0 0 0.049139999
3.2179999 -0.34400001 0.56199998 151 0 0 0 0.049150001
3.2160001 -0.34999999 0.57099998 150 0 0 0 0.04916
3.214 -0.35600001 0.579 151 0 0 0 0.049169999
3.0439999 -0.34299999 0.55699998 151 0 0 0 0.049180001
2.8789999 -0.33000001 0.53399998 150 0 0 0 0.04919
2.619 -0.30500001 0.493 32 0 0 0 0.049199998
2.559 -0.303 0.48899999 28 0 0 0 0.049210001
2.5220001 -0.303 0.48800001 27 0 0 0 0.049219999
2.4879999 -0.30399999 0.48800001 23 0 0 0 0.049229998
2.4489999 -0.30399999 0.48699999 19 0 0 0 0.049240001
2.4059999 -0.30399999 0.48500001 19 0 0 0 0.049249999
2.3900001 -0.30599999 0.48899999 30 0 0 0 0.049260002
2.3859999 -0.31099999 0.49399999 20 0 0 0 0.04927
2.398 -0.317 0.50300002 1 0 0 0 0.049279999
2.4089999 -0.32300001 0.51200002 0 0 0 0 0.049290001
0 0 0 0 0 0 0 0.0493
0 0 0 0 0 0 0 0.049309999
0 0 0 0 0 0 0 0.049320001
0 0 0 0 0 0 0 0.04933
0 0 0 0 0 0 0 0.049339999
0 0 0 0 0 0 0 0.049350001
0 0 0 0 0 0 0 0.04936
0 0 0 0 0 0 0 0.049369998
0 0 0 0 0 0 0 0.049380001
0 0 0 0 0 0 0 0.049389999
0 0 0 0 0 0 0 0.049400002
0 0 0 0 0 0 0 0.04941
0 0 0 0 0 0 0 0.049419999
0 0 0 0 0 0 0 0.049430002
0 0 0 0 0 0 0 0.04944
0 0 0 0 0 0 0 0.049449999
0 0 0 0 0 0 0 0.049460001
0 0 0 0 0 0 0 0.04947
0 0 0 0 0 0 0 0.049479999
0 0 0 0 0 0 0 0.049490001
0 0 0 0 0 0 0 0.0495
0 0 0 0 0 0 0 0.049509998
0 0 0 0 0 0 0 0.049520001
0 0 0 0 0 0 0 0.049529999
0 0 0 0 0 0 0 0.049539998
0 0 0 0 0 0 0 0.049550001
0 0 0 0 0 0 0 0.049559999
0 0 0 0 0 0 0 0.049570002
0 0 0 0 0 0 0 0.04958
0 0 0 0 0 0 0 0.049589999
0 0 0 0 0 0 0 0.049600001
0 0 0 0 0 0 0 0.04961
0 0 0 0 0 0 0 0.049619999
2.434 -0.50400001 0.73400003 0 0 0 0 0.049630001
0 0 0 0 0 0 0 0.04964
2.461 -0.52100003 0.75400001 0 0 0 0 0.049649999
2.45 -0.52399999 0.75700003 0 0 0 0 0.049660001
0 0 0 0 0 0 0 0.04967
0 0 0 0 0 0 0 0.049679998
0 0 0 0 0 0 0 0.049690001
0 0 0 0 0 0 0 0.049699999
0 0 0 0 0 0 0 0.049710002
0 0 0 0 0 0 0 0.04972
2.365 -0.54500002 0.77200001 0 0 0 0 0.049729999
0 0 0 0 0 0 0 0.049740002
2.3929999 -0.56300002 0.79299998 0 0 0 0 0.04975
2.3970001 -0.56900001 0.80000001 0 0 0 0 0.049759999
0 0 0 0 0 0 0 0.049770001
0 0 0 0 0 0 0 0.04978
0 0 0 0 0 0 0 0.049789999
0 0 0 0 0 0 0 0.049800001
0 0 0 0 0 0 0 0.04981
0 0 0 0 0 0 0 0.049819998
0 0 0 0 0 0 0 0.049830001
0 0 0 0 0 0 0 0.04984
0 0 0 0 0 0 0 0.049849998
2.823 -0.73900002 1.01 0 0 0 0 0.049860001
0 0 0 0 0 0 0 0.049869999
0 0 0 0 0 0 0 0.049880002
0 0 0 0 0 0 0 0.04989
0 0 0 0 0 0 0 0.049899999
0 0 0 0 0 0 0 0.049910001
0 0 0 0 0 0 0 0.04992
0 0 0 0 0 0 0 0.049929999
0 0 0 0 0 0 0 0.049940001
2.7980001 -0.79500002 1.058 0 0 0 0 0.04995
4.2199998 -1.211 1.6059999 35 0 0 0 0.049959999
0 0 0 0 0 0 0 0.049970001
4.1799998 -1.221 1.609 37 0 0 0 0.04998
4.1539998 -1.224 1.608 37 0 0 0 0.049989998
4.1279998 -1.227 1.607 35 0 0 0 0.050000001
4.105 -1.23 1.607 37 0 0 0 0.050009999
4.0879998 -1.2359999 1.609 39 0 0 0 0.050020002
4.0669999 -1.24 1.61 40 0 0 0 0.050030001
4.046 -1.244 1.61 41 0 0 0 0.050039999
4.026 -1.248 1.61 39 0 0 0 0.050050002
3.994 -1.249 1.6059999 37 0 0 0 0.05006
3.9790001 -1.2539999 1.608 37 0 0 0 0.050069999
3.964 -1.26 1.61 39 0 0 0 0.050080001
3.9460001 -1.2640001 1.6109999 41 0 0 0 0.05009
3.927 -1.2690001 1.6109999 39 0 0 0 0.050099999
3.911 -1.274 1.612 41 0 0 0 0.050110001
3.8900001 -1.277 1.6109999 41 0 0 0 0.05012
3.878 -1.283 1.614 43 0 0 0 0.050129998
3.858 -1.2869999 1.613 40 0 0 0 0.050140001
3.8429999 -1.2920001 1.614 40 0 0 0 0.05015
3.8239999 -1.296 1.613 37 0 0 0 0.050159998
3.8050001 -1.299 1.612 38 0 0 0 0.050170001
3.7909999 -1.304 1.613 39 0 0 0 0.050179999
3.779 -1.3099999 1.615 40 0 0 0 0.050190002
3.763 -1.3150001 1.615 38 0 0 0 0.0502
3.7420001 -1.317 1.613 38 0 0 0 0.050209999
3.7279999 -1.322 1.614 40 0 0 0 0.050220001
3.717 -1.327 1.615 38 0 0 0 0.05023
3.7019999 -1.332 1.615 37 0 0 0 0.050239999
3.688 -1.337 1.615 38 0 0 0 0.050250001
3.671 -1.34 1.614 39 0 0 0 0.05026
3.6619999 -1.347 1.6160001 41 0 0 0 0.050269999
3.6459999 -1.35 1.615 39 0 0 0 0.050280001
3.638 -1.357 1.617 42 0 0 0 0.05029
3.6229999 -1.3609999 1.6160001 45 0 0 0 0.050299998
3.6129999 -1.3660001 1.617 42 0 0 0 0.050310001
3.6029999 -1.372 1.619 41 0 0 0 0.050319999
3.589 -1.376 1.618 40 0 0 0 0.050330002
3.579 -1.382 1.619 38 0 0 0 0.050340001
3.5739999 -1.3890001 1.6210001 40 0 0 0 0.050349999
3.5610001 -1.393 1.6210001 38 0 0 0 0.050360002
3.5569999 -1.401 1.624 38 0 0 0 0.05037
3.543 -1.405 1.622 43 0 0 0 0.050379999
3.529 -1.408 1.62 50 0 0 0 0.050390001
3.516 -1.4119999 1.619 46 0 0 0 0.0504
3.5109999 -1.419 1.6210001 51 0 0 0 0.050409999
3.4849999 -1.4170001 1.613 42 0 0 0 0.050420001
3.474 -1.4220001 1.613 35 0 0 0 0.05043
3.457 -1.424 1.609 27 0 0 0 0.050439999
3.4419999 -1.426 1.6059999 24 0 0 0 0.050450001
3.424 -1.427 1.601 21 0 0 0 0.05046
3.4089999 -1.4299999 1.598 22 0 0 0 0.050469998
3.3870001 -1.429 1.592 21 0 0 0 0.050480001
3.3789999 -1.434 1.591 22 0 0 0 0.050489999
3.3570001 -1.433 1.584 21 0 0 0 0.050500002
3.3429999 -1.4349999 1.58 21 0 0 0 0.05051
3.322 -1.434 1.574 21 0 0 0 0.050519999
3.309 -1.436 1.571 21 0 0 0 0.050530002
3.2850001 -1.434 1.562 22 0 0 0 0.05054
3.266 -1.434 1.556 21 0 0 0 0.050549999
3.2539999 -1.436 1.553 22 0 0 0 0.050560001
3.2409999 -1.438 1.549 22 0 0 0 0.05057
