# .PCD v0.7 - Point Cloud Data file format
VERSION 0.7
FIELDS x y z intensity normal_x normal_y normal_z curvature
SIZE 4 4 4 4 4 4 4 4
TYPE F F F F F F F F
COUNT 1 1 1 1 1 1 1 1
WIDTH 1025
HEIGHT 1
VIEWPOINT 0 0 0 1 0 0 0
POINTS 1025
DATA ascii
2.2349999 0.63700002 0.27700001 150 0 0 0 0.048629999
2.2739999 0.65499997 0.28600001 150 0 0 0 0.048640002
2.3900001 0.69599998 0.30399999 150 0 0 0 0.04865
2.49 0.73199999 0.32100001 150 0 0 0 0.048659999
2.4860001 0.73799998 0.32499999 148 0 0 0 0.048670001
2.483 0.745 0.329 150 0 0 0 0.04868
2.484 0.75199997 0.333 150 0 0 0 0.048689999
2.4560001 0.75099999 0.33399999 150 0 0 0 0.048700001
2.336 0.72100002 0.322 150 0 0 0 0.04871
2.493 0.77700001 0.347 147 0 0 0 0.048719998
1.488 0.46799999 0.20999999 1 0 0 0 0.048730001
1.476 0.46799999 0.211 1 0 0 0 0.04874
1.457 0.46700001 0.211 1 0 0 0 0.048749998
1.441 0.46599999 0.211 1 0 0 0 0.048760001
1.428 0.465 0.211 1 0 0 0 0.048769999
1.418 0.46599999 0.213 6 0 0 0 0.048780002
1.4 0.465 0.212 6 0 0 0 0.04879
1.3839999 0.463 0.213 6 0 0 0 0.048799999
1.364 0.46000001 0.212 6 0 0 0 0.048810001
1.348 0.45899999 0.212 5 0 0 0 0.04882
1.3279999 0.456 0.211 8 0 0 0 0.048829999
1.311 0.454 0.211 46 0 0 0 0.048840001
1.298 0.45300001 0.211 101 0 0 0 0.04885
1.296 0.456 0.213 150 0 0 0 0.048859999
1.294 0.45899999 0.21600001 150 0 0 0 0.048870001
1.293 0.46200001 0.21799999 150 0 0 0 0.04888
1.291 0.465 0.22 150 0 0 0 0.048889998
1.2970001 0.47099999 0.223 146 0 0 0 0.048900001
1.2920001 0.47299999 0.22499999 148 0 0 0 0.048909999
1.294 0.477 0.228 145 0 0 0 0.048920002
1.296 0.48199999 0.23100001 133 0 0 0 0.048930001
1.295 0.48500001 0.233 150 0 0 0 0.048939999
1.291 0.48699999 0.235 150 0 0 0 0.048950002
1.293 0.491 0.23800001 150 0 0 0 0.04896
1.29 0.49399999 0.23999999 150 0 0 0 0.048969999
1.299 0.50099999 0.244 52 0 0 0 0.048980001
1.295 0.50300002 0.24600001 28 0 0 0 0.04899
1.276 0.49900001 0.245 8 0 0 0 0.048999999
1.258 0.49599999 0.244 6 0 0 0 0.049010001
1.238 0.491 0.243 0 0 0 0 0.04902
3.3329999 1.331 0.66100001 2 0 0 0 0.049029998
3.322 1.336 0.66500002 4 0 0 0 0.049040001
3.3210001 1.345 0.67199999 5 0 0 0 0.04905
3.3280001 1.3559999 0.68000001 4 0 0 0 0.049059998
3.332 1.367 0.68800002 3 0 0 0 0.049070001
3.303 1.364 0.68900001 2 0 0 0 0.049079999
3.296 1.37 0.69400001 2 0 0 0 0.049090002
3.2550001 1.3609999 0.69199997 3 0 0 0 0.0491
3.2709999 1.377 0.70300001 3 0 0 0 0.049109999
3.273 1.386 0.70999998 3 0 0 0 0.049120001
3.267 1.392 0.71600002 3 0 0 0 0.04913
3.24 1.3890001 0.71700001 3 0 0 0 0.049139999
3.2409999 1.398 0.72399998 3 0 0 0 0.049150001
3.25 1.41 0.73299998 3 0 0 0 0.04916
3.2460001 1.4170001 0.73900002 3 0 0 0 0.049169999
3.2420001 1.423 0.745 3 0 0 0 0.049180001
3.244 1.432 0.75300002 3 0 0 0 0.04919
3.224 1.432 0.755 3 0 0 0 0.049199998
3.2260001 1.441 0.76300001 1 0 0 0 0.049210001
3.1819999 1.429 0.759 1 0 0 0 0.049219999
3.1530001 1.424 0.759 0 0 0 0 0.049229998
3.145 1.428 0.764 1 0 0 0 0.049240001
3.099 1.415 0.75999999 1 0 0 0 0.049249999
3.0910001 1.419 0.76499999 2 0 0 0 0.049260002
3.125 1.442 0.77999997 2 0 0 0 0.04927
3.1140001 1.444 0.78399998 2 0 0 0 0.049279999
3.118 1.4529999 0.792 2 0 0 0 0.049290001
3.1229999 1.4630001 0.801 2 0 0 0 0.0493
3.105 1.462 0.80299997 2 0 0 0 0.049309999
3.1229999 1.477 0.815 2 0 0 0 0.049320001
3.1110001 1.479 0.81900001 2 0 0 0 0.04933
3.118 1.49 0.82800001 2 0 0 0 0.049339999
3.099 1.488 0.82999998 2 0 0 0 0.049350001
3.102 1.4960001 0.838 2 0 0 0 0.04936
3.0910001 1.497 0.84200001 2 0 0 0 0.049369998
3.095 1.506 0.85000002 2 0 0 0 0.049380001
3.0929999 1.512 0.85600001 2 0 0 0 0.049389999
3.079 1.512 0.86000001 1 0 0 0 0.049400002
3.066 1.512 0.86299998 1 0 0 0 0.04941
3.1029999 1.5369999 0.88099998 1 0 0 0 0.049419999
3.0840001 1.534 0.88200003 1 0 0 0 0.049430002
3.0940001 1.545 0.89200002 1 0 0 0 0.04944
3.0999999 1.5549999 0.90100002 0 0 0 0 0.049449999
3.181 1.601 0.93199998 0 0 0 0 0.049460001
0.91299999 0.461 0.27000001 0 0 0 0 0.04947
0.91399997 0.46399999 0.27200001 0 0 0 0 0.049479999
0.91299999 0.465 0.27399999 4 0 0 0 0.049490001
0.90899998 0.465 0.27500001 5 0 0 0 0.0495
0.90799999 0.46599999 0.27599999 6 0 0 0 0.049509998
0.90899998 0.46799999 0.27900001 7 0 0 0 0.049520001
0.90700001 0.46900001 0.28 7 0 0 0 0.049529999
0.89999998 0.46700001 0.28 8 0 0 0 0.049539998
0.90200001 0.46900001 0.28299999 9 0 0 0 0.049550001
0.90499997 0.472 0.28600001 8 0 0 0 0.049559999
0.90700001 0.47499999 0.289 7 0 0 0 0.049570002
0.90700001 0.477 0.29100001 6 0 0 0 0.04958
0.90700001 0.47799999 0.29300001 5 0 0 0 0.049589999
0.93099999 0.49200001 0.303 0 0 0 0 0.049600001
0.96100003 0.509 0.315 0 0 0 0 0.04961
0.97799999 0.51999998 0.32300001 0 0 0 0 0.049619999
1.0039999 0.53500003 0.333 0 0 0 0 0.049630001
0 0 0 0 0 0 0 0.04964
0 0 0 0 0 0 0 0.049649999
0 0 0 0 0 0 0 0.049660001
0 0 0 0 0 0 0 0.04967
1.265 0.68400002 0.435 0 0 0 0 0.049679998
1.3 0.704 0.449 1 0 0 0 0.049690001
1.289 0.69999999 0.449 0 0 0 0 0.049699999
1.3049999 0.70999998 0.45699999 0 0 0 0 0.049710002
1.286 0.70099998 0.45300001 1 0 0 0 0.04972
1.268 0.69300002 0.44999999 1 0 0 0 0.049729999
1.248 0.68400002 0.44499999 1 0 0 0 0.049740002
1.2079999 0.66299999 0.433 6 0 0 0 0.04975
0 0 0 0 0 0 0 0.049759999
0 0 0 0 0 0 0 0.049770001
0 0 0 0 0 0 0 0.04978
0 0 0 0 0 0 0 0.049789999
0 0 0 0 0 0 0 0.049800001
0 0 0 0 0 0 0 0.04981
0 0 0 0 0 0 0 0.049819998
0 0 0 0 0 0 0 0.049830001
0 0 0 0 0 0 0 0.04984
1.198 0.66799998 0.45500001 5 0 0 0 0.049849998
1.193 0.66600001 0.456 1 0 0 0 0.049860001
1.183 0.66100001 0.454 1 0 0 0 0.049869999
1.1720001 0.65499997 0.45300001 1 0 0 0 0.049880002
1.178 0.65899998 0.45699999 1 0 0 0 0.04989
1.164 0.65200001 0.454 1 0 0 0 0.049899999
1.1670001 0.65399998 0.45699999 1 0 0 0 0.049910001
1.148 0.64399999 0.45199999 1 0 0 0 0.04992
0 0 0 0 0 0 0 0.049929999
0 0 0 0 0 0 0 0.049940001
0 0 0 0 0 0 0 0.04995
0 0 0 0 0 0 0 0.049959999
0 0 0 0 0 0 0 0.049970001
0 0 0 0 0 0 0 0.04998
0 0 0 0 0 0 0 0.049989998
0 0 0 0 0 0 0 0.050000001
0 0 0 0 0 0 0 0.050009999
0 0 0 0 0 0 0 0.050020002
0 0 0 0 0 0 0 0.050030001
0 0 0 0 0 0 0 0.050039999
0 0 0 0 0 0 0 0.050050002
0 0 0 0 0 0 0 0.05006
0 0 0 0 0 0 0 0.050069999
0 0 0 0 0 0 0 0.050080001
0 0 0 0 0 0 0 0.05009
0 0 0 0 0 0 0 0.050099999
0 0 0 0 0 0 0 0.050110001
0 0 0 0 0 0 0 0.05012
0 0 0 0 0 0 0 0.050129998
0 0 0 0 0 0 0 0.050140001
0 0 0 0 0 0 0 0.05015
0 0 0 0 0 0 0 0.050159998
0 0 0 0 0 0 0 0.050170001
0 0 0 0 0 0 0 0.050179999
0 0 0 0 0 0 0 0.050190002
0 0 0 0 0 0 0 0.0502
0 0 0 0 0 0 0 0.050209999
0 0 0 0 0 0 0 0.050220001
0 0 0 0 0 0 0 0.05023
0 0 0 0 0 0 0 0.050239999
1.04 0.56999999 0.45899999 0 0 0 0 0.050250001
1.04 0.56800002 0.46000001 0 0 0 0 0.05026
1.038 0.56599998 0.46000001 0 0 0 0 0.050269999
1.035 0.56300002 0.46000001 0 0 0 0 0.050280001
1.038 0.56400001 0.46200001 0 0 0 0 0.05029
1.04 0.56300002 0.463 0 0 0 0 0.050299998
1.03 0.55699998 0.46000001 0 0 0 0 0.050310001
1.035 0.55800003 0.463 0 0 0 0 0.050319999
1.03 0.55400002 0.461 0 0 0 0 0.050330002
1.027 0.551 0.461 0 0 0 0 0.050340001
1.008 0.53899997 0.45199999 0 0 0 0 0.050349999
0.97500002 0.51999998 0.43799999 0 0 0 0 0.050360002
0.94599998 0.50199997 0.42500001 8 0 0 0 0.05037
0.92900002 0.49200001 0.41800001 10 0 0 0 0.050379999
0.91500002 0.48300001 0.412 17 0 0 0 0.050390001
0.90399998 0.47600001 0.40799999 23 0 0 0 0.0504
0.89499998 0.46900001 0.40400001 28 0 0 0 0.050409999
0.89600003 0.46900001 0.405 33 0 0 0 0.050420001
0.89300001 0.46599999 0.40400001 39 0 0 0 0.05043
0.89099997 0.463 0.403 38 0 0 0 0.050439999
0.89399999 0.463 0.405 37 0 0 0 0.050450001
0.89499998 0.461 0.405 29 0 0 0 0.05046
0.89399999 0.45899999 0.405 21 0 0 0 0.050469998
0.90600002 0.46399999 0.41 9 0 0 0 0.050480001
0.917 0.46700001 0.41499999 0 0 0 0 0.050489999
0.921 0.46799999 0.417 0 0 0 0 0.050500002
0.92900002 0.46900001 0.41999999 0 0 0 0 0.05051
0.92699999 0.46700001 0.419 0 0 0 0 0.050519999
0.93599999 0.46900001 0.42300001 0 0 0 0 0.050530002
0.94499999 0.472 0.42699999 0 0 0 0 0.05054
0.94700003 0.47099999 0.428 0 0 0 0 0.050549999
0.94999999 0.47 0.42899999 0 0 0 0 0.050560001
0.95499998 0.47 0.43099999 0 0 0 0 0.05057
0.95599997 0.46900001 0.43200001 0 0 0 0 0.050579999
0.96200001 0.47 0.43399999 0 0 0 0 0.050590001
0.97100002 0.472 0.43799999 0 0 0 0 0.0506
0.97000003 0.46900001 0.43700001 0 0 0 0 0.050609998
0.98000002 0.472 0.44100001 0 0 0 0 0.050620001
0.98699999 0.47299999 0.44299999 0 0 0 0 0.050629999
0.99000001 0.472 0.44400001 0 0 0 0 0.050639998
0.99299997 0.47099999 0.44499999 0 0 0 0 0.050650001
1.002 0.47299999 0.44800001 0 0 0 0 0.050659999
1.011 0.47400001 0.45199999 0 0 0 0 0.050670002
1.0140001 0.47400001 0.45300001 0 0 0 0 0.05068
1.022 0.47499999 0.45500001 0 0 0 0 0.050689999
1.025 0.47299999 0.456 0 0 0 0 0.050700001
1.026 0.47099999 0.45500001 11 0 0 0 0.05071
1.0319999 0.472 0.45699999 14 0 0 0 0.050719999
1.0369999 0.47099999 0.45899999 18 0 0 0 0.050730001
1.0470001 0.47299999 0.46200001 14 0 0 0 0.05074
1.048 0.47099999 0.46200001 12 0 0 0 0.050749999
1.053 0.47099999 0.463 0 0 0 0 0.050760001
1.059 0.47 0.465 0 0 0 0 0.05077
1.071 0.47299999 0.46900001 0 0 0 0 0.050779998
1.0779999 0.47299999 0.47099999 0 0 0 0 0.050790001
1.086 0.47400001 0.47299999 0 0 0 0 0.050799999
1.091 0.47299999 0.47400001 0 0 0 0 0.050810002
1.104 0.47600001 0.479 0 0 0 0 0.05082
1.15 0.493 0.49700001 0 0 0 0 0.050829999
1.206 0.514 0.51999998 29 0 0 0 0.050840002
1.234 0.52200001 0.53100002 65 0 0 0 0.05085
1.244 0.523 0.53399998 98 0 0 0 0.050859999
1.253 0.52399999 0.53600001 147 0 0 0 0.050870001
1.26 0.523 0.537 150 0 0 0 0.05088
1.2690001 0.52399999 0.54000002 150 0 0 0 0.050889999
1.273 0.52200001 0.54000002 150 0 0 0 0.050900001
1.25 0.509 0.528 150 0 0 0 0.05091
1.25 0.505 0.52600002 150 0 0 0 0.050919998
1.251 0.50199997 0.52499998 150 0 0 0 0.050930001
1.252 0.49900001 0.52399999 150 0 0 0 0.05094
1.2539999 0.49700001 0.523 150 0 0 0 0.050949998
1.255 0.49399999 0.52100003 150 0 0 0 0.050960001
1.257 0.491 0.51999998 150 0 0 0 0.050969999
1.2589999 0.48800001 0.51899999 150 0 0 0 0.050980002
1.251 0.48199999 0.514 150 0 0 0 0.05099
1.25 0.47799999 0.51099998 150 0 0 0 0.050999999
1.251 0.47499999 0.50999999 150 0 0 0 0.051010001
1.253 0.472 0.509 150 0 0 0 0.05102
1.252 0.46900001 0.50599998 150 0 0 0 0.051029999
1.251 0.465 0.50400001 150 0 0 0 0.051040001
1.252 0.46200001 0.50199997 150 0 0 0 0.05105
1.2539999 0.45899999 0.50099999 150 0 0 0 0.051059999
1.256 0.456 0.49900001 150 0 0 0 0.051070001
1.257 0.45300001 0.498 150 0 0 0 0.05108
1.2589999 0.44999999 0.49599999 150 0 0 0 0.051089998
1.258 0.447 0.49399999 150 0 0 0 0.051100001
1.257 0.44299999 0.491 150 0 0 0 0.051109999
1.268 0.44299999 0.493 150 0 0 0 0.051120002
1.2819999 0.44499999 0.49599999 94 0 0 0 0.051130001
1.331 0.458 0.51300001 13 0 0 0 0.051139999
1.324 0.45199999 0.50700003 11 0 0 0 0.051150002
1.342 0.454 0.51200002 11 0 0 0 0.05116
1.3559999 0.456 0.51499999 12 0 0 0 0.051169999
1.39 0.463 0.52499998 9 0 0 0 0.051180001
1.403 0.46399999 0.52700001 9 0 0 0 0.05119
1.42 0.465 0.52999997 10 0 0 0 0.051199999
1.416 0.46000001 0.52600002 13 0 0 0 0.051210001
1.451 0.46799999 0.537 10 0 0 0 0.05122
1.462 0.46700001 0.53799999 10 0 0 0 0.051229998
1.479 0.46900001 0.54100001 10 0 0 0 0.051240001
1.493 0.46900001 0.54299998 0 0 0 0 0.05125
4 1.247 1.447 10 0 0 0 0.051259998
1.5 0.463 0.53899997 2 0 0 0 0.051270001
4.0120001 1.229 1.4349999 54 0 0 0 0.051279999
4.0100002 1.2180001 1.426 57 0 0 0 0.051290002
4.0149999 1.209 1.42 57 0 0 0 0.0513
4.0180001 1.199 1.4119999 54 0 0 0 0.051309999
0 0 0 0 0 0 0 0.051320001
0 0 0 0 0 0 0 0.05133
0 0 0 0 0 0 0 0.051339999
2.2360001 0.64399999 0.76700002 150 0 0 0 0.051350001
2.234 0.63700002 0.76099998 150 0 0 0 0.05136
2.233 0.63099998 0.75599998 151 0 0 0 0.051369999
2.233 0.625 0.75099999 150 0 0 0 0.051380001
2.2360001 0.62 0.74699998 151 0 0 0 0.05139
2.24 0.616 0.74299997 150 0 0 0 0.051399998
2.2320001 0.60799998 0.736 150 0 0 0 0.051410001
2.227 0.60000002 0.72899997 150 0 0 0 0.051419999
2.2290001 0.59500003 0.72500002 150 0 0 0 0.051430002
2.223 0.588 0.71799999 150 0 0 0 0.051440001
2.2290001 0.58399999 0.71499997 150 0 0 0 0.051449999
2.2260001 0.57700002 0.70899999 150 0 0 0 0.051460002
2.223 0.57099998 0.70300001 150 0 0 0 0.05147
2.2279999 0.56699997 0.699 150 0 0 0 0.051479999
2.227 0.56099999 0.69400001 151 0 0 0 0.051490001
2.23 0.55599999 0.69 150 0 0 0 0.0515
2.23 0.55000001 0.68400002 150 0 0 0 0.051509999
2.23 0.54500002 0.67900002 150 0 0 0 0.051520001
2.2409999 0.542 0.67699999 150 0 0 0 0.05153
2.253 0.53899997 0.676 151 0 0 0 0.051539999
2.2590001 0.53500003 0.67199999 151 0 0 0 0.051550001
2.2579999 0.52899998 0.667 151 0 0 0 0.05156
2.26 0.52399999 0.662 151 0 0 0 0.051569998
2.2709999 0.52100003 0.66000003 150 0 0 0 0.051580001
2.2920001 0.51999998 0.66000003 18 0 0 0 0.051589999
2.359 0.52999997 0.67400002 16 0 0 0 0.051600002
2.395 0.53200001 0.67900002 16 0 0 0 0.05161
2.437 0.53500003 0.685 17 0 0 0 0.051619999
2.483 0.53899997 0.69199997 19 0 0 0 0.051630002
2.527 0.54299998 0.69800001 20 0 0 0 0.05164
2.576 0.54699999 0.70499998 20 0 0 0 0.051649999
2.6210001 0.55000001 0.71100003 21 0 0 0 0.051660001
2.671 0.55500001 0.71799999 22 0 0 0 0.05167
2.723 0.55900002 0.72600001 22 0 0 0 0.051679999
2.7809999 0.56400001 0.73400003 24 0 0 0 0.051690001
2.8329999 0.56800002 0.741 24 0 0 0 0.0517
2.8970001 0.574 0.75099999 25 0 0 0 0.051709998
2.954 0.57800001 0.75800002 26 0 0 0 0.051720001
3.0150001 0.583 0.76700002 27 0 0 0 0.051729999
3.095 0.59200001 0.77999997 27 0 0 0 0.051739998
3.158 0.59600002 0.78799999 27 0 0 0 0.051750001
3.204 0.59799999 0.79100001 28 0 0 0 0.051759999
3.247 0.59799999 0.79400003 28 0 0 0 0.051770002
3.2780001 0.59600002 0.79299998 39 0 0 0 0.05178
3.2880001 0.59100002 0.787 150 0 0 0 0.051789999
3.2880001 0.583 0.77899998 150 0 0 0 0.051800001
3.293 0.57700002 0.77200001 150 0 0 0 0.05181
3.2920001 0.56900001 0.764 150 0 0 0 0.051819999
3.2920001 0.56199998 0.755 150 0 0 0 0.051830001
3.2980001 0.55500001 0.74800003 150 0 0 0 0.05184
3.309 0.55000001 0.74299997 150 0 0 0 0.051849999
3.325 0.54500002 0.73799998 150 0 0 0 0.051860001
3.3280001 0.53799999 0.73000002 150 0 0 0 0.05187
3.3269999 0.52999997 0.72100002 150 0 0 0 0.051879998
3.3369999 0.52399999 0.71499997 150 0 0 0 0.051890001
3.382 0.52399999 0.71600002 150 0 0 0 0.051899999
3.3900001 0.51800001 0.70999998 150 0 0 0 0.051910002
3.388 0.50999999 0.69999999 150 0 0 0 0.05192
3.3900001 0.50300002 0.69199997 150 0 0 0 0.051929999
3.392 0.49599999 0.68400002 150 0 0 0 0.051940002
3.3900001 0.48800001 0.67500001 150 0 0 0 0.05195
3.391 0.48100001 0.66600001 150 0 0 0 0.051959999
3.392 0.47400001 0.65799999 150 0 0 0 0.051970001
3.395 0.46700001 0.64999998 150 0 0 0 0.05198
3.395 0.46000001 0.64099997 150 0 0 0 0.051989999
3.3959999 0.45300001 0.63300002 150 0 0 0 0.052000001
3.398 0.44600001 0.62400001 150 0 0 0 0.05201
3.3940001 0.43799999 0.61500001 150 0 0 0 0.052019998
3.3970001 0.43099999 0.60600001 150 0 0 0 0.052030001
3.3989999 0.42399999 0.59799999 150 0 0 0 0.05204
3.401 0.41800001 0.58999997 150 0 0 0 0.052049998
3.398 0.41 0.57999998 150 0 0 0 0.052060001
3.4000001 0.403 0.57200003 150 0 0 0 0.052069999
3.402 0.39700001 0.56300002 150 0 0 0 0.052080002
3.3989999 0.389 0.55400002 150 0 0 0 0.05209
3.398 0.382 0.54500002 150 0 0 0 0.052099999
3.401 0.375 0.537 150 0 0 0 0.052110001
3.4030001 0.36899999 0.528 150 0 0 0 0.05212
3.401 0.36199999 0.51899999 150 0 0 0 0.052129999
3.402 0.35499999 0.51099998 150 0 0 0 0.052140001
3.405 0.34799999 0.50199997 150 0 0 0 0.05215
3.401 0.34099999 0.493 150 0 0 0 0.052159999
3.4030001 0.33399999 0.484 150 0 0 0 0.052170001
3.4030001 0.32699999 0.47499999 150 0 0 0 0.05218
3.4070001 0.32100001 0.46700001 150 0 0 0 0.052189998
3.408 0.31400001 0.458 150 0 0 0 0.052200001
3.408 0.308 0.449 151 0 0 0 0.052209999
3.3989999 0.30000001 0.43900001 150 0 0 0 0.052220002
3.401 0.294 0.43000001 150 0 0 0 0.05223
3.402 0.287 0.42199999 150 0 0 0 0.052239999
3.404 0.28 0.41299999 150 0 0 0 0.052250002
3.404 0.27399999 0.40400001 150 0 0 0 0.05226
3.405 0.26699999 0.39500001 150 0 0 0 0.052269999
3.405 0.26100001 0.38600001 150 0 0 0 0.052280001
3.4059999 0.25400001 0.377 150 0 0 0 0.05229
3.408 0.248 0.368 150 0 0 0 0.052299999
3.408 0.241 0.359 150 0 0 0 0.052310001
3.4059999 0.235 0.34999999 150 0 0 0 0.05232
3.408 0.228 0.34099999 150 0 0 0 0.052329998
3.4059999 0.222 0.33199999 150 0 0 0 0.052340001
3.4070001 0.215 0.32300001 150 0 0 0 0.05235
3.4119999 0.20900001 0.31400001 150 0 0 0 0.052359998
3.4130001 0.20200001 0.30500001 151 0 0 0 0.052370001
3.4059999 0.19599999 0.296 151 0 0 0 0.052379999
3.4070001 0.189 0.287 151 0 0 0 0.052390002
3.408 0.183 0.278 151 0 0 0 0.0524
3.4030001 0.176 0.26800001 151 0 0 0 0.052409999
3.4119999 0.17 0.25999999 151 0 0 0 0.052420001
3.4100001 0.164 0.25099999 151 0 0 0 0.05243
3.4100001 0.15800001 0.241 151 0 0 0 0.052439999
3.4100001 0.15099999 0.23199999 151 0 0 0 0.052450001
3.411 0.145 0.223 151 0 0 0 0.05246
3.411 0.139 0.214 151 0 0 0 0.052469999
3.4089999 0.133 0.205 151 0 0 0 0.052480001
3.4119999 0.127 0.19599999 151 0 0 0 0.05249
3.414 0.121 0.18700001 151 0 0 0 0.052499998
3.4119999 0.114 0.177 151 0 0 0 0.052510001
3.4159999 0.108 0.168 151 0 0 0 0.052519999
3.4170001 0.102 0.15899999 152 0 0 0 0.052530002
3.418 0.096000001 0.15000001 151 0 0 0 0.052540001
3.4170001 0.090000004 0.141 151 0 0 0 0.052549999
3.415 0.083999999 0.131 152 0 0 0 0.052560002
3.4200001 0.078000002 0.122 152 0 0 0 0.05257
3.421 0.071999997 0.113 152 0 0 0 0.052579999
3.4159999 0.064999998 0.104 152 0 0 0 0.052590001
3.4170001 0.059 0.093999997 151 0 0 0 0.0526
3.418 0.052999999 0.085000001 151 0 0 0 0.052609999
3.4170001 0.046999998 0.075999998 152 0 0 0 0.052620001
3.4230001 0.041999999 0.067000002 152 0 0 0 0.05263
3.4170001 0.035 0.057 152 0 0 0 0.052639998
3.4200001 0.028999999 0.048 152 0 0 0 0.052650001
3.4159999 0.024 0.039000001 151 0 0 0 0.05266
3.4159999 0.017999999 0.028999999 151 0 0 0 0.052669998
3.421 0.012 0.02 151 0 0 0 0.052680001
3.414 0.0060000001 0.011 151 0 0 0 0.052689999
3.4159999 0 0.001 151 0 0 0 0.052700002
3.414 -0.0049999999 -0.0070000002 151 0 0 0 0.05271
3.418 -0.011 -0.017000001 151 0 0 0 0.052719999
3.414 -0.016000001 -0.026000001 151 0 0 0 0.052730002
3.418 -0.022 -0.035 151 0 0 0 0.05274
3.4200001 -0.028000001 -0.045000002 151 0 0 0 0.052749999
3.4200001 -0.034000002 -0.054000001 151 0 0 0 0.052760001
3.4200001 -0.039999999 -0.064000003 151 0 0 0 0.05277
3.4170001 -0.045000002 -0.072999999 151 0 0 0 0.052779999
3.4170001 -0.050999999 -0.082999997 151 0 0 0 0.052790001
3.4170001 -0.057 -0.092 151 0 0 0 0.0528
3.4230001 -0.063000001 -0.102 150 0 0 0 0.052809998
3.421 -0.068000004 -0.111 151 0 0 0 0.052820001
3.4260001 -0.074000001 -0.121 151 0 0 0 0.052829999
3.425 -0.079999998 -0.131 151 0 0 0 0.052839998
3.424 -0.085000001 -0.14 151 0 0 0 0.052850001
3.424 -0.090999998 -0.15000001 150 0 0 0 0.052859999
3.428 -0.097000003 -0.15899999 151 0 0 0 0.052870002
3.4219999 -0.102 -0.169 150 0 0 0 0.05288
3.4260001 -0.108 -0.17900001 150 0 0 0 0.052889999
3.4289999 -0.114 -0.18799999 150 0 0 0 0.052900001
3.4289999 -0.119 -0.198 150 0 0 0 0.05291
3.427 -0.125 -0.207 150 0 0 0 0.052919999
3.427 -0.13 -0.21699999 150 0 0 0 0.052930001
3.4260001 -0.13600001 -0.227 150 0 0 0 0.05294
3.427 -0.141 -0.237 150 0 0 0 0.052949999
3.4260001 -0.147 -0.24600001 150 0 0 0 0.052960001
3.4330001 -0.152 -0.25600001 150 0 0 0 0.05297
3.427 -0.15800001 -0.266 150 0 0 0 0.052979998
3.4319999 -0.163 -0.27599999 150 0 0 0 0.052990001
3.4300001 -0.169 -0.285 150 0 0 0 0.052999999
3.4349999 -0.17399999 -0.296 151 0 0 0 0.053010002
3.4330001 -0.18000001 -0.30500001 151 0 0 0 0.05302
3.4059999 -0.183 -0.31299999 150 0 0 0 0.053029999
3.368 -0.18700001 -0.31900001 150 0 0 0 0.053040002
3.3640001 -0.192 -0.32800001 151 0 0 0 0.05305
3.368 -0.197 -0.338 151 0 0 0 0.053059999
3.3640001 -0.20200001 -0.347 151 0 0 0 0.053070001
3.369 -0.208 -0.35800001 151 0 0 0 0.05308
3.3629999 -0.212 -0.36700001 151 0 0 0 0.053089999
3.359 -0.21699999 -0.37599999 150 0 0 0 0.053100001
3.3429999 -0.221 -0.384 150 0 0 0 0.05311
3.3310001 -0.226 -0.39199999 150 0 0 0 0.053119998
3.3329999 -0.23100001 -0.40200001 151 0 0 0 0.053130001
3.335 -0.236 -0.412 151 0 0 0 0.05314
3.3329999 -0.241 -0.421 150 0 0 0 0.053149998
3.332 -0.24600001 -0.43099999 150 0 0 0 0.053160001
3.3369999 -0.25099999 -0.44100001 150 0 0 0 0.053169999
3.332 -0.25600001 -0.44999999 151 0 0 0 0.053180002
3.336 -0.26100001 -0.461 151 0 0 0 0.05319
3.3269999 -0.26499999 -0.46900001 150 0 0 0 0.053199999
3.3110001 -0.26899999 -0.477 35 0 0 0 0.053210001
3.247 -0.26899999 -0.477 79 0 0 0 0.05322
3.2320001 -0.27200001 -0.484 150 0 0 0 0.053229999
3.2309999 -0.27700001 -0.49399999 150 0 0 0 0.053240001
3.2309999 -0.28200001 -0.50300002 150 0 0 0 0.05325
3.233 -0.287 -0.51300001 150 0 0 0 0.053259999
3.2390001 -0.292 -0.52399999 150 0 0 0 0.053270001
3.237 -0.296 -0.53299999 150 0 0 0 0.05328
3.2360001 -0.301 -0.542 150 0 0 0 0.053289998
3.237 -0.30599999 -0.55199999 150 0 0 0 0.053300001
3.2360001 -0.31 -0.56199998 150 0 0 0 0.053309999
3.237 -0.315 -0.57099998 150 0 0 0 0.053320002
3.2349999 -0.31900001 -0.58099997 151 0 0 0 0.05333
3.237 -0.324 -0.59100002 151 0 0 0 0.053339999
3.2309999 -0.32800001 -0.59899998 150 0 0 0 0.053350002
3.2219999 -0.33199999 -0.60699999 150 0 0 0 0.05336
3.2090001 -0.33500001 -0.61500001 150 0 0 0 0.053369999
3.2090001 -0.33899999 -0.62400001 150 0 0 0 0.053380001
3.2119999 -0.34400001 -0.63499999 150 0 0 0 0.05339
3.2119999 -0.34799999 -0.64399999 150 0 0 0 0.053399999
3.21 -0.352 -0.65399998 150 0 0 0 0.053410001
3.21 -0.35699999 -0.66299999 150 0 0 0 0.05342
3.2079999 -0.361 -0.67299998 150 0 0 0 0.053429998
3.21 -0.366 -0.68300003 150 0 0 0 0.053440001
3.2060001 -0.37 -0.69199997 150 0 0 0 0.05345
3.2090001 -0.37400001 -0.70300001 150 0 0 0 0.053459998
3.204 -0.37799999 -0.71100003 150 0 0 0 0.053470001
3.204 -0.382 -0.72100002 150 0 0 0 0.053479999
3.1659999 -0.382 -0.722 150 0 0 0 0.053490002
3.0009999 -0.366 -0.69400001 150 0 0 0 0.0535
2.888 -0.35600001 -0.67699999 150 0 0 0 0.053509999
2.8139999 -0.34999999 -0.66799998 119 0 0 0 0.053520001
2.563 -0.322 -0.616 18 0 0 0 0.05353
2.5320001 -0.322 -0.61699998 16 0 0 0 0.053539999
2.51 -0.322 -0.61900002 13 0 0 0 0.053550001
2.4949999 -0.324 -0.62300003 12 0 0 0 0.05356
2.4779999 -0.324 -0.62699997 10 0 0 0 0.053569999
2.4590001 -0.32499999 -0.63 9 0 0 0 0.053580001
2.4449999 -0.32600001 -0.634 9 0 0 0 0.05359
2.431 -0.32699999 -0.63800001 10 0 0 0 0.053599998
2.414 -0.32800001 -0.64099997 11 0 0 0 0.053610001
2.404 -0.33000001 -0.64600003 11 0 0 0 0.053619999
2.3829999 -0.33000001 -0.648 11 0 0 0 0.053630002
2.369 -0.331 -0.65100002 13 0 0 0 0.053640001
2.3629999 -0.333 -0.65700001 14 0 0 0 0.053649999
2.355 -0.33500001 -0.662 15 0 0 0 0.053660002
2.3540001 -0.33700001 -0.67000002 19 0 0 0 0.05367
2.3559999 -0.34 -0.67799997 18 0 0 0 0.053679999
2.355 -0.34299999 -0.685 18 0 0 0 0.053690001
2.3529999 -0.345 -0.69199997 18 0 0 0 0.0537
2.359 -0.34900001 -0.70099998 16 0 0 0 0.053709999
2.3559999 -0.35100001 -0.708 16 0 0 0 0.053720001
2.3559999 -0.354 -0.71499997 16 0 0 0 0.05373
2.3529999 -0.35600001 -0.722 16 0 0 0 0.053739998
2.3559999 -0.359 -0.73000002 17 0 0 0 0.053750001
2.3559999 -0.36199999 -0.73799998 18 0 0 0 0.05376
2.3559999 -0.36500001 -0.74599999 17 0 0 0 0.053769998
2.358 -0.36700001 -0.75400001 17 0 0 0 0.053780001
2.3570001 -0.37 -0.76099998 19 0 0 0 0.053789999
2.3559999 -0.37200001 -0.76800001 20 0 0 0 0.053800002
2.3570001 -0.375 -0.77600002 23 0 0 0 0.05381
2.3559999 -0.377 -0.78399998 23 0 0 0 0.053819999
2.355 -0.38 -0.79100001 23 0 0 0 0.053830002
2.355 -0.382 -0.79900002 23 0 0 0 0.05384
2.3570001 -0.38499999 -0.80699998 22 0 0 0 0.053849999
2.3570001 -0.38699999 -0.81400001 21 0 0 0 0.053860001
2.358 -0.38999999 -0.82300001 27 0 0 0 0.05387
2.349 -0.391 -0.82700002 27 0 0 0 0.053879999
2.329 -0.38999999 -0.82800001 24 0 0 0 0.053890001
2.309 -0.38800001 -0.82800001 24 0 0 0 0.0539
2.2820001 -0.38600001 -0.82599998 24 0 0 0 0.053909998
2.2679999 -0.38600001 -0.82800001 24 0 0 0 0.053920001
2.2490001 -0.38499999 -0.829 25 0 0 0 0.053929999
2.2249999 -0.38299999 -0.82700002 25 0 0 0 0.053939998
2.2060001 -0.38100001 -0.82700002 25 0 0 0 0.053950001
2.184 -0.38 -0.82700002 26 0 0 0 0.053959999
2.165 -0.37799999 -0.82599998 27 0 0 0 0.053970002
2.145 -0.377 -0.82599998 24 0 0 0 0.05398
2.125 -0.375 -0.82499999 24 0 0 0 0.053989999
2.109 -0.37400001 -0.82599998 25 0 0 0 0.054000001
2.0910001 -0.373 -0.82499999 25 0 0 0 0.05401
2.073 -0.37099999 -0.82499999 24 0 0 0 0.054019999
2.056 -0.37 -0.82499999 24 0 0 0 0.054030001
2.039 -0.368 -0.82499999 25 0 0 0 0.05404
2.0220001 -0.36700001 -0.82499999 24 0 0 0 0.054049999
2.003 -0.36500001 -0.824 29 0 0 0 0.054060001
1.989 -0.36399999 -0.82499999 29 0 0 0 0.05407
1.973 -0.36300001 -0.82499999 29 0 0 0 0.054079998
1.954 -0.361 -0.82300001 29 0 0 0 0.054090001
1.9400001 -0.359 -0.824 29 0 0 0 0.054099999
1.927 -0.35800001 -0.82499999 29 0 0 0 0.054110002
1.9119999 -0.35699999 -0.824 33 0 0 0 0.05412
1.8890001 -0.354 -0.82099998 32 0 0 0 0.054129999
1.883 -0.354 -0.82499999 32 0 0 0 0.054140002
1.869 -0.35299999 -0.82499999 34 0 0 0 0.05415
1.852 -0.35100001 -0.82300001 33 0 0 0 0.054159999
1.837 -0.34900001 -0.82300001 34 0 0 0 0.054170001
1.826 -0.34799999 -0.824 32 0 0 0 0.05418
1.808 -0.34599999 -0.82200003 31 0 0 0 0.054189999
1.8 -0.345 -0.824 32 0 0 0 0.054200001
1.781 -0.34299999 -0.82099998 33 0 0 0 0.05421
1.7690001 -0.34099999 -0.82099998 35 0 0 0 0.054219998
1.761 -0.34099999 -0.82300001 35 0 0 0 0.054230001
1.745 -0.338 -0.82200003 37 0 0 0 0.05424
1.735 -0.33700001 -0.82200003 35 0 0 0 0.054249998
1.723 -0.336 -0.82200003 36 0 0 0 0.054260001
1.711 -0.33399999 -0.82200003 36 0 0 0 0.054269999
1.7 -0.333 -0.82200003 39 0 0 0 0.054280002
1.691 -0.33199999 -0.824 13 0 0 0 0.05429
1.682 -0.331 -0.82499999 13 0 0 0 0.054299999
1.674 -0.33000001 -0.82599998 13 0 0 0 0.054310001
1.6569999 -0.32699999 -0.82300001 13 0 0 0 0.05432
1.642 -0.32499999 -0.82099998 13 0 0 0 0.054329999
1.637 -0.324 -0.824 13 0 0 0 0.054340001
1.628 -0.32300001 -0.82499999 14 0 0 0 0.05435
1.614 -0.32100001 -0.82300001 13 0 0 0 0.054359999
1.6109999 -0.32100001 -0.82599998 13 0 0 0 0.054370001
1.599 -0.31900001 -0.82499999 13 0 0 0 0.05438
1.589 -0.317 -0.82499999 13 0 0 0 0.054389998
1.58 -0.31600001 -0.82499999 13 0 0 0 0.054400001
1.568 -0.31400001 -0.824 13 0 0 0 0.054409999
1.558 -0.31200001 -0.824 13 0 0 0 0.054420002
1.548 -0.31 -0.82300001 13 0 0 0 0.05443
1.539 -0.30899999 -0.82300001 13 0 0 0 0.054439999
1.53 -0.30700001 -0.82300001 13 0 0 0 0.054450002
1.515 -0.30399999 -0.81999999 12 0 0 0 0.05446
1.5039999 -0.30199999 -0.81900001 13 0 0 0 0.054469999
1.4960001 -0.301 -0.81900001 12 0 0 0 0.054480001
1.49 -0.30000001 -0.81999999 13 0 0 0 0.05449
1.488 -0.29899999 -0.82300001 12 0 0 0 0.054499999
1.479 -0.29699999 -0.82300001 12 0 0 0 0.054510001
1.4680001 -0.29499999 -0.82099998 12 0 0 0 0.05452
1.461 -0.294 -0.82099998 13 0 0 0 0.054529998
1.4529999 -0.292 -0.82099998 13 0 0 0 0.054540001
1.442 -0.28999999 -0.81999999 13 0 0 0 0.05455
1.4400001 -0.289 -0.82200003 13 0 0 0 0.054559998
1.432 -0.287 -0.82200003 13 0 0 0 0.054570001
1.425 -0.28600001 -0.82200003 13 0 0 0 0.054579999
1.4170001 -0.28400001 -0.82200003 14 0 0 0 0.054590002
1.408 -0.28200001 -0.81999999 14 0 0 0 0.0546
1.402 -0.28 -0.82099998 13 0 0 0 0.054609999
1.398 -0.27900001 -0.82300001 13 0 0 0 0.054620001
1.392 -0.278 -0.82300001 13 0 0 0 0.05463
1.385 -0.27599999 -0.82200003 13 0 0 0 0.054639999
1.378 -0.27399999 -0.82200003 13 0 0 0 0.054650001
1.368 -0.27200001 -0.81999999 13 0 0 0 0.05466
1.363 -0.27000001 -0.81999999 13 0 0 0 0.054669999
1.357 -0.26899999 -0.81999999 13 0 0 0 0.054680001
1.352 -0.26699999 -0.82099998 13 0 0 0 0.05469
1.346 -0.26499999 -0.82099998 14 0 0 0 0.054699998
1.341 -0.264 -0.82099998 13 0 0 0 0.054710001
1.3329999 -0.26199999 -0.81900001 13 0 0 0 0.054719999
1.33 -0.25999999 -0.82099998 13 0 0 0 0.054730002
1.323 -0.25799999 -0.81999999 13 0 0 0 0.054740001
1.319 -0.257 -0.82099998 13 0 0 0 0.054749999
1.313 -0.255 -0.81999999 13 0 0 0 0.054760002
1.307 -0.25299999 -0.81900001 13 0 0 0 0.05477
1.3049999 -0.252 -0.82099998 14 0 0 0 0.054779999
1.3 -0.25 -0.82099998 14 0 0 0 0.054790001
1.298 -0.249 -0.82300001 14 0 0 0 0.0548
1.293 -0.24699999 -0.82300001 12 0 0 0 0.054809999
1.288 -0.245 -0.82200003 10 0 0 0 0.054820001
1.285 -0.244 -0.82300001 9 0 0 0 0.05483
1.286 -0.243 -0.82599998 9 0 0 0 0.054839998
1.28 -0.241 -0.82499999 9 0 0 0 0.054850001
1.274 -0.23899999 -0.824 10 0 0 0 0.05486
1.2690001 -0.237 -0.82300001 12 0 0 0 0.054869998
1.262 -0.235 -0.82099998 13 0 0 0 0.054880001
1.26 -0.233 -0.82200003 15 0 0 0 0.054889999
1.257 -0.23199999 -0.82300001 15 0 0 0 0.054900002
1.251 -0.229 -0.82099998 15 0 0 0 0.05491
1.25 -0.228 -0.82200003 15 0 0 0 0.054919999
1.245 -0.226 -0.82099998 14 0 0 0 0.054930001
1.244 -0.22499999 -0.82300001 14 0 0 0 0.05494
1.2410001 -0.223 -0.82300001 15 0 0 0 0.054949999
1.238 -0.221 -0.82300001 14 0 0 0 0.054960001
1.233 -0.219 -0.82099998 14 0 0 0 0.05497
1.229 -0.21699999 -0.81999999 15 0 0 0 0.054979999
1.226 -0.215 -0.82099998 15 0 0 0 0.054990001
1.225 -0.214 -0.82200003 15 0 0 0 0.055
1.223 -0.212 -0.82200003 15 0 0 0 0.055009998
1.221 -0.211 -0.82200003 15 0 0 0 0.055020001
1.221 -0.20900001 -0.824 15 0 0 0 0.055029999
1.219 -0.208 -0.824 15 0 0 0 0.055039998
1.215 -0.205 -0.82200003 14 0 0 0 0.055050001
1.216 -0.204 -0.82499999 14 0 0 0 0.055059999
1.211 -0.20200001 -0.82300001 15 0 0 0 0.055070002
1.205 -0.2 -0.81999999 15 0 0 0 0.05508
1.205 -0.198 -0.82099998 15 0 0 0 0.055089999
1.204 -0.19599999 -0.82200003 16 0 0 0 0.055100001
1.2029999 -0.19499999 -0.82200003 15 0 0 0 0.05511
1.201 -0.193 -0.82099998 15 0 0 0 0.055119999
1.2 -0.191 -0.82200003 15 0 0 0 0.055130001
1.2 -0.19 -0.82300001 15 0 0 0 0.05514
1.198 -0.18799999 -0.82200003 15 0 0 0 0.055149999
1.197 -0.186 -0.82200003 15 0 0 0 0.055160001
1.198 -0.185 -0.82300001 15 0 0 0 0.05517
1.196 -0.183 -0.82300001 15 0 0 0 0.055179998
1.196 -0.18099999 -0.82300001 16 0 0 0 0.055190001
1.196 -0.17900001 -0.824 15 0 0 0 0.055199999
1.196 -0.178 -0.824 15 0 0 0 0.055210002
1.196 -0.176 -0.824 15 0 0 0 0.05522
1.1950001 -0.17399999 -0.82300001 15 0 0 0 0.055229999
1.196 -0.17299999 -0.82499999 15 0 0 0 0.055240002
1.196 -0.171 -0.82499999 15 0 0 0 0.05525
1.1950001 -0.169 -0.824 16 0 0 0 0.055259999
1.1950001 -0.167 -0.824 16 0 0 0 0.055270001
1.1950001 -0.16599999 -0.824 16 0 0 0 0.05528
1.191 -0.163 -0.82099998 16 0 0 0 0.055289999
1.1950001 -0.162 -0.824 16 0 0 0 0.055300001
1.1950001 -0.16 -0.824 16 0 0 0 0.05531
1.1950001 -0.15899999 -0.82300001 16 0 0 0 0.055319998
1.193 -0.15700001 -0.82200003 17 0 0 0 0.055330001
1.199 -0.156 -0.82499999 15 0 0 0 0.055339999
1.197 -0.153 -0.82300001 16 0 0 0 0.055349998
1.197 -0.152 -0.82300001 16 0 0 0 0.055360001
1.197 -0.15000001 -0.82200003 16 0 0 0 0.055369999
1.2029999 -0.149 -0.82499999 16 0 0 0 0.055380002
1.199 -0.146 -0.82200003 16 0 0 0 0.05539
1.204 -0.145 -0.824 16 0 0 0 0.055399999
1.204 -0.14300001 -0.824 16 0 0 0 0.055410001
1.2029999 -0.141 -0.82200003 15 0 0 0 0.05542
1.209 -0.14 -0.82499999 16 0 0 0 0.055429999
1.21 -0.138 -0.824 16 0 0 0 0.055440001
1.211 -0.13699999 -0.824 15 0 0 0 0.05545
1.2130001 -0.13500001 -0.824 16 0 0 0 0.055459999
1.214 -0.133 -0.824 16 0 0 0 0.055470001
1.215 -0.131 -0.82300001 16 0 0 0 0.05548
1.2180001 -0.13 -0.824 17 0 0 0 0.055489998
1.224 -0.12899999 -0.82599998 16 0 0 0 0.055500001
1.222 -0.126 -0.82300001 16 0 0 0 0.055509999
1.229 -0.125 -0.82599998 17 0 0 0 0.055520002
1.2309999 -0.124 -0.82599998 16 0 0 0 0.05553
1.232 -0.122 -0.82499999 16 0 0 0 0.055539999
1.237 -0.12 -0.82599998 16 0 0 0 0.055550002
1.239 -0.119 -0.82599998 17 0 0 0 0.05556
1.2410001 -0.117 -0.82599998 17 0 0 0 0.055569999
1.243 -0.115 -0.82499999 16 0 0 0 0.055580001
1.244 -0.113 -0.82300001 16 0 0 0 0.05559
1.25 -0.112 -0.82499999 16 0 0 0 0.055599999
1.253 -0.111 -0.82499999 16 0 0 0 0.055610001
1.257 -0.109 -0.82599998 16 0 0 0 0.05562
1.2640001 -0.108 -0.82800001 17 0 0 0 0.055629998
1.266 -0.106 -0.82700002 17 0 0 0 0.055640001
1.268 -0.104 -0.82599998 16 0 0 0 0.05565
1.273 -0.103 -0.82700002 16 0 0 0 0.055659998
1.276 -0.101 -0.82599998 17 0 0 0 0.055670001
1.279 -0.098999999 -0.82499999 16 0 0 0 0.055679999
1.283 -0.097999997 -0.82499999 16 0 0 0 0.055690002
1.286 -0.096000001 -0.82499999 17 0 0 0 0.0557
1.29 -0.094999999 -0.82499999 17 0 0 0 0.055709999
1.2970001 -0.093000002 -0.82599998 17 0 0 0 0.055720001
1.301 -0.092 -0.82599998 17 0 0 0 0.05573
1.303 -0.090000004 -0.824 17 0 0 0 0.055739999
1.307 -0.088 -0.824 17 0 0 0 0.055750001
1.309 -0.086999997 -0.82200003 16 0 0 0 0.05576
1.3150001 -0.085000001 -0.82300001 17 0 0 0 0.055769999
1.322 -0.083999999 -0.824 17 0 0 0 0.055780001
1.331 -0.082000002 -0.82700002 16 0 0 0 0.05579
1.3329999 -0.081 -0.824 16 0 0 0 0.055799998
1.339 -0.079000004 -0.82499999 16 0 0 0 0.055810001
1.348 -0.078000002 -0.82700002 16 0 0 0 0.055819999
1.352 -0.075999998 -0.82599998 16 0 0 0 0.055830002
1.36 -0.075000003 -0.82700002 16 0 0 0 0.055840001
1.363 -0.072999999 -0.82599998 16 0 0 0 0.055849999
1.37 -0.071999997 -0.82599998 16 0 0 0 0.055860002
1.375 -0.071000002 -0.82599998 16 0 0 0 0.05587
1.385 -0.068999998 -0.82800001 17 0 0 0 0.055879999
1.387 -0.068000004 -0.82599998 17 0 0 0 0.055890001
1.39 -0.066 -0.824 16 0 0 0 0.0559
1.403 -0.064999998 -0.82800001 17 0 0 0 0.055909999
1.408 -0.063000001 -0.82700002 16 0 0 0 0.055920001
1.413 -0.061999999 -0.82599998 16 0 0 0 0.05593
1.423 -0.061000001 -0.82800001 17 0 0 0 0.055939998
1.428 -0.059 -0.82700002 16 0 0 0 0.055950001
1.4349999 -0.057999998 -0.82700002 17 0 0 0 0.05596
1.446 -0.056000002 -0.829 15 0 0 0 0.055969998
1.449 -0.055 -0.82700002 14 0 0 0 0.055980001
1.4630001 -0.054000001 -0.82999998 13 0 0 0 0.055989999
1.47 -0.052000001 -0.82999998 15 0 0 0 0.056000002
1.476 -0.050999999 -0.829 16 0 0 0 0.05601
1.485 -0.050000001 -0.829 16 0 0 0 0.056019999
1.494 -0.048 -0.82999998 16 0 0 0 0.056030001
1.499 -0.046999998 -0.82800001 15 0 0 0 0.05604
1.5089999 -0.046 -0.829 16 0 0 0 0.056049999
1.518 -0.044 -0.82999998 15 0 0 0 0.056060001
1.524 -0.043000001 -0.82800001 16 0 0 0 0.05607
1.54 -0.041999999 -0.83200002 16 0 0 0 0.056079999
1.548 -0.039999999 -0.83200002 16 0 0 0 0.056090001
1.55 -0.039000001 -0.82800001 16 0 0 0 0.0561
1.568 -0.037999999 -0.833 16 0 0 0 0.056109998
1.577 -0.035999998 -0.833 16 0 0 0 0.056120001
1.589 -0.035 -0.83399999 16 0 0 0 0.056129999
1.603 -0.034000002 -0.83600003 17 0 0 0 0.056139998
1.609 -0.033 -0.83499998 16 0 0 0 0.056150001
1.614 -0.030999999 -0.83200002 16 0 0 0 0.056159999
1.628 -0.029999999 -0.83399999 17 0 0 0 0.056170002
1.6390001 -0.028999999 -0.83399999 16 0 0 0 0.05618
1.641 -0.027000001 -0.82999998 70 0 0 0 0.056189999
1.656 -0.026000001 -0.83200002 16 0 0 0 0.056200001
1.66 -0.025 -0.829 60 0 0 0 0.05621
1.676 -0.024 -0.83200002 55 0 0 0 0.056219999
1.694 -0.022 -0.83499998 14 0 0 0 0.056230001
1.7029999 -0.021 -0.83399999 14 0 0 0 0.05624
1.714 -0.02 -0.83399999 14 0 0 0 0.056249999
1.725 -0.018999999 -0.83399999 14 0 0 0 0.056260001
1.744 -0.017000001 -0.83700001 14 0 0 0 0.05627
1.751 -0.016000001 -0.83399999 14 0 0 0 0.056279998
1.7640001 -0.015 -0.83499998 14 0 0 0 0.056290001
1.779 -0.014 -0.83600003 14 0 0 0 0.056299999
1.789 -0.013 -0.83499998 13 0 0 0 0.056310002
1.807 -0.011 -0.83700001 14 0 0 0 0.05632
1.816 -0.0099999998 -0.83600003 15 0 0 0 0.056329999
1.829 -0.0089999996 -0.83600003 14 0 0 0 0.056340002
1.8380001 -0.0080000004 -0.83399999 41 0 0 0 0.05635
1.857 -0.0070000002 -0.83600003 43 0 0 0 0.056359999
1.868 -0.0049999999 -0.83499998 42 0 0 0 0.056370001
1.877 -0.0040000002 -0.833 39 0 0 0 0.05638
1.899 -0.003 -0.83600003 43 0 0 0 0.056389999
1.91 -0.0020000001 -0.83399999 38 0 0 0 0.056400001
1.924 -0.001 -0.83399999 35 0 0 0 0.05641
1.9400001 0 -0.83399999 33 0 0 0 0.056419998
1.9529999 0 -0.833 33 0 0 0 0.056430001
1.967 0.0020000001 -0.833 32 0 0 0 0.056439999
1.992 0.003 -0.83700001 33 0 0 0 0.056449998
2.006 0.0040000002 -0.83600003 32 0 0 0 0.056460001
2.026 0.0049999999 -0.83700001 33 0 0 0 0.056469999
2.043 0.0060000001 -0.838 33 0 0 0 0.056480002
2.0610001 0.0070000002 -0.838 32 0 0 0 0.05649
2.075 0.0080000004 -0.83700001 31 0 0 0 0.056499999
2.0940001 0.0089999996 -0.83700001 32 0 0 0 0.056510001
2.112 0.0099999998 -0.83700001 30 0 0 0 0.05652
2.1289999 0.011 -0.83700001 30 0 0 0 0.056529999
2.154 0.013 -0.83899999 32 0 0 0 0.056540001
2.174 0.014 -0.83999997 31 0 0 0 0.05655
2.1919999 0.015 -0.83899999 30 0 0 0 0.056559999
2.21 0.016000001 -0.838 32 0 0 0 0.056570001
2.2360001 0.017000001 -0.84100002 32 0 0 0 0.05658
2.2579999 0.017999999 -0.84100002 33 0 0 0 0.056589998
2.28 0.018999999 -0.84200001 33 0 0 0 0.056600001
2.2939999 0.02 -0.83899999 33 0 0 0 0.056609999
2.319 0.021 -0.83999997 32 0 0 0 0.056620002
2.345 0.022 -0.84200001 32 0 0 0 0.05663
2.3640001 0.023 -0.84100002 32 0 0 0 0.056639999
2.388 0.024 -0.84100002 32 0 0 0 0.056650002
2.4100001 0.025 -0.84100002 32 0 0 0 0.05666
2.437 0.026000001 -0.84200001 32 0 0 0 0.056669999
2.46 0.027000001 -0.84200001 31 0 0 0 0.056680001
2.4890001 0.028000001 -0.84299999 34 0 0 0 0.05669
2.513 0.028999999 -0.84299999 33 0 0 0 0.056699999
2.5380001 0.029999999 -0.84299999 33 0 0 0 0.056710001
2.5710001 0.030999999 -0.84500003 33 0 0 0 0.05672
2.6070001 0.032000002 -0.84799999 34 0 0 0 0.056729998
2.6259999 0.033 -0.84500003 34 0 0 0 0.056740001
2.655 0.034000002 -0.84600002 33 0 0 0 0.05675
2.687 0.035 -0.847 32 0 0 0 0.056759998
2.717 0.035999998 -0.847 33 0 0 0 0.056770001
2.7550001 0.037 -0.84899998 34 0 0 0 0.056779999
2.7839999 0.037999999 -0.84899998 34 0 0 0 0.056790002
2.8180001 0.039000001 -0.85000002 34 0 0 0 0.0568
2.848 0.039999999 -0.84899998 35 0 0 0 0.056809999
2.8859999 0.041000001 -0.85100001 34 0 0 0 0.056820001
2.928 0.041999999 -0.85399997 34 0 0 0 0.05683
2.9660001 0.043000001 -0.85500002 33 0 0 0 0.056839999
3.007 0.044 -0.85600001 33 0 0 0 0.056850001
3.0539999 0.045000002 -0.85900003 32 0 0 0 0.05686
3.096 0.046 -0.861 32 0 0 0 0.056869999
3.1329999 0.046999998 -0.86000001 32 0 0 0 0.056880001
3.1630001 0.048 -0.85799998 31 0 0 0 0.05689
3.1960001 0.048999999 -0.85600001 31 0 0 0 0.056899998
3.2409999 0.050000001 -0.85699999 31 0 0 0 0.056910001
3.28 0.050999999 -0.85699999 28 0 0 0 0.056919999
3.316 0.050999999 -0.85500002 28 0 0 0 0.056930002
3.3510001 0.052000001 -0.85299999 28 0 0 0 0.056940001
3.402 0.052999999 -0.85500002 29 0 0 0 0.056949999
3.4130001 0.054000001 -0.84600002 99 0 0 0 0.056960002
3.4100001 0.054000001 -0.83399999 150 0 0 0 0.05697
3.4059999 0.054000001 -0.82099998 150 0 0 0 0.056979999
3.4070001 0.054000001 -0.81 151 0 0 0 0.056990001
3.4089999 0.054000001 -0.79900002 151 0 0 0 0.057
3.4070001 0.054000001 -0.787 151 0 0 0 0.057009999
3.4119999 0.054000001 -0.77700001 151 0 0 0 0.057020001
3.4059999 0.054000001 -0.76499999 151 0 0 0 0.05703
3.414 0.054000001 -0.755 151 0 0 0 0.057039998
3.408 0.054000001 -0.74199998 151 0 0 0 0.057050001
3.408 0.054000001 -0.73100001 151 0 0 0 0.05706
3.411 0.054000001 -0.72000003 151 0 0 0 0.057069998
3.4089999 0.052999999 -0.70899999 151 0 0 0 0.057080001
3.411 0.052999999 -0.69800001 151 0 0 0 0.057089999
3.414 0.052999999 -0.68699998 151 0 0 0 0.057100002
3.415 0.052999999 -0.676 151 0 0 0 0.05711
3.4089999 0.052999999 -0.66299999 151 0 0 0 0.057119999
3.408 0.052000001 -0.65200001 151 0 0 0 0.057130001
3.4159999 0.052000001 -0.64200002 151 0 0 0 0.05714
3.415 0.052000001 -0.63099998 151 0 0 0 0.057149999
3.415 0.052000001 -0.61900002 151 0 0 0 0.057160001
3.4130001 0.050999999 -0.60799998 151 0 0 0 0.05717
3.4159999 0.050999999 -0.597 151 0 0 0 0.057179999
3.4119999 0.050000001 -0.58499998 151 0 0 0 0.057190001
3.414 0.050000001 -0.574 151 0 0 0 0.0572
3.4119999 0.048999999 -0.56300002 151 0 0 0 0.057209998
3.415 0.048999999 -0.55199999 151 0 0 0 0.057220001
3.4170001 0.048999999 -0.54100001 151 0 0 0 0.057229999
3.414 0.048 -0.52899998 151 0 0 0 0.057240002
3.4170001 0.048 -0.51899999 151 0 0 0 0.057250001
3.4119999 0.046999998 -0.50700003 151 0 0 0 0.057259999
3.4130001 0.046 -0.49599999 151 0 0 0 0.057270002
3.415 0.046 -0.48500001 151 0 0 0 0.05728
3.4130001 0.045000002 -0.47299999 151 0 0 0 0.057289999
3.415 0.045000002 -0.46200001 151 0 0 0 0.057300001
3.415 0.044 -0.45100001 151 0 0 0 0.05731
3.415 0.043000001 -0.44 151 0 0 0 0.057319999
3.4170001 0.043000001 -0.42899999 151 0 0 0 0.057330001
3.418 0.041999999 -0.41800001 151 0 0 0 0.05734
3.415 0.041000001 -0.40599999 151 0 0 0 0.057349999
3.4159999 0.039999999 -0.39500001 151 0 0 0 0.057360001
3.4200001 0.039999999 -0.38499999 151 0 0 0 0.05737
3.414 0.039000001 -0.373 151 0 0 0 0.057379998
3.418 0.037999999 -0.36199999 151 0 0 0 0.057390001
3.4159999 0.037 -0.35100001 151 0 0 0 0.057399999
3.418 0.035999998 -0.34 151 0 0 0 0.057410002
3.4170001 0.035 -0.329 151 0 0 0 0.05742
3.4200001 0.034000002 -0.31799999 151 0 0 0 0.057429999
3.4100001 0.033 -0.30599999 151 0 0 0 0.057440002
3.415 0.032000002 -0.296 151 0 0 0 0.05745
3.415 0.032000002 -0.285 151 0 0 0 0.057459999
3.418 0.030999999 -0.27399999 151 0 0 0 0.057470001
3.4170001 0.029999999 -0.26300001 151 0 0 0 0.05748
3.4159999 0.028999999 -0.25099999 152 0 0 0 0.057489999
3.4189999 0.027000001 -0.241 152 0 0 0 0.057500001
3.4170001 0.026000001 -0.229 152 0 0 0 0.05751
3.418 0.025 -0.21799999 152 0 0 0 0.057519998
3.4159999 0.024 -0.207 152 0 0 0 0.057530001
3.4170001 0.023 -0.19599999 151 0 0 0 0.057539999
3.4170001 0.022 -0.185 152 0 0 0 0.057549998
3.421 0.021 -0.175 152 0 0 0 0.057560001
3.4189999 0.02 -0.163 152 0 0 0 0.057569999
3.4189999 0.018999999 -0.152 152 0 0 0 0.057580002
3.4200001 0.017000001 -0.141 152 0 0 0 0.05759
3.4200001 0.016000001 -0.13 152 0 0 0 0.057599999
3.4200001 0.015 -0.119 152 0 0 0 0.057610001
3.4219999 0.014 -0.108 152 0 0 0 0.05762
3.425 0.012 -0.097000003 152 0 0 0 0.057629999
3.4230001 0.011 -0.086000003 152 0 0 0 0.057640001
3.424 0.0099999998 -0.075000003 152 0 0 0 0.05765
3.424 0.0080000004 -0.064000003 152 0 0 0 0.057659999
3.421 0.0070000002 -0.052999999 152 0 0 0 0.057670001
3.424 0.0060000001 -0.041999999 152 0 0 0 0.05768
3.4289999 0.0040000002 -0.032000002 152 0 0 0 0.057689998
3.421 0.003 -0.02 152 0 0 0 0.057700001
3.4230001 0.001 -0.0089999996 152 0 0 0 0.057709999
3.424 0 0.001 152 0 0 0 0.057720002
3.4219999 -0.001 0.012 152 0 0 0 0.05773
3.4219999 -0.0020000001 0.023 152 0 0 0 0.057739999
3.4219999 -0.0040000002 0.034000002 151 0 0 0 0.057750002
3.421 -0.0049999999 0.045000002 151 0 0 0 0.05776
3.425 -0.0070000002 0.056000002 151 0 0 0 0.057769999
3.425 -0.0080000004 0.067000002 152 0 0 0 0.057780001
3.424 -0.0099999998 0.078000002 151 0 0 0 0.05779
3.424 -0.012 0.088 151 0 0 0 0.057799999
3.424 -0.013 0.098999999 151 0 0 0 0.057810001
3.427 -0.015 0.111 152 0 0 0 0.05782
3.425 -0.016000001 0.122 152 0 0 0 0.057829998
3.425 -0.017999999 0.132 151 0 0 0 0.057840001
3.427 -0.02 0.14399999 151 0 0 0 0.05785
3.424 -0.022 0.154 151 0 0 0 0.057859998
3.4260001 -0.023 0.16500001 151 0 0 0 0.057870001
3.424 -0.025 0.176 151 0 0 0 0.057879999
3.4219999 -0.027000001 0.18700001 151 0 0 0 0.057890002
3.427 -0.028999999 0.198 151 0 0 0 0.0579
3.4289999 -0.030999999 0.20900001 151 0 0 0 0.057909999
3.427 -0.032000002 0.22 151 0 0 0 0.057920001
3.4330001 -0.034000002 0.23199999 151 0 0 0 0.05793
3.4260001 -0.035999998 0.242 151 0 0 0 0.057939999
3.4300001 -0.037999999 0.25299999 151 0 0 0 0.057950001
3.4289999 -0.039999999 0.264 151 0 0 0 0.05796
3.431 -0.041999999 0.27500001 151 0 0 0 0.057969999
3.431 -0.044 0.287 151 0 0 0 0.057980001
3.4300001 -0.046 0.29699999 151 0 0 0 0.05799
3.4300001 -0.048 0.308 151 0 0 0 0.057999998
3.4289999 -0.050000001 0.31900001 151 0 0 0 0.058010001
3.427 -0.052000001 0.33000001 151 0 0 0 0.058019999
3.434 -0.054000001 0.34200001 151 0 0 0 0.058030002
3.431 -0.056000002 0.352 151 0 0 0 0.05804
3.4319999 -0.057999998 0.36300001 151 0 0 0 0.058049999
3.431 -0.059999999 0.37400001 151 0 0 0 0.058060002
3.4289999 -0.061999999 0.38499999 151 0 0 0 0.05807
3.4360001 -0.064999998 0.39700001 151 0 0 0 0.058079999
3.4349999 -0.067000002 0.40799999 151 0 0 0 0.058090001
3.4330001 -0.068999998 0.419 151 0 0 0 0.0581
3.4319999 -0.071000002 0.42899999 151 0 0 0 0.058109999
3.431 -0.074000001 0.44 151 0 0 0 0.058120001
3.4319999 -0.075999998 0.45100001 151 0 0 0 0.05813
3.4349999 -0.078000002 0.463 151 0 0 0 0.058139998
3.4360001 -0.081 0.47400001 151 0 0 0 0.058150001
3.4330001 -0.082999997 0.48500001 151 0 0 0 0.05816
3.4319999 -0.085000001 0.495 151 0 0 0 0.058169998
3.4360001 -0.088 0.50700003 151 0 0 0 0.058180001
3.434 -0.090000004 0.51800001 151 0 0 0 0.058189999
3.4349999 -0.093000002 0.52899998 151 0 0 0 0.058200002
3.441 -0.094999999 0.54100001 150 0 0 0 0.05821
3.4360001 -0.097000003 0.551 150 0 0 0 0.058219999
3.437 -0.1 0.56199998 151 0 0 0 0.058230001
3.4389999 -0.103 0.574 151 0 0 0 0.05824
3.437 -0.105 0.58399999 150 0 0 0 0.058249999
3.4360001 -0.108 0.59500003 150 0 0 0 0.058260001
3.441 -0.11 0.60699999 151 0 0 0 0.05827
3.4400001 -0.113 0.61799997 151 0 0 0 0.058279999
3.4400001 -0.116 0.62900001 150 0 0 0 0.058290001
3.441 -0.118 0.63999999 150 0 0 0 0.0583
3.441 -0.121 0.65100002 151 0 0 0 0.058309998
3.4389999 -0.124 0.662 150 0 0 0 0.058320001
3.4419999 -0.127 0.67299998 150 0 0 0 0.058329999
3.4400001 -0.12899999 0.68400002 150 0 0 0 0.058340002
3.4400001 -0.132 0.69499999 151 0 0 0 0.058350001
3.4389999 -0.13500001 0.70599997 150 0 0 0 0.058359999
3.4400001 -0.138 0.71700001 151 0 0 0 0.058370002
3.4389999 -0.141 0.72799999 151 0 0 0 0.05838
3.441 -0.14399999 0.74000001 151 0 0 0 0.058389999
3.438 -0.147 0.75 151 0 0 0 0.058400001
3.4400001 -0.15000001 0.76200002 151 0 0 0 0.05841
3.4419999 -0.153 0.773 151 0 0 0 0.058419999
3.4419999 -0.156 0.78399998 151 0 0 0 0.058430001
3.444 -0.15899999 0.796 151 0 0 0 0.05844
3.428 -0.161 0.80299997 150 0 0 0 0.058449998
3.411 -0.163 0.81 150 0 0 0 0.058460001
3.388 -0.16500001 0.81599998 150 0 0 0 0.05847
3.3840001 -0.168 0.82599998 150 0 0 0 0.058479998
3.3789999 -0.171 0.83499998 150 0 0 0 0.058490001
3.3800001 -0.17399999 0.84600002 150 0 0 0 0.058499999
3.3800001 -0.178 0.85699999 150 0 0 0 0.058510002
3.382 -0.18099999 0.86900002 150 0 0 0 0.05852
3.3840001 -0.184 0.88 151 0 0 0 0.058529999
3.3770001 -0.18700001 0.889 150 0 0 0 0.058540002
3.368 -0.19 0.89700001 150 0 0 0 0.05855
3.3599999 -0.193 0.90600002 150 0 0 0 0.058559999
3.3540001 -0.19599999 0.91500002 150 0 0 0 0.058570001
3.3540001 -0.199 0.926 150 0 0 0 0.05858
3.352 -0.20200001 0.93599999 150 0 0 0 0.058589999
3.3510001 -0.206 0.94700003 150 0 0 0 0.058600001
3.355 -0.20900001 0.95899999 150 0 0 0 0.05861
3.359 -0.213 0.97100002 150 0 0 0 0.058619998
3.3570001 -0.21699999 0.98100001 150 0 0 0 0.058630001
3.3570001 -0.22 0.99199998 150 0 0 0 0.058639999
3.3559999 -0.22400001 1.002 150 0 0 0 0.058649998
3.3559999 -0.227 1.013 151 0 0 0 0.058660001
3.355 -0.23100001 1.023 150 0 0 0 0.058669999
3.355 -0.234 1.034 150 0 0 0 0.058680002
3.346 -0.23800001 1.0420001 55 0 0 0 0.05869
3.336 -0.241 1.05 33 0 0 0 0.058699999
3.286 -0.241 1.044 43 0 0 0 0.058710001
3.2520001 -0.242 1.044 82 0 0 0 0.05872
3.243 -0.245 1.052 150 0 0 0 0.058729999
3.2449999 -0.249 1.062 150 0 0 0 0.058740001
3.2420001 -0.252 1.072 150 0 0 0 0.05875
3.2420001 -0.25600001 1.082 150 0 0 0 0.058759999
3.2409999 -0.25999999 1.092 150 0 0 0 0.058770001
3.2420001 -0.264 1.103 150 0 0 0 0.05878
3.2460001 -0.26800001 1.115 150 0 0 0 0.058789998
3.2449999 -0.27200001 1.125 150 0 0 0 0.058800001
3.2509999 -0.27599999 1.137 150 0 0 0 0.058809999
3.2490001 -0.28 1.147 151 0 0 0 0.058820002
3.247 -0.28400001 1.156 150 0 0 0 0.05883
3.24 -0.287 1.164 150 0 0 0 0.058839999
3.224 -0.28999999 1.169 150 0 0 0 0.058850002
3.2160001 -0.294 1.176 150 0 0 0 0.05886
3.217 -0.29800001 1.186 150 0 0 0 0.058869999
