# .PCD v0.7 - Point Cloud Data file format
VERSION 0.7
FIELDS x y z intensity normal_x normal_y normal_z curvature
SIZE 4 4 4 4 4 4 4 4
TYPE F F F F F F F F
COUNT 1 1 1 1 1 1 1 1
WIDTH 1035
HEIGHT 1
VIEWPOINT 0 0 0 1 0 0 0
POINTS 1035
DATA ascii
1.253 -0.23100001 -0.82300001 16 0 0 0 0.044380002
1.255 -0.229 -0.82300001 16 0 0 0 0.04439
1.256 -0.227 -0.82200003 16 0 0 0 0.044399999
1.263 -0.226 -0.82499999 16 0 0 0 0.044410001
1.261 -0.223 -0.82200003 16 0 0 0 0.04442
1.265 -0.222 -0.82300001 16 0 0 0 0.044429999
1.267 -0.22 -0.82200003 16 0 0 0 0.044440001
1.271 -0.219 -0.824 16 0 0 0 0.04445
1.272 -0.21699999 -0.82200003 16 0 0 0 0.044459999
1.273 -0.215 -0.82099998 17 0 0 0 0.044470001
1.28 -0.214 -0.824 16 0 0 0 0.04448
1.284 -0.212 -0.824 17 0 0 0 0.044489998
1.285 -0.20999999 -0.82300001 16 0 0 0 0.044500001
1.291 -0.20900001 -0.82499999 16 0 0 0 0.044509999
1.289 -0.206 -0.82099998 16 0 0 0 0.044520002
1.294 -0.205 -0.82200003 16 0 0 0 0.044530001
1.2970001 -0.20299999 -0.82099998 16 0 0 0 0.044539999
1.303 -0.20200001 -0.82300001 16 0 0 0 0.044550002
1.304 -0.2 -0.82200003 15 0 0 0 0.04456
1.311 -0.199 -0.824 16 0 0 0 0.044569999
1.314 -0.197 -0.82300001 15 0 0 0 0.044580001
1.318 -0.19499999 -0.82300001 16 0 0 0 0.04459
1.321 -0.19400001 -0.82200003 15 0 0 0 0.044599999
1.3279999 -0.192 -0.824 16 0 0 0 0.044610001
1.332 -0.191 -0.82300001 16 0 0 0 0.04462
1.34 -0.19 -0.82599998 16 0 0 0 0.044629999
1.342 -0.18799999 -0.824 16 0 0 0 0.044640001
1.346 -0.186 -0.824 17 0 0 0 0.04465
1.353 -0.185 -0.82499999 16 0 0 0 0.044659998
1.355 -0.183 -0.82300001 16 0 0 0 0.044670001
1.3609999 -0.18099999 -0.824 17 0 0 0 0.044679999
1.369 -0.18000001 -0.82499999 16 0 0 0 0.044690002
1.373 -0.178 -0.824 16 0 0 0 0.0447
1.376 -0.176 -0.82300001 16 0 0 0 0.044709999
1.383 -0.175 -0.824 16 0 0 0 0.044720002
1.39 -0.17399999 -0.82499999 17 0 0 0 0.04473
1.398 -0.17299999 -0.82599998 17 0 0 0 0.044739999
1.403 -0.171 -0.82499999 17 0 0 0 0.044750001
1.408 -0.169 -0.82499999 16 0 0 0 0.04476
1.413 -0.168 -0.824 16 0 0 0 0.044769999
1.4170001 -0.16599999 -0.82300001 16 0 0 0 0.044780001
1.425 -0.16500001 -0.824 17 0 0 0 0.04479
1.433 -0.163 -0.82499999 16 0 0 0 0.044799998
1.439 -0.162 -0.82499999 17 0 0 0 0.044810001
1.4450001 -0.16 -0.824 17 0 0 0 0.044819999
1.454 -0.15899999 -0.82499999 15 0 0 0 0.044829998
1.46 -0.15700001 -0.82499999 13 0 0 0 0.044840001
1.475 -0.15700001 -0.829 13 0 0 0 0.044849999
1.479 -0.155 -0.82800001 14 0 0 0 0.044860002
1.487 -0.154 -0.82800001 14 0 0 0 0.04487
1.4910001 -0.152 -0.82599998 14 0 0 0 0.044879999
1.5 -0.15099999 -0.82700002 14 0 0 0 0.044890001
1.5089999 -0.149 -0.82700002 14 0 0 0 0.0449
1.516 -0.148 -0.82700002 13 0 0 0 0.044909999
1.52 -0.146 -0.82499999 13 0 0 0 0.044920001
1.536 -0.146 -0.829 14 0 0 0 0.04493
1.543 -0.14399999 -0.829 14 0 0 0 0.044939999
1.559 -0.14300001 -0.833 14 0 0 0 0.044950001
1.5650001 -0.142 -0.83099997 14 0 0 0 0.04496
1.573 -0.14 -0.83099997 14 0 0 0 0.044969998
1.58 -0.139 -0.82999998 13 0 0 0 0.044980001
1.589 -0.138 -0.82999998 13 0 0 0 0.044989999
1.601 -0.13699999 -0.83099997 14 0 0 0 0.045000002
1.6109999 -0.13500001 -0.83200002 13 0 0 0 0.04501
1.613 -0.133 -0.82800001 59 0 0 0 0.045019999
1.631 -0.133 -0.83200002 14 0 0 0 0.045030002
1.642 -0.131 -0.833 14 0 0 0 0.04504
1.651 -0.13 -0.83200002 14 0 0 0 0.045049999
1.652 -0.12800001 -0.82800001 55 0 0 0 0.045060001
1.673 -0.12800001 -0.833 14 0 0 0 0.04507
1.681 -0.126 -0.83200002 13 0 0 0 0.045079999
1.693 -0.125 -0.833 14 0 0 0 0.045090001
1.7029999 -0.123 -0.83200002 14 0 0 0 0.0451
1.7180001 -0.122 -0.83399999 14 0 0 0 0.045109998
1.723 -0.121 -0.83099997 14 0 0 0 0.045120001
1.7410001 -0.12 -0.83399999 14 0 0 0 0.04513
1.749 -0.118 -0.83200002 14 0 0 0 0.045139998
1.761 -0.117 -0.833 14 0 0 0 0.045150001
1.771 -0.116 -0.83200002 14 0 0 0 0.045159999
1.785 -0.115 -0.833 14 0 0 0 0.045170002
1.804 -0.114 -0.83600003 14 0 0 0 0.04518
1.811 -0.112 -0.833 14 0 0 0 0.045189999
1.824 -0.111 -0.833 15 0 0 0 0.045200001
1.834 -0.11 -0.83200002 44 0 0 0 0.04521
1.85 -0.109 -0.83399999 44 0 0 0 0.045219999
1.865 -0.108 -0.83399999 43 0 0 0 0.045230001
1.872 -0.106 -0.83099997 40 0 0 0 0.04524
1.89 -0.105 -0.833 41 0 0 0 0.045249999
1.904 -0.104 -0.833 38 0 0 0 0.045260001
1.921 -0.103 -0.83499998 37 0 0 0 0.04527
1.931 -0.102 -0.833 35 0 0 0 0.045279998
1.947 -0.101 -0.833 37 0 0 0 0.045290001
1.9630001 -0.1 -0.83399999 35 0 0 0 0.045299999
1.9809999 -0.098999999 -0.83499998 35 0 0 0 0.045310002
1.994 -0.097000003 -0.83399999 35 0 0 0 0.04532
2.0150001 -0.096000001 -0.83600003 36 0 0 0 0.045329999
2.029 -0.094999999 -0.83499998 36 0 0 0 0.045340002
2.046 -0.093999997 -0.83499998 36 0 0 0 0.04535
2.0639999 -0.093000002 -0.83600003 34 0 0 0 0.045359999
2.076 -0.092 -0.83399999 35 0 0 0 0.045370001
2.098 -0.090999998 -0.83600003 35 0 0 0 0.04538
2.115 -0.090000004 -0.83499998 33 0 0 0 0.045389999
2.1340001 -0.089000002 -0.83600003 34 0 0 0 0.045400001
2.1559999 -0.088 -0.83700001 34 0 0 0 0.04541
2.1730001 -0.086999997 -0.83700001 34 0 0 0 0.045419998
2.1919999 -0.086000003 -0.83700001 33 0 0 0 0.045430001
2.2149999 -0.085000001 -0.838 31 0 0 0 0.04544
2.2360001 -0.083999999 -0.83899999 31 0 0 0 0.045449998
2.2579999 -0.082999997 -0.83999997 31 0 0 0 0.045460001
2.2739999 -0.081 -0.838 31 0 0 0 0.045469999
2.2969999 -0.081 -0.83899999 31 0 0 0 0.045480002
2.319 -0.079999998 -0.83899999 32 0 0 0 0.04549
2.339 -0.078000002 -0.83899999 32 0 0 0 0.045499999
2.3629999 -0.077 -0.83899999 31 0 0 0 0.045510001
2.3870001 -0.075999998 -0.83999997 31 0 0 0 0.04552
2.4089999 -0.075000003 -0.83999997 32 0 0 0 0.045529999
2.4289999 -0.074000001 -0.838 32 0 0 0 0.045540001
2.4619999 -0.074000001 -0.84200001 27 0 0 0 0.04555
2.487 -0.072999999 -0.84200001 27 0 0 0 0.045559999
2.507 -0.071000002 -0.83999997 28 0 0 0 0.045570001
2.5320001 -0.07 -0.83999997 29 0 0 0 0.04558
2.563 -0.07 -0.84200001 30 0 0 0 0.045589998
2.5910001 -0.068999998 -0.84299999 29 0 0 0 0.045600001
2.6199999 -0.068000004 -0.84299999 29 0 0 0 0.045609999
2.6500001 -0.067000002 -0.84399998 30 0 0 0 0.045620002
2.678 -0.066 -0.84399998 30 0 0 0 0.045630001
2.7030001 -0.064999998 -0.84299999 30 0 0 0 0.045639999
2.737 -0.064000003 -0.84500003 30 0 0 0 0.045650002
2.7679999 -0.063000001 -0.84500003 30 0 0 0 0.04566
2.799 -0.061999999 -0.84500003 28 0 0 0 0.045669999
2.835 -0.061000001 -0.847 29 0 0 0 0.045680001
2.8640001 -0.059999999 -0.84600002 30 0 0 0 0.04569
2.9070001 -0.059999999 -0.84899998 29 0 0 0 0.045699999
2.9519999 -0.059 -0.852 28 0 0 0 0.045710001
2.9909999 -0.057999998 -0.85399997 29 0 0 0 0.04572
3.0320001 -0.057 -0.85500002 29 0 0 0 0.045729998
3.073 -0.056000002 -0.85600001 30 0 0 0 0.045740001
3.109 -0.055 -0.85600001 31 0 0 0 0.04575
3.148 -0.054000001 -0.85600001 30 0 0 0 0.045759998
3.181 -0.052999999 -0.85500002 30 0 0 0 0.045770001
3.211 -0.052000001 -0.852 29 0 0 0 0.045779999
3.2620001 -0.052000001 -0.85500002 30 0 0 0 0.045790002
3.2969999 -0.050999999 -0.85299999 30 0 0 0 0.0458
3.3399999 -0.050000001 -0.85299999 30 0 0 0 0.045809999
3.381 -0.048999999 -0.852 31 0 0 0 0.045820002
3.4170001 -0.048 -0.85000002 59 0 0 0 0.04583
3.4119999 -0.046 -0.838 150 0 0 0 0.045839999
3.4130001 -0.045000002 -0.82700002 150 0 0 0 0.045850001
3.414 -0.043000001 -0.815 151 0 0 0 0.04586
3.414 -0.041999999 -0.80400002 151 0 0 0 0.045869999
3.4130001 -0.039999999 -0.79299998 151 0 0 0 0.045880001
3.414 -0.039000001 -0.78100002 151 0 0 0 0.04589
3.415 -0.037999999 -0.76999998 151 0 0 0 0.045899998
3.4159999 -0.035999998 -0.759 150 0 0 0 0.045910001
3.4159999 -0.035 -0.74800003 150 0 0 0 0.045919999
3.4189999 -0.034000002 -0.73699999 151 0 0 0 0.045929998
3.4200001 -0.033 -0.72600001 151 0 0 0 0.045940001
3.4189999 -0.030999999 -0.71499997 151 0 0 0 0.045949999
3.4170001 -0.029999999 -0.70300001 151 0 0 0 0.045960002
3.4170001 -0.028999999 -0.69199997 151 0 0 0 0.04597
3.418 -0.028000001 -0.68099999 151 0 0 0 0.045979999
3.4159999 -0.027000001 -0.66900003 151 0 0 0 0.045990001
3.4189999 -0.026000001 -0.65799999 151 0 0 0 0.046
3.4200001 -0.024 -0.64700001 151 0 0 0 0.046009999
3.418 -0.023 -0.63599998 151 0 0 0 0.046020001
3.4200001 -0.022 -0.625 151 0 0 0 0.04603
3.4200001 -0.021 -0.61400002 151 0 0 0 0.046039999
3.4119999 -0.02 -0.60100001 151 0 0 0 0.046050001
3.4170001 -0.018999999 -0.59100002 151 0 0 0 0.04606
3.4200001 -0.018999999 -0.57999998 151 0 0 0 0.046069998
3.421 -0.017999999 -0.56900001 151 0 0 0 0.046080001
3.414 -0.017000001 -0.55699998 151 0 0 0 0.046089999
3.421 -0.016000001 -0.546 151 0 0 0 0.046100002
3.424 -0.015 -0.53600001 151 0 0 0 0.04611
3.4200001 -0.014 -0.52399999 151 0 0 0 0.046119999
3.421 -0.013 -0.51300001 151 0 0 0 0.046130002
3.421 -0.013 -0.50199997 151 0 0 0 0.04614
3.421 -0.012 -0.491 151 0 0 0 0.046149999
3.418 -0.011 -0.479 151 0 0 0 0.046160001
3.418 -0.0099999998 -0.46799999 151 0 0 0 0.04617
3.421 -0.0099999998 -0.45699999 151 0 0 0 0.046179999
3.4159999 -0.0089999996 -0.44499999 151 0 0 0 0.046190001
3.4170001 -0.0080000004 -0.43399999 151 0 0 0 0.0462
3.418 -0.0080000004 -0.42300001 151 0 0 0 0.046209998
3.4189999 -0.0070000002 -0.412 151 0 0 0 0.046220001
3.421 -0.0070000002 -0.40099999 151 0 0 0 0.04623
3.4219999 -0.0060000001 -0.38999999 151 0 0 0 0.046239998
3.421 -0.0049999999 -0.37900001 151 0 0 0 0.046250001
3.4200001 -0.0049999999 -0.36700001 151 0 0 0 0.046259999
3.4230001 -0.0040000002 -0.35699999 151 0 0 0 0.046270002
3.4170001 -0.0040000002 -0.345 151 0 0 0 0.04628
3.418 -0.0040000002 -0.33399999 151 0 0 0 0.046289999
3.4189999 -0.003 -0.32300001 151 0 0 0 0.046300001
3.4200001 -0.003 -0.31200001 151 0 0 0 0.04631
3.4189999 -0.0020000001 -0.301 151 0 0 0 0.046319999
3.4219999 -0.0020000001 -0.28999999 151 0 0 0 0.046330001
3.4230001 -0.0020000001 -0.27900001 151 0 0 0 0.04634
3.4170001 -0.001 -0.26699999 151 0 0 0 0.046349999
3.4170001 -0.001 -0.25600001 151 0 0 0 0.046360001
3.421 -0.001 -0.245 151 0 0 0 0.04637
3.4189999 0 -0.234 151 0 0 0 0.046379998
3.4200001 0 -0.223 151 0 0 0 0.046390001
3.421 0 -0.212 151 0 0 0 0.046399999
3.4189999 0 -0.20100001 151 0 0 0 0.046410002
3.4200001 0 -0.19 151 0 0 0 0.04642
3.4200001 0 -0.178 151 0 0 0 0.046429999
3.421 0 -0.167 151 0 0 0 0.046440002
3.4189999 0 -0.156 152 0 0 0 0.04645
3.421 0 -0.145 151 0 0 0 0.046459999
3.4219999 0 -0.134 152 0 0 0 0.046470001
3.4200001 0 -0.123 151 0 0 0 0.04648
3.4230001 0 -0.112 152 0 0 0 0.046489999
3.421 0 -0.101 152 0 0 0 0.046500001
3.4219999 0 -0.090000004 152 0 0 0 0.04651
3.424 0 -0.079000004 152 0 0 0 0.046519998
3.4260001 0 -0.068000004 152 0 0 0 0.046530001
3.4230001 0 -0.057 152 0 0 0 0.04654
3.424 0 -0.046 152 0 0 0 0.046549998
3.421 0 -0.035 152 0 0 0 0.046560001
3.421 0 -0.023 152 0 0 0 0.046569999
3.4219999 0 -0.012 152 0 0 0 0.046580002
3.4230001 0 -0.001 151 0 0 0 0.04659
3.4219999 0 0.0089999996 152 0 0 0 0.046599999
3.4230001 0 0.02 152 0 0 0 0.046610001
3.4219999 0 0.030999999 152 0 0 0 0.04662
3.424 0 0.041999999 152 0 0 0 0.046629999
3.4219999 0 0.052999999 151 0 0 0 0.046640001
3.424 0 0.064000003 151 0 0 0 0.04665
3.4219999 0 0.075000003 152 0 0 0 0.046659999
3.421 -0.001 0.086000003 151 0 0 0 0.046670001
3.424 -0.001 0.097000003 151 0 0 0 0.04668
3.424 -0.001 0.109 151 0 0 0 0.046689998
3.4230001 -0.0020000001 0.12 151 0 0 0 0.046700001
3.425 -0.0020000001 0.131 152 0 0 0 0.046709999
3.425 -0.0020000001 0.142 151 0 0 0 0.046720002
3.424 -0.003 0.153 151 0 0 0 0.046730001
3.424 -0.003 0.164 151 0 0 0 0.046739999
3.4230001 -0.0040000002 0.175 151 0 0 0 0.046750002
3.4219999 -0.0040000002 0.186 151 0 0 0 0.04676
3.4219999 -0.0049999999 0.197 151 0 0 0 0.046769999
3.431 -0.0049999999 0.20900001 151 0 0 0 0.046780001
3.425 -0.0060000001 0.22 151 0 0 0 0.04679
3.425 -0.0060000001 0.23100001 151 0 0 0 0.046799999
3.4260001 -0.0070000002 0.242 151 0 0 0 0.046810001
3.4260001 -0.0070000002 0.25299999 151 0 0 0 0.04682
3.431 -0.0080000004 0.264 151 0 0 0 0.046829998
3.424 -0.0080000004 0.27500001 151 0 0 0 0.046840001
3.4289999 -0.0089999996 0.287 151 0 0 0 0.04685
3.4330001 -0.0099999998 0.29800001 151 0 0 0 0.046859998
3.4260001 -0.0099999998 0.30899999 151 0 0 0 0.046870001
3.427 -0.011 0.31999999 151 0 0 0 0.046879999
3.427 -0.012 0.331 151 0 0 0 0.046890002
3.428 -0.012 0.34200001 151 0 0 0 0.0469
3.427 -0.013 0.35299999 151 0 0 0 0.046909999
3.427 -0.014 0.36399999 151 0 0 0 0.046920002
3.424 -0.015 0.375 151 0 0 0 0.04693
3.428 -0.016000001 0.38699999 151 0 0 0 0.046939999
3.4260001 -0.016000001 0.398 151 0 0 0 0.046950001
3.425 -0.017000001 0.40900001 151 0 0 0 0.04696
3.4260001 -0.017999999 0.41999999 151 0 0 0 0.046969999
3.425 -0.018999999 0.43099999 151 0 0 0 0.046980001
3.424 -0.02 0.442 151 0 0 0 0.04699
3.427 -0.021 0.454 151 0 0 0 0.046999998
3.4260001 -0.022 0.465 151 0 0 0 0.047010001
3.4300001 -0.023 0.477 151 0 0 0 0.047019999
3.431 -0.024 0.48800001 151 0 0 0 0.047029998
3.4230001 -0.025 0.498 151 0 0 0 0.047040001
3.4319999 -0.026000001 0.50999999 151 0 0 0 0.047049999
3.4300001 -0.027000001 0.52100003 151 0 0 0 0.047060002
3.431 -0.028000001 0.53299999 151 0 0 0 0.04707
3.431 -0.028999999 0.54400003 151 0 0 0 0.047079999
3.4319999 -0.029999999 0.55500001 151 0 0 0 0.047090001
3.4300001 -0.032000002 0.56599998 151 0 0 0 0.0471
3.4360001 -0.033 0.57800001 151 0 0 0 0.047109999
3.4360001 -0.034000002 0.58999997 151 0 0 0 0.047120001
3.4330001 -0.035 0.60100001 151 0 0 0 0.04713
3.4389999 -0.037 0.61299998 151 0 0 0 0.047139999
3.4319999 -0.037999999 0.62300003 151 0 0 0 0.047150001
3.437 -0.039000001 0.63499999 151 0 0 0 0.04716
3.4349999 -0.039999999 0.64600003 151 0 0 0 0.047169998
3.4360001 -0.041999999 0.65700001 151 0 0 0 0.047180001
3.437 -0.043000001 0.66900003 151 0 0 0 0.047189999
3.4349999 -0.045000002 0.67900002 151 0 0 0 0.047200002
3.4349999 -0.046 0.69099998 150 0 0 0 0.04721
3.4360001 -0.048 0.70200002 150 0 0 0 0.047219999
3.437 -0.048999999 0.71399999 151 0 0 0 0.047230002
3.4330001 -0.050000001 0.72399998 150 0 0 0 0.04724
3.4349999 -0.052000001 0.736 151 0 0 0 0.047249999
3.4330001 -0.054000001 0.74699998 150 0 0 0 0.047260001
3.4300001 -0.055 0.75800002 151 0 0 0 0.04727
3.4330001 -0.057 0.76899999 151 0 0 0 0.047279999
3.434 -0.057999998 0.78100002 150 0 0 0 0.047290001
3.431 -0.059999999 0.792 150 0 0 0 0.0473
3.4349999 -0.061999999 0.80400002 150 0 0 0 0.047309998
3.438 -0.063000001 0.81599998 150 0 0 0 0.047320001
3.4300001 -0.064999998 0.82499999 150 0 0 0 0.04733
3.4360001 -0.067000002 0.838 150 0 0 0 0.047339998
3.437 -0.068999998 0.85000002 150 0 0 0 0.047350001
3.437 -0.071000002 0.861 150 0 0 0 0.047359999
3.437 -0.071999997 0.87199998 150 0 0 0 0.047370002
3.437 -0.074000001 0.884 150 0 0 0 0.04738
3.441 -0.075999998 0.89600003 150 0 0 0 0.047389999
3.4400001 -0.078000002 0.90700001 150 0 0 0 0.047400001
3.4400001 -0.079999998 0.91900003 150 0 0 0 0.04741
3.438 -0.082000002 0.93000001 150 0 0 0 0.047419999
3.4400001 -0.083999999 0.94199997 150 0 0 0 0.047430001
3.437 -0.086000003 0.95200002 150 0 0 0 0.04744
3.437 -0.088 0.96399999 150 0 0 0 0.047449999
3.4389999 -0.090999998 0.97600001 150 0 0 0 0.047460001
3.4419999 -0.093000002 0.98799998 150 0 0 0 0.04747
3.4430001 -0.094999999 0.99900001 150 0 0 0 0.047479998
3.441 -0.097000003 1.01 150 0 0 0 0.047490001
3.444 -0.1 1.023 150 0 0 0 0.047499999
3.441 -0.102 1.033 150 0 0 0 0.047510002
3.441 -0.104 1.044 150 0 0 0 0.04752
3.4389999 -0.106 1.056 150 0 0 0 0.047529999
3.437 -0.109 1.066 150 0 0 0 0.047540002
3.434 -0.111 1.077 150 0 0 0 0.04755
3.444 -0.114 1.091 150 0 0 0 0.047559999
3.4400001 -0.116 1.101 150 0 0 0 0.047570001
3.441 -0.118 1.113 150 0 0 0 0.04758
3.4460001 -0.121 1.126 150 0 0 0 0.047589999
3.4430001 -0.124 1.136 150 0 0 0 0.047600001
3.4449999 -0.126 1.148 150 0 0 0 0.04761
3.451 -0.12899999 1.1619999 150 0 0 0 0.047619998
3.444 -0.132 1.171 150 0 0 0 0.047630001
3.441 -0.134 1.181 150 0 0 0 0.04764
3.444 -0.13699999 1.194 150 0 0 0 0.047649998
3.4430001 -0.14 1.205 150 0 0 0 0.047660001
3.444 -0.14300001 1.217 150 0 0 0 0.047669999
3.4460001 -0.146 1.229 151 0 0 0 0.047680002
3.447 -0.149 1.24 150 0 0 0 0.04769
3.438 -0.15099999 1.249 150 0 0 0 0.047699999
3.4200001 -0.153 1.253 150 0 0 0 0.047710001
3.3889999 -0.155 1.253 150 0 0 0 0.04772
3.388 -0.15800001 1.2640001 150 0 0 0 0.047729999
3.3859999 -0.161 1.274 150 0 0 0 0.047740001
3.388 -0.164 1.286 150 0 0 0 0.04775
3.381 -0.167 1.295 150 0 0 0 0.047759999
3.3640001 -0.169 1.299 150 0 0 0 0.047770001
3.3559999 -0.17200001 1.307 150 0 0 0 0.04778
3.355 -0.175 1.318 150 0 0 0 0.047789998
3.3510001 -0.178 1.327 150 0 0 0 0.047800001
3.3559999 -0.18099999 1.34 150 0 0 0 0.047809999
3.355 -0.185 1.351 150 0 0 0 0.047820002
3.3559999 -0.18799999 1.362 150 0 0 0 0.047830001
3.355 -0.191 1.373 150 0 0 0 0.047839999
3.3599999 -0.19499999 1.386 150 0 0 0 0.047850002
3.358 -0.198 1.396 150 0 0 0 0.04786
3.3540001 -0.20100001 1.405 150 0 0 0 0.047869999
3.3570001 -0.205 1.4170001 150 0 0 0 0.047880001
3.3610001 -0.20900001 1.4299999 150 0 0 0 0.04789
3.358 -0.212 1.439 150 0 0 0 0.047899999
3.359 -0.21600001 1.451 150 0 0 0 0.047910001
3.355 -0.219 1.46 150 0 0 0 0.04792
3.3610001 -0.22400001 1.473 150 0 0 0 0.047929998
3.3629999 -0.228 1.485 150 0 0 0 0.047940001
3.3559999 -0.23100001 1.493 65 0 0 0 0.04795
3.3499999 -0.234 1.501 45 0 0 0 0.047959998
3.3399999 -0.237 1.507 40 0 0 0 0.047970001
3.323 -0.23999999 1.51 37 0 0 0 0.047979999
3.2980001 -0.242 1.5089999 33 0 0 0 0.047990002
3.279 -0.244 1.51 36 0 0 0 0.048
3.267 -0.24699999 1.515 42 0 0 0 0.048009999
3.2609999 -0.25099999 1.523 42 0 0 0 0.048020002
3.256 -0.255 1.531 44 0 0 0 0.04803
3.2390001 -0.257 1.533 45 0 0 0 0.048039999
3.1960001 -0.25799999 1.523 44 0 0 0 0.048050001
3.1289999 -0.25600001 1.5 40 0 0 0 0.04806
3.079 -0.25600001 1.4859999 35 0 0 0 0.048069999
3.0369999 -0.25600001 1.475 30 0 0 0 0.048080001
3.0079999 -0.25799999 1.47 25 0 0 0 0.04809
2.9849999 -0.25999999 1.4680001 30 0 0 0 0.048099998
2.9660001 -0.26199999 1.4680001 28 0 0 0 0.048110001
2.9389999 -0.264 1.464 32 0 0 0 0.048119999
2.911 -0.26499999 1.459 32 0 0 0 0.048129998
2.8840001 -0.266 1.454 32 0 0 0 0.048140001
2.859 -0.26800001 1.45 33 0 0 0 0.048149999
2.835 -0.27000001 1.446 33 0 0 0 0.048160002
2.809 -0.271 1.441 33 0 0 0 0.04817
2.779 -0.27200001 1.434 34 0 0 0 0.048179999
2.763 -0.27399999 1.434 34 0 0 0 0.048190001
2.73 -0.27500001 1.425 33 0 0 0 0.0482
2.704 -0.27599999 1.419 32 0 0 0 0.048209999
2.677 -0.27700001 1.413 32 0 0 0 0.048220001
2.6500001 -0.278 1.4069999 32 0 0 0 0.04823
2.6199999 -0.27900001 1.398 31 0 0 0 0.048239999
2.602 -0.28099999 1.396 31 0 0 0 0.048250001
2.576 -0.28200001 1.3890001 30 0 0 0 0.04826
2.552 -0.28299999 1.3839999 30 0 0 0 0.048269998
2.5309999 -0.28400001 1.3789999 30 0 0 0 0.048280001
2.5190001 -0.287 1.38 30 0 0 0 0.048289999
2.4860001 -0.287 1.369 29 0 0 0 0.048300002
2.4679999 -0.289 1.365 30 0 0 0 0.04831
2.4360001 -0.289 1.354 29 0 0 0 0.048319999
2.404 -0.289 1.3430001 27 0 0 0 0.048330002
2.3829999 -0.28999999 1.3380001 25 0 0 0 0.04834
2.3729999 -0.292 1.339 25 0 0 0 0.048349999
2.382 -0.29699999 1.35 26 0 0 0 0.048360001
2.3800001 -0.301 1.355 26 0 0 0 0.04837
2.378 -0.30399999 1.36 26 0 0 0 0.048379999
2.375 -0.308 1.364 26 0 0 0 0.048390001
2.378 -0.31200001 1.372 26 0 0 0 0.0484
2.3800001 -0.31600001 1.3789999 27 0 0 0 0.048409998
2.382 -0.31999999 1.386 27 0 0 0 0.048420001
2.3789999 -0.324 1.39 25 0 0 0 0.04843
2.3759999 -0.32699999 1.3940001 25 0 0 0 0.048439998
2.3800001 -0.33199999 1.402 24 0 0 0 0.048450001
2.385 -0.33700001 1.411 27 0 0 0 0.048459999
2.382 -0.34 1.415 27 0 0 0 0.048470002
2.3829999 -0.34400001 1.421 27 0 0 0 0.04848
2.382 -0.34799999 1.426 27 0 0 0 0.048489999
2.382 -0.352 1.431 24 0 0 0 0.048500001
2.3829999 -0.35600001 1.437 27 0 0 0 0.04851
2.3840001 -0.361 1.443 27 0 0 0 0.048519999
2.381 -0.36399999 1.446 23 0 0 0 0.048530001
2.382 -0.36899999 1.452 22 0 0 0 0.04854
2.382 -0.373 1.457 22 0 0 0 0.048549999
2.381 -0.377 1.462 22 0 0 0 0.048560001
2.3829999 -0.38100001 1.467 25 0 0 0 0.04857
2.3829999 -0.38499999 1.472 27 0 0 0 0.048579998
2.3900001 -0.391 1.4809999 28 0 0 0 0.048590001
2.3829999 -0.39300001 1.4809999 24 0 0 0 0.048599999
2.3859999 -0.398 1.488 22 0 0 0 0.048610002
2.3840001 -0.40200001 1.4910001 19 0 0 0 0.04862
2.3870001 -0.40700001 1.497 19 0 0 0 0.048629999
2.3870001 -0.41100001 1.502 21 0 0 0 0.048640002
2.3870001 -0.41499999 1.505 18 0 0 0 0.04865
2.3870001 -0.419 1.51 14 0 0 0 0.048659999
2.391 -0.42399999 1.516 14 0 0 0 0.048670001
2.3889999 -0.428 1.5190001 16 0 0 0 0.04868
2.385 -0.43099999 1.5190001 18 0 0 0 0.048689999
2.392 -0.43700001 1.528 20 0 0 0 0.048700001
2.388 -0.44 1.529 19 0 0 0 0.04871
2.3900001 -0.44499999 1.534 18 0 0 0 0.048719998
2.395 -0.44999999 1.54 20 0 0 0 0.048730001
2.3889999 -0.45300001 1.54 22 0 0 0 0.04874
2.391 -0.45699999 1.544 25 0 0 0 0.048749998
2.395 -0.46200001 1.549 24 0 0 0 0.048760001
2.3940001 -0.46599999 1.551 23 0 0 0 0.048769999
2.3940001 -0.47099999 1.5549999 24 0 0 0 0.048780002
2.395 -0.47499999 1.558 28 0 0 0 0.04879
2.392 -0.47799999 1.559 30 0 0 0 0.048799999
2.3959999 -0.48300001 1.563 29 0 0 0 0.048810001
2.398 -0.48800001 1.567 25 0 0 0 0.04882
2.4000001 -0.49200001 1.571 22 0 0 0 0.048829999
2.3970001 -0.49599999 1.571 25 0 0 0 0.048840001
2.395 -0.49900001 1.572 26 0 0 0 0.04885
2.3940001 -0.50300002 1.573 25 0 0 0 0.048859999
2.3929999 -0.50700003 1.574 25 0 0 0 0.048870001
2.391 -0.51099998 1.574 28 0 0 0 0.04888
2.388 -0.514 1.574 30 0 0 0 0.048889998
2.3929999 -0.51899999 1.5779999 29 0 0 0 0.048900001
2.3940001 -0.523 1.58 25 0 0 0 0.048909999
2.4000001 -0.528 1.585 19 0 0 0 0.048920002
2.3989999 -0.53200001 1.586 16 0 0 0 0.048930001
2.401 -0.53600001 1.5880001 15 0 0 0 0.048939999
2.3970001 -0.53899997 1.586 16 0 0 0 0.048950002
2.402 -0.54400003 1.59 17 0 0 0 0.04896
2.4000001 -0.54699999 1.589 19 0 0 0 0.048969999
2.3959999 -0.55000001 1.587 21 0 0 0 0.048980001
2.398 -0.55400002 1.5880001 23 0 0 0 0.04899
2.3989999 -0.55800003 1.589 22 0 0 0 0.048999999
2.398 -0.56099999 1.589 18 0 0 0 0.049010001
2.404 -0.56599998 1.5930001 14 0 0 0 0.04902
2.402 -0.56900001 1.591 13 0 0 0 0.049029998
2.404 -0.57300001 1.592 15 0 0 0 0.049040001
2.404 -0.57700002 1.591 15 0 0 0 0.04905
2.401 -0.57999998 1.589 16 0 0 0 0.049059998
2.4000001 -0.58200002 1.587 18 0 0 0 0.049070001
2.3989999 -0.58600003 1.585 18 0 0 0 0.049079999
2.401 -0.58899999 1.586 20 0 0 0 0.049090002
2.398 -0.59200001 1.5829999 21 0 0 0 0.0491
2.4070001 -0.597 1.587 22 0 0 0 0.049109999
2.3989999 -0.59899998 1.581 21 0 0 0 0.049120001
2.404 -0.60299999 1.5829999 21 0 0 0 0.04913
2.4000001 -0.60500002 1.5779999 19 0 0 0 0.049139999
2.402 -0.60799998 1.5779999 20 0 0 0 0.049150001
2.398 -0.61000001 1.573 18 0 0 0 0.04916
2.404 -0.61500001 1.575 18 0 0 0 0.049169999
2.402 -0.61699998 1.572 17 0 0 0 0.049180001
2.4000001 -0.61900002 1.569 17 0 0 0 0.04919
2.405 -0.62300003 1.569 19 0 0 0 0.049199998
2.4030001 -0.625 1.566 20 0 0 0 0.049210001
2.3989999 -0.62699997 1.561 18 0 0 0 0.049219999
2.402 -0.63 1.559 17 0 0 0 0.049229998
2.405 -0.634 1.559 17 0 0 0 0.049240001
2.408 -0.63700002 1.557 15 0 0 0 0.049249999
2.405 -0.63800001 1.553 17 0 0 0 0.049260002
2.4070001 -0.64099997 1.551 18 0 0 0 0.04927
2.405 -0.64300001 1.546 19 0 0 0 0.049279999
2.4030001 -0.64499998 1.5420001 20 0 0 0 0.049290001
2.404 -0.64700001 1.538 21 0 0 0 0.0493
2.402 -0.648 1.533 21 0 0 0 0.049309999
2.404 -0.65100002 1.5319999 21 0 0 0 0.049320001
2.402 -0.653 1.526 20 0 0 0 0.04933
2.4059999 -0.65600002 1.525 20 0 0 0 0.049339999
2.408 -0.65799999 1.522 20 0 0 0 0.049350001
2.4070001 -0.65899998 1.517 20 0 0 0 0.04936
2.408 -0.66100001 1.5140001 20 0 0 0 0.049369998
2.4070001 -0.66299999 1.5089999 21 0 0 0 0.049380001
2.4100001 -0.66500002 1.506 21 0 0 0 0.049389999
2.4100001 -0.667 1.501 22 0 0 0 0.049400002
2.411 -0.66799998 1.498 22 0 0 0 0.04941
2.4119999 -0.67000002 1.493 21 0 0 0 0.049419999
2.4130001 -0.67199999 1.489 22 0 0 0 0.049430002
2.4059999 -0.671 1.48 21 0 0 0 0.04944
2.4070001 -0.67199999 1.475 22 0 0 0 0.049449999
2.405 -0.67299998 1.469 21 0 0 0 0.049460001
2.408 -0.67500001 1.465 22 0 0 0 0.04947
2.408 -0.676 1.46 24 0 0 0 0.049479999
2.405 -0.676 1.4529999 22 0 0 0 0.049490001
2.4070001 -0.67699999 1.449 23 0 0 0 0.0495
2.4070001 -0.67799997 1.443 25 0 0 0 0.049509998
2.405 -0.67799997 1.437 24 0 0 0 0.049520001
2.405 -0.67900002 1.431 23 0 0 0 0.049529999
2.4070001 -0.68000001 1.426 25 0 0 0 0.049539998
2.4070001 -0.68000001 1.42 22 0 0 0 0.049550001
2.4089999 -0.68099999 1.416 24 0 0 0 0.049559999
2.4059999 -0.68099999 1.408 23 0 0 0 0.049570002
2.4100001 -0.68199998 1.404 21 0 0 0 0.04958
2.405 -0.68099999 1.396 21 0 0 0 0.049589999
2.4059999 -0.68199998 1.39 21 0 0 0 0.049600001
2.4089999 -0.68300003 1.385 21 0 0 0 0.04961
2.4089999 -0.68300003 1.3789999 20 0 0 0 0.049619999
2.402 -0.68099999 1.369 20 0 0 0 0.049630001
2.404 -0.68099999 1.363 21 0 0 0 0.04964
2.402 -0.68099999 1.3559999 22 0 0 0 0.049649999
2.402 -0.68099999 1.349 21 0 0 0 0.049660001
2.402 -0.68000001 1.342 22 0 0 0 0.04967
2.398 -0.67900002 1.334 21 0 0 0 0.049679998
2.401 -0.67900002 1.329 21 0 0 0 0.049690001
2.404 -0.68000001 1.324 20 0 0 0 0.049699999
2.402 -0.67900002 1.316 19 0 0 0 0.049710002
2.404 -0.67900002 1.3099999 19 0 0 0 0.04972
2.401 -0.67699999 1.302 19 0 0 0 0.049729999
2.404 -0.67699999 1.296 18 0 0 0 0.049740002
2.404 -0.67699999 1.29 20 0 0 0 0.04975
2.401 -0.67500001 1.281 18 0 0 0 0.049759999
2.4030001 -0.67500001 1.275 18 0 0 0 0.049770001
2.398 -0.67199999 1.265 18 0 0 0 0.04978
2.4030001 -0.67299998 1.261 18 0 0 0 0.049789999
2.3959999 -0.67000002 1.25 17 0 0 0 0.049800001
2.4030001 -0.671 1.247 19 0 0 0 0.04981
2.402 -0.66900003 1.239 21 0 0 0 0.049819998
2.398 -0.667 1.229 20 0 0 0 0.049830001
2.402 -0.667 1.224 15 0 0 0 0.04984
2.4059999 -0.667 1.219 10 0 0 0 0.049849998
2.5009999 -0.69199997 1.2589999 42 0 0 0 0.049860001
3.2249999 -0.88999999 1.615 62 0 0 0 0.049869999
3.2449999 -0.89399999 1.615 30 0 0 0 0.049880002
3.2590001 -0.89600003 1.6109999 38 0 0 0 0.04989
3.286 -0.90100002 1.615 37 0 0 0 0.049899999
3.3069999 -0.90399998 1.615 40 0 0 0 0.049910001
3.3239999 -0.90700001 1.613 36 0 0 0 0.04992
3.3469999 -0.91100001 1.614 36 0 0 0 0.049929999
3.368 -0.91399997 1.613 35 0 0 0 0.049940001
3.3759999 -0.91399997 1.607 51 0 0 0 0.04995
3.392 -0.91600001 1.604 53 0 0 0 0.049959999
3.421 -0.921 1.607 51 0 0 0 0.049970001
3.461 -0.92900002 1.614 38 0 0 0 0.04998
3.4849999 -0.93199998 1.615 35 0 0 0 0.049989998
3.507 -0.935 1.614 36 0 0 0 0.050000001
3.5320001 -0.93900001 1.614 28 0 0 0 0.050009999
3.5539999 -0.94099998 1.613 28 0 0 0 0.050020002
3.5780001 -0.94400001 1.612 26 0 0 0 0.050030001
3.6029999 -0.94800001 1.612 27 0 0 0 0.050039999
3.628 -0.95099998 1.612 26 0 0 0 0.050050002
3.6530001 -0.954 1.612 26 0 0 0 0.05006
3.6819999 -0.958 1.613 27 0 0 0 0.050069999
3.7049999 -0.95999998 1.6109999 29 0 0 0 0.050080001
3.733 -0.96399999 1.6109999 29 0 0 0 0.05009
3.7539999 -0.96600002 1.609 27 0 0 0 0.050099999
3.783 -0.96899998 1.609 27 0 0 0 0.050110001
3.806 -0.97100002 1.6059999 26 0 0 0 0.05012
3.8369999 -0.97500002 1.608 26 0 0 0 0.050129998
3.8629999 -0.977 1.6059999 27 0 0 0 0.050140001
3.8970001 -0.98100001 1.608 27 0 0 0 0.05015
3.9230001 -0.98400003 1.6059999 25 0 0 0 0.050159998
3.9579999 -0.98799998 1.608 26 0 0 0 0.050170001
3.9849999 -0.99000001 1.6059999 26 0 0 0 0.050179999
4.0170002 -0.99400002 1.607 26 0 0 0 0.050190002
4.0500002 -0.99699998 1.607 26 0 0 0 0.0502
4.0799999 -0.99900001 1.6059999 25 0 0 0 0.050209999
4.1139998 -1.003 1.6059999 26 0 0 0 0.050220001
4.1529999 -1.007 1.608 26 0 0 0 0.05023
4.178 -1.008 1.604 25 0 0 0 0.050239999
4.2069998 -1.01 1.603 24 0 0 0 0.050250001
4.25 -1.015 1.6059999 25 0 0 0 0.05026
4.2870002 -1.0190001 1.6059999 24 0 0 0 0.050269999
4.3189998 -1.021 1.604 22 0 0 0 0.050280001
2.9660001 -0.69700003 1.092 0 0 0 0 0.05029
0 0 0 0 0 0 0 0.050299998
0 0 0 0 0 0 0 0.050310001
0 0 0 0 0 0 0 0.050319999
2.4349999 -0.55900002 0.866 0 0 0 0 0.050330002
0 0 0 0 0 0 0 0.050340001
2.4089999 -0.54699999 0.84200001 0 0 0 0 0.050349999
0 0 0 0 0 0 0 0.050360002
2.5050001 -0.56199998 0.86000001 0 0 0 0 0.05037
0 0 0 0 0 0 0 0.050379999
0 0 0 0 0 0 0 0.050390001
0 0 0 0 0 0 0 0.0504
0 0 0 0 0 0 0 0.050409999
0 0 0 0 0 0 0 0.050420001
0 0 0 0 0 0 0 0.05043
0 0 0 0 0 0 0 0.050439999
0 0 0 0 0 0 0 0.050450001
0 0 0 0 0 0 0 0.05046
0 0 0 0 0 0 0 0.050469998
0 0 0 0 0 0 0 0.050480001
0 0 0 0 0 0 0 0.050489999
0 0 0 0 0 0 0 0.050500002
0 0 0 0 0 0 0 0.05051
0 0 0 0 0 0 0 0.050519999
0 0 0 0 0 0 0 0.050530002
0 0 0 0 0 0 0 0.05054
0 0 0 0 0 0 0 0.050549999
0 0 0 0 0 0 0 0.050560001
0 0 0 0 0 0 0 0.05057
0 0 0 0 0 0 0 0.050579999
0 0 0 0 0 0 0 0.050590001
0 0 0 0 0 0 0 0.0506
0 0 0 0 0 0 0 0.050609998
0 0 0 0 0 0 0 0.050620001
0 0 0 0 0 0 0 0.050629999
0 0 0 0 0 0 0 0.050639998
0 0 0 0 0 0 0 0.050650001
0 0 0 0 0 0 0 0.050659999
0 0 0 0 0 0 0 0.050670002
0 0 0 0 0 0 0 0.05068
0 0 0 0 0 0 0 0.050689999
0 0 0 0 0 0 0 0.050700001
0 0 0 0 0 0 0 0.05071
0 0 0 0 0 0 0 0.050719999
0 0 0 0 0 0 0 0.050730001
0 0 0 0 0 0 0 0.05074
0 0 0 0 0 0 0 0.050749999
0 0 0 0 0 0 0 0.050760001
0 0 0 0 0 0 0 0.05077
0 0 0 0 0 0 0 0.050779998
0 0 0 0 0 0 0 0.050790001
0 0 0 0 0 0 0 0.050799999
0 0 0 0 0 0 0 0.050810002
0 0 0 0 0 0 0 0.05082
0 0 0 0 0 0 0 0.050829999
0 0 0 0 0 0 0 0.050840002
0 0 0 0 0 0 0 0.05085
0 0 0 0 0 0 0 0.050859999
0 0 0 0 0 0 0 0.050870001
0 0 0 0 0 0 0 0.05088
0 0 0 0 0 0 0 0.050889999
0 0 0 0 0 0 0 0.050900001
0 0 0 0 0 0 0 0.05091
2.3929999 -0.322 0.43099999 0 0 0 0 0.050919998
2.3789999 -0.31600001 0.42199999 0 0 0 0 0.050930001
2.3829999 -0.31200001 0.41600001 12 0 0 0 0.05094
2.3870001 -0.308 0.41 21 0 0 0 0.050949998
2.3940001 -0.30500001 0.405 17 0 0 0 0.050960001
2.4260001 -0.30500001 0.403 13 0 0 0 0.050969999
2.46 -0.30399999 0.40200001 14 0 0 0 0.050980002
2.4909999 -0.30399999 0.40000001 15 0 0 0 0.05099
2.5209999 -0.303 0.398 16 0 0 0 0.050999999
2.5480001 -0.301 0.396 16 0 0 0 0.051010001
2.7909999 -0.32499999 0.426 91 0 0 0 0.05102
2.895 -0.33199999 0.43399999 150 0 0 0 0.051029999
3.1700001 -0.35699999 0.46599999 150 0 0 0 0.051040001
3.2149999 -0.35600001 0.46399999 150 0 0 0 0.05105
3.2119999 -0.34999999 0.45500001 150 0 0 0 0.051059999
3.214 -0.34400001 0.44600001 150 0 0 0 0.051070001
3.2119999 -0.338 0.43799999 150 0 0 0 0.05108
3.2130001 -0.33199999 0.42899999 150 0 0 0 0.051089998
3.21 -0.32499999 0.41999999 150 0 0 0 0.051100001
3.2079999 -0.31900001 0.41100001 150 0 0 0 0.051109999
3.2079999 -0.31299999 0.40200001 150 0 0 0 0.051120002
3.2290001 -0.30899999 0.396 150 0 0 0 0.051130001
3.243 -0.30399999 0.389 150 0 0 0 0.051139999
3.2409999 -0.29800001 0.38 150 0 0 0 0.051150002
3.2420001 -0.292 0.37200001 150 0 0 0 0.05116
3.237 -0.285 0.36300001 150 0 0 0 0.051169999
3.2379999 -0.27900001 0.354 150 0 0 0 0.051180001
3.237 -0.273 0.34599999 150 0 0 0 0.05119
3.234 -0.266 0.33700001 150 0 0 0 0.051199999
3.2320001 -0.25999999 0.32800001 150 0 0 0 0.051210001
3.2479999 -0.255 0.32100001 79 0 0 0 0.05122
3.3239999 -0.25400001 0.31999999 26 0 0 0 0.051229998
3.345 -0.249 0.31299999 150 0 0 0 0.051240001
3.3410001 -0.243 0.30399999 151 0 0 0 0.05125
3.3469999 -0.236 0.296 150 0 0 0 0.051259998
3.3440001 -0.23 0.287 150 0 0 0 0.051270001
3.345 -0.223 0.278 150 0 0 0 0.051279999
3.3410001 -0.21600001 0.26899999 150 0 0 0 0.051290002
3.342 -0.20999999 0.25999999 150 0 0 0 0.0513
3.3610001 -0.204 0.25299999 150 0 0 0 0.051309999
3.378 -0.199 0.24600001 150 0 0 0 0.051320001
3.372 -0.192 0.237 150 0 0 0 0.05133
3.3759999 -0.185 0.228 150 0 0 0 0.051339999
3.3740001 -0.178 0.219 150 0 0 0 0.051350001
3.411 -0.17399999 0.213 150 0 0 0 0.05136
3.4389999 -0.168 0.206 151 0 0 0 0.051369999
3.4419999 -0.161 0.197 150 0 0 0 0.051380001
3.438 -0.154 0.18799999 150 0 0 0 0.05139
3.438 -0.147 0.18000001 150 0 0 0 0.051399998
3.438 -0.141 0.171 150 0 0 0 0.051410001
3.437 -0.134 0.162 150 0 0 0 0.051419999
3.431 -0.126 0.153 150 0 0 0 0.051430002
3.431 -0.119 0.14399999 150 0 0 0 0.051440001
3.4319999 -0.113 0.13600001 150 0 0 0 0.051449999
3.434 -0.106 0.127 150 0 0 0 0.051460002
3.4300001 -0.098999999 0.118 150 0 0 0 0.05147
3.434 -0.092 0.11 150 0 0 0 0.051479999
3.4349999 -0.085000001 0.101 150 0 0 0 0.051490001
3.4289999 -0.078000002 0.092 150 0 0 0 0.0515
3.431 -0.07 0.083999999 150 0 0 0 0.051509999
3.427 -0.063000001 0.075000003 150 0 0 0 0.051520001
3.4230001 -0.056000002 0.067000002 150 0 0 0 0.05153
3.4289999 -0.048999999 0.057999998 150 0 0 0 0.051539999
3.4289999 -0.041999999 0.050000001 150 0 0 0 0.051550001
3.4189999 -0.035 0.041000001 150 0 0 0 0.05156
3.4230001 -0.028000001 0.032000002 150 0 0 0 0.051569998
3.427 -0.021 0.024 150 0 0 0 0.051580001
3.4189999 -0.014 0.015 150 0 0 0 0.051589999
3.4230001 -0.0060000001 0.0070000002 150 0 0 0 0.051600002
3.4189999 0 -0.001 150 0 0 0 0.05161
3.4189999 0.0070000002 -0.0089999996 150 0 0 0 0.051619999
3.418 0.014 -0.017000001 151 0 0 0 0.051630002
3.418 0.021 -0.026000001 151 0 0 0 0.05164
3.4159999 0.028000001 -0.034000002 151 0 0 0 0.051649999
3.418 0.035999998 -0.043000001 152 0 0 0 0.051660001
3.4230001 0.043000001 -0.050999999 152 0 0 0 0.05167
3.4170001 0.050000001 -0.059 152 0 0 0 0.051679999
3.4159999 0.057 -0.068000004 152 0 0 0 0.051690001
3.4170001 0.064999998 -0.075999998 152 0 0 0 0.0517
3.411 0.071999997 -0.083999999 152 0 0 0 0.051709998
3.4100001 0.079000004 -0.092 152 0 0 0 0.051720001
3.4159999 0.086999997 -0.101 152 0 0 0 0.051729999
3.4030001 0.093999997 -0.109 152 0 0 0 0.051739998
3.404 0.101 -0.117 152 0 0 0 0.051750001
3.4000001 0.108 -0.125 153 0 0 0 0.051759999
3.3970001 0.115 -0.133 153 0 0 0 0.051770002
3.3989999 0.123 -0.142 153 0 0 0 0.05178
3.3989999 0.13 -0.15000001 153 0 0 0 0.051789999
3.4059999 0.138 -0.15800001 152 0 0 0 0.051800001
3.4000001 0.145 -0.16599999 152 0 0 0 0.05181
3.3970001 0.153 -0.17399999 153 0 0 0 0.051819999
3.4089999 0.16 -0.183 152 0 0 0 0.051830001
3.408 0.168 -0.191 152 0 0 0 0.05184
3.408 0.175 -0.199 152 0 0 0 0.051849999
3.4059999 0.183 -0.207 152 0 0 0 0.051860001
3.405 0.19 -0.215 152 0 0 0 0.05187
3.404 0.198 -0.223 152 0 0 0 0.051879998
3.404 0.205 -0.23100001 152 0 0 0 0.051890001
3.408 0.213 -0.23999999 151 0 0 0 0.051899999
3.402 0.22 -0.24699999 151 0 0 0 0.051910002
3.4030001 0.228 -0.255 151 0 0 0 0.05192
3.395 0.235 -0.26300001 151 0 0 0 0.051929999
3.3989999 0.243 -0.271 151 0 0 0 0.051940002
3.3959999 0.25099999 -0.27900001 151 0 0 0 0.05195
3.392 0.25799999 -0.287 151 0 0 0 0.051959999
3.3929999 0.266 -0.29499999 151 0 0 0 0.051970001
3.395 0.273 -0.303 150 0 0 0 0.05198
3.3940001 0.28099999 -0.31099999 150 0 0 0 0.051989999
3.392 0.289 -0.31799999 150 0 0 0 0.052000001
3.401 0.29699999 -0.32699999 150 0 0 0 0.05201
3.3940001 0.30500001 -0.33500001 150 0 0 0 0.052019998
3.3929999 0.31200001 -0.34200001 150 0 0 0 0.052030001
3.3940001 0.31999999 -0.34999999 150 0 0 0 0.05204
3.3900001 0.32800001 -0.35800001 150 0 0 0 0.052049998
3.388 0.33500001 -0.366 150 0 0 0 0.052060001
3.3900001 0.34299999 -0.37400001 150 0 0 0 0.052069999
3.388 0.35100001 -0.38100001 150 0 0 0 0.052080002
3.3900001 0.359 -0.389 150 0 0 0 0.05209
3.3870001 0.366 -0.39700001 150 0 0 0 0.052099999
3.3900001 0.375 -0.405 150 0 0 0 0.052110001
3.388 0.38299999 -0.41299999 150 0 0 0 0.05212
3.3859999 0.38999999 -0.41999999 150 0 0 0 0.052129999
3.3800001 0.398 -0.42699999 150 0 0 0 0.052140001
3.388 0.40700001 -0.43599999 150 0 0 0 0.05215
3.391 0.41499999 -0.44400001 150 0 0 0 0.052159999
3.3859999 0.42300001 -0.45100001 150 0 0 0 0.052170001
3.3870001 0.43099999 -0.45899999 150 0 0 0 0.05218
3.385 0.43799999 -0.46599999 150 0 0 0 0.052189998
3.3800001 0.44600001 -0.47299999 150 0 0 0 0.052200001
3.381 0.454 -0.48100001 150 0 0 0 0.052209999
3.382 0.46200001 -0.48899999 150 0 0 0 0.052220002
3.381 0.47 -0.49700001 150 0 0 0 0.05223
3.381 0.47799999 -0.50400001 150 0 0 0 0.052239999
3.378 0.486 -0.51099998 150 0 0 0 0.052250002
3.378 0.495 -0.51899999 150 0 0 0 0.05226
3.359 0.5 -0.52399999 150 0 0 0 0.052269999
3.3110001 0.50099999 -0.52399999 150 0 0 0 0.052280001
3.312 0.509 -0.53100002 150 0 0 0 0.05229
3.3099999 0.51700002 -0.53799999 150 0 0 0 0.052299999
3.3 0.52399999 -0.54400003 150 0 0 0 0.052310001
3.2780001 0.528 -0.54799998 150 0 0 0 0.05232
3.279 0.537 -0.55500001 150 0 0 0 0.052329998
3.2720001 0.54400003 -0.56099999 150 0 0 0 0.052340001
3.2739999 0.55199999 -0.56900001 150 0 0 0 0.05235
3.2690001 0.56 -0.57499999 150 0 0 0 0.052359998
3.2639999 0.56699997 -0.58200002 49 0 0 0 0.052370001
3.2160001 0.56699997 -0.57999998 22 0 0 0 0.052379999
3.1589999 0.565 -0.57700002 23 0 0 0 0.052390002
3.0940001 0.56099999 -0.57200003 24 0 0 0 0.0524
3.049 0.56 -0.56999999 25 0 0 0 0.052409999
3.0339999 0.565 -0.574 26 0 0 0 0.052420001
2.9979999 0.56599998 -0.574 27 0 0 0 0.05243
2.9319999 0.56099999 -0.56699997 27 0 0 0 0.052439999
2.839 0.551 -0.55599999 26 0 0 0 0.052450001
2.7479999 0.54000002 -0.54400003 24 0 0 0 0.05246
2.681 0.53399998 -0.53600001 23 0 0 0 0.052469999
2.6240001 0.52999997 -0.53100002 22 0 0 0 0.052480001
2.5580001 0.523 -0.523 20 0 0 0 0.05249
2.5090001 0.51899999 -0.51800001 20 0 0 0 0.052499998
2.473 0.51800001 -0.51599997 20 0 0 0 0.052510001
2.427 0.51499999 -0.51099998 20 0 0 0 0.052519999
2.381 0.51099998 -0.50700003 20 0 0 0 0.052530002
2.3199999 0.50400001 -0.49900001 21 0 0 0 0.052540001
2.2620001 0.498 -0.491 143 0 0 0 0.052549999
2.2509999 0.50099999 -0.493 151 0 0 0 0.052560002
2.2520001 0.50700003 -0.498 151 0 0 0 0.05257
2.2490001 0.51300001 -0.50300002 151 0 0 0 0.052579999
2.2409999 0.51700002 -0.505 150 0 0 0 0.052590001
2.2219999 0.51800001 -0.50599998 150 0 0 0 0.0526
2.22 0.52399999 -0.50999999 150 0 0 0 0.052609999
2.221 0.52999997 -0.51499999 150 0 0 0 0.052620001
2.2179999 0.53600001 -0.51899999 150 0 0 0 0.05263
2.22 0.542 -0.52399999 151 0 0 0 0.052639998
2.2190001 0.54799998 -0.528 150 0 0 0 0.052650001
2.2130001 0.55199999 -0.53100002 151 0 0 0 0.05266
2.2179999 0.55900002 -0.537 150 0 0 0 0.052669998
2.2149999 0.565 -0.54100001 150 0 0 0 0.052680001
2.2130001 0.56999999 -0.54500002 150 0 0 0 0.052689999
2.2130001 0.57700002 -0.54900002 151 0 0 0 0.052700002
2.227 0.58600003 -0.55699998 151 0 0 0 0.05271
2.23 0.59299999 -0.56199998 151 0 0 0 0.052719999
2.224 0.59799999 -0.565 151 0 0 0 0.052730002
2.2219999 0.60299999 -0.56900001 151 0 0 0 0.05274
2.221 0.60900003 -0.57300001 151 0 0 0 0.052749999
2.223 0.616 -0.57800001 151 0 0 0 0.052760001
2.25 0.63 -0.58899999 150 0 0 0 0.05277
2.339 0.66100001 -0.61799997 150 0 0 0 0.052779999
2.4749999 0.70700002 -0.65799999 150 0 0 0 0.052790001
2.477 0.71399999 -0.66399997 150 0 0 0 0.0528
2.4790001 0.722 -0.66900003 150 0 0 0 0.052809998
2.473 0.727 -0.67199999 150 0 0 0 0.052820001
2.473 0.73400003 -0.67699999 150 0 0 0 0.052829999
2.368 0.70999998 -0.65200001 150 0 0 0 0.052839998
2.2939999 0.69400001 -0.63599998 150 0 0 0 0.052850001
1.493 0.456 -0.417 65 0 0 0 0.052859999
1.4680001 0.45199999 -0.41299999 2 0 0 0 0.052870002
1.457 0.45300001 -0.412 2 0 0 0 0.05288
1.437 0.45100001 -0.40900001 2 0 0 0 0.052889999
1.416 0.449 -0.40599999 2 0 0 0 0.052900001
1.399 0.447 -0.40400001 2 0 0 0 0.05291
1.386 0.447 -0.40200001 2 0 0 0 0.052919999
1.374 0.447 -0.40099999 2 0 0 0 0.052930001
1.3430001 0.44100001 -0.39399999 8 0 0 0 0.05294
1.3380001 0.44299999 -0.396 2 0 0 0 0.052949999
1.293 0.43200001 -0.384 137 0 0 0 0.052960001
1.289 0.435 -0.38600001 150 0 0 0 0.05297
1.281 0.43599999 -0.38499999 150 0 0 0 0.052979998
1.275 0.43700001 -0.38600001 150 0 0 0 0.052990001
1.273 0.44 -0.38699999 150 0 0 0 0.052999999
1.273 0.44400001 -0.389 150 0 0 0 0.053010002
1.271 0.447 -0.391 150 0 0 0 0.05302
1.277 0.45300001 -0.39500001 150 0 0 0 0.053029999
1.272 0.45500001 -0.39500001 150 0 0 0 0.053040002
1.272 0.45899999 -0.398 150 0 0 0 0.05305
1.277 0.46399999 -0.40099999 150 0 0 0 0.053059999
1.275 0.46700001 -0.403 150 0 0 0 0.053070001
1.266 0.46799999 -0.40200001 150 0 0 0 0.05308
1.274 0.47400001 -0.40599999 150 0 0 0 0.053089999
1.277 0.479 -0.40900001 150 0 0 0 0.053100001
1.278 0.48300001 -0.412 54 0 0 0 0.05311
1.257 0.479 -0.40700001 10 0 0 0 0.053119998
1.228 0.472 -0.39899999 10 0 0 0 0.053130001
1.206 0.46700001 -0.39399999 78 0 0 0 0.05314
1.1950001 0.46599999 -0.39199999 89 0 0 0 0.053149998
1.184 0.465 -0.38999999 80 0 0 0 0.053160001
1.177 0.46599999 -0.38999999 82 0 0 0 0.053169999
1.1619999 0.46399999 -0.38600001 81 0 0 0 0.053180002
1.158 0.465 -0.38699999 73 0 0 0 0.05319
1.147 0.465 -0.38499999 78 0 0 0 0.053199999
1.136 0.463 -0.38299999 81 0 0 0 0.053210001
1.127 0.463 -0.38100001 74 0 0 0 0.05322
1.122 0.46399999 -0.38100001 79 0 0 0 0.053229999
1.108 0.46200001 -0.377 81 0 0 0 0.053240001
1.099 0.461 -0.37599999 74 0 0 0 0.05325
1.0880001 0.46000001 -0.37400001 71 0 0 0 0.053259999
1.0829999 0.461 -0.373 76 0 0 0 0.053270001
1.072 0.46000001 -0.37099999 82 0 0 0 0.05328
1.067 0.46000001 -0.37 77 0 0 0 0.053289998
1.056 0.45899999 -0.368 81 0 0 0 0.053300001
1.05 0.45899999 -0.36700001 72 0 0 0 0.053309999
1.041 0.458 -0.36500001 77 0 0 0 0.053320002
1.03 0.45699999 -0.36199999 70 0 0 0 0.05333
1.026 0.458 -0.36199999 70 0 0 0 0.053339999
1.02 0.458 -0.361 73 0 0 0 0.053350002
1.0140001 0.458 -0.36000001 80 0 0 0 0.05336
1.006 0.458 -0.35800001 75 0 0 0 0.053369999
0.99800003 0.45699999 -0.35600001 71 0 0 0 0.053380001
0.98799998 0.45500001 -0.354 63 0 0 0 0.05339
0.98400003 0.456 -0.35299999 61 0 0 0 0.053399999
0.98100001 0.458 -0.35299999 63 0 0 0 0.053410001
0.97299999 0.45699999 -0.35100001 61 0 0 0 0.05342
0.963 0.45500001 -0.34799999 62 0 0 0 0.053429998
0.954 0.45300001 -0.34599999 63 0 0 0 0.053440001
0.95700002 0.45699999 -0.34799999 66 0 0 0 0.05345
0.94599998 0.45500001 -0.345 61 0 0 0 0.053459998
0.93199998 0.45100001 -0.34 58 0 0 0 0.053470001
0.93000001 0.45300001 -0.34 5 0 0 0 0.053479999
0.92699999 0.45300001 -0.34 4 0 0 0 0.053490002
0.92400002 0.45500001 -0.33899999 5 0 0 0 0.0535
0.91399997 0.45199999 -0.336 9 0 0 0 0.053509999
0.903 0.449 -0.333 23 0 0 0 0.053520001
0.898 0.449 -0.331 34 0 0 0 0.05353
0.898 0.45100001 -0.33199999 47 0 0 0 0.053539999
0.89399999 0.45199999 -0.331 53 0 0 0 0.053550001
0.89499998 0.45500001 -0.33199999 48 0 0 0 0.05356
0.89499998 0.458 -0.333 34 0 0 0 0.053569999
0.898 0.461 -0.33399999 32 0 0 0 0.053580001
0.90499997 0.46700001 -0.33700001 27 0 0 0 0.05359
0.903 0.46799999 -0.33700001 23 0 0 0 0.053599998
0.89899999 0.46900001 -0.336 20 0 0 0 0.053610001
0.90700001 0.47499999 -0.33899999 18 0 0 0 0.053619999
0.90600002 0.477 -0.33899999 18 0 0 0 0.053630002
0.91299999 0.48300001 -0.34200001 15 0 0 0 0.053640001
0.92000002 0.48899999 -0.34400001 13 0 0 0 0.053649999
0.93400002 0.49900001 -0.34999999 11 0 0 0 0.053660002
0.93900001 0.50400001 -0.352 11 0 0 0 0.05367
0.93000001 0.50099999 -0.34900001 10 0 0 0 0.053679999
0.93000001 0.50300002 -0.34900001 11 0 0 0 0.053690001
0.92699999 0.50400001 -0.34799999 10 0 0 0 0.0537
0.92299998 0.50400001 -0.347 9 0 0 0 0.053709999
0.92199999 0.50599998 -0.34599999 8 0 0 0 0.053720001
0.91600001 0.50400001 -0.34400001 9 0 0 0 0.05373
0.91000003 0.50300002 -0.34200001 8 0 0 0 0.053739998
0.91100001 0.505 -0.34200001 7 0 0 0 0.053750001
0.90399998 0.50400001 -0.33899999 7 0 0 0 0.05376
0.903 0.505 -0.33899999 7 0 0 0 0.053769998
0.89300001 0.50099999 -0.33500001 7 0 0 0 0.053780001
0.88999999 0.50199997 -0.33399999 7 0 0 0 0.053789999
0.884 0.5 -0.331 6 0 0 0 0.053800002
0.88599998 0.50300002 -0.33199999 6 0 0 0 0.05381
0.88300002 0.50300002 -0.331 6 0 0 0 0.053819999
0.88300002 0.505 -0.33000001 6 0 0 0 0.053830002
0.87900001 0.50400001 -0.32800001 6 0 0 0 0.05384
0.87199998 0.50199997 -0.32499999 6 0 0 0 0.053849999
0.86400002 0.49900001 -0.322 8 0 0 0 0.053860001
0.86299998 0.5 -0.32100001 12 0 0 0 0.05387
0.85500002 0.49700001 -0.31799999 21 0 0 0 0.053879999
0.85100001 0.49599999 -0.31600001 28 0 0 0 0.053890001
0.84600002 0.495 -0.31400001 35 0 0 0 0.0539
0.84299999 0.49399999 -0.31200001 43 0 0 0 0.053909998
0.84100002 0.49399999 -0.31099999 49 0 0 0 0.053920001
0.83999997 0.495 -0.31 49 0 0 0 0.053929999
0.83999997 0.49599999 -0.30899999 44 0 0 0 0.053939998
0.838 0.49599999 -0.308 42 0 0 0 0.053950001
0.84200001 0.5 -0.30899999 44 0 0 0 0.053959999
0.83999997 0.5 -0.30700001 45 0 0 0 0.053970002
0.84100002 0.50199997 -0.30700001 39 0 0 0 0.05398
0.84299999 0.50400001 -0.30700001 33 0 0 0 0.053989999
0.84500003 0.50599998 -0.30700001 36 0 0 0 0.054000001
0.85100001 0.51099998 -0.308 25 0 0 0 0.05401
0.85100001 0.51200002 -0.308 16 0 0 0 0.054019999
0.85600001 0.51599997 -0.30899999 10 0 0 0 0.054030001
0.85900003 0.51899999 -0.30899999 7 0 0 0 0.05404
0.86500001 0.523 -0.31 6 0 0 0 0.054049999
0.86500001 0.52399999 -0.30899999 5 0 0 0 0.054060001
0.86699998 0.52600002 -0.30899999 4 0 0 0 0.05407
0.86699998 0.52700001 -0.308 4 0 0 0 0.054079998
0.87300003 0.53100002 -0.30899999 4 0 0 0 0.054090001
0.87199998 0.53200001 -0.308 4 0 0 0 0.054099999
0.87900001 0.53600001 -0.30899999 3 0 0 0 0.054110002
0.88099998 0.53899997 -0.30899999 3 0 0 0 0.05412
0.88300002 0.54000002 -0.30899999 3 0 0 0 0.054129999
0.89099997 0.546 -0.31 3 0 0 0 0.054140002
0.89200002 0.54699999 -0.30899999 3 0 0 0 0.05415
0.89399999 0.54799998 -0.30899999 4 0 0 0 0.054159999
0.903 0.55400002 -0.31099999 4 0 0 0 0.054170001
0.90700001 0.55699998 -0.31099999 4 0 0 0 0.05418
0.91600001 0.56300002 -0.31299999 4 0 0 0 0.054189999
0.92799997 0.57099998 -0.315 4 0 0 0 0.054200001
0.92699999 0.57099998 -0.31400001 5 0 0 0 0.05421
0.93699998 0.57700002 -0.31600001 5 0 0 0 0.054219998
0.93699998 0.57700002 -0.31400001 6 0 0 0 0.054230001
0.94199997 0.57999998 -0.315 7 0 0 0 0.05424
0.94499999 0.58200002 -0.31400001 9 0 0 0 0.054249998
0.95099998 0.58600003 -0.315 9 0 0 0 0.054260001
0.949 0.58399999 -0.31200001 9 0 0 0 0.054269999
0.949 0.58499998 -0.31099999 9 0 0 0 0.054280002
0.94999999 0.58499998 -0.31 9 0 0 0 0.05429
0.954 0.58700001 -0.30899999 8 0 0 0 0.054299999
0.94700003 0.583 -0.30599999 7 0 0 0 0.054310001
0.926 0.56999999 -0.29699999 8 0 0 0 0.05432
0.917 0.56400001 -0.29300001 8 0 0 0 0.054329999
0.91000003 0.55900002 -0.289 8 0 0 0 0.054340001
0.89899999 0.55199999 -0.28400001 8 0 0 0 0.05435
0.89899999 0.55199999 -0.28200001 8 0 0 0 0.054359999
0.903 0.55400002 -0.28200001 8 0 0 0 0.054370001
0.90200001 0.55299997 -0.28 7 0 0 0 0.05438
0.903 0.55199999 -0.278 7 0 0 0 0.054389998
0.90399998 0.55299997 -0.27700001 7 0 0 0 0.054400001
0.90499997 0.55299997 -0.27599999 6 0 0 0 0.054409999
0.89899999 0.54799998 -0.27200001 4 0 0 0 0.054420002
0.90600002 0.55199999 -0.273 3 0 0 0 0.05443
0.92000002 0.56 -0.27500001 1 0 0 0 0.054439999
0.92000002 0.55900002 -0.27399999 1 0 0 0 0.054450002
0.93099999 0.565 -0.27500001 1 0 0 0 0.05446
0.94099998 0.56999999 -0.27599999 1 0 0 0 0.054469999
0.94499999 0.57099998 -0.27500001 2 0 0 0 0.054480001
0.95200002 0.574 -0.27599999 3 0 0 0 0.05449
0.96399999 0.58099997 -0.27700001 4 0 0 0 0.054499999
0.97299999 0.58499998 -0.278 5 0 0 0 0.054510001
0.977 0.58700001 -0.27700001 6 0 0 0 0.05452
0.98100001 0.58700001 -0.27599999 6 0 0 0 0.054529998
0.98699999 0.58999997 -0.27599999 7 0 0 0 0.054540001
0.98900002 0.58999997 -0.27500001 7 0 0 0 0.05455
0.99299997 0.59100002 -0.27399999 7 0 0 0 0.054559998
0.99400002 0.58999997 -0.27200001 7 0 0 0 0.054570001
1 0.59200001 -0.27200001 6 0 0 0 0.054579999
1.006 0.59399998 -0.271 5 0 0 0 0.054590002
1.003 0.59100002 -0.26899999 2 0 0 0 0.0546
0.99900001 0.58700001 -0.266 1 0 0 0 0.054609999
1.0140001 0.59399998 -0.26699999 1 0 0 0 0.054620001
1.005 0.58700001 -0.26300001 1 0 0 0 0.05463
1.021 0.59500003 -0.26499999 0 0 0 0 0.054639999
0.97799999 0.56900001 -0.252 0 0 0 0 0.054650001
0.94099998 0.54500002 -0.23999999 0 0 0 0 0.05466
0.94599998 0.546 -0.23999999 0 0 0 0 0.054669999
0.95999998 0.55299997 -0.241 0 0 0 0 0.054680001
0.96200001 0.55199999 -0.23999999 0 0 0 0 0.05469
0.95300001 0.54500002 -0.236 0 0 0 0 0.054699998
0.95999998 0.54799998 -0.236 0 0 0 0 0.054710001
0.95999998 0.54500002 -0.233 0 0 0 0 0.054719999
