# .PCD v0.7 - Point Cloud Data file format
VERSION 0.7
FIELDS x y z intensity normal_x normal_y normal_z curvature
SIZE 4 4 4 4 4 4 4 4
TYPE F F F F F F F F
COUNT 1 1 1 1 1 1 1 1
WIDTH 1027
HEIGHT 1
VIEWPOINT 0 0 0 1 0 0 0
POINTS 1027
DATA ascii
3.914 -2.651 0.713 6 0 0 0 0.0656
2.898 -1.962 0.523 0 0 0 0 0.065609999
3.8740001 -2.622 0.69400001 6 0 0 0 0.065619998
3.8670001 -2.6159999 0.68699998 6 0 0 0 0.065629996
3.043 -2.0569999 0.53600001 0 0 0 0 0.065640002
3.8800001 -2.6210001 0.67699999 7 0 0 0 0.065650001
3.8740001 -2.6159999 0.67000002 7 0 0 0 0.06566
3.9419999 -2.6589999 0.67500001 7 0 0 0 0.065669999
3.0209999 -2.036 0.51300001 0 0 0 0 0.065679997
2.9349999 -1.976 0.493 0 0 0 0 0.065690003
4.0050001 -2.694 0.667 21 0 0 0 0.065700002
4.0100002 -2.694 0.66100001 30 0 0 0 0.065710001
4.006 -2.688 0.65399998 37 0 0 0 0.065719999
4.0100002 -2.688 0.64899999 39 0 0 0 0.065729998
4.007 -2.6819999 0.64200002 29 0 0 0 0.065739997
4.0050001 -2.677 0.63499999 22 0 0 0 0.065750003
4.0040002 -2.6719999 0.62800002 14 0 0 0 0.065760002
2.474 -1.648 0.384 0 0 0 0 0.06577
2.487 -1.654 0.382 0 0 0 0 0.065779999
3.6059999 -2.3940001 0.54799998 5 0 0 0 0.065789998
3.0450001 -2.0179999 0.458 0 0 0 0 0.065800004
3.845 -2.543 0.57099998 7 0 0 0 0.065810002
4.0089998 -2.6470001 0.58899999 9 0 0 0 0.065820001
3.868 -2.549 0.56199998 7 0 0 0 0.06583
3.062 -2.013 0.44 0 0 0 0 0.065839998
3.6949999 -2.424 0.52499998 6 0 0 0 0.065849997
2.98 -1.951 0.41800001 0 0 0 0 0.065860003
2.9679999 -1.938 0.412 0 0 0 0 0.065870002
4.0110002 -2.6129999 0.55000001 10 0 0 0 0.065880001
4.007 -2.6040001 0.54299998 11 0 0 0 0.065889999
3.9690001 -2.572 0.53100002 7 0 0 0 0.065899998
3.8889999 -2.5139999 0.514 6 0 0 0 0.065909997
3.802 -2.451 0.49700001 6 0 0 0 0.065920003
3.5910001 -2.309 0.463 5 0 0 0 0.065930001
3.6900001 -2.3659999 0.47 5 0 0 0 0.06594
3.862 -2.4690001 0.486 6 0 0 0 0.065949999
3.967 -2.529 0.49200001 6 0 0 0 0.065959997
3.994 -2.5380001 0.48899999 6 0 0 0 0.065970004
3.9260001 -2.487 0.47499999 6 0 0 0 0.065980002
3.813 -2.408 0.45500001 6 0 0 0 0.065990001
3.9820001 -2.506 0.46900001 6 0 0 0 0.066
2.8729999 -1.802 0.333 0 0 0 0 0.066009998
3.997 -2.4990001 0.458 11 0 0 0 0.066019997
3.872 -2.4119999 0.43799999 6 0 0 0 0.066030003
3.859 -2.3959999 0.43000001 4 0 0 0 0.066040002
3.911 -2.4200001 0.43000001 5 0 0 0 0.06605
4.0079999 -2.47 0.43399999 10 0 0 0 0.066059999
4.02 -2.4690001 0.42899999 13 0 0 0 0.066069998
3.062 -1.873 0.322 0 0 0 0 0.066079997
4.053 -2.47 0.41999999 10 0 0 0 0.066090003
3.9230001 -2.381 0.40099999 7 0 0 0 0.066100001
3.964 -2.3959999 0.39899999 6 0 0 0 0.06611
3.0139999 -1.8150001 0.29899999 0 0 0 0 0.066119999
3.0150001 -1.808 0.294 0 0 0 0 0.066129997
3.9920001 -2.3840001 0.384 4 0 0 0 0.066140004
3.9200001 -2.3310001 0.37099999 3 0 0 0 0.066150002
2.918 -1.727 0.27200001 0 0 0 0 0.066160001
4.0190001 -2.369 0.36899999 2 0 0 0 0.06617
2.414 -1.416 0.21799999 0 0 0 0 0.066179998
4.066 -2.375 0.361 3 0 0 0 0.066189997
4.1789999 -2.4300001 0.36500001 17 0 0 0 0.066200003
4.184 -2.4219999 0.36000001 18 0 0 0 0.066210002
2.9460001 -1.697 0.249 0 0 0 0 0.06622
2.497 -1.432 0.207 0 0 0 0 0.066229999
2.947 -1.681 0.241 0 0 0 0 0.066239998
2.5120001 -1.427 0.20200001 0 0 0 0 0.066249996
2.4560001 -1.388 0.19400001 0 0 0 0 0.066260003
2.4860001 -1.398 0.193 0 0 0 0 0.066270001
2.5209999 -1.41 0.192 0 0 0 0 0.06628
2.4489999 -1.363 0.184 0 0 0 0 0.066289999
2.4949999 -1.381 0.184 0 0 0 0 0.066299997
2.421 -1.3329999 0.175 0 0 0 0 0.066310003
2.4619999 -1.349 0.175 0 0 0 0 0.066320002
2.9619999 -1.614 0.207 0 0 0 0 0.066330001
2.9519999 -1.6 0.20200001 0 0 0 0 0.066339999
2.404 -1.296 0.162 0 0 0 0 0.066349998
0 0 0 0 0 0 0 0.066359997
2.4519999 -1.307 0.15899999 0 0 0 0 0.066370003
2.427 -1.286 0.154 0 0 0 0 0.066380002
0 0 0 0 0 0 0 0.06639
0 0 0 0 0 0 0 0.066399999
0 0 0 0 0 0 0 0.066409998
0 0 0 0 0 0 0 0.066419996
0 0 0 0 0 0 0 0.066430002
4.75 -2.4300001 0.26899999 16 0 0 0 0.066440001
0 0 0 0 0 0 0 0.06645
0 0 0 0 0 0 0 0.066459998
0 0 0 0 0 0 0 0.066469997
1.245 -0.62099999 0.064999998 1 0 0 0 0.066480003
1.247 -0.61799997 0.063000001 1 0 0 0 0.066490002
1.247 -0.61400002 0.061999999 1 0 0 0 0.066500001
1.242 -0.60799998 0.059999999 1 0 0 0 0.066509999
1.239 -0.60299999 0.059 1 0 0 0 0.066519998
1.239 -0.59899998 0.057999998 1 0 0 0 0.066529997
1.239 -0.59500003 0.056000002 2 0 0 0 0.066540003
1.237 -0.58999997 0.055 1 0 0 0 0.066550002
1.238 -0.58600003 0.054000001 1 0 0 0 0.06656
1.2309999 -0.579 0.052000001 1 0 0 0 0.066569999
1.232 -0.57499999 0.050999999 1 0 0 0 0.066579998
1.2309999 -0.57099998 0.050000001 1 0 0 0 0.066590004
1.234 -0.56800002 0.048999999 1 0 0 0 0.066600002
1.222 -0.55900002 0.046999998 1 0 0 0 0.066610001
1.224 -0.55599999 0.046 1 0 0 0 0.06662
1.222 -0.551 0.045000002 1 0 0 0 0.066629998
1.216 -0.54400003 0.044 1 0 0 0 0.066639997
1.191 -0.52899998 0.041999999 0 0 0 0 0.066650003
1.192 -0.52600002 0.041000001 0 0 0 0 0.066660002
1.211 -0.52999997 0.039999999 1 0 0 0 0.066670001
1.21 -0.52499998 0.039000001 1 0 0 0 0.066679999
1.2079999 -0.52100003 0.037999999 2 0 0 0 0.066689998
2.4159999 -1.033 0.075000003 150 0 0 0 0.066699997
2.4230001 -1.029 0.072999999 150 0 0 0 0.066710003
2.4200001 -1.0190001 0.071000002 3 0 0 0 0.066720001
2.411 -1.008 0.068999998 21 0 0 0 0.06673
2.4100001 -0.99900001 0.067000002 23 0 0 0 0.066739999
2.4089999 -0.99000001 0.064999998 20 0 0 0 0.066749997
2.4089999 -0.98299998 0.063000001 23 0 0 0 0.066760004
2.4070001 -0.97399998 0.061000001 22 0 0 0 0.066770002
2.404 -0.96499997 0.059 20 0 0 0 0.066780001
2.4030001 -0.95599997 0.057999998 19 0 0 0 0.06679
2.4059999 -0.949 0.056000002 21 0 0 0 0.066799998
2.4070001 -0.94199997 0.054000001 19 0 0 0 0.066809997
2.4030001 -0.93199998 0.052999999 18 0 0 0 0.066820003
2.401 -0.92299998 0.050999999 20 0 0 0 0.066830002
2.4000001 -0.91399997 0.048999999 20 0 0 0 0.06684
2.402 -0.90700001 0.048 20 0 0 0 0.066849999
2.3970001 -0.898 0.046 23 0 0 0 0.066859998
2.3970001 -0.889 0.045000002 24 0 0 0 0.066869996
2.4000001 -0.88200003 0.043000001 23 0 0 0 0.066880003
2.4000001 -0.87400001 0.041999999 20 0 0 0 0.066890001
2.3989999 -0.866 0.039999999 19 0 0 0 0.0669
2.395 -0.85600001 0.039000001 19 0 0 0 0.066909999
2.3970001 -0.84899998 0.037 21 0 0 0 0.066919997
2.3929999 -0.83999997 0.035999998 23 0 0 0 0.066930003
2.3940001 -0.83200002 0.035 22 0 0 0 0.066940002
2.3940001 -0.824 0.033 23 0 0 0 0.066950001
2.392 -0.815 0.032000002 23 0 0 0 0.06696
2.3940001 -0.80800003 0.030999999 22 0 0 0 0.066969998
2.3940001 -0.80000001 0.029999999 23 0 0 0 0.066979997
2.392 -0.79100001 0.028000001 24 0 0 0 0.066990003
2.3940001 -0.78399998 0.027000001 24 0 0 0 0.067000002
2.3889999 -0.77399999 0.026000001 21 0 0 0 0.06701
2.391 -0.76700002 0.025 19 0 0 0 0.067019999
2.392 -0.759 0.023 17 0 0 0 0.067029998
2.3889999 -0.75 0.022 17 0 0 0 0.067039996
2.391 -0.74199998 0.021 18 0 0 0 0.067050003
2.3829999 -0.73199999 0.02 19 0 0 0 0.067060001
2.3870001 -0.72500002 0.018999999 20 0 0 0 0.06707
2.385 -0.71700001 0.017999999 21 0 0 0 0.067079999
2.388 -0.70999998 0.017000001 21 0 0 0 0.067089997
2.3889999 -0.70200002 0.016000001 23 0 0 0 0.067100003
2.385 -0.69300002 0.015 24 0 0 0 0.067110002
2.3859999 -0.685 0.014 22 0 0 0 0.067120001
2.3829999 -0.676 0.013 22 0 0 0 0.067129999
2.385 -0.66900003 0.013 19 0 0 0 0.067139998
2.391 -0.66299999 0.012 17 0 0 0 0.067149997
2.388 -0.65399998 0.011 18 0 0 0 0.067160003
2.3840001 -0.64399999 0.0099999998 21 0 0 0 0.067170002
2.385 -0.63700002 0.0089999996 22 0 0 0 0.06718
2.3800001 -0.62800002 0.0080000004 24 0 0 0 0.067189999
2.3840001 -0.62099999 0.0080000004 22 0 0 0 0.067199998
2.3889999 -0.61400002 0.0070000002 19 0 0 0 0.067209996
2.381 -0.60399997 0.0060000001 20 0 0 0 0.067220002
2.382 -0.59600002 0.0049999999 18 0 0 0 0.067230001
2.378 -0.58700001 0.0049999999 20 0 0 0 0.06724
2.378 -0.579 0.0040000002 16 0 0 0 0.067249998
2.3800001 -0.57200003 0.003 16 0 0 0 0.067259997
2.3759999 -0.56300002 0.003 23 0 0 0 0.067270003
2.3740001 -0.55500001 0.0020000001 25 0 0 0 0.067280002
2.3789999 -0.54799998 0.0020000001 22 0 0 0 0.067290001
2.3759999 -0.53899997 0.001 19 0 0 0 0.067299999
2.378 -0.53200001 0 14 0 0 0 0.067309998
2.375 -0.52399999 0 13 0 0 0 0.067319997
2.3759999 -0.51599997 0 20 0 0 0 0.067330003
2.3789999 -0.50800002 0 23 0 0 0 0.067340001
2.375 -0.5 -0.001 25 0 0 0 0.06735
2.375 -0.49200001 -0.001 24 0 0 0 0.067359999
2.3759999 -0.484 -0.0020000001 22 0 0 0 0.067369998
2.3759999 -0.47600001 -0.0020000001 19 0 0 0 0.067380004
2.375 -0.46799999 -0.0020000001 17 0 0 0 0.067390002
2.3770001 -0.461 -0.003 16 0 0 0 0.067400001
2.3710001 -0.45199999 -0.003 16 0 0 0 0.06741
2.3759999 -0.44499999 -0.0040000002 19 0 0 0 0.067419998
2.3759999 -0.43700001 -0.0040000002 18 0 0 0 0.067429997
2.3740001 -0.42899999 -0.0040000002 18 0 0 0 0.067440003
2.369 -0.41999999 -0.0049999999 23 0 0 0 0.067450002
2.3710001 -0.41299999 -0.0049999999 23 0 0 0 0.067460001
2.3699999 -0.405 -0.0049999999 20 0 0 0 0.067469999
2.368 -0.39700001 -0.0049999999 21 0 0 0 0.067479998
2.3710001 -0.389 -0.0060000001 21 0 0 0 0.067489997
2.369 -0.38100001 -0.0060000001 20 0 0 0 0.067500003
2.365 -0.373 -0.0060000001 16 0 0 0 0.067510001
2.3670001 -0.36500001 -0.0060000001 15 0 0 0 0.06752
2.3640001 -0.35699999 -0.0070000002 16 0 0 0 0.067529999
2.3640001 -0.34900001 -0.0070000002 18 0 0 0 0.067539997
2.3629999 -0.34099999 -0.0070000002 18 0 0 0 0.067550004
2.362 -0.33399999 -0.0070000002 19 0 0 0 0.067560002
2.3610001 -0.32600001 -0.0070000002 21 0 0 0 0.067570001
2.385 -0.32100001 -0.0070000002 26 0 0 0 0.06758
2.424 -0.31799999 -0.0080000004 21 0 0 0 0.067589998
2.4890001 -0.31900001 -0.0080000004 28 0 0 0 0.067599997
2.5580001 -0.31999999 -0.0080000004 31 0 0 0 0.067610003
2.5929999 -0.315 -0.0080000004 27 0 0 0 0.067620002
2.9449999 -0.34900001 -0.0099999998 150 0 0 0 0.06763
3.2090001 -0.37 -0.011 150 0 0 0 0.067639999
3.21 -0.359 -0.011 150 0 0 0 0.067649998
3.2119999 -0.34900001 -0.011 150 0 0 0 0.067659996
3.2130001 -0.338 -0.011 150 0 0 0 0.067670003
3.207 -0.32699999 -0.011 150 0 0 0 0.067680001
3.23 -0.31900001 -0.011 151 0 0 0 0.06769
3.2420001 -0.31 -0.011 152 0 0 0 0.067699999
3.233 -0.29800001 -0.0099999998 151 0 0 0 0.067709997
3.2349999 -0.28799999 -0.0099999998 152 0 0 0 0.067720003
3.2420001 -0.278 -0.0099999998 152 0 0 0 0.067730002
3.2260001 -0.266 -0.0099999998 153 0 0 0 0.067740001
3.266 -0.259 -0.0099999998 127 0 0 0 0.067749999
3.3469999 -0.255 -0.0099999998 152 0 0 0 0.067759998
3.345 -0.243 -0.0099999998 152 0 0 0 0.067769997
3.346 -0.233 -0.0099999998 152 0 0 0 0.067780003
3.3440001 -0.222 -0.0089999996 152 0 0 0 0.067790002
3.355 -0.212 -0.0089999996 151 0 0 0 0.0678
3.3699999 -0.20200001 -0.0089999996 152 0 0 0 0.067809999
3.372 -0.191 -0.0089999996 151 0 0 0 0.067819998
3.3889999 -0.18099999 -0.0080000004 150 0 0 0 0.067829996
3.4130001 -0.171 -0.0080000004 154 0 0 0 0.067840002
3.4349999 -0.161 -0.0080000004 150 0 0 0 0.067850001
3.4330001 -0.15000001 -0.0070000002 150 0 0 0 0.06786
3.4319999 -0.139 -0.0070000002 150 0 0 0 0.067869999
3.4300001 -0.127 -0.0060000001 150 0 0 0 0.067879997
3.4330001 -0.116 -0.0060000001 150 0 0 0 0.067890003
3.434 -0.105 -0.0049999999 150 0 0 0 0.067900002
3.431 -0.093999997 -0.0049999999 150 0 0 0 0.067910001
3.4330001 -0.082999997 -0.0040000002 150 0 0 0 0.067919999
3.427 -0.071999997 -0.0040000002 150 0 0 0 0.067929998
3.424 -0.061000001 -0.003 150 0 0 0 0.067939997
3.424 -0.050000001 -0.003 150 0 0 0 0.067950003
3.424 -0.039000001 -0.0020000001 150 0 0 0 0.067960002
3.4189999 -0.027000001 -0.0020000001 150 0 0 0 0.06797
3.4189999 -0.016000001 -0.001 150 0 0 0 0.067979999
3.4189999 -0.0049999999 0 150 0 0 0 0.067989998
3.418 0.0049999999 0 151 0 0 0 0.068000004
3.418 0.016000001 0 151 0 0 0 0.068010002
3.418 0.027000001 0.001 151 0 0 0 0.068020001
3.421 0.037999999 0.001 152 0 0 0 0.06803
3.4230001 0.048999999 0.0020000001 152 0 0 0 0.068039998
3.4170001 0.059999999 0.003 152 0 0 0 0.068049997
3.4119999 0.071000002 0.0040000002 153 0 0 0 0.068060003
3.4119999 0.082000002 0.0040000002 153 0 0 0 0.068070002
3.401 0.093000002 0.0049999999 153 0 0 0 0.068080001
3.398 0.104 0.0060000001 154 0 0 0 0.068089999
3.382 0.114 0.0070000002 154 0 0 0 0.068099998
3.382 0.125 0.0080000004 155 0 0 0 0.068109997
3.382 0.13600001 0.0089999996 155 0 0 0 0.068120003
3.3770001 0.147 0.0099999998 156 0 0 0 0.068130001
3.372 0.15700001 0.0099999998 157 0 0 0 0.06814
3.369 0.168 0.011 157 0 0 0 0.068149999
3.3659999 0.17900001 0.012 158 0 0 0 0.068159997
3.362 0.19 0.013 158 0 0 0 0.068170004
3.3610001 0.2 0.014 159 0 0 0 0.068180002
3.3610001 0.211 0.015 159 0 0 0 0.068190001
3.359 0.222 0.016000001 159 0 0 0 0.0682
3.3570001 0.233 0.017000001 159 0 0 0 0.068209998
3.3559999 0.243 0.017999999 159 0 0 0 0.068219997
3.355 0.25400001 0.018999999 160 0 0 0 0.068230003
3.355 0.26499999 0.02 160 0 0 0 0.068240002
3.3570001 0.27599999 0.022 159 0 0 0 0.06825
3.355 0.287 0.023 159 0 0 0 0.068259999
3.3559999 0.29800001 0.024 159 0 0 0 0.068269998
3.359 0.30899999 0.025 158 0 0 0 0.068279997
3.3559999 0.31900001 0.026000001 157 0 0 0 0.068290003
3.369 0.331 0.028000001 156 0 0 0 0.068300001
3.3559999 0.34099999 0.028999999 157 0 0 0 0.06831
3.3510001 0.35100001 0.029999999 158 0 0 0 0.068319999
3.3610001 0.36300001 0.030999999 157 0 0 0 0.068329997
3.3640001 0.375 0.033 155 0 0 0 0.068340003
3.3640001 0.38600001 0.034000002 154 0 0 0 0.068350002
3.3759999 0.398 0.035 154 0 0 0 0.068360001
3.378 0.40900001 0.037 154 0 0 0 0.06837
3.3889999 0.421 0.037999999 153 0 0 0 0.068379998
3.395 0.433 0.039999999 152 0 0 0 0.068389997
3.3929999 0.44400001 0.041000001 152 0 0 0 0.068400003
3.388 0.454 0.043000001 152 0 0 0 0.068410002
3.388 0.465 0.044 151 0 0 0 0.06842
3.3829999 0.47499999 0.046 151 0 0 0 0.068429999
3.388 0.48699999 0.046999998 152 0 0 0 0.068439998
3.3800001 0.49700001 0.048999999 151 0 0 0 0.068449996
3.385 0.509 0.050000001 153 0 0 0 0.068460003
3.358 0.51599997 0.050999999 152 0 0 0 0.068470001
3.3210001 0.52100003 0.052000001 151 0 0 0 0.06848
3.3199999 0.53100002 0.054000001 151 0 0 0 0.068489999
3.293 0.53799999 0.055 151 0 0 0 0.068499997
3.2850001 0.54699999 0.057 153 0 0 0 0.068510003
3.286 0.55800003 0.057999998 153 0 0 0 0.068520002
3.2839999 0.56800002 0.059999999 153 0 0 0 0.068530001
3.283 0.579 0.061999999 151 0 0 0 0.068539999
3.2639999 0.58600003 0.063000001 27 0 0 0 0.068549998
3.1989999 0.58499998 0.063000001 24 0 0 0 0.068559997
3.119 0.57999998 0.064000003 24 0 0 0 0.068570003
3.062 0.57999998 0.064000003 24 0 0 0 0.068580002
2.9809999 0.574 0.064000003 25 0 0 0 0.06859
2.908 0.56999999 0.064000003 25 0 0 0 0.068599999
2.865 0.57099998 0.064999998 26 0 0 0 0.068609998
2.789 0.565 0.064999998 27 0 0 0 0.068619996
2.6730001 0.55000001 0.063000001 26 0 0 0 0.068630002
2.5910001 0.54100001 0.063000001 23 0 0 0 0.068640001
2.5250001 0.53600001 0.063000001 20 0 0 0 0.06865
2.464 0.53100002 0.063000001 20 0 0 0 0.068659998
2.4030001 0.52499998 0.063000001 19 0 0 0 0.068669997
2.352 0.52200001 0.063000001 19 0 0 0 0.068680003
2.2709999 0.51099998 0.061999999 150 0 0 0 0.068690002
2.2479999 0.514 0.063000001 151 0 0 0 0.068700001
2.2460001 0.52100003 0.064000003 151 0 0 0 0.068709999
2.2520001 0.52899998 0.066 151 0 0 0 0.068719998
2.23 0.53100002 0.067000002 150 0 0 0 0.068729997
2.2260001 0.53799999 0.068000004 151 0 0 0 0.068740003
2.23 0.546 0.07 150 0 0 0 0.068750001
2.2290001 0.55299997 0.071000002 150 0 0 0 0.06876
2.227 0.56 0.072999999 151 0 0 0 0.068769999
2.2260001 0.56699997 0.074000001 151 0 0 0 0.068779998
2.2249999 0.574 0.075999998 151 0 0 0 0.068790004
2.2219999 0.57999998 0.077 151 0 0 0 0.068800002
2.2249999 0.58899999 0.079000004 150 0 0 0 0.068810001
2.2309999 0.597 0.081 151 0 0 0 0.06882
2.2349999 0.60600001 0.082999997 151 0 0 0 0.068829998
2.234 0.61299998 0.083999999 151 0 0 0 0.068839997
2.2320001 0.62 0.086000003 151 0 0 0 0.068850003
2.2290001 0.62599999 0.088 151 0 0 0 0.068860002
2.2290001 0.63300002 0.089000002 151 0 0 0 0.068870001
2.29 0.65799999 0.093999997 150 0 0 0 0.068879999
2.4779999 0.72000003 0.103 150 0 0 0 0.068889998
2.4860001 0.73100001 0.106 150 0 0 0 0.068899997
2.4820001 0.73799998 0.107 150 0 0 0 0.068910003
2.484 0.74699998 0.11 150 0 0 0 0.068920001
2.4790001 0.75300002 0.111 150 0 0 0 0.06893
2.3380001 0.71799999 0.107 150 0 0 0 0.068939999
2.5120001 0.77999997 0.117 130 0 0 0 0.068949997
1.495 0.46900001 0.071000002 1 0 0 0 0.068960004
1.444 0.458 0.07 1 0 0 0 0.068970002
1.424 0.456 0.07 1 0 0 0 0.068980001
1.424 0.461 0.071000002 1 0 0 0 0.06899
1.406 0.45899999 0.071999997 1 0 0 0 0.068999998
1.364 0.44999999 0.071000002 1 0 0 0 0.069009997
1.352 0.45100001 0.071000002 0 0 0 0 0.069020003
1.341 0.45100001 0.071999997 0 0 0 0 0.069030002
1.336 0.454 0.072999999 1 0 0 0 0.06904
1.317 0.45199999 0.072999999 45 0 0 0 0.069049999
1.3 0.44999999 0.072999999 101 0 0 0 0.069059998
1.293 0.45199999 0.074000001 150 0 0 0 0.069069996
1.293 0.456 0.075000003 150 0 0 0 0.069080003
1.2970001 0.46200001 0.077 145 0 0 0 0.069090001
1.296 0.46599999 0.078000002 150 0 0 0 0.0691
1.2970001 0.47 0.079999998 146 0 0 0 0.069109999
1.296 0.47400001 0.081 146 0 0 0 0.069119997
1.295 0.47799999 0.082000002 140 0 0 0 0.069130003
1.296 0.48300001 0.083999999 130 0 0 0 0.069140002
1.2920001 0.48500001 0.085000001 150 0 0 0 0.069150001
1.295 0.491 0.086000003 119 0 0 0 0.069159999
1.296 0.495 0.088 63 0 0 0 0.069169998
1.3 0.50099999 0.089000002 12 0 0 0 0.069179997
1.27 0.49399999 0.089000002 5 0 0 0 0.069190003
1.248 0.48899999 0.089000002 0 0 0 0 0.069200002
3.3410001 1.3200001 0.242 2 0 0 0 0.06921
3.322 1.324 0.244 4 0 0 0 0.069219999
3.316 1.332 0.24699999 5 0 0 0 0.069229998
3.312 1.341 0.25099999 5 0 0 0 0.069239996
3.3199999 1.355 0.255 3 0 0 0 0.069250003
3.3010001 1.358 0.257 2 0 0 0 0.069260001
3.2690001 1.355 0.259 2 0 0 0 0.06927
3.253 1.359 0.26199999 4 0 0 0 0.069279999
3.2579999 1.372 0.266 4 0 0 0 0.069289997
3.2579999 1.382 0.27000001 3 0 0 0 0.069300003
3.2409999 1.385 0.27200001 3 0 0 0 0.069310002
3.2460001 1.397 0.27700001 3 0 0 0 0.069320001
3.2420001 1.406 0.28 3 0 0 0 0.069329999
3.2379999 1.415 0.28400001 3 0 0 0 0.069339998
3.234 1.423 0.28799999 3 0 0 0 0.069349997
3.2190001 1.427 0.29100001 2 0 0 0 0.069360003
3.197 1.427 0.29300001 1 0 0 0 0.069370002
3.1370001 1.41 0.29100001 0 0 0 0 0.06938
3.1199999 1.4119999 0.294 1 0 0 0 0.069389999
3.096 1.411 0.296 2 0 0 0 0.069399998
3.1099999 1.427 0.301 2 0 0 0 0.069410004
3.1199999 1.441 0.30599999 3 0 0 0 0.069420002
3.1240001 1.452 0.31099999 2 0 0 0 0.069430001
3.098 1.45 0.31299999 2 0 0 0 0.06944
3.095 1.4579999 0.317 2 0 0 0 0.069449998
3.102 1.471 0.322 2 0 0 0 0.069459997
3.0780001 1.469 0.324 2 0 0 0 0.069470003
3.062 1.47 0.32600001 2 0 0 0 0.069480002
3.079 1.488 0.333 2 0 0 0 0.069490001
3.063 1.489 0.33500001 2 0 0 0 0.069499999
3.0710001 1.503 0.34099999 2 0 0 0 0.069509998
3.066 1.5089999 0.345 2 0 0 0 0.069519997
3.0610001 1.516 0.34799999 2 0 0 0 0.069530003
3.0639999 1.526 0.35299999 1 0 0 0 0.069540001
3.0999999 1.554 0.36199999 0 0 0 0 0.06955
0.91600001 0.46200001 0.108 0 0 0 0 0.069559999
0.912 0.46200001 0.109 3 0 0 0 0.069569997
0.90399998 0.461 0.109 3 0 0 0 0.069580004
0.917 0.47 0.112 4 0 0 0 0.069590002
0.91600001 0.472 0.114 4 0 0 0 0.069600001
0.91600001 0.47499999 0.115 4 0 0 0 0.06961
0.903 0.47 0.115 0 0 0 0 0.069619998
3.743 1.9630001 0.484 1 0 0 0 0.069629997
3.6559999 1.927 0.47799999 1 0 0 0 0.069640003
3.5090001 1.859 0.465 2 0 0 0 0.069650002
3.4349999 1.83 0.46000001 3 0 0 0 0.069660001
3.3900001 1.8150001 0.46000001 2 0 0 0 0.069669999
3.3280001 1.791 0.45699999 2 0 0 0 0.069679998
3.29 1.78 0.45699999 2 0 0 0 0.069689997
3.243 1.763 0.456 1 0 0 0 0.069700003
3.2520001 1.776 0.463 2 0 0 0 0.069710001
3.2880001 1.8049999 0.47299999 2 0 0 0 0.06972
3.369 1.858 0.49000001 2 0 0 0 0.069729999
3.4809999 1.929 0.51300001 3 0 0 0 0.069739997
3.529 1.965 0.52499998 4 0 0 0 0.069750004
3.493 1.954 0.52600002 4 0 0 0 0.069760002
3.477 1.954 0.52999997 3 0 0 0 0.069770001
3.533 1.994 0.54400003 3 0 0 0 0.06978
3.5569999 2.017 0.55400002 5 0 0 0 0.069789998
3.5799999 2.039 0.56400001 4 0 0 0 0.069799997
3.5829999 2.049 0.57099998 4 0 0 0 0.069810003
3.5539999 2.0409999 0.57200003 2 0 0 0 0.069820002
3.517 2.0280001 0.57200003 1 0 0 0 0.06983
3.4189999 1.979 0.56300002 1 0 0 0 0.069839999
3.5020001 2.036 0.58200002 2 0 0 0 0.069849998
3.4219999 1.997 0.57499999 1 0 0 0 0.069859996
3.3340001 1.9529999 0.56599998 1 0 0 0 0.069870003
3.2880001 1.934 0.56400001 1 0 0 0 0.069880001
3.25 1.919 0.56400001 1 0 0 0 0.06989
3.244 1.9220001 0.56900001 1 0 0 0 0.069899999
3.22 1.915 0.56999999 1 0 0 0 0.069909997
1.1160001 0.66600001 0.199 0 0 0 0 0.069920003
1.141 0.68300003 0.206 0 0 0 0 0.069930002
3.223 1.937 0.588 1 0 0 0 0.069940001
3.221 1.943 0.59399998 1 0 0 0 0.069949999
3.2219999 1.949 0.60000002 1 0 0 0 0.069959998
3.2279999 1.959 0.60699999 1 0 0 0 0.069969997
3.27 1.9910001 0.62 1 0 0 0 0.069980003
3.3759999 2.062 0.64700001 1 0 0 0 0.069990002
3.533 2.164 0.68300003 2 0 0 0 0.07
3.6140001 2.221 0.70599997 4 0 0 0 0.070009999
3.6170001 2.2290001 0.713 5 0 0 0 0.070019998
3.632 2.244 0.722 4 0 0 0 0.070029996
3.6270001 2.247 0.72799999 4 0 0 0 0.070040002
3.6329999 2.257 0.736 4 0 0 0 0.070050001
3.6359999 2.2650001 0.74299997 4 0 0 0 0.07006
3.635 2.27 0.75 4 0 0 0 0.070069999
3.6359999 2.277 0.75700003 4 0 0 0 0.070079997
3.6400001 2.2850001 0.764 3 0 0 0 0.070090003
3.6500001 2.296 0.773 3 0 0 0 0.070100002
3.638 2.2939999 0.77700001 2 0 0 0 0.070110001
3.6429999 2.302 0.78500003 2 0 0 0 0.070119999
3.6300001 2.2980001 0.78799999 2 0 0 0 0.070129998
3.654 2.3180001 0.80000001 2 0 0 0 0.070139997
3.668 2.332 0.81 2 0 0 0 0.070150003
3.6930001 2.352 0.82200003 2 0 0 0 0.070160002
0 0 0 0 0 0 0 0.07017
0 0 0 0 0 0 0 0.070179999
0 0 0 0 0 0 0 0.070189998
0 0 0 0 0 0 0 0.070200004
0 0 0 0 0 0 0 0.070210002
0 0 0 0 0 0 0 0.070220001
0 0 0 0 0 0 0 0.07023
0 0 0 0 0 0 0 0.070239998
0 0 0 0 0 0 0 0.070249997
0 0 0 0 0 0 0 0.070260003
0 0 0 0 0 0 0 0.070270002
0 0 0 0 0 0 0 0.070280001
0 0 0 0 0 0 0 0.070289999
0 0 0 0 0 0 0 0.070299998
0 0 0 0 0 0 0 0.070309997
1.341 0.87099999 0.33500001 0 0 0 0 0.070320003
1.3940001 0.90600002 0.35100001 0 0 0 0 0.070330001
1.299 0.84500003 0.329 0 0 0 0 0.07034
1.4119999 0.91799998 0.36000001 0 0 0 0 0.070349999
1.3609999 0.88499999 0.34900001 0 0 0 0 0.070359997
0 0 0 0 0 0 0 0.070370004
0 0 0 0 0 0 0 0.070380002
0 0 0 0 0 0 0 0.070390001
0 0 0 0 0 0 0 0.0704
0 0 0 0 0 0 0 0.070409998
0 0 0 0 0 0 0 0.070419997
0 0 0 0 0 0 0 0.070430003
0 0 0 0 0 0 0 0.070440002
0 0 0 0 0 0 0 0.07045
0 0 0 0 0 0 0 0.070459999
0 0 0 0 0 0 0 0.070469998
0 0 0 0 0 0 0 0.070479997
0 0 0 0 0 0 0 0.070490003
0 0 0 0 0 0 0 0.070500001
0 0 0 0 0 0 0 0.07051
0 0 0 0 0 0 0 0.070519999
1.291 0.83399999 0.36199999 0 0 0 0 0.070529997
1.28 0.82599998 0.361 0 0 0 0 0.070540003
0 0 0 0 0 0 0 0.070550002
0 0 0 0 0 0 0 0.070560001
0 0 0 0 0 0 0 0.07057
0 0 0 0 0 0 0 0.070579998
0 0 0 0 0 0 0 0.070589997
0 0 0 0 0 0 0 0.070600003
0 0 0 0 0 0 0 0.070610002
0 0 0 0 0 0 0 0.07062
0 0 0 0 0 0 0 0.070629999
0 0 0 0 0 0 0 0.070639998
0 0 0 0 0 0 0 0.070649996
0 0 0 0 0 0 0 0.070660003
0 0 0 0 0 0 0 0.070670001
0 0 0 0 0 0 0 0.07068
1.499 0.94300002 0.44600001 0 0 0 0 0.070689999
1.5599999 0.97799999 0.465 0 0 0 0 0.070699997
1.476 0.92299998 0.442 0 0 0 0 0.070710003
1.469 0.917 0.44 0 0 0 0 0.070720002
1.459 0.90799999 0.43900001 0 0 0 0 0.070730001
1.529 0.949 0.461 0 0 0 0 0.070739999
1.4400001 0.89099997 0.435 0 0 0 0 0.070749998
0 0 0 0 0 0 0 0.070759997
0 0 0 0 0 0 0 0.070770003
0 0 0 0 0 0 0 0.070780002
0 0 0 0 0 0 0 0.07079
1.517 0.92500001 0.463 0 0 0 0 0.070799999
1.518 0.92299998 0.46399999 0 0 0 0 0.070809998
1.5369999 0.93199998 0.47099999 0 0 0 0 0.070819996
1.469 0.88700002 0.44999999 0 0 0 0 0.070830002
1.488 0.89600003 0.45699999 0 0 0 0 0.070840001
1.4809999 0.889 0.45500001 0 0 0 0 0.07085
1.4910001 0.89099997 0.45899999 0 0 0 0 0.070859998
1.467 0.87400001 0.45199999 0 0 0 0 0.070869997
1.4680001 0.87099999 0.45300001 0 0 0 0 0.070880003
1.474 0.87199998 0.45500001 0 0 0 0 0.070890002
1.4680001 0.86500001 0.454 0 0 0 0 0.070900001
1.475 0.86500001 0.456 0 0 0 0 0.070909999
1.475 0.86199999 0.456 0 0 0 0 0.070919998
1.4859999 0.86400002 0.46000001 0 0 0 0 0.070929997
1.477 0.85600001 0.45699999 0 0 0 0 0.070940003
1.4859999 0.85699999 0.46000001 0 0 0 0 0.070950001
0 0 0 0 0 0 0 0.07096
0 0 0 0 0 0 0 0.070969999
0 0 0 0 0 0 0 0.070979998
0 0 0 0 0 0 0 0.070990004
1.52 0.85799998 0.47099999 0 0 0 0 0.071000002
1.507 0.847 0.46700001 0 0 0 0 0.071010001
1.369 0.76599997 0.42399999 1 0 0 0 0.07102
1.219 0.67900002 0.377 1 0 0 0 0.071029998
0 0 0 0 0 0 0 0.071039997
0 0 0 0 0 0 0 0.071050003
0 0 0 0 0 0 0 0.071060002
1.074 0.58600003 0.33199999 0 0 0 0 0.071070001
0 0 0 0 0 0 0 0.071079999
0 0 0 0 0 0 0 0.071089998
0 0 0 0 0 0 0 0.071099997
0 0 0 0 0 0 0 0.071110003
0 0 0 0 0 0 0 0.071120001
0 0 0 0 0 0 0 0.07113
0.91500002 0.48100001 0.28 4 0 0 0 0.071139999
0.898 0.47 0.27500001 7 0 0 0 0.071149997
0.89399999 0.465 0.273 16 0 0 0 0.071160004
0.89200002 0.46200001 0.27200001 20 0 0 0 0.071170002
0.89399999 0.46000001 0.27200001 22 0 0 0 0.071180001
0.89700001 0.45899999 0.273 14 0 0 0 0.07119
0.903 0.46000001 0.27399999 6 0 0 0 0.071199998
0.91299999 0.46200001 0.27700001 0 0 0 0 0.071209997
0.926 0.46599999 0.28 0 0 0 0 0.071220003
0.921 0.46000001 0.278 0 0 0 0 0.071230002
0.92500001 0.46000001 0.27900001 0 0 0 0 0.07124
0.93300003 0.461 0.28 0 0 0 0 0.071249999
0.935 0.45899999 0.28 0 0 0 0 0.071259998
0.95300001 0.465 0.285 0 0 0 0 0.071269996
0.958 0.465 0.28600001 0 0 0 0 0.071280003
0.96499997 0.465 0.287 0 0 0 0 0.071290001
0.98000002 0.47 0.29100001 0 0 0 0 0.0713
0.98199999 0.46700001 0.29100001 0 0 0 0 0.071309999
0.98799998 0.46700001 0.292 0 0 0 0 0.071319997
0.99599999 0.46799999 0.29300001 0 0 0 0 0.071330003
1.008 0.47 0.296 0 0 0 0 0.071340002
1.013 0.47 0.296 0 0 0 0 0.071350001
1.02 0.47 0.29699999 0 0 0 0 0.071359999
1.031 0.47099999 0.30000001 0 0 0 0 0.071369998
1.035 0.47 0.30000001 0 0 0 0 0.071379997
1.046 0.472 0.30199999 0 0 0 0 0.071390003
1.052 0.472 0.303 0 0 0 0 0.071400002
1.061 0.472 0.30399999 0 0 0 0 0.07141
1.069 0.47299999 0.30599999 0 0 0 0 0.071419999
1.081 0.47400001 0.308 0 0 0 0 0.071429998
1.091 0.47499999 0.31 0 0 0 0 0.071439996
1.094 0.47299999 0.30899999 0 0 0 0 0.071450002
1.105 0.47499999 0.31099999 0 0 0 0 0.071460001
1.1160001 0.47600001 0.31299999 0 0 0 0 0.07147
1.127 0.477 0.315 0 0 0 0 0.071479999
1.132 0.47499999 0.315 0 0 0 0 0.071489997
1.149 0.479 0.31799999 0 0 0 0 0.071500003
1.158 0.479 0.31999999 0 0 0 0 0.071510002
1.163 0.47799999 0.31999999 0 0 0 0 0.071520001
1.17 0.477 0.31999999 0 0 0 0 0.071529999
1.187 0.47999999 0.32300001 0 0 0 0 0.071539998
1.1950001 0.47999999 0.324 0 0 0 0 0.071549997
1.224 0.48699999 0.33000001 0 0 0 0 0.071560003
1.245 0.49200001 0.33399999 0 0 0 0 0.071570002
1.261 0.49399999 0.33700001 10 0 0 0 0.07158
1.28 0.498 0.34099999 38 0 0 0 0.071589999
1.276 0.49200001 0.338 138 0 0 0 0.071599998
1.273 0.48699999 0.33500001 150 0 0 0 0.071610004
1.273 0.48300001 0.33399999 150 0 0 0 0.071620002
1.275 0.47999999 0.33199999 150 0 0 0 0.071630001
1.276 0.47600001 0.331 150 0 0 0 0.07164
1.275 0.472 0.329 150 0 0 0 0.071649998
1.274 0.46799999 0.32699999 150 0 0 0 0.071659997
1.278 0.465 0.32600001 150 0 0 0 0.071670003
1.276 0.46000001 0.324 150 0 0 0 0.071680002
1.277 0.45699999 0.322 150 0 0 0 0.071690001
1.279 0.454 0.32100001 150 0 0 0 0.071699999
1.278 0.449 0.31799999 150 0 0 0 0.071709998
1.285 0.44800001 0.31799999 150 0 0 0 0.071719997
1.301 0.44999999 0.31999999 74 0 0 0 0.071730003
1.329 0.45500001 0.32499999 12 0 0 0 0.071740001
1.345 0.456 0.32699999 7 0 0 0 0.07175
1.359 0.45699999 0.329 7 0 0 0 0.071759999
1.373 0.458 0.33000001 7 0 0 0 0.071769997
1.39 0.45899999 0.33199999 7 0 0 0 0.071780004
1.406 0.46000001 0.333 8 0 0 0 0.071790002
1.423 0.461 0.33500001 8 0 0 0 0.071800001
1.4400001 0.46200001 0.33700001 9 0 0 0 0.07181
1.454 0.46200001 0.338 9 0 0 0 0.071819998
1.48 0.46599999 0.34200001 9 0 0 0 0.071829997
1.479 0.46200001 0.33899999 9 0 0 0 0.071840003
1.49 0.461 0.33899999 6 0 0 0 0.071850002
1.5039999 0.46000001 0.34 1 0 0 0 0.07186
4.0139999 1.217 0.90200001 58 0 0 0 0.071869999
4.0170002 1.206 0.89600003 57 0 0 0 0.071879998
4.0219998 1.1950001 0.88999999 57 0 0 0 0.071889997
4.02 1.183 0.88300002 57 0 0 0 0.071900003
0 0 0 0 0 0 0 0.071910001
0 0 0 0 0 0 0 0.07192
2.2349999 0.63800001 0.47999999 151 0 0 0 0.071929999
2.2260001 0.62800002 0.47400001 151 0 0 0 0.071939997
2.2360001 0.625 0.472 151 0 0 0 0.071950004
2.2309999 0.61699998 0.46700001 151 0 0 0 0.071960002
2.23 0.61000001 0.463 151 0 0 0 0.071970001
2.2309999 0.60299999 0.46000001 151 0 0 0 0.07198
2.2249999 0.59500003 0.454 150 0 0 0 0.071989998
2.2219999 0.588 0.44999999 151 0 0 0 0.071999997
2.224 0.58200002 0.447 151 0 0 0 0.072010003
2.224 0.57599998 0.44299999 151 0 0 0 0.072020002
2.2249999 0.56900001 0.43900001 151 0 0 0 0.07203
2.2260001 0.56300002 0.435 151 0 0 0 0.072039999
2.2260001 0.55699998 0.43099999 151 0 0 0 0.072049998
2.23 0.551 0.428 151 0 0 0 0.072059996
2.2260001 0.54400003 0.42300001 151 0 0 0 0.072070003
2.2260001 0.53799999 0.419 150 0 0 0 0.072080001
2.2420001 0.53500003 0.41800001 150 0 0 0 0.07209
2.25 0.53100002 0.41600001 151 0 0 0 0.072099999
2.253 0.52499998 0.412 151 0 0 0 0.072109997
2.2550001 0.51899999 0.40799999 151 0 0 0 0.072120003
2.2609999 0.514 0.405 150 0 0 0 0.072130002
2.312 0.51899999 0.41 16 0 0 0 0.072140001
2.3710001 0.52600002 0.41600001 15 0 0 0 0.072149999
2.4219999 0.52999997 0.421 16 0 0 0 0.072159998
2.467 0.53299999 0.42399999 16 0 0 0 0.072169997
2.523 0.53799999 0.42899999 17 0 0 0 0.072180003
2.576 0.542 0.433 19 0 0 0 0.072190002
2.632 0.546 0.43799999 20 0 0 0 0.0722
2.7 0.55299997 0.44400001 21 0 0 0 0.072209999
2.7579999 0.55699998 0.449 22 0 0 0 0.072219998
2.829 0.56400001 0.45500001 23 0 0 0 0.072229996
2.902 0.56999999 0.461 24 0 0 0 0.072240002
2.97 0.57599998 0.46599999 24 0 0 0 0.072250001
3.05 0.583 0.47299999 24 0 0 0 0.07226
3.125 0.588 0.479 25 0 0 0 0.072269998
3.181 0.58999997 0.48100001 24 0 0 0 0.072279997
3.2390001 0.59200001 0.484 25 0 0 0 0.072290003
3.2750001 0.58999997 0.48300001 41 0 0 0 0.072300002
3.283 0.58200002 0.47799999 150 0 0 0 0.072310001
3.279 0.57300001 0.47099999 151 0 0 0 0.072319999
3.2850001 0.565 0.465 151 0 0 0 0.072329998
3.29 0.55699998 0.46000001 150 0 0 0 0.072339997
3.2880001 0.54799998 0.45300001 150 0 0 0 0.072350003
3.3050001 0.542 0.449 150 0 0 0 0.072360002
3.3210001 0.53500003 0.44400001 151 0 0 0 0.07237
3.322 0.52700001 0.43799999 151 0 0 0 0.072379999
3.326 0.51800001 0.43200001 150 0 0 0 0.072389998
3.3900001 0.51899999 0.43399999 150 0 0 0 0.072400004
3.3889999 0.50999999 0.42699999 150 0 0 0 0.072410002
3.3940001 0.50199997 0.421 150 0 0 0 0.072420001
3.391 0.49200001 0.414 150 0 0 0 0.07243
3.3929999 0.484 0.40700001 150 0 0 0 0.072439998
3.3970001 0.47499999 0.40099999 150 0 0 0 0.072449997
3.391 0.46599999 0.39399999 150 0 0 0 0.072460003
3.3929999 0.45699999 0.38699999 150 0 0 0 0.072470002
3.3900001 0.44800001 0.38 150 0 0 0 0.072480001
3.3970001 0.44 0.37400001 150 0 0 0 0.072489999
3.3940001 0.43000001 0.36700001 150 0 0 0 0.072499998
3.392 0.42199999 0.36000001 150 0 0 0 0.072509997
3.395 0.41299999 0.35299999 150 0 0 0 0.072520003
3.395 0.40400001 0.34599999 150 0 0 0 0.072530001
3.3959999 0.39500001 0.33899999 150 0 0 0 0.07254
3.398 0.38699999 0.333 150 0 0 0 0.072549999
3.3959999 0.37799999 0.32600001 150 0 0 0 0.072559997
3.3989999 0.37 0.31900001 150 0 0 0 0.072570004
3.4000001 0.361 0.31200001 150 0 0 0 0.072580002
3.401 0.352 0.30500001 151 0 0 0 0.072590001
3.3940001 0.34299999 0.29800001 151 0 0 0 0.0726
3.3989999 0.33500001 0.29100001 151 0 0 0 0.072609998
3.401 0.32600001 0.28400001 151 0 0 0 0.072619997
3.398 0.317 0.27700001 151 0 0 0 0.072630003
3.402 0.30899999 0.27000001 151 0 0 0 0.072640002
3.398 0.30000001 0.26300001 151 0 0 0 0.07265
3.398 0.292 0.25600001 151 0 0 0 0.072659999
3.398 0.28299999 0.249 151 0 0 0 0.072669998
3.401 0.27500001 0.242 151 0 0 0 0.072679996
3.402 0.266 0.235 151 0 0 0 0.072690003
3.4030001 0.25799999 0.228 151 0 0 0 0.072700001
3.4070001 0.25 0.221 151 0 0 0 0.07271
3.405 0.241 0.214 151 0 0 0 0.072719999
3.404 0.23199999 0.207 151 0 0 0 0.072729997
3.4100001 0.22400001 0.2 151 0 0 0 0.072740003
3.4089999 0.21600001 0.193 151 0 0 0 0.072750002
3.4100001 0.207 0.186 151 0 0 0 0.072760001
3.404 0.199 0.178 151 0 0 0 0.07277
3.4100001 0.191 0.171 151 0 0 0 0.072779998
3.4100001 0.182 0.164 152 0 0 0 0.072789997
3.4119999 0.17399999 0.15700001 152 0 0 0 0.072800003
3.414 0.16599999 0.15000001 151 0 0 0 0.072810002
3.4130001 0.15700001 0.142 152 0 0 0 0.07282
3.415 0.149 0.13500001 152 0 0 0 0.072829999
3.4130001 0.141 0.12800001 152 0 0 0 0.072839998
3.408 0.132 0.12 152 0 0 0 0.072849996
3.411 0.124 0.113 152 0 0 0 0.072860003
3.4089999 0.116 0.106 153 0 0 0 0.072870001
3.4089999 0.107 0.097999997 153 0 0 0 0.07288
3.4159999 0.098999999 0.090999998 152 0 0 0 0.072889999
3.4100001 0.090999998 0.083999999 153 0 0 0 0.072899997
3.4059999 0.082999997 0.075999998 153 0 0 0 0.072910003
3.411 0.074000001 0.068999998 152 0 0 0 0.072920002
3.411 0.066 0.061999999 152 0 0 0 0.072930001
3.4170001 0.057999998 0.054000001 152 0 0 0 0.072939999
3.4200001 0.050000001 0.046999998 152 0 0 0 0.072949998
3.418 0.041999999 0.039000001 152 0 0 0 0.072959997
3.4200001 0.034000002 0.032000002 152 0 0 0 0.072970003
3.421 0.026000001 0.024 151 0 0 0 0.072980002
3.415 0.017000001 0.017000001 151 0 0 0 0.07299
3.4159999 0.0089999996 0.0089999996 151 0 0 0 0.072999999
3.418 0.001 0.0020000001 151 0 0 0 0.073009998
3.418 -0.0060000001 -0.0049999999 151 0 0 0 0.073019996
3.418 -0.014 -0.013 151 0 0 0 0.073030002
3.4189999 -0.022 -0.02 151 0 0 0 0.073040001
3.4200001 -0.029999999 -0.028000001 151 0 0 0 0.07305
3.4189999 -0.037999999 -0.035 151 0 0 0 0.073059998
3.418 -0.046 -0.043000001 151 0 0 0 0.073069997
3.424 -0.054000001 -0.050999999 151 0 0 0 0.073080003
3.4219999 -0.061999999 -0.057999998 151 0 0 0 0.073090002
3.424 -0.07 -0.066 151 0 0 0 0.073100001
3.4319999 -0.079000004 -0.074000001 151 0 0 0 0.073109999
3.425 -0.086999997 -0.081 151 0 0 0 0.073119998
3.4219999 -0.093999997 -0.089000002 150 0 0 0 0.073129997
3.427 -0.102 -0.097000003 150 0 0 0 0.073140003
3.4300001 -0.11 -0.105 150 0 0 0 0.073150001
3.4300001 -0.118 -0.112 150 0 0 0 0.07316
3.431 -0.126 -0.12 150 0 0 0 0.073169999
3.4300001 -0.134 -0.12800001 150 0 0 0 0.073179998
3.431 -0.142 -0.13600001 150 0 0 0 0.073190004
3.4319999 -0.15000001 -0.14399999 150 0 0 0 0.073200002
3.4289999 -0.15800001 -0.152 151 0 0 0 0.073210001
3.434 -0.16599999 -0.16 151 0 0 0 0.07322
3.4189999 -0.17299999 -0.167 153 0 0 0 0.073229998
3.4170001 -0.18099999 -0.175 151 0 0 0 0.073239997
3.3640001 -0.186 -0.18000001 150 0 0 0 0.073250003
3.372 -0.19400001 -0.18799999 151 0 0 0 0.073260002
3.368 -0.20100001 -0.19599999 151 0 0 0 0.073270001
3.365 -0.20900001 -0.20299999 151 0 0 0 0.073279999
3.355 -0.21600001 -0.20999999 150 0 0 0 0.073289998
3.3440001 -0.223 -0.21699999 152 0 0 0 0.073299997
3.3410001 -0.23 -0.22499999 152 0 0 0 0.073310003
3.3429999 -0.23800001 -0.233 151 0 0 0 0.073320001
3.345 -0.24600001 -0.241 151 0 0 0 0.07333
3.3399999 -0.25299999 -0.248 152 0 0 0 0.073339999
3.335 -0.25999999 -0.25600001 151 0 0 0 0.073349997
3.3139999 -0.266 -0.26199999 43 0 0 0 0.073360004
3.24 -0.26699999 -0.264 150 0 0 0 0.073370002
3.233 -0.27399999 -0.271 151 0 0 0 0.073380001
3.2309999 -0.28099999 -0.27900001 151 0 0 0 0.07339
3.2320001 -0.28799999 -0.28600001 150 0 0 0 0.073399998
3.2309999 -0.29499999 -0.294 150 0 0 0 0.073409997
3.2349999 -0.303 -0.30199999 151 0 0 0 0.073420003
3.234 -0.31 -0.31 151 0 0 0 0.073430002
3.2320001 -0.317 -0.317 151 0 0 0 0.07344
3.2260001 -0.32300001 -0.32499999 150 0 0 0 0.073449999
3.207 -0.329 -0.33000001 150 0 0 0 0.073459998
3.204 -0.33500001 -0.338 150 0 0 0 0.073469996
3.2079999 -0.34299999 -0.34599999 150 0 0 0 0.073480003
3.21 -0.34999999 -0.354 150 0 0 0 0.073490001
3.2090001 -0.35699999 -0.36199999 150 0 0 0 0.0735
3.21 -0.36399999 -0.37 150 0 0 0 0.073509999
3.2079999 -0.37099999 -0.377 150 0 0 0 0.073519997
3.188 -0.37599999 -0.38299999 150 0 0 0 0.073530003
2.8929999 -0.347 -0.35499999 150 0 0 0 0.073540002
2.7820001 -0.34 -0.34799999 86 0 0 0 0.073550001
2.55 -0.317 -0.32499999 18 0 0 0 0.073559999
2.5250001 -0.31999999 -0.32800001 19 0 0 0 0.073569998
2.4990001 -0.322 -0.331 19 0 0 0 0.073579997
2.464 -0.32300001 -0.333 19 0 0 0 0.073590003
2.4360001 -0.324 -0.33500001 19 0 0 0 0.073600002
2.4119999 -0.32600001 -0.33700001 18 0 0 0 0.07361
2.375 -0.32600001 -0.338 14 0 0 0 0.073619999
2.3570001 -0.329 -0.34200001 17 0 0 0 0.073629998
2.3610001 -0.33399999 -0.34799999 16 0 0 0 0.073639996
2.359 -0.33899999 -0.354 15 0 0 0 0.073650002
2.3610001 -0.345 -0.36000001 15 0 0 0 0.073660001
2.362 -0.34999999 -0.366 15 0 0 0 0.07367
2.355 -0.354 -0.37099999 13 0 0 0 0.073679999
2.362 -0.36000001 -0.37799999 15 0 0 0 0.073689997
2.365 -0.36500001 -0.38499999 16 0 0 0 0.073700003
2.362 -0.37 -0.38999999 16 0 0 0 0.073710002
2.3610001 -0.375 -0.396 16 0 0 0 0.073720001
2.3610001 -0.38 -0.403 16 0 0 0 0.073729999
2.365 -0.38499999 -0.40900001 18 0 0 0 0.073739998
2.3599999 -0.389 -0.41499999 19 0 0 0 0.073749997
2.358 -0.39399999 -0.41999999 19 0 0 0 0.073760003
2.359 -0.39899999 -0.42699999 20 0 0 0 0.073770002
2.3570001 -0.40400001 -0.433 20 0 0 0 0.07378
2.3640001 -0.41 -0.44 20 0 0 0 0.073789999
2.362 -0.41499999 -0.44600001 20 0 0 0 0.073799998
2.3640001 -0.41999999 -0.45199999 20 0 0 0 0.073810004
2.3640001 -0.42500001 -0.45899999 20 0 0 0 0.073820002
2.3640001 -0.43000001 -0.465 20 0 0 0 0.073830001
2.3670001 -0.435 -0.472 19 0 0 0 0.07384
2.3659999 -0.44 -0.47799999 16 0 0 0 0.073849998
2.3659999 -0.44400001 -0.484 17 0 0 0 0.073859997
2.3640001 -0.449 -0.49000001 18 0 0 0 0.073870003
2.365 -0.454 -0.49700001 18 0 0 0 0.073880002
2.3699999 -0.46000001 -0.50400001 15 0 0 0 0.073890001
2.3789999 -0.46599999 -0.51300001 14 0 0 0 0.073899999
2.3729999 -0.47 -0.51800001 13 0 0 0 0.073909998
2.3659999 -0.47299999 -0.523 13 0 0 0 0.073919997
2.3629999 -0.47799999 -0.528 15 0 0 0 0.073930003
2.368 -0.48300001 -0.53600001 17 0 0 0 0.073940001
2.362 -0.48699999 -0.54100001 17 0 0 0 0.07395
2.3659999 -0.49200001 -0.54799998 17 0 0 0 0.073959999
2.365 -0.49700001 -0.55500001 17 0 0 0 0.073969997
2.3629999 -0.50099999 -0.56099999 17 0 0 0 0.073980004
2.3640001 -0.50599998 -0.56699997 18 0 0 0 0.073990002
2.368 -0.51099998 -0.57499999 19 0 0 0 0.074000001
2.3610001 -0.51499999 -0.57999998 21 0 0 0 0.07401
2.3670001 -0.51999998 -0.588 21 0 0 0 0.074019998
2.368 -0.52499998 -0.59500003 19 0 0 0 0.074029997
2.3659999 -0.52899998 -0.60100001 15 0 0 0 0.074040003
2.369 -0.53500003 -0.60799998 17 0 0 0 0.074050002
2.3640001 -0.53799999 -0.61400002 19 0 0 0 0.07406
2.365 -0.54299998 -0.62 22 0 0 0 0.074069999
2.3710001 -0.54900002 -0.62900001 23 0 0 0 0.074079998
2.368 -0.55299997 -0.63499999 23 0 0 0 0.074089997
2.3670001 -0.55699998 -0.64099997 24 0 0 0 0.074100003
2.368 -0.56099999 -0.648 22 0 0 0 0.074110001
2.3710001 -0.56599998 -0.65600002 18 0 0 0 0.07412
2.3699999 -0.57099998 -0.662 16 0 0 0 0.074129999
2.3740001 -0.57599998 -0.67000002 17 0 0 0 0.074139997
2.3699999 -0.579 -0.676 19 0 0 0 0.074150003
2.3699999 -0.58399999 -0.68300003 19 0 0 0 0.074160002
2.3740001 -0.58899999 -0.69099998 19 0 0 0 0.074170001
2.3710001 -0.59299999 -0.69599998 20 0 0 0 0.07418
2.3729999 -0.59799999 -0.704 21 0 0 0 0.074189998
2.3699999 -0.60100001 -0.70999998 22 0 0 0 0.074199997
2.369 -0.60500002 -0.71700001 20 0 0 0 0.074210003
2.3710001 -0.61000001 -0.72399998 18 0 0 0 0.074220002
2.375 -0.61500001 -0.73199999 18 0 0 0 0.07423
2.375 -0.61900002 -0.73900002 19 0 0 0 0.074239999
2.3740001 -0.62300003 -0.74599999 19 0 0 0 0.074249998
2.3729999 -0.62699997 -0.75300002 19 0 0 0 0.074259996
2.3710001 -0.63099998 -0.759 19 0 0 0 0.074270003
2.3740001 -0.63499999 -0.76700002 22 0 0 0 0.074280001
2.369 -0.63800001 -0.77200001 23 0 0 0 0.07429
2.378 -0.64499998 -0.78200001 21 0 0 0 0.074299999
2.375 -0.648 -0.78799999 21 0 0 0 0.074309997
2.3759999 -0.65200001 -0.796 24 0 0 0 0.074320003
2.3789999 -0.65700001 -0.80400002 22 0 0 0 0.074330002
2.372 -0.65899998 -0.80800003 22 0 0 0 0.074340001
2.3789999 -0.66500002 -0.81800002 27 0 0 0 0.074349999
2.3710001 -0.66600001 -0.82200003 29 0 0 0 0.074359998
2.3510001 -0.66399997 -0.82200003 28 0 0 0 0.074369997
2.3280001 -0.662 -0.82099998 27 0 0 0 0.074380003
2.3080001 -0.66000003 -0.82099998 27 0 0 0 0.074390002
2.289 -0.65799999 -0.82099998 27 0 0 0 0.0744
2.2720001 -0.65700001 -0.82200003 26 0 0 0 0.074409999
2.2550001 -0.65499997 -0.82200003 26 0 0 0 0.074419998
2.234 -0.653 -0.82200003 26 0 0 0 0.074429996
2.2190001 -0.65200001 -0.82300001 26 0 0 0 0.074440002
2.2 -0.64999998 -0.82200003 26 0 0 0 0.074450001
2.181 -0.64700001 -0.82200003 25 0 0 0 0.07446
2.1630001 -0.64499998 -0.82200003 26 0 0 0 0.074469998
2.1429999 -0.64200002 -0.82099998 26 0 0 0 0.074479997
2.1270001 -0.63999999 -0.82099998 26 0 0 0 0.074490003
2.1029999 -0.63599998 -0.81800002 25 0 0 0 0.074500002
2.092 -0.63599998 -0.81999999 26 0 0 0 0.074510001
2.0780001 -0.634 -0.82099998 26 0 0 0 0.074519999
2.059 -0.63099998 -0.81900001 26 0 0 0 0.074529998
2.0420001 -0.62900001 -0.81900001 27 0 0 0 0.074539997
2.027 -0.62699997 -0.81900001 29 0 0 0 0.074550003
2.0090001 -0.62400001 -0.81800002 30 0 0 0 0.074560001
1.993 -0.62199998 -0.81699997 29 0 0 0 0.07457
1.9809999 -0.62099999 -0.81800002 29 0 0 0 0.074579999
1.9680001 -0.61900002 -0.81900001 30 0 0 0 0.074589998
1.9529999 -0.61699998 -0.81900001 30 0 0 0 0.074600004
1.941 -0.616 -0.81999999 30 0 0 0 0.074610002
1.92 -0.611 -0.81699997 29 0 0 0 0.074620001
1.911 -0.611 -0.81900001 30 0 0 0 0.07463
1.891 -0.60699999 -0.81599998 30 0 0 0 0.074639998
1.878 -0.60500002 -0.81599998 30 0 0 0 0.074649997
1.868 -0.60399997 -0.81699997 29 0 0 0 0.074660003
1.859 -0.60299999 -0.81900001 31 0 0 0 0.074670002
1.846 -0.60000002 -0.81800002 28 0 0 0 0.074680001
1.831 -0.59799999 -0.81699997 28 0 0 0 0.074689999
1.822 -0.597 -0.81900001 29 0 0 0 0.074699998
1.808 -0.59399998 -0.81800002 30 0 0 0 0.074709997
1.798 -0.59200001 -0.81900001 31 0 0 0 0.074720003
1.784 -0.58999997 -0.81800002 30 0 0 0 0.074730001
1.77 -0.58700001 -0.81599998 30 0 0 0 0.07474
1.765 -0.58700001 -0.81900001 31 0 0 0 0.074749999
1.747 -0.58200002 -0.81599998 30 0 0 0 0.074759997
1.738 -0.58099997 -0.81699997 31 0 0 0 0.074770004
1.726 -0.579 -0.81699997 35 0 0 0 0.074780002
1.715 -0.57700002 -0.81699997 35 0 0 0 0.074790001
1.704 -0.574 -0.81599998 35 0 0 0 0.0748
1.698 -0.574 -0.81800002 35 0 0 0 0.074809998
1.683 -0.56999999 -0.81599998 35 0 0 0 0.074819997
1.671 -0.56699997 -0.815 34 0 0 0 0.074830003
1.664 -0.56599998 -0.81699997 31 0 0 0 0.074840002
1.659 -0.565 -0.81900001 8 0 0 0 0.07485
1.653 -0.565 -0.82099998 5 0 0 0 0.074859999
1.6440001 -0.56199998 -0.82099998 5 0 0 0 0.074869998
1.637 -0.56099999 -0.82200003 8 0 0 0 0.074879996
1.6210001 -0.55699998 -0.81800002 13 0 0 0 0.074890003
1.6160001 -0.55599999 -0.82099998 14 0 0 0 0.074900001
1.607 -0.55400002 -0.81999999 14 0 0 0 0.07491
1.597 -0.551 -0.81900001 14 0 0 0 0.074919999
1.59 -0.54900002 -0.81999999 14 0 0 0 0.074929997
1.582 -0.54699999 -0.82099998 14 0 0 0 0.074940003
1.576 -0.546 -0.82200003 15 0 0 0 0.074950002
1.566 -0.54299998 -0.82099998 14 0 0 0 0.074960001
1.554 -0.54000002 -0.81900001 14 0 0 0 0.074969999
1.548 -0.53799999 -0.81999999 14 0 0 0 0.074979998
1.54 -0.53600001 -0.81999999 15 0 0 0 0.074989997
1.529 -0.53299999 -0.81800002 14 0 0 0 0.075000003
1.525 -0.53200001 -0.81999999 14 0 0 0 0.075010002
1.518 -0.52999997 -0.81999999 14 0 0 0 0.07502
1.512 -0.528 -0.81999999 15 0 0 0 0.075029999
1.507 -0.52600002 -0.82200003 13 0 0 0 0.075039998
1.49 -0.52100003 -0.81599998 12 0 0 0 0.075049996
1.485 -0.51899999 -0.81699997 13 0 0 0 0.075060003
1.477 -0.51599997 -0.81599998 13 0 0 0 0.075070001
1.478 -0.51700002 -0.81999999 14 0 0 0 0.07508
1.464 -0.51200002 -0.81599998 14 0 0 0 0.075089999
1.46 -0.51099998 -0.81699997 14 0 0 0 0.075099997
1.451 -0.50800002 -0.81599998 14 0 0 0 0.075110003
1.4450001 -0.505 -0.815 14 0 0 0 0.075120002
1.441 -0.50400001 -0.81699997 14 0 0 0 0.075130001
1.438 -0.50300002 -0.81800002 14 0 0 0 0.075139999
1.432 -0.5 -0.81800002 14 0 0 0 0.075149998
1.425 -0.498 -0.81699997 14 0 0 0 0.075159997
1.421 -0.49599999 -0.81800002 14 0 0 0 0.075170003
1.416 -0.49399999 -0.81800002 14 0 0 0 0.075180002
1.4119999 -0.49200001 -0.81900001 14 0 0 0 0.07519
1.408 -0.49000001 -0.81900001 14 0 0 0 0.075199999
1.4 -0.48699999 -0.81800002 14 0 0 0 0.075209998
1.397 -0.48500001 -0.81900001 14 0 0 0 0.075220004
1.391 -0.48300001 -0.81800002 14 0 0 0 0.075230002
1.39 -0.48199999 -0.81999999 14 0 0 0 0.075240001
1.383 -0.479 -0.81900001 14 0 0 0 0.07525
1.38 -0.477 -0.81900001 14 0 0 0 0.075259998
1.374 -0.47499999 -0.81800002 15 0 0 0 0.075269997
1.37 -0.472 -0.81800002 15 0 0 0 0.075280003
1.368 -0.47099999 -0.81999999 15 0 0 0 0.075290002
1.3609999 -0.46799999 -0.81699997 15 0 0 0 0.075300001
1.36 -0.46700001 -0.81900001 15 0 0 0 0.075309999
1.36 -0.465 -0.82099998 15 0 0 0 0.075319998
1.351 -0.461 -0.81800002 14 0 0 0 0.075329997
1.349 -0.46000001 -0.81900001 15 0 0 0 0.075340003
1.344 -0.45699999 -0.81800002 14 0 0 0 0.075350001
1.341 -0.45500001 -0.81800002 15 0 0 0 0.07536
1.339 -0.45300001 -0.81800002 14 0 0 0 0.075369999
1.336 -0.45100001 -0.81800002 15 0 0 0 0.075379997
1.331 -0.44800001 -0.81699997 15 0 0 0 0.075390004
1.326 -0.44499999 -0.81599998 15 0 0 0 0.075400002
1.329 -0.44499999 -0.81900001 16 0 0 0 0.075410001
1.324 -0.442 -0.81800002 15 0 0 0 0.07542
1.323 -0.44 -0.81900001 15 0 0 0 0.075429998
1.321 -0.43799999 -0.81800002 16 0 0 0 0.075439997
1.3200001 -0.43700001 -0.81999999 16 0 0 0 0.075450003
1.313 -0.433 -0.81599998 15 0 0 0 0.075460002
1.313 -0.43099999 -0.81699997 16 0 0 0 0.075470001
1.312 -0.42899999 -0.81800002 15 0 0 0 0.075479999
1.309 -0.42699999 -0.81699997 15 0 0 0 0.075489998
1.309 -0.42500001 -0.81800002 15 0 0 0 0.075499997
1.308 -0.42300001 -0.81900001 15 0 0 0 0.075510003
1.304 -0.41999999 -0.81699997 15 0 0 0 0.075520001
1.304 -0.419 -0.81800002 15 0 0 0 0.07553
1.304 -0.417 -0.81900001 15 0 0 0 0.075539999
1.302 -0.41499999 -0.81800002 15 0 0 0 0.075549997
1.303 -0.41299999 -0.81999999 15 0 0 0 0.075560004
1.301 -0.41100001 -0.81900001 16 0 0 0 0.075570002
1.301 -0.40900001 -0.81900001 15 0 0 0 0.075580001
1.299 -0.40700001 -0.81800002 16 0 0 0 0.07559
1.296 -0.40400001 -0.81699997 15 0 0 0 0.075599998
1.296 -0.40200001 -0.81699997 15 0 0 0 0.075609997
1.3 -0.40099999 -0.81999999 16 0 0 0 0.075620003
1.3 -0.39899999 -0.81999999 16 0 0 0 0.075630002
1.301 -0.39700001 -0.81999999 16 0 0 0 0.07564
1.298 -0.39500001 -0.81900001 15 0 0 0 0.075649999
1.301 -0.39399999 -0.82099998 16 0 0 0 0.075659998
1.299 -0.391 -0.81900001 16 0 0 0 0.075669996
1.296 -0.38800001 -0.81699997 16 0 0 0 0.075680003
1.3 -0.38699999 -0.81900001 15 0 0 0 0.075690001
1.3 -0.38499999 -0.81900001 15 0 0 0 0.0757
1.304 -0.384 -0.82099998 15 0 0 0 0.075709999
1.298 -0.38 -0.81699997 16 0 0 0 0.075719997
1.299 -0.37799999 -0.81699997 16 0 0 0 0.075730003
1.302 -0.377 -0.81900001 16 0 0 0 0.075740002
1.303 -0.375 -0.81800002 16 0 0 0 0.075750001
1.307 -0.37400001 -0.82099998 16 0 0 0 0.075759999
1.3049999 -0.37099999 -0.81800002 16 0 0 0 0.075769998
1.309 -0.36899999 -0.81999999 16 0 0 0 0.075779997
1.311 -0.368 -0.82099998 16 0 0 0 0.075790003
1.312 -0.366 -0.81999999 16 0 0 0 0.075800002
1.313 -0.36399999 -0.81999999 16 0 0 0 0.07581
1.314 -0.361 -0.81900001 16 0 0 0 0.075819999
1.3150001 -0.359 -0.81900001 16 0 0 0 0.075829998
1.318 -0.35699999 -0.81900001 16 0 0 0 0.075839996
1.322 -0.35600001 -0.82099998 16 0 0 0 0.075850002
1.3200001 -0.35299999 -0.81900001 16 0 0 0 0.075860001
