# .PCD v0.7 - Point Cloud Data file format
VERSION 0.7
FIELDS x y z intensity normal_x normal_y normal_z curvature
SIZE 4 4 4 4 4 4 4 4
TYPE F F F F F F F F
COUNT 1 1 1 1 1 1 1 1
WIDTH 1049
HEIGHT 1
VIEWPOINT 0 0 0 1 0 0 0
POINTS 1049
DATA ascii
1.5880001 0.44800001 -0.84399998 13 0 0 0 0.04727
1.581 0.44999999 -0.84399998 13 0 0 0 0.047279999
1.575 0.45199999 -0.84399998 13 0 0 0 0.047290001
1.569 0.454 -0.84299999 12 0 0 0 0.0473
1.564 0.456 -0.84299999 11 0 0 0 0.047309998
1.562 0.458 -0.84500003 10 0 0 0 0.047320001
1.558 0.461 -0.84600002 8 0 0 0 0.04733
1.543 0.46000001 -0.83999997 5 0 0 0 0.047339998
1.531 0.46000001 -0.83600003 5 0 0 0 0.047350001
1.513 0.458 -0.829 4 0 0 0 0.047359999
1.492 0.454 -0.81999999 3 0 0 0 0.047370002
1.4680001 0.44999999 -0.80900002 2 0 0 0 0.04738
1.448 0.447 -0.801 1 0 0 0 0.047389999
1.436 0.447 -0.796 2 0 0 0 0.047400001
1.421 0.44499999 -0.79000002 8 0 0 0 0.04741
1.408 0.44400001 -0.78500003 9 0 0 0 0.047419999
1.396 0.44299999 -0.77999997 9 0 0 0 0.047430001
1.386 0.44299999 -0.77600002 9 0 0 0 0.04744
1.374 0.442 -0.77100003 8 0 0 0 0.047449999
1.364 0.442 -0.76700002 8 0 0 0 0.047460001
1.35 0.44100001 -0.76099998 8 0 0 0 0.04747
1.335 0.43900001 -0.755 9 0 0 0 0.047479998
1.329 0.43900001 -0.75300002 10 0 0 0 0.047490001
1.311 0.43599999 -0.74400002 14 0 0 0 0.047499999
1.2920001 0.433 -0.73500001 121 0 0 0 0.047510002
1.286 0.433 -0.73299998 150 0 0 0 0.04752
1.28 0.43399999 -0.73000002 150 0 0 0 0.047529999
1.272 0.43399999 -0.727 150 0 0 0 0.047540002
1.273 0.43700001 -0.72899997 150 0 0 0 0.04755
1.275 0.44 -0.73100001 150 0 0 0 0.047559999
1.276 0.44299999 -0.73299998 150 0 0 0 0.047570001
1.273 0.44400001 -0.73199999 150 0 0 0 0.04758
1.273 0.447 -0.73400003 150 0 0 0 0.047589999
1.273 0.449 -0.73400003 150 0 0 0 0.047600001
1.272 0.45199999 -0.73400003 150 0 0 0 0.04761
1.271 0.454 -0.73500001 150 0 0 0 0.047619998
1.27 0.456 -0.73500001 150 0 0 0 0.047630001
1.274 0.46000001 -0.73799998 150 0 0 0 0.04764
1.273 0.46200001 -0.73799998 150 0 0 0 0.047649998
1.275 0.465 -0.74000001 150 0 0 0 0.047660001
1.271 0.46599999 -0.73799998 150 0 0 0 0.047669999
1.273 0.46900001 -0.74000001 150 0 0 0 0.047680002
1.275 0.472 -0.741 150 0 0 0 0.04769
1.274 0.47400001 -0.741 150 0 0 0 0.047699999
1.273 0.47600001 -0.741 150 0 0 0 0.047710001
1.279 0.48100001 -0.745 150 0 0 0 0.04772
1.272 0.47999999 -0.741 150 0 0 0 0.047729999
1.271 0.48199999 -0.74000001 150 0 0 0 0.047740001
1.274 0.48500001 -0.74199998 150 0 0 0 0.04775
1.27 0.486 -0.74000001 150 0 0 0 0.047759999
1.27 0.48800001 -0.74000001 150 0 0 0 0.047770001
1.276 0.49200001 -0.74299997 150 0 0 0 0.04778
1.275 0.49399999 -0.74199998 150 0 0 0 0.047789998
1.281 0.498 -0.745 150 0 0 0 0.047800001
1.274 0.498 -0.741 150 0 0 0 0.047809999
1.274 0.49900001 -0.741 150 0 0 0 0.047820002
1.275 0.50099999 -0.741 150 0 0 0 0.047830001
1.274 0.50300002 -0.74000001 150 0 0 0 0.047839999
1.279 0.50700003 -0.74199998 150 0 0 0 0.047850002
1.267 0.50400001 -0.73500001 150 0 0 0 0.04786
1.261 0.50300002 -0.73100001 150 0 0 0 0.047869999
1.257 0.50300002 -0.72799999 150 0 0 0 0.047880001
1.245 0.5 -0.72000003 123 0 0 0 0.04789
1.226 0.49399999 -0.708 88 0 0 0 0.047899999
1.186 0.47999999 -0.68400002 59 0 0 0 0.047910001
1.137 0.461 -0.65499997 45 0 0 0 0.04792
1.118 0.45500001 -0.64399999 46 0 0 0 0.047929998
1.115 0.45500001 -0.64099997 58 0 0 0 0.047940001
1.113 0.45500001 -0.63800001 61 0 0 0 0.04795
1.115 0.45699999 -0.639 61 0 0 0 0.047959998
1.118 0.46000001 -0.639 52 0 0 0 0.047970001
1.122 0.46200001 -0.63999999 49 0 0 0 0.047979999
1.13 0.46700001 -0.64300001 47 0 0 0 0.047990002
1.135 0.47 -0.64499998 37 0 0 0 0.048
1.13 0.46900001 -0.64099997 35 0 0 0 0.048009999
1.1289999 0.46900001 -0.639 33 0 0 0 0.048020002
1.13 0.47099999 -0.639 35 0 0 0 0.04803
1.1289999 0.47099999 -0.63599998 36 0 0 0 0.048039999
1.1289999 0.472 -0.63499999 35 0 0 0 0.048050001
1.127 0.472 -0.63200003 40 0 0 0 0.04806
1.124 0.472 -0.62900001 41 0 0 0 0.048069999
1.1210001 0.472 -0.62599999 40 0 0 0 0.048080001
1.1210001 0.472 -0.62400001 41 0 0 0 0.04809
1.122 0.47299999 -0.62300003 38 0 0 0 0.048099998
1.117 0.472 -0.61799997 37 0 0 0 0.048110001
1.115 0.472 -0.616 41 0 0 0 0.048119999
1.1160001 0.472 -0.61400002 43 0 0 0 0.048129998
1.115 0.47299999 -0.61199999 45 0 0 0 0.048140001
1.1160001 0.47299999 -0.61000001 46 0 0 0 0.048149999
1.113 0.47299999 -0.60699999 43 0 0 0 0.048160002
1.113 0.47299999 -0.60500002 40 0 0 0 0.04817
1.114 0.47400001 -0.60299999 46 0 0 0 0.048179999
1.107 0.47099999 -0.59799999 44 0 0 0 0.048190001
1.109 0.472 -0.597 49 0 0 0 0.0482
1.108 0.472 -0.59399998 53 0 0 0 0.048209999
1.11 0.47299999 -0.59299999 52 0 0 0 0.048220001
1.107 0.472 -0.58899999 54 0 0 0 0.04823
1.107 0.472 -0.58700001 53 0 0 0 0.048239999
1.1059999 0.47099999 -0.58399999 46 0 0 0 0.048250001
1.11 0.47299999 -0.58399999 50 0 0 0 0.04826
1.104 0.47099999 -0.57800001 56 0 0 0 0.048269998
1.1059999 0.47099999 -0.57700002 58 0 0 0 0.048280001
1.107 0.472 -0.57499999 57 0 0 0 0.048289999
1.1059999 0.47099999 -0.57200003 56 0 0 0 0.048300002
1.103 0.47 -0.56800002 54 0 0 0 0.04831
1.109 0.472 -0.56900001 63 0 0 0 0.048319999
1.1059999 0.47099999 -0.565 59 0 0 0 0.048330002
1.11 0.472 -0.56400001 65 0 0 0 0.04834
1.1109999 0.472 -0.56199998 67 0 0 0 0.048349999
1.112 0.472 -0.56 64 0 0 0 0.048360001
1.114 0.472 -0.55800003 63 0 0 0 0.04837
1.115 0.472 -0.55599999 66 0 0 0 0.048379999
1.112 0.47099999 -0.55199999 67 0 0 0 0.048390001
1.119 0.47299999 -0.55299997 63 0 0 0 0.0484
1.114 0.47 -0.54699999 66 0 0 0 0.048409998
1.1160001 0.47099999 -0.546 76 0 0 0 0.048420001
1.117 0.47099999 -0.54299998 61 0 0 0 0.04843
1.117 0.47 -0.54100001 77 0 0 0 0.048439998
1.119 0.47 -0.53899997 70 0 0 0 0.048450001
1.12 0.47 -0.537 76 0 0 0 0.048459999
1.124 0.47099999 -0.53600001 76 0 0 0 0.048470002
1.125 0.47 -0.53299999 83 0 0 0 0.04848
1.133 0.47299999 -0.53399998 71 0 0 0 0.048489999
1.133 0.472 -0.53100002 65 0 0 0 0.048500001
1.137 0.472 -0.52999997 71 0 0 0 0.04851
1.133 0.47 -0.52499998 67 0 0 0 0.048519999
1.138 0.47099999 -0.52399999 71 0 0 0 0.048530001
1.14 0.47099999 -0.52200001 71 0 0 0 0.04854
1.146 0.472 -0.52200001 77 0 0 0 0.048549999
1.1440001 0.47 -0.51800001 102 0 0 0 0.048560001
1.153 0.47299999 -0.51899999 102 0 0 0 0.04857
1.155 0.472 -0.51599997 104 0 0 0 0.048579998
1.1569999 0.472 -0.514 31 0 0 0 0.048590001
1.161 0.472 -0.51300001 32 0 0 0 0.048599999
1.166 0.47299999 -0.51200002 31 0 0 0 0.048610002
1.1670001 0.472 -0.509 31 0 0 0 0.04862
1.171 0.47299999 -0.50800002 31 0 0 0 0.048629999
1.173 0.472 -0.505 31 0 0 0 0.048640002
1.1799999 0.47299999 -0.505 34 0 0 0 0.04865
1.183 0.47299999 -0.50300002 37 0 0 0 0.048659999
1.187 0.47299999 -0.50199997 37 0 0 0 0.048670001
1.1900001 0.47299999 -0.49900001 36 0 0 0 0.04868
1.191 0.472 -0.49700001 36 0 0 0 0.048689999
1.196 0.472 -0.495 38 0 0 0 0.048700001
1.202 0.47299999 -0.49399999 37 0 0 0 0.04871
1.205 0.472 -0.49200001 40 0 0 0 0.048719998
1.211 0.47299999 -0.491 44 0 0 0 0.048730001
1.216 0.47299999 -0.49000001 45 0 0 0 0.04874
1.216 0.472 -0.486 41 0 0 0 0.048749998
1.2309999 0.47499999 -0.48899999 24 0 0 0 0.048760001
1.2410001 0.47799999 -0.48899999 16 0 0 0 0.048769999
1.251 0.479 -0.49000001 14 0 0 0 0.048780002
1.272 0.48500001 -0.49399999 11 0 0 0 0.04879
1.286 0.48899999 -0.49599999 14 0 0 0 0.048799999
1.283 0.486 -0.491 36 0 0 0 0.048810001
1.2819999 0.48300001 -0.48699999 143 0 0 0 0.04882
1.283 0.48199999 -0.484 150 0 0 0 0.048829999
1.279 0.47799999 -0.479 150 0 0 0 0.048840001
1.278 0.47600001 -0.47499999 150 0 0 0 0.04885
1.28 0.47400001 -0.472 150 0 0 0 0.048859999
1.279 0.472 -0.46799999 150 0 0 0 0.048870001
1.277 0.46900001 -0.46399999 150 0 0 0 0.04888
1.279 0.46700001 -0.461 150 0 0 0 0.048889998
1.28 0.465 -0.458 150 0 0 0 0.048900001
1.2819999 0.46399999 -0.45500001 150 0 0 0 0.048909999
1.283 0.46200001 -0.45100001 150 0 0 0 0.048920002
1.283 0.45899999 -0.44800001 150 0 0 0 0.048930001
1.284 0.458 -0.44499999 150 0 0 0 0.048939999
1.284 0.45500001 -0.44100001 150 0 0 0 0.048950002
1.28 0.45100001 -0.43599999 150 0 0 0 0.04896
1.28 0.449 -0.433 150 0 0 0 0.048969999
1.281 0.447 -0.42899999 150 0 0 0 0.048980001
1.281 0.44499999 -0.426 150 0 0 0 0.04899
1.2819999 0.442 -0.42199999 150 0 0 0 0.048999999
1.285 0.44100001 -0.41999999 150 0 0 0 0.049010001
1.289 0.44 -0.417 150 0 0 0 0.04902
1.295 0.43900001 -0.41600001 43 0 0 0 0.049029998
1.319 0.44499999 -0.41999999 9 0 0 0 0.049040001
1.326 0.44499999 -0.419 2 0 0 0 0.04905
1.35 0.44999999 -0.42199999 1 0 0 0 0.049059998
1.3609999 0.45100001 -0.42199999 1 0 0 0 0.049070001
1.3710001 0.45199999 -0.42199999 1 0 0 0 0.049079999
1.383 0.45300001 -0.421 1 0 0 0 0.049090002
1.3890001 0.45199999 -0.41999999 1 0 0 0 0.0491
1.402 0.454 -0.41999999 1 0 0 0 0.049109999
1.414 0.454 -0.419 1 0 0 0 0.049120001
1.431 0.45699999 -0.421 1 0 0 0 0.04913
1.433 0.45500001 -0.417 1 0 0 0 0.049139999
1.444 0.45500001 -0.41600001 1 0 0 0 0.049150001
1.4579999 0.456 -0.417 1 0 0 0 0.04916
1.471 0.458 -0.41600001 1 0 0 0 0.049169999
1.4859999 0.45899999 -0.417 3 0 0 0 0.049180001
2.487 0.76300001 -0.69099998 150 0 0 0 0.04919
2.296 0.69999999 -0.63200003 150 0 0 0 0.049199998
2.3659999 0.71600002 -0.64499998 150 0 0 0 0.049210001
2.477 0.74400002 -0.66799998 150 0 0 0 0.049219999
2.477 0.73900002 -0.662 150 0 0 0 0.049229998
2.48 0.73400003 -0.65600002 150 0 0 0 0.049240001
2.483 0.73000002 -0.64999998 150 0 0 0 0.049249999
2.4790001 0.72299999 -0.64300001 150 0 0 0 0.049260002
2.4779999 0.71700001 -0.63599998 150 0 0 0 0.04927
2.4749999 0.71100003 -0.62900001 150 0 0 0 0.049279999
2.3180001 0.66100001 -0.583 150 0 0 0 0.049290001
2.25 0.63599998 -0.56 151 0 0 0 0.0493
2.2260001 0.625 -0.54799998 151 0 0 0 0.049309999
2.22 0.61799997 -0.54100001 151 0 0 0 0.049320001
2.217 0.61199999 -0.53500003 151 0 0 0 0.04933
2.2190001 0.60799998 -0.52899998 151 0 0 0 0.049339999
2.2219999 0.60299999 -0.52399999 151 0 0 0 0.049350001
2.221 0.59799999 -0.51899999 151 0 0 0 0.04936
2.221 0.59299999 -0.51300001 151 0 0 0 0.049369998
2.2190001 0.58700001 -0.50700003 151 0 0 0 0.049380001
2.2149999 0.58099997 -0.5 151 0 0 0 0.049389999
2.217 0.57700002 -0.495 151 0 0 0 0.049400002
2.214 0.57099998 -0.48899999 151 0 0 0 0.04941
2.2160001 0.56599998 -0.484 151 0 0 0 0.049419999
2.2190001 0.56199998 -0.479 151 0 0 0 0.049430002
2.2179999 0.55699998 -0.47299999 151 0 0 0 0.04944
2.22 0.55199999 -0.46799999 151 0 0 0 0.049449999
2.223 0.54699999 -0.463 151 0 0 0 0.049460001
2.2190001 0.54100001 -0.45699999 151 0 0 0 0.04947
2.221 0.537 -0.45199999 151 0 0 0 0.049479999
2.223 0.53200001 -0.447 151 0 0 0 0.049490001
2.224 0.52700001 -0.442 151 0 0 0 0.0495
2.23 0.523 -0.43799999 150 0 0 0 0.049509998
2.2490001 0.52200001 -0.43599999 151 0 0 0 0.049520001
2.2409999 0.51499999 -0.42899999 152 0 0 0 0.049529999
2.243 0.50999999 -0.42399999 151 0 0 0 0.049539998
2.2609999 0.509 -0.42199999 151 0 0 0 0.049550001
2.2690001 0.505 -0.41800001 150 0 0 0 0.049559999
2.329 0.51300001 -0.42300001 26 0 0 0 0.049570002
2.3840001 0.51999998 -0.428 27 0 0 0 0.04958
2.4159999 0.52100003 -0.428 25 0 0 0 0.049589999
2.4630001 0.52499998 -0.43000001 25 0 0 0 0.049600001
2.5009999 0.52700001 -0.43099999 26 0 0 0 0.04961
2.5450001 0.52999997 -0.433 25 0 0 0 0.049619999
2.5899999 0.53299999 -0.43399999 25 0 0 0 0.049630001
2.638 0.537 -0.43599999 26 0 0 0 0.04964
2.7019999 0.54299998 -0.44100001 29 0 0 0 0.049649999
2.796 0.55500001 -0.449 33 0 0 0 0.049660001
2.8900001 0.56699997 -0.458 34 0 0 0 0.04967
2.9219999 0.56599998 -0.456 33 0 0 0 0.049679998
2.97 0.56800002 -0.45699999 32 0 0 0 0.049690001
3.036 0.57300001 -0.46000001 32 0 0 0 0.049699999
3.0739999 0.57300001 -0.45899999 31 0 0 0 0.049710002
3.1229999 0.57499999 -0.45899999 30 0 0 0 0.04972
3.1860001 0.57800001 -0.461 30 0 0 0 0.049729999
3.217 0.57599998 -0.45899999 29 0 0 0 0.049740002
3.257 0.57499999 -0.45699999 45 0 0 0 0.04975
3.276 0.57099998 -0.45199999 151 0 0 0 0.049759999
3.2820001 0.56400001 -0.44600001 152 0 0 0 0.049770001
3.279 0.55500001 -0.43799999 152 0 0 0 0.04978
3.2820001 0.54699999 -0.43099999 152 0 0 0 0.049789999
3.2839999 0.54000002 -0.42399999 152 0 0 0 0.049800001
3.2909999 0.53299999 -0.41800001 151 0 0 0 0.04981
3.313 0.528 -0.41299999 151 0 0 0 0.049819998
3.3169999 0.51999998 -0.40599999 152 0 0 0 0.049830001
3.3169999 0.51200002 -0.39899999 152 0 0 0 0.04984
3.3399999 0.50700003 -0.39500001 151 0 0 0 0.049849998
3.378 0.505 -0.39199999 152 0 0 0 0.049860001
3.381 0.49700001 -0.38499999 151 0 0 0 0.049869999
3.385 0.48899999 -0.37799999 151 0 0 0 0.049880002
3.3840001 0.47999999 -0.37099999 151 0 0 0 0.04989
3.381 0.47099999 -0.36300001 151 0 0 0 0.049899999
3.3829999 0.463 -0.35600001 151 0 0 0 0.049910001
3.3840001 0.45500001 -0.34900001 151 0 0 0 0.04992
3.382 0.44600001 -0.34200001 151 0 0 0 0.049929999
3.3840001 0.43799999 -0.33500001 151 0 0 0 0.049940001
3.3859999 0.42899999 -0.32800001 151 0 0 0 0.04995
3.392 0.42199999 -0.32100001 151 0 0 0 0.049959999
3.3940001 0.41299999 -0.31400001 151 0 0 0 0.049970001
3.391 0.40400001 -0.30700001 151 0 0 0 0.04998
3.3900001 0.396 -0.29899999 151 0 0 0 0.049989998
3.3889999 0.38699999 -0.292 151 0 0 0 0.050000001
3.388 0.37799999 -0.285 151 0 0 0 0.050009999
3.3929999 0.37 -0.27900001 151 0 0 0 0.050020002
3.3940001 0.36199999 -0.27200001 152 0 0 0 0.050030001
3.3940001 0.35299999 -0.26499999 152 0 0 0 0.050039999
3.3929999 0.34400001 -0.25799999 152 0 0 0 0.050050002
3.395 0.336 -0.25099999 152 0 0 0 0.05006
3.3940001 0.32699999 -0.244 152 0 0 0 0.050069999
3.395 0.31900001 -0.237 153 0 0 0 0.050080001
3.3970001 0.31 -0.23 153 0 0 0 0.05009
3.3840001 0.30000001 -0.222 154 0 0 0 0.050099999
3.388 0.292 -0.21600001 154 0 0 0 0.050110001
3.381 0.28299999 -0.20900001 154 0 0 0 0.05012
3.3710001 0.273 -0.20100001 154 0 0 0 0.050129998
3.3699999 0.26499999 -0.19400001 154 0 0 0 0.050140001
3.3699999 0.25600001 -0.18799999 155 0 0 0 0.05015
3.372 0.24699999 -0.18099999 156 0 0 0 0.050159998
3.368 0.23800001 -0.17399999 156 0 0 0 0.050170001
3.368 0.23 -0.167 157 0 0 0 0.050179999
3.3610001 0.221 -0.161 157 0 0 0 0.050190002
3.3699999 0.213 -0.154 157 0 0 0 0.0502
3.365 0.20299999 -0.147 158 0 0 0 0.050209999
3.365 0.19499999 -0.141 157 0 0 0 0.050220001
3.3740001 0.186 -0.134 157 0 0 0 0.05023
3.3729999 0.178 -0.12800001 157 0 0 0 0.050239999
3.3659999 0.169 -0.121 157 0 0 0 0.050250001
3.368 0.16 -0.115 158 0 0 0 0.05026
3.368 0.15099999 -0.108 157 0 0 0 0.050269999
3.381 0.14300001 -0.102 156 0 0 0 0.050280001
3.381 0.134 -0.096000001 156 0 0 0 0.05029
3.3800001 0.125 -0.089000002 156 0 0 0 0.050299998
3.382 0.117 -0.082999997 156 0 0 0 0.050310001
3.385 0.108 -0.075999998 155 0 0 0 0.050319999
3.3889999 0.098999999 -0.07 154 0 0 0 0.050330002
3.398 0.090000004 -0.064000003 154 0 0 0 0.050340001
3.3900001 0.081 -0.057 154 0 0 0 0.050349999
3.398 0.071999997 -0.050999999 154 0 0 0 0.050360002
3.4070001 0.064000003 -0.044 154 0 0 0 0.05037
3.4070001 0.055 -0.037999999 153 0 0 0 0.050379999
3.418 0.046 -0.032000002 153 0 0 0 0.050390001
3.418 0.037 -0.025 153 0 0 0 0.0504
3.4200001 0.028000001 -0.018999999 152 0 0 0 0.050409999
3.4230001 0.018999999 -0.012 152 0 0 0 0.050420001
3.424 0.0099999998 -0.0060000001 152 0 0 0 0.05043
3.418 0.001 0 151 0 0 0 0.050439999
3.4200001 -0.0080000004 0.0060000001 151 0 0 0 0.050450001
3.4260001 -0.017000001 0.012 151 0 0 0 0.05046
3.4260001 -0.026000001 0.017999999 151 0 0 0 0.050469998
3.4230001 -0.035 0.025 151 0 0 0 0.050480001
3.4219999 -0.044 0.030999999 151 0 0 0 0.050489999
3.4230001 -0.052999999 0.037 151 0 0 0 0.050500002
3.4260001 -0.061999999 0.043000001 151 0 0 0 0.05051
3.4319999 -0.071999997 0.050000001 151 0 0 0 0.050519999
3.427 -0.081 0.056000002 151 0 0 0 0.050530002
3.4319999 -0.090000004 0.061999999 151 0 0 0 0.05054
3.4360001 -0.098999999 0.068000004 151 0 0 0 0.050549999
3.437 -0.109 0.075000003 151 0 0 0 0.050560001
3.4360001 -0.118 0.081 151 0 0 0 0.05057
3.4360001 -0.127 0.086999997 151 0 0 0 0.050579999
3.4389999 -0.13699999 0.093000002 151 0 0 0 0.050590001
3.437 -0.146 0.098999999 151 0 0 0 0.0506
3.438 -0.155 0.105 151 0 0 0 0.050609998
3.441 -0.16500001 0.112 152 0 0 0 0.050620001
3.424 -0.17299999 0.117 152 0 0 0 0.050629999
3.3710001 -0.18000001 0.121 151 0 0 0 0.050639998
3.3699999 -0.189 0.127 152 0 0 0 0.050650001
3.372 -0.198 0.133 152 0 0 0 0.050659999
3.359 -0.207 0.139 150 0 0 0 0.050670002
3.346 -0.215 0.14399999 151 0 0 0 0.05068
3.346 -0.22400001 0.15000001 151 0 0 0 0.050689999
3.3469999 -0.233 0.156 151 0 0 0 0.050700001
3.3499999 -0.243 0.162 152 0 0 0 0.05071
3.345 -0.252 0.167 151 0 0 0 0.050719999
3.2839999 -0.25600001 0.17 50 0 0 0 0.050730001
3.233 -0.26100001 0.17299999 150 0 0 0 0.05074
3.2379999 -0.27000001 0.17900001 151 0 0 0 0.050749999
3.2360001 -0.27900001 0.184 151 0 0 0 0.050760001
3.2349999 -0.28799999 0.19 151 0 0 0 0.05077
3.2360001 -0.29699999 0.19499999 151 0 0 0 0.050779998
3.2420001 -0.30700001 0.20100001 151 0 0 0 0.050790001
3.221 -0.31400001 0.205 150 0 0 0 0.050799999
3.21 -0.322 0.20999999 151 0 0 0 0.050810002
3.2079999 -0.33000001 0.215 151 0 0 0 0.05082
3.211 -0.34 0.221 151 0 0 0 0.050829999
3.2090001 -0.34799999 0.226 151 0 0 0 0.050840002
3.2090001 -0.35800001 0.23100001 151 0 0 0 0.05085
3.1329999 -0.35800001 0.23100001 151 0 0 0 0.050859999
2.8670001 -0.336 0.21600001 150 0 0 0 0.050870001
2.586 -0.31 0.199 31 0 0 0 0.05088
2.527 -0.31 0.199 27 0 0 0 0.050889999
2.4760001 -0.31099999 0.199 22 0 0 0 0.050900001
2.421 -0.31099999 0.199 18 0 0 0 0.05091
2.3889999 -0.31299999 0.2 26 0 0 0 0.050919998
2.3729999 -0.31799999 0.20200001 11 0 0 0 0.050930001
2.3740001 -0.32499999 0.206 1 0 0 0 0.05094
2.365 -0.331 0.20900001 1 0 0 0 0.050949998
2.381 -0.34 0.215 0 0 0 0 0.050960001
2.375 -0.34599999 0.21799999 0 0 0 0 0.050969999
2.392 -0.35499999 0.223 0 0 0 0 0.050980002
2.3870001 -0.361 0.227 0 0 0 0 0.05099
2.359 -0.36300001 0.228 0 0 0 0 0.050999999
2.3870001 -0.375 0.234 0 0 0 0 0.051010001
2.421 -0.38699999 0.242 0 0 0 0 0.05102
2.4030001 -0.391 0.244 0 0 0 0 0.051029999
2.4159999 -0.40000001 0.249 0 0 0 0 0.051040001
2.3870001 -0.40200001 0.25 0 0 0 0 0.05105
0 0 0 0 0 0 0 0.051059999
0 0 0 0 0 0 0 0.051070001
0 0 0 0 0 0 0 0.05108
0 0 0 0 0 0 0 0.051089998
0 0 0 0 0 0 0 0.051100001
0 0 0 0 0 0 0 0.051109999
0 0 0 0 0 0 0 0.051120002
0 0 0 0 0 0 0 0.051130001
0 0 0 0 0 0 0 0.051139999
0 0 0 0 0 0 0 0.051150002
0 0 0 0 0 0 0 0.05116
0 0 0 0 0 0 0 0.051169999
0 0 0 0 0 0 0 0.051180001
0 0 0 0 0 0 0 0.05119
0 0 0 0 0 0 0 0.051199999
0 0 0 0 0 0 0 0.051210001
0 0 0 0 0 0 0 0.05122
0 0 0 0 0 0 0 0.051229998
0 0 0 0 0 0 0 0.051240001
0 0 0 0 0 0 0 0.05125
0 0 0 0 0 0 0 0.051259998
2.415 -0.565 0.333 0 0 0 0 0.051270001
2.4130001 -0.57200003 0.336 0 0 0 0 0.051279999
2.447 -0.588 0.345 0 0 0 0 0.051290002
2.428 -0.58999997 0.34599999 0 0 0 0 0.0513
2.405 -0.59200001 0.34599999 0 0 0 0 0.051309999
0 0 0 0 0 0 0 0.051320001
0 0 0 0 0 0 0 0.05133
0 0 0 0 0 0 0 0.051339999
0 0 0 0 0 0 0 0.051350001
0 0 0 0 0 0 0 0.05136
0 0 0 0 0 0 0 0.051369999
0 0 0 0 0 0 0 0.051380001
0 0 0 0 0 0 0 0.05139
0 0 0 0 0 0 0 0.051399998
0 0 0 0 0 0 0 0.051410001
0 0 0 0 0 0 0 0.051419999
0 0 0 0 0 0 0 0.051430002
0 0 0 0 0 0 0 0.051440001
0 0 0 0 0 0 0 0.051449999
0 0 0 0 0 0 0 0.051460002
0 0 0 0 0 0 0 0.05147
0 0 0 0 0 0 0 0.051479999
0 0 0 0 0 0 0 0.051490001
0 0 0 0 0 0 0 0.0515
0 0 0 0 0 0 0 0.051509999
0 0 0 0 0 0 0 0.051520001
0 0 0 0 0 0 0 0.05153
0 0 0 0 0 0 0 0.051539999
0 0 0 0 0 0 0 0.051550001
0 0 0 0 0 0 0 0.05156
0 0 0 0 0 0 0 0.051569998
0 0 0 0 0 0 0 0.051580001
0 0 0 0 0 0 0 0.051589999
0 0 0 0 0 0 0 0.051600002
4.1859999 -1.424 0.76599997 20 0 0 0 0.05161
0 0 0 0 0 0 0 0.051619999
4.1209998 -1.429 0.764 22 0 0 0 0.051630002
4.0890002 -1.431 0.76200002 22 0 0 0 0.05164
4.0510001 -1.431 0.75999999 21 0 0 0 0.051649999
4.02 -1.433 0.759 22 0 0 0 0.051660001
3.9879999 -1.434 0.75700003 23 0 0 0 0.05167
3.974 -1.442 0.759 45 0 0 0 0.051679999
3.9579999 -1.449 0.75999999 28 0 0 0 0.051690001
3.9219999 -1.449 0.75700003 29 0 0 0 0.0517
3.8640001 -1.4400001 0.75 20 0 0 0 0.051709998
3.8180001 -1.4349999 0.745 17 0 0 0 0.051720001
3.799 -1.4400001 0.745 20 0 0 0 0.051729999
3.773 -1.442 0.74400002 20 0 0 0 0.051739998
3.7509999 -1.446 0.74400002 18 0 0 0 0.051750001
3.7249999 -1.448 0.74199998 18 0 0 0 0.051759999
3.6960001 -1.449 0.74000001 16 0 0 0 0.051770002
3.675 -1.4529999 0.74000001 27 0 0 0 0.05178
3.658 -1.4579999 0.74000001 51 0 0 0 0.051789999
3.6630001 -1.472 0.74400002 59 0 0 0 0.051800001
3.661 -1.483 0.74699998 66 0 0 0 0.05181
3.6619999 -1.495 0.75099999 67 0 0 0 0.051819999
3.664 -1.508 0.755 68 0 0 0 0.051830001
3.665 -1.52 0.75800002 69 0 0 0 0.05184
3.664 -1.5319999 0.76099998 68 0 0 0 0.051849999
3.665 -1.545 0.76499999 68 0 0 0 0.051860001
3.6659999 -1.557 0.76800001 67 0 0 0 0.05187
3.6689999 -1.5700001 0.77200001 68 0 0 0 0.051879998
3.668 -1.582 0.77499998 66 0 0 0 0.051890001
3.674 -1.597 0.77899998 65 0 0 0 0.051899999
3.6719999 -1.608 0.78100002 67 0 0 0 0.051910002
3.674 -1.62 0.78399998 67 0 0 0 0.05192
3.675 -1.633 0.787 66 0 0 0 0.051929999
3.678 -1.646 0.79100001 67 0 0 0 0.051940002
3.677 -1.658 0.79299998 67 0 0 0 0.05195
3.6760001 -1.669 0.796 66 0 0 0 0.051959999
3.677 -1.682 0.79900002 65 0 0 0 0.051970001
3.6800001 -1.6950001 0.80199999 65 0 0 0 0.05198
3.678 -1.706 0.80400002 64 0 0 0 0.051989999
3.681 -1.72 0.80699998 65 0 0 0 0.052000001
3.6789999 -1.73 0.80900002 63 0 0 0 0.05201
3.6830001 -1.744 0.81199998 62 0 0 0 0.052019998
3.6830001 -1.756 0.81400001 63 0 0 0 0.052030001
3.6800001 -1.767 0.81599998 61 0 0 0 0.05204
3.6849999 -1.781 0.81900001 61 0 0 0 0.052049998
3.687 -1.794 0.82099998 64 0 0 0 0.052060001
3.697 -1.8099999 0.82499999 65 0 0 0 0.052069999
4.0170002 -1.98 0.89899999 151 0 0 0 0.052080002
2.5309999 -1.255 0.56699997 0 0 0 0 0.05209
2.4690001 -1.232 0.55500001 0 0 0 0 0.052099999
2.4400001 -1.226 0.54900002 0 0 0 0 0.052110001
2.4000001 -1.2130001 0.54100001 0 0 0 0 0.05212
2.4089999 -1.226 0.54400003 0 0 0 0 0.052129999
2.4170001 -1.237 0.54699999 0 0 0 0 0.052140001
2.47 -1.272 0.56 0 0 0 0 0.05215
2.477 -1.284 0.56300002 0 0 0 0 0.052159999
2.4679999 -1.286 0.56099999 0 0 0 0 0.052170001
2.4849999 -1.303 0.56599998 0 0 0 0 0.05218
2.4260001 -1.28 0.55299997 0 0 0 0 0.052189998
2.4849999 -1.318 0.56699997 0 0 0 0 0.052200001
2.4170001 -1.29 0.55199999 0 0 0 0 0.052209999
2.444 -1.311 0.55900002 0 0 0 0 0.052220002
2.461 -1.3279999 0.56300002 0 0 0 0 0.05223
2.595 -1.408 0.59500003 0 0 0 0 0.052239999
4.7150002 -2.573 1.082 38 0 0 0 0.052250002
2.4389999 -1.3380001 0.56 0 0 0 0 0.05226
2.46 -1.357 0.565 0 0 0 0 0.052269999
2.52 -1.398 0.579 0 0 0 0 0.052280001
2.4749999 -1.38 0.56900001 0 0 0 0 0.05229
4.724 -2.648 1.086 38 0 0 0 0.052299999
4.7189999 -2.6589999 1.085 37 0 0 0 0.052310001
2.5020001 -1.4170001 0.57499999 0 0 0 0 0.05232
4.7210002 -2.687 1.085 32 0 0 0 0.052329998
2.4920001 -1.425 0.57300001 0 0 0 0 0.052340001
2.494 -1.434 0.57300001 0 0 0 0 0.05235
2.5239999 -1.4579999 0.57999998 0 0 0 0 0.052359998
2.47 -1.433 0.56699997 0 0 0 0 0.052370001
4.2030001 -2.451 0.96399999 1 0 0 0 0.052379999
2.3900001 -1.4 0.54799998 0 0 0 0 0.052390002
2.516 -1.4809999 0.57599998 0 0 0 0 0.0524
4.184 -2.474 0.958 2 0 0 0 0.052409999
4.0910001 -2.4300001 0.935 1 0 0 0 0.052420001
4.0809999 -2.4349999 0.93199998 1 0 0 0 0.05243
4.0749998 -2.4419999 0.93000001 1 0 0 0 0.052439999
4.0570002 -2.441 0.92400002 1 0 0 0 0.052450001
4.039 -2.441 0.91900003 1 0 0 0 0.05246
4.0180001 -2.4389999 0.91299999 1 0 0 0 0.052469999
4.0180001 -2.448 0.91100001 2 0 0 0 0.052480001
4 -2.447 0.90600002 3 0 0 0 0.05249
4.0089998 -2.4619999 0.90600002 1 0 0 0 0.052499998
2.5179999 -1.553 0.56800002 0 0 0 0 0.052510001
3.8970001 -2.4119999 0.87699997 4 0 0 0 0.052519999
3.901 -2.424 0.87599999 7 0 0 0 0.052530002
3.9679999 -2.474 0.889 6 0 0 0 0.052540001
3.941 -2.4660001 0.88099998 6 0 0 0 0.052549999
3.95 -2.4809999 0.88099998 6 0 0 0 0.052560002
3.9890001 -2.5139999 0.88700002 6 0 0 0 0.05257
3.8789999 -2.4530001 0.86000001 6 0 0 0 0.052579999
3.8800001 -2.4619999 0.85799998 6 0 0 0 0.052590001
3.803 -2.421 0.838 6 0 0 0 0.0526
3.796 -2.424 0.83399999 7 0 0 0 0.052609999
4.0110002 -2.5699999 0.87900001 13 0 0 0 0.052620001
4.013 -2.579 0.87599999 13 0 0 0 0.05263
3.937 -2.5369999 0.85699999 7 0 0 0 0.052639998
3.934 -2.543 0.85299999 6 0 0 0 0.052650001
3.9349999 -2.55 0.85000002 6 0 0 0 0.05266
3.948 -2.566 0.85000002 6 0 0 0 0.052669998
3.9760001 -2.5910001 0.852 7 0 0 0 0.052680001
4.02 -2.6270001 0.85799998 8 0 0 0 0.052689999
4.0139999 -2.6289999 0.85299999 14 0 0 0 0.052700002
4.0089998 -2.632 0.84899998 19 0 0 0 0.05271
2.8699999 -1.8890001 0.60500002 0 0 0 0 0.052719999
4.0139999 -2.648 0.84200001 9 0 0 0 0.052730002
4.0139999 -2.654 0.838 13 0 0 0 0.05274
4.0110002 -2.658 0.83399999 16 0 0 0 0.052749999
4.0120001 -2.6630001 0.82999998 15 0 0 0 0.052760001
4.0120001 -2.6689999 0.82499999 14 0 0 0 0.05277
4.0110002 -2.6730001 0.82099998 14 0 0 0 0.052779999
4.0110002 -2.6789999 0.81699997 14 0 0 0 0.052790001
2.9979999 -2.0050001 0.60699999 0 0 0 0 0.0528
3.6949999 -2.4760001 0.74400002 6 0 0 0 0.052809998
3.675 -2.467 0.736 5 0 0 0 0.052820001
2.9920001 -2.0109999 0.59600002 0 0 0 0 0.052829999
3.01 -2.026 0.59600002 0 0 0 0 0.052839998
3.8759999 -2.6129999 0.76200002 6 0 0 0 0.052850001
3.924 -2.6489999 0.76700002 6 0 0 0 0.052859999
3.934 -2.6589999 0.764 7 0 0 0 0.052870002
3.967 -2.684 0.76499999 7 0 0 0 0.05288
3.9920001 -2.7030001 0.76499999 7 0 0 0 0.052889999
3.9749999 -2.6949999 0.75700003 7 0 0 0 0.052900001
3.9949999 -2.711 0.755 7 0 0 0 0.05291
2.8859999 -1.96 0.542 0 0 0 0 0.052919999
3.947 -2.6830001 0.736 7 0 0 0 0.052930001
3.937 -2.677 0.72899997 7 0 0 0 0.05294
3.9890001 -2.714 0.73299998 7 0 0 0 0.052949999
3.9430001 -2.6849999 0.71899998 7 0 0 0 0.052960001
3.9990001 -2.724 0.72399998 7 0 0 0 0.05297
3.9790001 -2.711 0.71399999 7 0 0 0 0.052979998
3.9590001 -2.698 0.70499998 7 0 0 0 0.052990001
3.9630001 -2.701 0.69999999 7 0 0 0 0.052999999
3.937 -2.684 0.69 7 0 0 0 0.053010002
3.9189999 -2.671 0.68099999 6 0 0 0 0.05302
2.921 -1.9910001 0.50300002 0 0 0 0 0.053029999
3.878 -2.6429999 0.662 6 0 0 0 0.053040002
3.9330001 -2.6800001 0.66600001 7 0 0 0 0.05305
3.928 -2.6760001 0.65899998 7 0 0 0 0.053059999
3.868 -2.6340001 0.64300001 6 0 0 0 0.053070001
3.786 -2.5769999 0.62400001 6 0 0 0 0.05308
2.984 -2.03 0.48699999 0 0 0 0 0.053089999
3.6849999 -2.506 0.59600002 5 0 0 0 0.053100001
2.9860001 -2.029 0.47799999 0 0 0 0 0.05311
3.016 -2.0469999 0.47799999 0 0 0 0 0.053119998
3.0139999 -2.0439999 0.47299999 0 0 0 0 0.053130001
3.6860001 -2.4979999 0.57300001 6 0 0 0 0.05314
3.691 -2.4990001 0.56800002 6 0 0 0 0.053149998
4.0050001 -2.7090001 0.61000001 11 0 0 0 0.053160001
2.9549999 -1.9960001 0.44499999 0 0 0 0 0.053169999
2.934 -1.979 0.43700001 0 0 0 0 0.053180002
4.0079999 -2.701 0.59100002 9 0 0 0 0.05319
3.0150001 -2.029 0.44 0 0 0 0 0.053199999
3.6989999 -2.4849999 0.53399998 5 0 0 0 0.053210001
3.5969999 -2.4130001 0.51300001 5 0 0 0 0.05322
2.473 -1.656 0.34900001 0 0 0 0 0.053229999
2.4809999 -1.659 0.34599999 0 0 0 0 0.053240001
3.3989999 -2.2690001 0.46799999 5 0 0 0 0.05325
2.4389999 -1.625 0.33199999 0 0 0 0 0.053259999
2.451 -1.63 0.33000001 0 0 0 0 0.053270001
3.586 -2.3800001 0.477 5 0 0 0 0.05328
2.971 -1.9680001 0.38999999 0 0 0 0 0.053289998
3.697 -2.4430001 0.47999999 6 0 0 0 0.053300001
2.9890001 -1.971 0.38299999 0 0 0 0 0.053309999
3.677 -2.4189999 0.465 6 0 0 0 0.053320002
3.6159999 -2.3729999 0.45199999 5 0 0 0 0.05333
3.0020001 -1.965 0.37 0 0 0 0 0.053339999
2.994 -1.955 0.36500001 0 0 0 0 0.053350002
2.9909999 -1.948 0.359 0 0 0 0 0.05336
3.9330001 -2.5550001 0.46599999 6 0 0 0 0.053369999
3.9330001 -2.5480001 0.46000001 6 0 0 0 0.053380001
3.983 -2.573 0.45899999 6 0 0 0 0.05339
3.9779999 -2.563 0.45300001 6 0 0 0 0.053399999
3.938 -2.53 0.442 6 0 0 0 0.053410001
3.971 -2.543 0.43900001 6 0 0 0 0.05342
3.9159999 -2.5009999 0.42699999 6 0 0 0 0.053429998
2.977 -1.895 0.31999999 0 0 0 0 0.053440001
3.6960001 -2.345 0.39199999 5 0 0 0 0.05345
3.8210001 -2.4159999 0.39899999 6 0 0 0 0.053459998
3.8929999 -2.454 0.40000001 6 0 0 0 0.053470001
3.924 -2.464 0.39700001 6 0 0 0 0.053479999
3.9979999 -2.5020001 0.39899999 10 0 0 0 0.053490002
3.9990001 -2.494 0.39300001 10 0 0 0 0.0535
3.9200001 -2.4360001 0.37900001 6 0 0 0 0.053509999
3.937 -2.437 0.375 6 0 0 0 0.053520001
3.9990001 -2.467 0.375 10 0 0 0 0.05353
3.997 -2.4560001 0.368 15 0 0 0 0.053539999
3.875 -2.372 0.35100001 6 0 0 0 0.053550001
3.8640001 -2.3559999 0.345 6 0 0 0 0.05356
3.8570001 -2.342 0.33899999 6 0 0 0 0.053569999
3.9590001 -2.3940001 0.34200001 5 0 0 0 0.053580001
3.908 -2.3540001 0.33199999 5 0 0 0 0.05359
4.0180001 -2.4100001 0.33500001 5 0 0 0 0.053599998
4.0310001 -2.408 0.331 5 0 0 0 0.053610001
3.9990001 -2.378 0.322 4 0 0 0 0.053619999
2.8940001 -1.714 0.229 0 0 0 0 0.053630002
3.049 -1.7970001 0.237 0 0 0 0 0.053640001
2.954 -1.733 0.226 0 0 0 0 0.053649999
2.9330001 -1.7130001 0.22 0 0 0 0 0.053660002
2.438 -1.418 0.18000001 0 0 0 0 0.05367
4.1869998 -2.4230001 0.303 20 0 0 0 0.053679999
2.9779999 -1.715 0.211 0 0 0 0 0.053690001
3.046 -1.7460001 0.212 0 0 0 0 0.0537
3.017 -1.721 0.206 0 0 0 0 0.053709999
2.9059999 -1.649 0.19499999 0 0 0 0 0.053720001
2.4119999 -1.362 0.15800001 0 0 0 0 0.05373
2.848 -1.6 0.184 0 0 0 0 0.053739998
2.4159999 -1.35 0.153 0 0 0 0 0.053750001
4.349 -2.418 0.27000001 2 0 0 0 0.05376
4.3790002 -2.4219999 0.266 1 0 0 0 0.053769998
4.4039998 -2.4230001 0.26199999 1 0 0 0 0.053780001
0 0 0 0 0 0 0 0.053789999
2.3900001 -1.301 0.13600001 3 0 0 0 0.053800002
0 0 0 0 0 0 0 0.05381
0 0 0 0 0 0 0 0.053819999
0 0 0 0 0 0 0 0.053830002
0 0 0 0 0 0 0 0.05384
1.263 -0.66799998 0.064000003 2 0 0 0 0.053849999
1.25 -0.65700001 0.061999999 1 0 0 0 0.053860001
1.2539999 -0.65600002 0.061000001 2 0 0 0 0.05387
1.252 -0.65100002 0.059999999 2 0 0 0 0.053879999
1.25 -0.64600003 0.057999998 2 0 0 0 0.053890001
1.252 -0.64300001 0.057 2 0 0 0 0.0539
1.245 -0.63599998 0.055 2 0 0 0 0.053909998
1.247 -0.63200003 0.054000001 2 0 0 0 0.053920001
1.247 -0.62800002 0.052999999 2 0 0 0 0.053929999
1.244 -0.62300003 0.050999999 2 0 0 0 0.053939998
1.243 -0.61900002 0.050000001 2 0 0 0 0.053950001
1.243 -0.61500001 0.048999999 2 0 0 0 0.053959999
1.239 -0.60900003 0.046999998 1 0 0 0 0.053970002
1.239 -0.60500002 0.046 1 0 0 0 0.05398
1.23 -0.59600002 0.045000002 1 0 0 0 0.053989999
1.232 -0.59299999 0.043000001 1 0 0 0 0.054000001
1.234 -0.58999997 0.041999999 1 0 0 0 0.05401
1.233 -0.58600003 0.041000001 1 0 0 0 0.054019999
1.224 -0.57800001 0.039999999 1 0 0 0 0.054030001
1.228 -0.57499999 0.039000001 1 0 0 0 0.05404
1.232 -0.57300001 0.037999999 1 0 0 0 0.054049999
1.223 -0.565 0.035999998 1 0 0 0 0.054060001
1.221 -0.56099999 0.035 1 0 0 0 0.05407
1.222 -0.55699998 0.034000002 1 0 0 0 0.054079998
1.216 -0.55000001 0.033 1 0 0 0 0.054090001
1.2180001 -0.54699999 0.032000002 1 0 0 0 0.054099999
1.198 -0.53399998 0.030999999 0 0 0 0 0.054110002
1.191 -0.52700001 0.028999999 0 0 0 0 0.05412
1.207 -0.52999997 0.028999999 1 0 0 0 0.054129999
1.2029999 -0.52399999 0.028000001 1 0 0 0 0.054140002
1.202 -0.51999998 0.027000001 16 0 0 0 0.05415
2.4230001 -1.04 0.052999999 150 0 0 0 0.054159999
2.4189999 -1.03 0.050999999 150 0 0 0 0.054170001
2.4070001 -1.017 0.048999999 17 0 0 0 0.05418
2.411 -1.011 0.046999998 20 0 0 0 0.054189999
2.4100001 -1.002 0.045000002 24 0 0 0 0.054200001
2.4070001 -0.99299997 0.044 21 0 0 0 0.05421
2.408 -0.986 0.041999999 22 0 0 0 0.054219998
2.402 -0.97500002 0.039999999 24 0 0 0 0.054230001
2.405 -0.96799999 0.039000001 20 0 0 0 0.05424
2.4070001 -0.96100003 0.037 19 0 0 0 0.054249998
2.4059999 -0.95300001 0.035999998 20 0 0 0 0.054260001
2.4000001 -0.94199997 0.034000002 18 0 0 0 0.054269999
2.405 -0.93599999 0.033 18 0 0 0 0.054280002
2.404 -0.92699999 0.030999999 18 0 0 0 0.05429
2.4030001 -0.91900003 0.029999999 20 0 0 0 0.054299999
2.404 -0.91100001 0.028000001 20 0 0 0 0.054310001
2.3970001 -0.89999998 0.027000001 23 0 0 0 0.05432
2.391 -0.88999999 0.025 25 0 0 0 0.054329999
2.404 -0.88700002 0.024 25 0 0 0 0.054340001
2.4000001 -0.87699997 0.023 21 0 0 0 0.05435
2.3989999 -0.86900002 0.022 20 0 0 0 0.054359999
2.3989999 -0.861 0.02 20 0 0 0 0.054370001
2.3970001 -0.852 0.018999999 21 0 0 0 0.05438
2.395 -0.84299999 0.017999999 22 0 0 0 0.054389998
2.3970001 -0.83600003 0.017000001 22 0 0 0 0.054400001
2.3970001 -0.82800001 0.016000001 23 0 0 0 0.054409999
2.395 -0.81900001 0.014 23 0 0 0 0.054420002
2.398 -0.81199998 0.013 22 0 0 0 0.05443
2.3929999 -0.80199999 0.012 22 0 0 0 0.054439999
2.3929999 -0.79400003 0.011 24 0 0 0 0.054450002
2.391 -0.78500003 0.0099999998 22 0 0 0 0.05446
2.3929999 -0.778 0.0089999996 21 0 0 0 0.054469999
2.392 -0.76999998 0.0080000004 19 0 0 0 0.054480001
2.3870001 -0.75999999 0.0070000002 17 0 0 0 0.05449
2.392 -0.75400001 0.0060000001 17 0 0 0 0.054499999
2.385 -0.74299997 0.0049999999 17 0 0 0 0.054510001
2.388 -0.736 0.0040000002 19 0 0 0 0.05452
2.391 -0.72899997 0.0040000002 19 0 0 0 0.054529998
2.3870001 -0.72000003 0.003 22 0 0 0 0.054540001
2.3889999 -0.71200001 0.0020000001 21 0 0 0 0.05455
2.3870001 -0.704 0.001 23 0 0 0 0.054559998
2.3840001 -0.69499999 0 24 0 0 0 0.054570001
2.3870001 -0.68800002 0 23 0 0 0 0.054579999
2.3859999 -0.67900002 0 22 0 0 0 0.054590002
2.381 -0.67000002 -0.001 20 0 0 0 0.0546
2.385 -0.66299999 -0.0020000001 18 0 0 0 0.054609999
2.3889999 -0.65600002 -0.0020000001 17 0 0 0 0.054620001
2.3829999 -0.64700001 -0.003 21 0 0 0 0.05463
2.3840001 -0.639 -0.0040000002 22 0 0 0 0.054639999
2.3800001 -0.63 -0.0040000002 24 0 0 0 0.054650001
2.3800001 -0.62199998 -0.0049999999 23 0 0 0 0.05466
2.3859999 -0.616 -0.0049999999 20 0 0 0 0.054669999
2.3840001 -0.60699999 -0.0060000001 21 0 0 0 0.054680001
2.381 -0.59799999 -0.0070000002 18 0 0 0 0.05469
2.3789999 -0.58999997 -0.0070000002 19 0 0 0 0.054699998
2.378 -0.58200002 -0.0080000004 16 0 0 0 0.054710001
2.381 -0.574 -0.0080000004 15 0 0 0 0.054719999
2.3789999 -0.56599998 -0.0080000004 21 0 0 0 0.054730002
2.382 -0.55900002 -0.0089999996 25 0 0 0 0.054740001
2.3740001 -0.54900002 -0.0089999996 24 0 0 0 0.054749999
2.378 -0.542 -0.0099999998 21 0 0 0 0.054760002
2.3840001 -0.53500003 -0.0099999998 16 0 0 0 0.05477
2.3789999 -0.52600002 -0.011 15 0 0 0 0.054779999
2.3770001 -0.51800001 -0.011 20 0 0 0 0.054790001
2.3789999 -0.51099998 -0.011 24 0 0 0 0.0548
2.375 -0.50199997 -0.012 25 0 0 0 0.054809999
2.375 -0.49399999 -0.012 24 0 0 0 0.054820001
2.3729999 -0.486 -0.012 22 0 0 0 0.05483
2.3740001 -0.47799999 -0.012 19 0 0 0 0.054839998
2.3759999 -0.47099999 -0.013 18 0 0 0 0.054850001
2.375 -0.46200001 -0.013 16 0 0 0 0.05486
2.372 -0.454 -0.013 17 0 0 0 0.054869998
2.372 -0.44600001 -0.013 20 0 0 0 0.054880001
2.372 -0.43900001 -0.013 20 0 0 0 0.054889999
2.3729999 -0.43099999 -0.014 18 0 0 0 0.054900002
2.3699999 -0.42199999 -0.014 22 0 0 0 0.05491
2.3659999 -0.414 -0.014 22 0 0 0 0.054919999
2.3670001 -0.40599999 -0.014 21 0 0 0 0.054930001
2.3710001 -0.39899999 -0.014 21 0 0 0 0.05494
2.368 -0.391 -0.014 22 0 0 0 0.054949999
2.365 -0.38299999 -0.014 21 0 0 0 0.054960001
2.3699999 -0.37599999 -0.014 17 0 0 0 0.05497
2.3710001 -0.368 -0.014 15 0 0 0 0.054979999
2.3699999 -0.36000001 -0.014 16 0 0 0 0.054990001
2.3659999 -0.352 -0.014 18 0 0 0 0.055
2.3670001 -0.34400001 -0.014 19 0 0 0 0.055009998
2.3599999 -0.33500001 -0.014 18 0 0 0 0.055020001
2.362 -0.32800001 -0.014 20 0 0 0 0.055029999
2.3789999 -0.322 -0.014 26 0 0 0 0.055039998
2.4170001 -0.31999999 -0.015 22 0 0 0 0.055050001
2.471 -0.31900001 -0.015 26 0 0 0 0.055059999
2.5469999 -0.31999999 -0.015 31 0 0 0 0.055070002
2.579 -0.31600001 -0.015 28 0 0 0 0.05508
2.8900001 -0.34400001 -0.017000001 150 0 0 0 0.055089999
3.2090001 -0.37200001 -0.018999999 150 0 0 0 0.055100001
3.211 -0.36199999 -0.018999999 150 0 0 0 0.05511
3.2119999 -0.352 -0.017999999 150 0 0 0 0.055119999
3.204 -0.34 -0.017999999 150 0 0 0 0.055130001
3.2049999 -0.33000001 -0.017999999 150 0 0 0 0.05514
3.223 -0.32100001 -0.017999999 150 0 0 0 0.055149999
3.2409999 -0.31200001 -0.017000001 152 0 0 0 0.055160001
3.2320001 -0.301 -0.017000001 151 0 0 0 0.05517
3.2349999 -0.29100001 -0.017000001 151 0 0 0 0.055179998
3.2390001 -0.28099999 -0.016000001 152 0 0 0 0.055190001
3.2260001 -0.26899999 -0.016000001 153 0 0 0 0.055199999
3.24 -0.25999999 -0.016000001 150 0 0 0 0.055210002
3.342 -0.257 -0.016000001 150 0 0 0 0.05522
3.3469999 -0.24600001 -0.015 152 0 0 0 0.055229999
3.346 -0.236 -0.015 151 0 0 0 0.055240002
3.342 -0.22400001 -0.014 152 0 0 0 0.05525
3.3469999 -0.214 -0.014 150 0 0 0 0.055259999
3.372 -0.205 -0.013 152 0 0 0 0.055270001
3.3770001 -0.19400001 -0.013 151 0 0 0 0.05528
3.3740001 -0.183 -0.012 150 0 0 0 0.055289999
3.4159999 -0.17399999 -0.012 154 0 0 0 0.055300001
3.4349999 -0.164 -0.011 151 0 0 0 0.05531
3.4349999 -0.153 -0.011 150 0 0 0 0.055319998
3.434 -0.142 -0.0099999998 150 0 0 0 0.055330001
3.4319999 -0.13 -0.0089999996 150 0 0 0 0.055339999
3.4319999 -0.119 -0.0089999996 150 0 0 0 0.055349998
3.4330001 -0.108 -0.0080000004 150 0 0 0 0.055360001
3.431 -0.097000003 -0.0070000002 150 0 0 0 0.055369999
3.4260001 -0.086000003 -0.0060000001 150 0 0 0 0.055380002
3.427 -0.075000003 -0.0060000001 150 0 0 0 0.05539
3.427 -0.064000003 -0.0049999999 150 0 0 0 0.055399999
3.424 -0.052000001 -0.0040000002 150 0 0 0 0.055410001
3.424 -0.041000001 -0.003 150 0 0 0 0.05542
3.4230001 -0.029999999 -0.0020000001 150 0 0 0 0.055429999
3.4189999 -0.018999999 -0.0020000001 150 0 0 0 0.055440001
3.424 -0.0080000004 -0.001 150 0 0 0 0.05545
3.418 0.0020000001 0 151 0 0 0 0.055459999
3.424 0.013 0 151 0 0 0 0.055470001
3.418 0.024 0.001 151 0 0 0 0.05548
3.4159999 0.035 0.0020000001 152 0 0 0 0.055489998
3.4230001 0.046 0.003 152 0 0 0 0.055500001
3.418 0.057 0.0040000002 152 0 0 0 0.055509999
3.4119999 0.068000004 0.0049999999 153 0 0 0 0.055520002
3.4119999 0.079000004 0.0060000001 153 0 0 0 0.05553
3.4030001 0.090000004 0.0070000002 153 0 0 0 0.055539999
3.401 0.1 0.0080000004 154 0 0 0 0.055550002
3.388 0.111 0.0089999996 154 0 0 0 0.05556
3.381 0.122 0.0099999998 154 0 0 0 0.055569999
3.382 0.133 0.011 155 0 0 0 0.055580001
3.3800001 0.14300001 0.012 155 0 0 0 0.05559
3.369 0.154 0.014 156 0 0 0 0.055599999
3.369 0.16500001 0.015 158 0 0 0 0.055610001
3.365 0.175 0.016000001 158 0 0 0 0.05562
3.3659999 0.186 0.017000001 158 0 0 0 0.055629998
3.3629999 0.197 0.017999999 158 0 0 0 0.055640001
3.3610001 0.208 0.018999999 158 0 0 0 0.05565
3.3570001 0.21799999 0.021 159 0 0 0 0.055659998
3.3570001 0.229 0.022 159 0 0 0 0.055670001
3.3570001 0.23999999 0.023 159 0 0 0 0.055679999
3.359 0.25099999 0.025 160 0 0 0 0.055690002
3.358 0.26100001 0.026000001 160 0 0 0 0.0557
3.358 0.27200001 0.027000001 159 0 0 0 0.055709999
3.355 0.28299999 0.028999999 159 0 0 0 0.055720001
3.3540001 0.294 0.029999999 159 0 0 0 0.05573
3.359 0.30500001 0.030999999 158 0 0 0 0.055739999
3.365 0.31600001 0.033 157 0 0 0 0.055750001
3.3670001 0.32699999 0.034000002 155 0 0 0 0.05576
3.362 0.338 0.035999998 156 0 0 0 0.055769999
3.3540001 0.34799999 0.037 158 0 0 0 0.055780001
3.3529999 0.359 0.039000001 157 0 0 0 0.05579
3.3670001 0.37099999 0.041000001 155 0 0 0 0.055799998
3.365 0.382 0.041999999 155 0 0 0 0.055810001
3.3729999 0.39300001 0.044 154 0 0 0 0.055819999
3.3800001 0.405 0.045000002 154 0 0 0 0.055830002
3.392 0.41800001 0.046999998 153 0 0 0 0.055840001
3.3929999 0.42899999 0.048999999 152 0 0 0 0.055849999
3.3940001 0.44 0.050999999 152 0 0 0 0.055860002
3.391 0.44999999 0.052000001 152 0 0 0 0.05587
3.3889999 0.461 0.054000001 151 0 0 0 0.055879999
3.385 0.472 0.056000002 151 0 0 0 0.055890001
3.3859999 0.48199999 0.057 152 0 0 0 0.0559
3.3840001 0.493 0.059 151 0 0 0 0.055909999
3.3840001 0.50400001 0.061000001 151 0 0 0 0.055920001
3.368 0.51300001 0.061999999 153 0 0 0 0.05593
3.3199999 0.51599997 0.063000001 151 0 0 0 0.055939998
3.323 0.52700001 0.064999998 152 0 0 0 0.055950001
3.3069999 0.53600001 0.067000002 151 0 0 0 0.05596
3.2880001 0.54299998 0.068000004 153 0 0 0 0.055969998
3.286 0.55400002 0.07 153 0 0 0 0.055980001
3.279 0.56300002 0.071999997 153 0 0 0 0.055989999
3.283 0.574 0.074000001 153 0 0 0 0.056000002
3.2739999 0.583 0.075999998 72 0 0 0 0.05601
3.2290001 0.58600003 0.075999998 24 0 0 0 0.056019999
3.151 0.58200002 0.077 24 0 0 0 0.056030001
3.089 0.58099997 0.077 24 0 0 0 0.05604
3.0220001 0.57800001 0.077 25 0 0 0 0.056049999
2.95 0.57300001 0.077 25 0 0 0 0.056060001
2.898 0.57300001 0.078000002 26 0 0 0 0.05607
2.835 0.56900001 0.078000002 27 0 0 0 0.056079999
2.7479999 0.56099999 0.077 26 0 0 0 0.056090001
2.6340001 0.546 0.075999998 24 0 0 0 0.0561
2.5569999 0.53899997 0.075000003 20 0 0 0 0.056109998
2.493 0.53299999 0.075000003 20 0 0 0 0.056120001
2.437 0.52899998 0.075000003 19 0 0 0 0.056129999
2.3659999 0.52100003 0.074000001 16 0 0 0 0.056139998
2.296 0.51300001 0.074000001 19 0 0 0 0.056150001
2.26 0.51300001 0.074000001 150 0 0 0 0.056159999
2.2460001 0.51700002 0.075000003 151 0 0 0 0.056170002
2.2449999 0.52399999 0.077 151 0 0 0 0.05618
2.2420001 0.53100002 0.078000002 151 0 0 0 0.056189999
2.227 0.53399998 0.079000004 150 0 0 0 0.056200001
2.2309999 0.54299998 0.081 150 0 0 0 0.05621
2.2290001 0.54900002 0.082999997 150 0 0 0 0.056219999
2.227 0.55599999 0.085000001 151 0 0 0 0.056230001
2.2260001 0.56300002 0.086000003 151 0 0 0 0.05624
2.2249999 0.56999999 0.088 151 0 0 0 0.056249999
2.224 0.57700002 0.090000004 151 0 0 0 0.056260001
2.22 0.583 0.090999998 151 0 0 0 0.05627
2.2249999 0.59200001 0.093000002 151 0 0 0 0.056279998
2.233 0.60100001 0.094999999 151 0 0 0 0.056290001
2.234 0.60900003 0.097000003 151 0 0 0 0.056299999
2.2309999 0.61500001 0.098999999 151 0 0 0 0.056310002
2.233 0.62300003 0.101 151 0 0 0 0.05632
2.2290001 0.62900001 0.103 151 0 0 0 0.056329999
2.244 0.64099997 0.105 150 0 0 0 0.056340002
2.3380001 0.67500001 0.112 150 0 0 0 0.05635
2.4879999 0.727 0.121 150 0 0 0 0.056359999
2.484 0.73400003 0.123 150 0 0 0 0.056370001
2.484 0.74199998 0.125 150 0 0 0 0.05638
2.483 0.74900001 0.127 150 0 0 0 0.056389999
2.428 0.741 0.127 150 0 0 0 0.056400001
2.3150001 0.71399999 0.123 150 0 0 0 0.05641
0 0 0 0 0 0 0 0.056419998
1.466 0.46200001 0.079999998 1 0 0 0 0.056430001
1.4400001 0.458 0.079999998 1 0 0 0 0.056439999
1.42 0.456 0.081 1 0 0 0 0.056449998
1.4220001 0.46200001 0.082000002 1 0 0 0 0.056460001
1.397 0.458 0.082000002 1 0 0 0 0.056469999
1.363 0.45100001 0.081 1 0 0 0 0.056480002
1.3559999 0.45300001 0.082000002 1 0 0 0 0.05649
1.336 0.45100001 0.082000002 4 0 0 0 0.056499999
1.327 0.45199999 0.082999997 8 0 0 0 0.056510001
1.311 0.45100001 0.083999999 54 0 0 0 0.05652
1.298 0.45100001 0.083999999 150 0 0 0 0.056529999
1.294 0.45300001 0.085000001 150 0 0 0 0.056540001
1.295 0.458 0.086999997 143 0 0 0 0.05655
1.294 0.46200001 0.088 137 0 0 0 0.056559999
1.298 0.46799999 0.090000004 138 0 0 0 0.056570001
1.296 0.47099999 0.090999998 150 0 0 0 0.05658
1.295 0.47499999 0.092 150 0 0 0 0.056589998
1.296 0.47999999 0.093999997 131 0 0 0 0.056600001
1.294 0.48300001 0.094999999 150 0 0 0 0.056609999
1.291 0.486 0.096000001 147 0 0 0 0.056620002
1.2970001 0.49200001 0.097999997 123 0 0 0 0.05663
1.299 0.49700001 0.1 48 0 0 0 0.056639999
1.296 0.5 0.101 9 0 0 0 0.056650002
1.268 0.49399999 0.1 5 0 0 0 0.05666
1.244 0.48800001 0.1 0 0 0 0 0.056669999
3.329 1.318 0.27200001 2 0 0 0 0.056680001
3.313 1.322 0.27500001 4 0 0 0 0.05669
3.3099999 1.331 0.27900001 5 0 0 0 0.056699999
3.309 1.342 0.28299999 5 0 0 0 0.056710001
3.3150001 1.354 0.287 3 0 0 0 0.05672
3.3110001 1.363 0.29100001 2 0 0 0 0.056729998
3.266 1.355 0.29100001 3 0 0 0 0.056740001
3.2509999 1.359 0.294 4 0 0 0 0.05675
3.257 1.372 0.29899999 4 0 0 0 0.056759998
3.2550001 1.382 0.303 3 0 0 0 0.056770001
3.2320001 1.382 0.30500001 3 0 0 0 0.056779999
3.247 1.399 0.31 3 0 0 0 0.056790002
3.243 1.4069999 0.31400001 3 0 0 0 0.0568
3.2409999 1.416 0.31900001 3 0 0 0 0.056809999
3.24 1.426 0.32300001 3 0 0 0 0.056820001
3.217 1.426 0.32499999 2 0 0 0 0.05683
3.1849999 1.4220001 0.32600001 1 0 0 0 0.056839999
3.1489999 1.415 0.32699999 0 0 0 0 0.056850001
3.1259999 1.415 0.329 1 0 0 0 0.05686
3.105 1.415 0.331 2 0 0 0 0.056869999
3.108 1.425 0.336 2 0 0 0 0.056880001
3.1110001 1.436 0.34 2 0 0 0 0.05689
3.108 1.444 0.345 2 0 0 0 0.056899998
3.1040001 1.452 0.34900001 2 0 0 0 0.056910001
3.0999999 1.46 0.35299999 2 0 0 0 0.056919999
3.096 1.467 0.35699999 2 0 0 0 0.056930002
3.0680001 1.4630001 0.35800001 2 0 0 0 0.056940001
3.089 1.482 0.36500001 2 0 0 0 0.056949999
3.0769999 1.4859999 0.368 2 0 0 0 0.056960002
3.0650001 1.489 0.37200001 2 0 0 0 0.05697
3.072 1.502 0.377 2 0 0 0 0.056979999
3.063 1.506 0.38100001 2 0 0 0 0.056990001
3.073 1.52 0.38699999 2 0 0 0 0.057
3.0680001 1.527 0.391 2 0 0 0 0.057009999
3.099 1.551 0.40000001 1 0 0 0 0.057020001
0.91100001 0.45899999 0.119 0 0 0 0 0.05703
0.912 0.46200001 0.12 3 0 0 0 0.057039998
0.90700001 0.46200001 0.121 3 0 0 0 0.057050001
0.91900003 0.47 0.124 4 0 0 0 0.05706
0.917 0.472 0.125 4 0 0 0 0.057069998
0.91799998 0.47499999 0.127 4 0 0 0 0.057080001
0.90200001 0.46900001 0.126 3 0 0 0 0.057089999
0.89899999 0.47 0.127 0 0 0 0 0.057100002
3.257 1.714 0.46700001 0 0 0 0 0.05711
3.237 1.711 0.47 1 0 0 0 0.057119999
3.2539999 1.73 0.47799999 1 0 0 0 0.057130001
3.247 1.734 0.48199999 1 0 0 0 0.05714
3.253 1.747 0.48899999 1 0 0 0 0.057149999
1.433 0.773 0.21799999 0 0 0 0 0.057160001
1.4680001 0.796 0.22499999 0 0 0 0 0.05717
1.441 0.78500003 0.22400001 0 0 0 0 0.057179999
3.2019999 1.753 0.50300002 1 0 0 0 0.057190001
3.2449999 1.785 0.51599997 1 0 0 0 0.0572
3.4260001 1.893 0.55000001 1 0 0 0 0.057209998
3.5669999 1.9809999 0.579 1 0 0 0 0.057220001
3.654 2.0380001 0.60000002 1 0 0 0 0.057229999
3.575 2.003 0.59299999 2 0 0 0 0.057240002
3.6140001 2.0339999 0.60600001 2 0 0 0 0.057250001
3.503 1.98 0.59399998 1 0 0 0 0.057259999
3.3770001 1.9170001 0.57800001 1 0 0 0 0.057270002
3.289 1.874 0.56900001 1 0 0 0 0.05728
3.279 1.876 0.574 1 0 0 0 0.057289999
3.273 1.88 0.57800001 1 0 0 0 0.057300001
3.2880001 1.897 0.58700001 1 0 0 0 0.05731
3.283 1.901 0.59200001 1 0 0 0 0.057319999
3.2839999 1.909 0.59799999 1 0 0 0 0.057330001
3.253 1.899 0.59899998 1 0 0 0 0.05734
3.2449999 1.901 0.60299999 1 0 0 0 0.057349999
3.237 1.903 0.60799998 1 0 0 0 0.057360001
1.237 0.73000002 0.234 0 0 0 0 0.05737
1.219 0.722 0.233 0 0 0 0 0.057379998
1.199 0.71200001 0.23100001 0 0 0 0 0.057390001
3.214 1.916 0.62699997 1 0 0 0 0.057399999
3.2869999 1.967 0.648 1 0 0 0 0.057410002
3.4030001 2.043 0.67699999 1 0 0 0 0.05742
3.4690001 2.089 0.69599998 1 0 0 0 0.057429999
3.425 2.069 0.69400001 1 0 0 0 0.057440002
3.471 2.1029999 0.70999998 1 0 0 0 0.05745
3.3529999 2.0380001 0.69199997 1 0 0 0 0.057459999
3.4630001 2.1110001 0.72100002 1 0 0 0 0.057470001
3.612 2.2079999 0.75800002 1 0 0 0 0.05748
3.6949999 2.2650001 0.78299999 2 0 0 0 0.057489999
3.691 2.2690001 0.78899997 2 0 0 0 0.057500001
3.675 2.2650001 0.79299998 2 0 0 0 0.05751
3.7049999 2.289 0.80599999 2 0 0 0 0.057519998
3.661 2.2679999 0.80299997 2 0 0 0 0.057530001
3.661 2.273 0.81 2 0 0 0 0.057539999
3.6960001 2.3010001 0.82499999 1 0 0 0 0.057549998
3.6900001 2.302 0.82999998 2 0 0 0 0.057560001
3.674 2.2969999 0.833 5 0 0 0 0.057569999
3.6700001 2.299 0.83899999 7 0 0 0 0.057580002
3.6659999 2.302 0.84500003 9 0 0 0 0.05759
3.671 2.309 0.85299999 10 0 0 0 0.057599999
3.671 2.3139999 0.86000001 12 0 0 0 0.057610001
3.6670001 2.3150001 0.86500001 12 0 0 0 0.05762
3.6659999 2.319 0.87199998 10 0 0 0 0.057629999
3.6619999 2.3199999 0.87699997 8 0 0 0 0.057640001
3.6700001 2.329 0.88599998 5 0 0 0 0.05765
3.704 2.3540001 0.90100002 2 0 0 0 0.057659999
0 0 0 0 0 0 0 0.057670001
0 0 0 0 0 0 0 0.05768
0 0 0 0 0 0 0 0.057689998
0 0 0 0 0 0 0 0.057700001
0 0 0 0 0 0 0 0.057709999
0 0 0 0 0 0 0 0.057720002
0 0 0 0 0 0 0 0.05773
0 0 0 0 0 0 0 0.057739999
0 0 0 0 0 0 0 0.057750002
