# .PCD v0.7 - Point Cloud Data file format
VERSION 0.7
FIELDS x y z intensity normal_x normal_y normal_z curvature
SIZE 4 4 4 4 4 4 4 4
TYPE F F F F F F F F
COUNT 1 1 1 1 1 1 1 1
WIDTH 1048
HEIGHT 1
VIEWPOINT 0 0 0 1 0 0 0
POINTS 1048
DATA ascii
0 0 0 0 0 0 0 0.050700001
0 0 0 0 0 0 0 0.05071
0 0 0 0 0 0 0 0.050719999
0 0 0 0 0 0 0 0.050730001
0 0 0 0 0 0 0 0.05074
0 0 0 0 0 0 0 0.050749999
0 0 0 0 0 0 0 0.050760001
0 0 0 0 0 0 0 0.05077
0 0 0 0 0 0 0 0.050779998
0 0 0 0 0 0 0 0.050790001
0 0 0 0 0 0 0 0.050799999
0 0 0 0 0 0 0 0.050810002
0 0 0 0 0 0 0 0.05082
0 0 0 0 0 0 0 0.050829999
2.4000001 -0.52899998 0.336 0 0 0 0 0.050840002
0 0 0 0 0 0 0 0.05085
0 0 0 0 0 0 0 0.050859999
0 0 0 0 0 0 0 0.050870001
0 0 0 0 0 0 0 0.05088
0 0 0 0 0 0 0 0.050889999
0 0 0 0 0 0 0 0.050900001
0 0 0 0 0 0 0 0.05091
0 0 0 0 0 0 0 0.050919998
0 0 0 0 0 0 0 0.050930001
0 0 0 0 0 0 0 0.05094
0 0 0 0 0 0 0 0.050949998
0 0 0 0 0 0 0 0.050960001
0 0 0 0 0 0 0 0.050969999
0 0 0 0 0 0 0 0.050980002
0 0 0 0 0 0 0 0.05099
0 0 0 0 0 0 0 0.050999999
0 0 0 0 0 0 0 0.051010001
0 0 0 0 0 0 0 0.05102
0 0 0 0 0 0 0 0.051029999
2.4030001 -0.40000001 0.243 0 0 0 0 0.051040001
0 0 0 0 0 0 0 0.05105
2.3829999 -0.384 0.23199999 0 0 0 0 0.051059999
2.3889999 -0.37799999 0.228 0 0 0 0 0.051070001
2.395 -0.373 0.22499999 0 0 0 0 0.05108
2.411 -0.36899999 0.222 0 0 0 0 0.051089998
2.381 -0.35800001 0.214 0 0 0 0 0.051100001
2.3740001 -0.34999999 0.20900001 0 0 0 0 0.051109999
2.3759999 -0.34400001 0.205 0 0 0 0 0.051120002
2.3759999 -0.33700001 0.20100001 0 0 0 0 0.051130001
2.3710001 -0.33000001 0.19599999 0 0 0 0 0.051139999
2.3640001 -0.32300001 0.191 1 0 0 0 0.051150002
2.378 -0.31799999 0.18799999 12 0 0 0 0.05116
2.3870001 -0.31299999 0.185 18 0 0 0 0.051169999
2.4330001 -0.31200001 0.184 14 0 0 0 0.051180001
2.4849999 -0.31200001 0.183 17 0 0 0 0.05119
2.529 -0.31 0.182 21 0 0 0 0.051199999
2.5780001 -0.30899999 0.18099999 23 0 0 0 0.051210001
2.8870001 -0.338 0.198 150 0 0 0 0.05122
3.184 -0.36399999 0.212 150 0 0 0 0.051229998
3.2119999 -0.359 0.20900001 150 0 0 0 0.051240001
3.211 -0.34999999 0.20299999 150 0 0 0 0.05125
3.2119999 -0.34099999 0.197 150 0 0 0 0.051259998
3.2079999 -0.33199999 0.192 150 0 0 0 0.051270001
3.2090001 -0.32300001 0.186 150 0 0 0 0.051279999
3.2249999 -0.31600001 0.182 150 0 0 0 0.051290002
3.2360001 -0.308 0.177 151 0 0 0 0.0513
3.2349999 -0.29899999 0.171 150 0 0 0 0.051309999
3.233 -0.289 0.16500001 150 0 0 0 0.051320001
3.237 -0.28099999 0.16 150 0 0 0 0.05133
3.23 -0.271 0.154 150 0 0 0 0.051339999
3.237 -0.26300001 0.149 150 0 0 0 0.051350001
3.2850001 -0.25799999 0.146 34 0 0 0 0.05136
3.3469999 -0.25299999 0.14300001 150 0 0 0 0.051369999
3.3469999 -0.244 0.138 151 0 0 0 0.051380001
3.3429999 -0.234 0.132 150 0 0 0 0.05139
3.3440001 -0.22499999 0.126 150 0 0 0 0.051399998
3.3410001 -0.215 0.121 150 0 0 0 0.051410001
3.365 -0.207 0.116 150 0 0 0 0.051419999
3.375 -0.199 0.111 151 0 0 0 0.051430002
3.369 -0.189 0.105 151 0 0 0 0.051440001
3.3710001 -0.18000001 0.1 150 0 0 0 0.051449999
3.4419999 -0.17399999 0.096000001 152 0 0 0 0.051460002
3.4360001 -0.164 0.090000004 151 0 0 0 0.05147
3.4360001 -0.154 0.085000001 150 0 0 0 0.051479999
3.4330001 -0.14399999 0.079000004 150 0 0 0 0.051490001
3.431 -0.134 0.074000001 150 0 0 0 0.0515
3.4319999 -0.125 0.068000004 150 0 0 0 0.051509999
3.434 -0.115 0.063000001 150 0 0 0 0.051520001
3.4289999 -0.105 0.057 150 0 0 0 0.05153
3.4330001 -0.096000001 0.052000001 150 0 0 0 0.051539999
3.431 -0.086000003 0.046 150 0 0 0 0.051550001
3.4230001 -0.075999998 0.041000001 150 0 0 0 0.05156
3.427 -0.067000002 0.035999998 150 0 0 0 0.051569998
3.427 -0.057 0.029999999 150 0 0 0 0.051580001
3.4260001 -0.046999998 0.025 150 0 0 0 0.051589999
3.424 -0.037 0.018999999 150 0 0 0 0.051600002
3.4230001 -0.028000001 0.014 150 0 0 0 0.05161
3.4230001 -0.017999999 0.0089999996 150 0 0 0 0.051619999
3.4230001 -0.0080000004 0.0040000002 150 0 0 0 0.051630002
3.424 0.001 -0.001 150 0 0 0 0.05164
3.4230001 0.0099999998 -0.0060000001 151 0 0 0 0.051649999
3.414 0.02 -0.011 150 0 0 0 0.051660001
3.421 0.029999999 -0.016000001 151 0 0 0 0.05167
3.4200001 0.039999999 -0.021 152 0 0 0 0.051679999
3.4200001 0.050000001 -0.027000001 152 0 0 0 0.051690001
3.4170001 0.059 -0.032000002 152 0 0 0 0.0517
3.418 0.068999998 -0.037 152 0 0 0 0.051709998
3.4030001 0.079000004 -0.041999999 153 0 0 0 0.051720001
3.398 0.088 -0.046999998 153 0 0 0 0.051729999
3.4030001 0.097999997 -0.052000001 153 0 0 0 0.051739998
3.3870001 0.108 -0.057 154 0 0 0 0.051750001
3.381 0.117 -0.061999999 154 0 0 0 0.051759999
3.381 0.127 -0.067000002 154 0 0 0 0.051770002
3.3800001 0.13699999 -0.071999997 154 0 0 0 0.05178
3.3789999 0.146 -0.077 155 0 0 0 0.051789999
3.369 0.156 -0.081 156 0 0 0 0.051800001
3.368 0.16500001 -0.086000003 156 0 0 0 0.05181
3.3670001 0.175 -0.090999998 157 0 0 0 0.051819999
3.365 0.185 -0.096000001 157 0 0 0 0.051830001
3.3610001 0.19400001 -0.101 158 0 0 0 0.05184
3.359 0.204 -0.105 159 0 0 0 0.051849999
3.3570001 0.214 -0.11 158 0 0 0 0.051860001
3.358 0.223 -0.115 159 0 0 0 0.05187
3.359 0.233 -0.12 157 0 0 0 0.051879998
3.3610001 0.243 -0.124 158 0 0 0 0.051890001
3.359 0.25299999 -0.12899999 157 0 0 0 0.051899999
3.359 0.26300001 -0.134 157 0 0 0 0.051910002
3.359 0.273 -0.139 158 0 0 0 0.05192
3.3559999 0.28200001 -0.14300001 157 0 0 0 0.051929999
3.3559999 0.292 -0.148 156 0 0 0 0.051940002
3.3670001 0.303 -0.153 155 0 0 0 0.05195
3.365 0.31299999 -0.15800001 154 0 0 0 0.051959999
3.3800001 0.324 -0.163 154 0 0 0 0.051970001
3.3789999 0.33399999 -0.168 154 0 0 0 0.05198
3.378 0.34400001 -0.17200001 154 0 0 0 0.051989999
3.375 0.354 -0.177 153 0 0 0 0.052000001
3.3829999 0.36500001 -0.182 153 0 0 0 0.05201
3.3870001 0.375 -0.186 153 0 0 0 0.052019998
3.3959999 0.38600001 -0.191 152 0 0 0 0.052030001
3.3940001 0.396 -0.19599999 152 0 0 0 0.05204
3.388 0.40599999 -0.2 152 0 0 0 0.052049998
3.3889999 0.41600001 -0.205 151 0 0 0 0.052060001
3.3870001 0.426 -0.20900001 151 0 0 0 0.052069999
3.3900001 0.43599999 -0.214 151 0 0 0 0.052080002
3.382 0.44600001 -0.21799999 151 0 0 0 0.05209
3.381 0.45500001 -0.222 151 0 0 0 0.052099999
3.3800001 0.46599999 -0.226 150 0 0 0 0.052110001
3.3829999 0.47600001 -0.23100001 151 0 0 0 0.05212
3.3800001 0.486 -0.235 151 0 0 0 0.052129999
3.3800001 0.49599999 -0.23999999 151 0 0 0 0.052140001
3.378 0.50599998 -0.244 152 0 0 0 0.05215
3.322 0.50800002 -0.244 150 0 0 0 0.052159999
3.3139999 0.51700002 -0.248 151 0 0 0 0.052170001
3.313 0.52600002 -0.252 151 0 0 0 0.05218
3.2920001 0.53299999 -0.25400001 150 0 0 0 0.052189998
3.283 0.542 -0.25799999 152 0 0 0 0.052200001
3.283 0.55199999 -0.26199999 152 0 0 0 0.052209999
3.2809999 0.56099999 -0.266 151 0 0 0 0.052220002
3.276 0.57099998 -0.27000001 150 0 0 0 0.05223
3.2550001 0.57700002 -0.27200001 24 0 0 0 0.052239999
3.223 0.58099997 -0.273 24 0 0 0 0.052250002
3.154 0.57800001 -0.271 24 0 0 0 0.05226
3.089 0.57599998 -0.26899999 24 0 0 0 0.052269999
2.993 0.56699997 -0.26499999 24 0 0 0 0.052280001
2.914 0.56099999 -0.26100001 26 0 0 0 0.05229
2.8380001 0.55500001 -0.25799999 26 0 0 0 0.052299999
2.7460001 0.546 -0.25299999 24 0 0 0 0.052310001
2.674 0.54000002 -0.249 23 0 0 0 0.05232
2.6059999 0.53399998 -0.24600001 22 0 0 0 0.052329998
2.546 0.52999997 -0.243 21 0 0 0 0.052340001
2.4879999 0.52600002 -0.241 21 0 0 0 0.05235
2.4330001 0.52200001 -0.23800001 20 0 0 0 0.052359998
2.378 0.51700002 -0.236 20 0 0 0 0.052370001
2.3099999 0.50999999 -0.23100001 20 0 0 0 0.052379999
2.2620001 0.50599998 -0.229 150 0 0 0 0.052390002
2.2490001 0.50999999 -0.23 151 0 0 0 0.0524
2.2479999 0.51700002 -0.233 151 0 0 0 0.052409999
2.244 0.523 -0.235 150 0 0 0 0.052420001
2.2249999 0.52600002 -0.235 150 0 0 0 0.05243
2.2219999 0.53200001 -0.23800001 151 0 0 0 0.052439999
2.22 0.53899997 -0.23999999 150 0 0 0 0.052450001
2.224 0.54699999 -0.243 151 0 0 0 0.05246
2.2190001 0.55299997 -0.245 151 0 0 0 0.052469999
2.22 0.56 -0.24699999 151 0 0 0 0.052480001
2.2190001 0.56699997 -0.249 151 0 0 0 0.05249
2.217 0.57300001 -0.252 151 0 0 0 0.052499998
2.2179999 0.58099997 -0.25400001 151 0 0 0 0.052510001
2.2260001 0.58999997 -0.257 151 0 0 0 0.052519999
2.227 0.597 -0.25999999 151 0 0 0 0.052530002
2.2290001 0.60500002 -0.26199999 151 0 0 0 0.052540001
2.227 0.61199999 -0.264 151 0 0 0 0.052549999
2.2260001 0.61799997 -0.26699999 151 0 0 0 0.052560002
2.2249999 0.62599999 -0.26899999 151 0 0 0 0.05257
2.2969999 0.653 -0.28 150 0 0 0 0.052579999
2.477 0.71200001 -0.30399999 150 0 0 0 0.052590001
2.4820001 0.722 -0.30700001 150 0 0 0 0.0526
2.477 0.72799999 -0.30899999 150 0 0 0 0.052609999
2.477 0.73699999 -0.31200001 150 0 0 0 0.052620001
2.427 0.73000002 -0.308 150 0 0 0 0.05263
2.3110001 0.70200002 -0.29499999 150 0 0 0 0.052639998
2.5039999 0.76899999 -0.322 107 0 0 0 0.052650001
1.474 0.45699999 -0.191 1 0 0 0 0.05266
1.459 0.45699999 -0.19 1 0 0 0 0.052669998
1.4349999 0.45500001 -0.18799999 1 0 0 0 0.052680001
1.4119999 0.45199999 -0.18700001 1 0 0 0 0.052689999
1.402 0.45300001 -0.18700001 4 0 0 0 0.052700002
1.3839999 0.45199999 -0.185 2 0 0 0 0.05271
1.344 0.44400001 -0.18099999 2 0 0 0 0.052719999
1.346 0.449 -0.183 3 0 0 0 0.052730002
1.323 0.44499999 -0.18099999 9 0 0 0 0.05274
1.3 0.442 -0.17900001 80 0 0 0 0.052749999
1.289 0.442 -0.178 150 0 0 0 0.052760001
1.2869999 0.44600001 -0.17900001 150 0 0 0 0.05277
1.288 0.45100001 -0.18000001 150 0 0 0 0.052779999
1.2869999 0.45500001 -0.18099999 150 0 0 0 0.052790001
1.286 0.458 -0.182 150 0 0 0 0.0528
1.286 0.463 -0.183 150 0 0 0 0.052809998
1.285 0.46700001 -0.184 150 0 0 0 0.052820001
1.285 0.47099999 -0.185 150 0 0 0 0.052829999
1.284 0.47499999 -0.186 150 0 0 0 0.052839998
1.284 0.479 -0.18700001 150 0 0 0 0.052850001
1.285 0.48300001 -0.18799999 150 0 0 0 0.052859999
1.2920001 0.491 -0.19 36 0 0 0 0.052870002
1.281 0.491 -0.189 7 0 0 0 0.05288
1.245 0.48100001 -0.185 5 0 0 0 0.052889999
1.219 0.47499999 -0.182 4 0 0 0 0.052900001
3.2969999 1.2970001 -0.49399999 5 0 0 0 0.05291
3.303 1.3099999 -0.49700001 5 0 0 0 0.052919999
1.179 0.47099999 -0.178 0 0 0 0 0.052930001
3.3080001 1.334 -0.50300002 3 0 0 0 0.05294
1.1619999 0.47299999 -0.177 0 0 0 0 0.052949999
1.147 0.47 -0.175 0 0 0 0 0.052960001
1.143 0.472 -0.175 2 0 0 0 0.05297
1.133 0.472 -0.175 0 0 0 0 0.052979998
1.117 0.46900001 -0.17299999 0 0 0 0 0.052990001
1.108 0.46900001 -0.17200001 0 0 0 0 0.052999999
1.097 0.46799999 -0.171 0 0 0 0 0.053010002
1.091 0.46900001 -0.171 0 0 0 0 0.05302
3.2249999 1.398 -0.50700003 3 0 0 0 0.053029999
1.054 0.46000001 -0.16599999 0 0 0 0 0.053040002
1.05 0.46200001 -0.16599999 0 0 0 0 0.05305
1.04 0.461 -0.16500001 0 0 0 0 0.053059999
1.029 0.46000001 -0.163 0 0 0 0 0.053070001
1.026 0.46200001 -0.163 0 0 0 0 0.05308
1.017 0.461 -0.162 0 0 0 0 0.053089999
1.001 0.45699999 -0.16 0 0 0 0 0.053100001
0.99299997 0.45699999 -0.15899999 0 0 0 0 0.05311
0.98900002 0.458 -0.15899999 0 0 0 0 0.053119998
0.98400003 0.45899999 -0.15899999 0 0 0 0 0.053130001
0.97399998 0.458 -0.15700001 0 0 0 0 0.05314
0.97000003 0.45899999 -0.15700001 0 0 0 0 0.053149998
0.95899999 0.45699999 -0.156 0 0 0 0 0.053160001
3.0829999 1.48 -0.50199997 3 0 0 0 0.053169999
3.0699999 1.484 -0.50099999 2 0 0 0 0.053180002
3.0710001 1.495 -0.50199997 2 0 0 0 0.05319
0.93199998 0.45699999 -0.152 0 0 0 0 0.053199999
0.921 0.454 -0.15099999 0 0 0 0 0.053210001
0.91399997 0.454 -0.15000001 0 0 0 0 0.05322
0.921 0.46000001 -0.15099999 0 0 0 0 0.053229999
0.91100001 0.458 -0.15000001 6 0 0 0 0.053240001
0.91500002 0.463 -0.15099999 8 0 0 0 0.05325
0.91399997 0.465 -0.15000001 8 0 0 0 0.053259999
0.91100001 0.46700001 -0.15000001 7 0 0 0 0.053270001
0.90899998 0.46900001 -0.15000001 7 0 0 0 0.05328
0.91100001 0.47299999 -0.15000001 8 0 0 0 0.053289998
0.912 0.477 -0.15099999 7 0 0 0 0.053300001
0.90899998 0.47799999 -0.15000001 7 0 0 0 0.053309999
0.91000003 0.48100001 -0.15000001 8 0 0 0 0.053320002
0.91000003 0.484 -0.15000001 7 0 0 0 0.05333
0.90799999 0.486 -0.15000001 8 0 0 0 0.053339999
0.90700001 0.48800001 -0.15000001 7 0 0 0 0.053350002
0.91000003 0.493 -0.15099999 8 0 0 0 0.05336
0.90899998 0.495 -0.15000001 8 0 0 0 0.053369999
0.90600002 0.49599999 -0.15000001 8 0 0 0 0.053380001
0.91000003 0.50099999 -0.15000001 8 0 0 0 0.05339
0.90399998 0.50099999 -0.149 8 0 0 0 0.053399999
0.90700001 0.505 -0.15000001 9 0 0 0 0.053410001
0.90600002 0.50700003 -0.149 9 0 0 0 0.05342
0.90499997 0.50999999 -0.149 8 0 0 0 0.053429998
0.90499997 0.51200002 -0.149 8 0 0 0 0.053440001
0.903 0.514 -0.148 9 0 0 0 0.05345
0.90200001 0.51599997 -0.148 9 0 0 0 0.053459998
0.903 0.51899999 -0.148 10 0 0 0 0.053470001
0.89999998 0.51999998 -0.147 8 0 0 0 0.053479999
0.90700001 0.52700001 -0.148 8 0 0 0 0.053490002
0.90399998 0.528 -0.147 8 0 0 0 0.0535
0.90600002 0.53100002 -0.147 9 0 0 0 0.053509999
0.90399998 0.53299999 -0.147 8 0 0 0 0.053520001
0.90200001 0.53399998 -0.146 7 0 0 0 0.05353
0.90600002 0.53899997 -0.146 6 0 0 0 0.053539999
0.90499997 0.54100001 -0.146 6 0 0 0 0.053550001
0.91100001 0.54799998 -0.147 5 0 0 0 0.05356
0.917 0.55400002 -0.147 4 0 0 0 0.053569999
0.91799998 0.55599999 -0.147 4 0 0 0 0.053580001
0.90700001 0.55199999 -0.145 3 0 0 0 0.05359
0.91399997 0.55900002 -0.145 3 0 0 0 0.053599998
0.917 0.56300002 -0.145 3 0 0 0 0.053610001
0.91900003 0.56699997 -0.145 2 0 0 0 0.053619999
0.93000001 0.57599998 -0.146 1 0 0 0 0.053630002
0.96700001 0.602 -0.152 1 0 0 0 0.053640001
0.99699998 0.62300003 -0.156 1 0 0 0 0.053649999
1.034 0.648 -0.161 1 0 0 0 0.053660002
1.068 0.67199999 -0.16599999 1 0 0 0 0.05367
1.09 0.68900001 -0.168 1 0 0 0 0.053679999
1.087 0.69 -0.167 1 0 0 0 0.053690001
1.067 0.67900002 -0.163 1 0 0 0 0.0537
1.053 0.67299998 -0.16 1 0 0 0 0.053709999
1.0549999 0.676 -0.16 1 0 0 0 0.053720001
1.073 0.69 -0.162 1 0 0 0 0.05373
1.085 0.69999999 -0.163 1 0 0 0 0.053739998
1.092 0.70700002 -0.163 1 0 0 0 0.053750001
1.103 0.71700001 -0.164 1 0 0 0 0.05376
1.1289999 0.736 -0.167 1 0 0 0 0.053769998
0 0 0 0 0 0 0 0.053780001
1.087 0.713 -0.15899999 7 0 0 0 0.053789999
0 0 0 0 0 0 0 0.053800002
1.169 0.77200001 -0.168 1 0 0 0 0.05381
1.12 0.74199998 -0.16 3 0 0 0 0.053819999
1.122 0.745 -0.16 1 0 0 0 0.053830002
1.119 0.745 -0.15800001 1 0 0 0 0.05384
1.148 0.76599997 -0.161 1 0 0 0 0.053849999
1.16 0.77600002 -0.162 1 0 0 0 0.053860001
1.164 0.78100002 -0.161 1 0 0 0 0.05387
1.164 0.78299999 -0.16 1 0 0 0 0.053879999
1.204 0.81099999 -0.164 1 0 0 0 0.053890001
1.188 0.80199999 -0.16 7 0 0 0 0.0539
1.1849999 0.80199999 -0.15899999 8 0 0 0 0.053909998
0 0 0 0 0 0 0 0.053920001
0 0 0 0 0 0 0 0.053929999
0 0 0 0 0 0 0 0.053939998
0 0 0 0 0 0 0 0.053950001
0 0 0 0 0 0 0 0.053959999
1.181 0.80900002 -0.15000001 150 0 0 0 0.053970002
0 0 0 0 0 0 0 0.05398
0 0 0 0 0 0 0 0.053989999
0 0 0 0 0 0 0 0.054000001
0 0 0 0 0 0 0 0.05401
0 0 0 0 0 0 0 0.054019999
0 0 0 0 0 0 0 0.054030001
0 0 0 0 0 0 0 0.05404
1.21 0.838 -0.141 31 0 0 0 0.054049999
0 0 0 0 0 0 0 0.054060001
0 0 0 0 0 0 0 0.05407
0 0 0 0 0 0 0 0.054079998
0 0 0 0 0 0 0 0.054090001
0 0 0 0 0 0 0 0.054099999
0 0 0 0 0 0 0 0.054110002
1.21 0.84299999 -0.13 24 0 0 0 0.05412
1.216 0.847 -0.12899999 16 0 0 0 0.054129999
1.23 0.85699999 -0.12899999 16 0 0 0 0.054140002
1.26 0.87800002 -0.13 14 0 0 0 0.05415
2.74 1.911 -0.28 0 0 0 0 0.054159999
2.7260001 1.901 -0.27399999 13 0 0 0 0.054170001
2.7279999 1.903 -0.271 14 0 0 0 0.05418
0 0 0 0 0 0 0 0.054189999
0 0 0 0 0 0 0 0.054200001
0 0 0 0 0 0 0 0.05421
0 0 0 0 0 0 0 0.054219998
0 0 0 0 0 0 0 0.054230001
0 0 0 0 0 0 0 0.05424
0 0 0 0 0 0 0 0.054249998
1.403 0.97600001 -0.123 10 0 0 0 0.054260001
0 0 0 0 0 0 0 0.054269999
1.401 0.97399998 -0.118 10 0 0 0 0.054280002
1.41 0.97899997 -0.117 10 0 0 0 0.05429
0 0 0 0 0 0 0 0.054299999
0 0 0 0 0 0 0 0.054310001
1.413 0.97799999 -0.111 10 0 0 0 0.05432
1.4119999 0.977 -0.109 10 0 0 0 0.054329999
1.415 0.97799999 -0.107 10 0 0 0 0.054340001
1.416 0.977 -0.105 10 0 0 0 0.05435
1.418 0.977 -0.103 10 0 0 0 0.054359999
1.42 0.977 -0.101 10 0 0 0 0.054370001
1.423 0.97799999 -0.098999999 10 0 0 0 0.05438
1.424 0.977 -0.097000003 10 0 0 0 0.054389998
1.428 0.97799999 -0.094999999 10 0 0 0 0.054400001
1.433 0.98000002 -0.093000002 10 0 0 0 0.054409999
1.429 0.97500002 -0.090999998 10 0 0 0 0.054420002
1.409 0.95999998 -0.088 10 0 0 0 0.05443
1.346 0.91500002 -0.082000002 15 0 0 0 0.054439999
1.322 0.89700001 -0.078000002 21 0 0 0 0.054450002
1.324 0.89600003 -0.075999998 18 0 0 0 0.05446
1.33 0.89899999 -0.075000003 14 0 0 0 0.054469999
1.495 1.008 -0.082000002 14 0 0 0 0.054480001
1.4349999 0.96499997 -0.077 10 0 0 0 0.05449
1.46 0.97899997 -0.075999998 10 0 0 0 0.054499999
1.469 0.98299998 -0.074000001 10 0 0 0 0.054510001
1.469 0.98100001 -0.071999997 11 0 0 0 0.05452
0 0 0 0 0 0 0 0.054529998
1.4809999 0.98400003 -0.068999998 12 0 0 0 0.054540001
1.482 0.98199999 -0.067000002 11 0 0 0 0.05455
1.4859999 0.98199999 -0.064999998 11 0 0 0 0.054559998
1.493 0.98299998 -0.063000001 10 0 0 0 0.054570001
1.501 0.98500001 -0.061000001 11 0 0 0 0.054579999
1.485 0.972 -0.059 5 0 0 0 0.054590002
1.5089999 0.98500001 -0.057 0 0 0 0 0.0546
1.511 0.98299998 -0.055 0 0 0 0 0.054609999
0 0 0 0 0 0 0 0.054620001
0 0 0 0 0 0 0 0.05463
1.2410001 0.80000001 -0.039999999 0 0 0 0 0.054639999
1.2359999 0.79299998 -0.039000001 0 0 0 0 0.054650001
1.232 0.78799999 -0.037 0 0 0 0 0.05466
1.336 0.85100001 -0.037999999 0 0 0 0 0.054669999
0 0 0 0 0 0 0 0.054680001
0 0 0 0 0 0 0 0.05469
0 0 0 0 0 0 0 0.054699998
0 0 0 0 0 0 0 0.054710001
0 0 0 0 0 0 0 0.054719999
0 0 0 0 0 0 0 0.054730002
0 0 0 0 0 0 0 0.054740001
0 0 0 0 0 0 0 0.054749999
0 0 0 0 0 0 0 0.054760002
0 0 0 0 0 0 0 0.05477
0 0 0 0 0 0 0 0.054779999
0 0 0 0 0 0 0 0.054790001
0 0 0 0 0 0 0 0.0548
0 0 0 0 0 0 0 0.054809999
0 0 0 0 0 0 0 0.054820001
0 0 0 0 0 0 0 0.05483
0 0 0 0 0 0 0 0.054839998
0 0 0 0 0 0 0 0.054850001
0 0 0 0 0 0 0 0.05486
0 0 0 0 0 0 0 0.054869998
0 0 0 0 0 0 0 0.054880001
3.1199999 1.809 -0.012 0 0 0 0 0.054889999
3.1659999 1.826 -0.0089999996 1 0 0 0 0.054900002
3.211 1.8430001 -0.0060000001 1 0 0 0 0.05491
3.2379999 1.848 -0.003 0 0 0 0 0.054919999
3.233 1.836 0 0 0 0 0 0.054930001
3.211 1.813 0.0020000001 1 0 0 0 0.05494
3.164 1.778 0.0049999999 1 0 0 0 0.054949999
0 0 0 0 0 0 0 0.054960001
0 0 0 0 0 0 0 0.05497
0 0 0 0 0 0 0 0.054979999
0 0 0 0 0 0 0 0.054990001
0 0 0 0 0 0 0 0.055
0 0 0 0 0 0 0 0.055009998
0 0 0 0 0 0 0 0.055020001
0 0 0 0 0 0 0 0.055029999
0 0 0 0 0 0 0 0.055039998
0 0 0 0 0 0 0 0.055050001
0 0 0 0 0 0 0 0.055059999
0 0 0 0 0 0 0 0.055070002
0.90700001 0.472 0.011 0 0 0 0 0.05508
0.90499997 0.46900001 0.012 3 0 0 0 0.055089999
0.91500002 0.47099999 0.012 4 0 0 0 0.055100001
0.92000002 0.47 0.013 4 0 0 0 0.05511
0.91600001 0.465 0.014 4 0 0 0 0.055119999
0.90499997 0.45699999 0.014 3 0 0 0 0.055130001
0.91000003 0.45699999 0.015 0 0 0 0 0.05514
0.91500002 0.456 0.015 0 0 0 0 0.055149999
3.072 1.521 0.055 1 0 0 0 0.055160001
3.063 1.507 0.057 2 0 0 0 0.05517
3.072 1.501 0.059 2 0 0 0 0.055179998
3.0780001 1.494 0.061000001 2 0 0 0 0.055190001
3.069 1.479 0.061999999 2 0 0 0 0.055199999
3.086 1.477 0.064000003 2 0 0 0 0.055210002
3.0829999 1.466 0.066 2 0 0 0 0.05522
3.102 1.465 0.068000004 2 0 0 0 0.055229999
3.122 1.4630001 0.07 3 0 0 0 0.055240002
3.1270001 1.455 0.071999997 3 0 0 0 0.05525
3.119 1.441 0.072999999 2 0 0 0 0.055259999
3.115 1.429 0.075000003 2 0 0 0 0.055270001
3.0999999 1.4119999 0.075999998 2 0 0 0 0.05528
3.105 1.403 0.077 1 0 0 0 0.055289999
3.152 1.414 0.079999998 1 0 0 0 0.055300001
3.1819999 1.4170001 0.082000002 1 0 0 0 0.05531
3.224 1.424 0.083999999 2 0 0 0 0.055319998
3.2119999 1.408 0.085000001 4 0 0 0 0.055330001
3.2160001 1.399 0.086999997 4 0 0 0 0.055339999
3.2219999 1.391 0.088 3 0 0 0 0.055349998
3.2609999 1.396 0.090000004 3 0 0 0 0.055360001
3.243 1.378 0.090999998 3 0 0 0 0.055369999
3.244 1.367 0.092 4 0 0 0 0.055380002
3.2449999 1.357 0.093000002 4 0 0 0 0.05539
3.2709999 1.3559999 0.094999999 3 0 0 0 0.055399999
3.28 1.349 0.096000001 2 0 0 0 0.055410001
3.3080001 1.35 0.097999997 4 0 0 0 0.05542
3.3080001 1.3380001 0.098999999 6 0 0 0 0.055429999
3.313 1.329 0.1 5 0 0 0 0.055440001
3.3150001 1.318 0.101 5 0 0 0 0.05545
1.217 0.47999999 0.037 2 0 0 0 0.055459999
1.242 0.48500001 0.037999999 0 0 0 0 0.055470001
1.263 0.48899999 0.039000001 5 0 0 0 0.05548
1.293 0.49599999 0.039999999 11 0 0 0 0.055489998
1.283 0.48800001 0.039999999 119 0 0 0 0.055500001
1.284 0.484 0.041000001 150 0 0 0 0.055509999
1.286 0.47999999 0.041000001 150 0 0 0 0.055520002
1.284 0.47600001 0.041000001 150 0 0 0 0.05553
1.286 0.472 0.041000001 150 0 0 0 0.055539999
1.2869999 0.46799999 0.041000001 150 0 0 0 0.055550002
1.285 0.463 0.041999999 150 0 0 0 0.05556
1.2869999 0.45899999 0.041999999 150 0 0 0 0.055569999
1.288 0.45500001 0.041999999 150 0 0 0 0.055580001
1.2819999 0.449 0.041999999 150 0 0 0 0.05559
1.288 0.44600001 0.041999999 150 0 0 0 0.055599999
1.2970001 0.44499999 0.043000001 57 0 0 0 0.055610001
1.323 0.449 0.044 7 0 0 0 0.05562
1.35 0.454 0.045000002 1 0 0 0 0.055629998
1.362 0.45300001 0.045000002 1 0 0 0 0.055640001
1.382 0.45500001 0.046 1 0 0 0 0.05565
1.402 0.45699999 0.046999998 2 0 0 0 0.055659998
1.418 0.45699999 0.046999998 2 0 0 0 0.055670001
1.433 0.458 0.048 2 0 0 0 0.055679999
1.452 0.45899999 0.048 2 0 0 0 0.055690002
1.479 0.46200001 0.048999999 2 0 0 0 0.0557
2.52 0.77899998 0.083999999 150 0 0 0 0.055709999
2.319 0.70899999 0.077 150 0 0 0 0.055720001
2.4820001 0.75099999 0.082999997 150 0 0 0 0.05573
2.4820001 0.74199998 0.082999997 150 0 0 0 0.055739999
2.4849999 0.73400003 0.082999997 150 0 0 0 0.055750001
2.487 0.727 0.082999997 150 0 0 0 0.05576
2.3889999 0.69 0.079000004 150 0 0 0 0.055769999
2.2579999 0.64499998 0.075000003 150 0 0 0 0.055780001
2.2290001 0.62900001 0.074000001 151 0 0 0 0.05579
2.2249999 0.62 0.072999999 151 0 0 0 0.055799998
2.227 0.61299998 0.072999999 151 0 0 0 0.055810001
2.224 0.60500002 0.072999999 151 0 0 0 0.055819999
2.2260001 0.59799999 0.072999999 151 0 0 0 0.055830002
2.227 0.59100002 0.071999997 151 0 0 0 0.055840001
2.221 0.58200002 0.071999997 151 0 0 0 0.055849999
2.223 0.57499999 0.071999997 151 0 0 0 0.055860002
2.2219999 0.56699997 0.071000002 151 0 0 0 0.05587
2.227 0.56099999 0.071000002 151 0 0 0 0.055879999
2.2249999 0.55299997 0.071000002 151 0 0 0 0.055890001
2.2260001 0.546 0.07 151 0 0 0 0.0559
2.2249999 0.53799999 0.07 151 0 0 0 0.055909999
2.2279999 0.53200001 0.07 151 0 0 0 0.055920001
2.244 0.528 0.07 151 0 0 0 0.05593
2.2379999 0.51899999 0.068999998 152 0 0 0 0.055939998
2.24 0.51200002 0.068999998 151 0 0 0 0.055950001
2.2639999 0.50999999 0.068999998 150 0 0 0 0.05596
2.339 0.51899999 0.071000002 19 0 0 0 0.055969998
2.3900001 0.52200001 0.071999997 18 0 0 0 0.055980001
2.4619999 0.52999997 0.072999999 21 0 0 0 0.055989999
2.517 0.53399998 0.074000001 20 0 0 0 0.056000002
2.5910001 0.54100001 0.075999998 23 0 0 0 0.05601
2.6900001 0.55299997 0.078000002 27 0 0 0 0.056019999
2.8050001 0.56699997 0.081 28 0 0 0 0.056030001
2.8729999 0.57099998 0.082000002 28 0 0 0 0.05604
2.924 0.57200003 0.082000002 26 0 0 0 0.056049999
2.9920001 0.57499999 0.082999997 25 0 0 0 0.056060001
3.0580001 0.57800001 0.083999999 25 0 0 0 0.05607
3.1210001 0.579 0.085000001 24 0 0 0 0.056079999
3.201 0.58399999 0.086999997 24 0 0 0 0.056090001
3.256 0.583 0.086999997 31 0 0 0 0.0561
3.2850001 0.57700002 0.086999997 152 0 0 0 0.056109998
3.279 0.56599998 0.085000001 153 0 0 0 0.056120001
3.2750001 0.55400002 0.083999999 153 0 0 0 0.056129999
3.2690001 0.542 0.082999997 153 0 0 0 0.056139998
3.2969999 0.53600001 0.082999997 152 0 0 0 0.056150001
3.323 0.52999997 0.082000002 152 0 0 0 0.056159999
3.322 0.51800001 0.081 152 0 0 0 0.056170002
3.358 0.51300001 0.081 152 0 0 0 0.05618
3.388 0.50700003 0.079999998 152 0 0 0 0.056189999
3.385 0.495 0.079000004 152 0 0 0 0.056200001
3.3870001 0.484 0.077 152 0 0 0 0.05621
3.388 0.47299999 0.075999998 152 0 0 0 0.056219999
3.3889999 0.463 0.075000003 152 0 0 0 0.056230001
3.3889999 0.45199999 0.072999999 152 0 0 0 0.05624
3.3889999 0.44100001 0.071999997 152 0 0 0 0.056249999
3.391 0.43000001 0.071000002 152 0 0 0 0.056260001
3.381 0.41800001 0.068999998 153 0 0 0 0.05627
3.3789999 0.40700001 0.068000004 154 0 0 0 0.056279998
3.368 0.39399999 0.066 154 0 0 0 0.056290001
3.3670001 0.38299999 0.064000003 154 0 0 0 0.056299999
3.365 0.37200001 0.063000001 154 0 0 0 0.056310002
3.3610001 0.361 0.061000001 156 0 0 0 0.05632
3.3529999 0.34900001 0.059999999 157 0 0 0 0.056329999
3.3629999 0.33899999 0.057999998 156 0 0 0 0.056340002
3.368 0.329 0.057 155 0 0 0 0.05635
3.365 0.31799999 0.055 155 0 0 0 0.056359999
3.3540001 0.30599999 0.052999999 157 0 0 0 0.056370001
3.3510001 0.29499999 0.052000001 158 0 0 0 0.05638
3.3540001 0.28400001 0.050000001 159 0 0 0 0.056389999
3.3559999 0.27399999 0.048999999 159 0 0 0 0.056400001
3.3510001 0.26300001 0.046999998 159 0 0 0 0.05641
3.3570001 0.252 0.045000002 159 0 0 0 0.056419998
3.352 0.241 0.043000001 160 0 0 0 0.056430001
3.3570001 0.23100001 0.041999999 159 0 0 0 0.056439999
3.3610001 0.22 0.039999999 160 0 0 0 0.056449998
3.3599999 0.20900001 0.037999999 159 0 0 0 0.056460001
3.359 0.199 0.035999998 159 0 0 0 0.056469999
3.3610001 0.18799999 0.035 159 0 0 0 0.056480002
3.3640001 0.177 0.033 159 0 0 0 0.05649
3.3599999 0.16599999 0.030999999 159 0 0 0 0.056499999
3.368 0.156 0.028999999 158 0 0 0 0.056510001
3.378 0.146 0.027000001 157 0 0 0 0.05652
3.382 0.13500001 0.026000001 156 0 0 0 0.056529999
3.381 0.124 0.024 155 0 0 0 0.056540001
3.3840001 0.114 0.022 155 0 0 0 0.05655
3.3870001 0.103 0.02 154 0 0 0 0.056559999
3.398 0.093000002 0.017999999 154 0 0 0 0.056570001
3.398 0.082000002 0.016000001 154 0 0 0 0.05658
3.402 0.071000002 0.014 154 0 0 0 0.056589998
3.415 0.059999999 0.012 153 0 0 0 0.056600001
3.418 0.050000001 0.0099999998 153 0 0 0 0.056609999
3.4230001 0.039000001 0.0080000004 153 0 0 0 0.056620002
3.4219999 0.028000001 0.0060000001 152 0 0 0 0.05663
3.4170001 0.017000001 0.003 151 0 0 0 0.056639999
3.4170001 0.0060000001 0.001 151 0 0 0 0.056650002
3.418 -0.0040000002 0 151 0 0 0 0.05666
3.418 -0.015 -0.0020000001 151 0 0 0 0.056669999
3.418 -0.026000001 -0.0040000002 151 0 0 0 0.056680001
3.4230001 -0.035999998 -0.0070000002 151 0 0 0 0.05669
3.424 -0.046999998 -0.0089999996 151 0 0 0 0.056699999
3.427 -0.057999998 -0.011 151 0 0 0 0.056710001
3.428 -0.068999998 -0.013 151 0 0 0 0.05672
3.424 -0.079999998 -0.016000001 151 0 0 0 0.056729998
3.4260001 -0.090999998 -0.017999999 151 0 0 0 0.056740001
3.4260001 -0.101 -0.02 151 0 0 0 0.05675
3.434 -0.113 -0.023 151 0 0 0 0.056759998
3.431 -0.123 -0.025 151 0 0 0 0.056770001
3.434 -0.134 -0.027000001 151 0 0 0 0.056779999
3.4330001 -0.145 -0.029999999 151 0 0 0 0.056790002
3.438 -0.156 -0.032000002 151 0 0 0 0.0568
3.4289999 -0.167 -0.035 153 0 0 0 0.056809999
3.404 -0.176 -0.037 154 0 0 0 0.056820001
3.372 -0.185 -0.039000001 152 0 0 0 0.05683
3.3699999 -0.19599999 -0.041999999 152 0 0 0 0.056839999
3.3740001 -0.207 -0.044 153 0 0 0 0.056850001
3.345 -0.21600001 -0.046 151 0 0 0 0.05686
3.345 -0.226 -0.048999999 152 0 0 0 0.056869999
3.345 -0.237 -0.050999999 152 0 0 0 0.056880001
3.336 -0.24699999 -0.054000001 153 0 0 0 0.05689
3.335 -0.257 -0.056000002 150 0 0 0 0.056899998
3.24 -0.25999999 -0.057 150 0 0 0 0.056910001
3.234 -0.27000001 -0.059 152 0 0 0 0.056919999
3.2349999 -0.28 -0.061999999 152 0 0 0 0.056930002
3.234 -0.28999999 -0.064999998 152 0 0 0 0.056940001
3.237 -0.301 -0.067000002 152 0 0 0 0.056949999
3.2409999 -0.31099999 -0.07 152 0 0 0 0.056960002
3.22 -0.31900001 -0.071999997 151 0 0 0 0.05697
3.207 -0.32800001 -0.074000001 151 0 0 0 0.056979999
3.2030001 -0.338 -0.077 150 0 0 0 0.056990001
3.21 -0.34900001 -0.079999998 151 0 0 0 0.057
3.21 -0.359 -0.082000002 151 0 0 0 0.057009999
3.21 -0.36899999 -0.085000001 151 0 0 0 0.057020001
2.9849999 -0.352 -0.082000002 150 0 0 0 0.05703
2.631 -0.31900001 -0.074000001 30 0 0 0 0.057039998
2.5599999 -0.31799999 -0.074000001 29 0 0 0 0.057050001
2.4960001 -0.31799999 -0.075000003 27 0 0 0 0.05706
2.434 -0.31799999 -0.075000003 22 0 0 0 0.057069998
2.3940001 -0.31999999 -0.075999998 21 0 0 0 0.057080001
2.369 -0.32499999 -0.077 23 0 0 0 0.057089999
2.3640001 -0.331 -0.079000004 20 0 0 0 0.057100002
2.3659999 -0.33899999 -0.081 20 0 0 0 0.05711
2.3610001 -0.34599999 -0.082999997 18 0 0 0 0.057119999
2.368 -0.354 -0.086000003 16 0 0 0 0.057130001
2.362 -0.361 -0.088 19 0 0 0 0.05714
2.3659999 -0.36899999 -0.090000004 18 0 0 0 0.057149999
2.3640001 -0.37599999 -0.092 21 0 0 0 0.057160001
2.3699999 -0.384 -0.093999997 25 0 0 0 0.05717
2.3659999 -0.391 -0.097000003 24 0 0 0 0.057179999
2.3659999 -0.39899999 -0.098999999 21 0 0 0 0.057190001
2.368 -0.40599999 -0.101 22 0 0 0 0.0572
2.365 -0.41299999 -0.103 24 0 0 0 0.057209998
2.3659999 -0.421 -0.106 24 0 0 0 0.057220001
2.368 -0.42899999 -0.108 21 0 0 0 0.057229999
2.369 -0.43700001 -0.11 21 0 0 0 0.057240002
2.3729999 -0.44499999 -0.113 20 0 0 0 0.057250001
2.3710001 -0.45199999 -0.115 17 0 0 0 0.057259999
2.3729999 -0.46000001 -0.118 15 0 0 0 0.057270002
2.3710001 -0.46700001 -0.12 14 0 0 0 0.05728
2.372 -0.47499999 -0.123 19 0 0 0 0.057289999
2.3729999 -0.48199999 -0.125 18 0 0 0 0.057300001
2.372 -0.49000001 -0.12800001 22 0 0 0 0.05731
2.372 -0.49700001 -0.13 22 0 0 0 0.057319999
2.3699999 -0.50400001 -0.132 24 0 0 0 0.057330001
2.3740001 -0.51200002 -0.13500001 23 0 0 0 0.05734
2.3710001 -0.51899999 -0.138 19 0 0 0 0.057349999
2.378 -0.528 -0.141 18 0 0 0 0.057360001
2.3770001 -0.53500003 -0.14300001 20 0 0 0 0.05737
2.3740001 -0.542 -0.145 22 0 0 0 0.057379998
2.3710001 -0.54900002 -0.148 23 0 0 0 0.057390001
2.3770001 -0.55800003 -0.15099999 23 0 0 0 0.057399999
2.3729999 -0.565 -0.153 19 0 0 0 0.057410002
2.3759999 -0.57300001 -0.156 18 0 0 0 0.05742
2.3759999 -0.57999998 -0.15899999 21 0 0 0 0.057429999
2.381 -0.58899999 -0.162 19 0 0 0 0.057440002
2.3770001 -0.59600002 -0.164 18 0 0 0 0.05745
2.3789999 -0.60399997 -0.167 19 0 0 0 0.057459999
2.3770001 -0.611 -0.17 22 0 0 0 0.057470001
2.3770001 -0.61799997 -0.17299999 24 0 0 0 0.05748
2.3800001 -0.62599999 -0.176 25 0 0 0 0.057489999
2.381 -0.634 -0.17900001 22 0 0 0 0.057500001
2.382 -0.64200002 -0.182 18 0 0 0 0.05751
2.391 -0.65200001 -0.185 16 0 0 0 0.057519998
2.395 -0.66000003 -0.18799999 14 0 0 0 0.057530001
2.392 -0.667 -0.191 15 0 0 0 0.057539999
2.3940001 -0.67500001 -0.19400001 18 0 0 0 0.057549998
2.3840001 -0.68000001 -0.19599999 20 0 0 0 0.057560001
2.3859999 -0.68800002 -0.199 24 0 0 0 0.057569999
2.381 -0.69400001 -0.20200001 23 0 0 0 0.057580002
2.3829999 -0.70200002 -0.205 19 0 0 0 0.05759
2.382 -0.70899999 -0.208 19 0 0 0 0.057599999
2.381 -0.71600002 -0.211 23 0 0 0 0.057610001
2.3859999 -0.72500002 -0.215 22 0 0 0 0.05762
2.3870001 -0.73299998 -0.21799999 20 0 0 0 0.057629999
2.3840001 -0.73900002 -0.221 16 0 0 0 0.057640001
2.3870001 -0.74800003 -0.22400001 19 0 0 0 0.05765
2.3829999 -0.75400001 -0.227 20 0 0 0 0.057659999
2.3859999 -0.76200002 -0.23100001 18 0 0 0 0.057670001
2.391 -0.77100003 -0.234 19 0 0 0 0.05768
2.3859999 -0.77700001 -0.237 19 0 0 0 0.057689998
2.3889999 -0.78600001 -0.241 21 0 0 0 0.057700001
2.385 -0.792 -0.244 21 0 0 0 0.057709999
2.3889999 -0.80000001 -0.24699999 23 0 0 0 0.057720002
2.3900001 -0.80800003 -0.25099999 21 0 0 0 0.05773
2.388 -0.815 -0.25400001 21 0 0 0 0.057739999
2.3889999 -0.82300001 -0.25799999 23 0 0 0 0.057750002
2.392 -0.83099997 -0.26100001 24 0 0 0 0.05776
2.391 -0.838 -0.26499999 23 0 0 0 0.057769999
2.3870001 -0.84399998 -0.26800001 24 0 0 0 0.057780001
2.391 -0.85299999 -0.27200001 23 0 0 0 0.05779
2.3929999 -0.861 -0.27599999 22 0 0 0 0.057799999
2.395 -0.86900002 -0.27900001 23 0 0 0 0.057810001
2.3940001 -0.87599999 -0.28299999 23 0 0 0 0.05782
2.3940001 -0.88300002 -0.28600001 25 0 0 0 0.057829998
2.3959999 -0.89200002 -0.28999999 23 0 0 0 0.057840001
2.395 -0.89899999 -0.294 23 0 0 0 0.05785
2.3989999 -0.90700001 -0.29800001 26 0 0 0 0.057859998
2.4000001 -0.91500002 -0.30199999 27 0 0 0 0.057870001
2.401 -0.92299998 -0.30599999 23 0 0 0 0.057879999
2.4000001 -0.93000001 -0.30899999 21 0 0 0 0.057890002
2.3989999 -0.93599999 -0.31299999 20 0 0 0 0.0579
2.4000001 -0.94400001 -0.317 20 0 0 0 0.057909999
2.3989999 -0.95099998 -0.32100001 21 0 0 0 0.057920001
2.401 -0.95899999 -0.32499999 20 0 0 0 0.05793
2.402 -0.96700001 -0.329 25 0 0 0 0.057939999
2.3989999 -0.97299999 -0.33199999 26 0 0 0 0.057950001
2.4030001 -0.98100001 -0.33700001 25 0 0 0 0.05796
2.401 -0.98799998 -0.34 27 0 0 0 0.057969999
2.4030001 -0.995 -0.345 25 0 0 0 0.057980001
2.4030001 -1.003 -0.34900001 23 0 0 0 0.05799
2.404 -1.01 -0.35299999 24 0 0 0 0.057999998
2.4059999 -1.018 -0.35699999 21 0 0 0 0.058010001
2.4070001 -1.026 -0.361 21 0 0 0 0.058019999
2.404 -1.031 -0.36500001 24 0 0 0 0.058030002
2.405 -1.039 -0.37 23 0 0 0 0.05804
2.4059999 -1.046 -0.37400001 24 0 0 0 0.058049999
2.4089999 -1.0549999 -0.37799999 28 0 0 0 0.058060002
2.408 -1.061 -0.38299999 27 0 0 0 0.05807
2.4089999 -1.069 -0.38699999 23 0 0 0 0.058079999
2.4119999 -1.077 -0.39199999 21 0 0 0 0.058090001
2.4119999 -1.084 -0.396 21 0 0 0 0.0581
2.4130001 -1.091 -0.40099999 19 0 0 0 0.058109999
2.4119999 -1.097 -0.405 19 0 0 0 0.058120001
2.411 -1.104 -0.40900001 21 0 0 0 0.05813
2.3970001 -1.104 -0.41100001 48 0 0 0 0.058139998
2.26 -1.0470001 -0.39199999 150 0 0 0 0.058150001
2.296 -1.071 -0.40200001 150 0 0 0 0.05816
1.135 -0.53200001 -0.20100001 4 0 0 0 0.058169998
1.128 -0.53200001 -0.20100001 5 0 0 0 0.058180001
1.131 -0.537 -0.204 5 0 0 0 0.058189999
1.1289999 -0.53899997 -0.206 2 0 0 0 0.058200002
1.132 -0.54299998 -0.208 1 0 0 0 0.05821
1.131 -0.546 -0.211 1 0 0 0 0.058219999
1.136 -0.551 -0.213 1 0 0 0 0.058230001
1.133 -0.55299997 -0.215 1 0 0 0 0.05824
1.135 -0.55699998 -0.21799999 1 0 0 0 0.058249999
1.143 -0.56400001 -0.221 1 0 0 0 0.058260001
1.145 -0.56800002 -0.22400001 1 0 0 0 0.05827
1.141 -0.56900001 -0.22499999 1 0 0 0 0.058279999
1.142 -0.57200003 -0.228 1 0 0 0 0.058290001
1.142 -0.57499999 -0.23 1 0 0 0 0.0583
1.142 -0.57800001 -0.233 1 0 0 0 0.058309998
1.143 -0.58200002 -0.235 2 0 0 0 0.058320001
1.141 -0.583 -0.237 2 0 0 0 0.058329999
1.14 -0.58499998 -0.23899999 1 0 0 0 0.058340002
1.142 -0.58999997 -0.242 2 0 0 0 0.058350001
1.137 -0.58999997 -0.243 1 0 0 0 0.058359999
1.14 -0.59399998 -0.24600001 1 0 0 0 0.058370002
1.145 -0.59899998 -0.249 2 0 0 0 0.05838
1.143 -0.60100001 -0.25099999 1 0 0 0 0.058389999
1.141 -0.60299999 -0.25299999 1 0 0 0 0.058400001
1.147 -0.60799998 -0.257 2 0 0 0 0.05841
1.142 -0.60799998 -0.25799999 2 0 0 0 0.058419999
1.146 -0.61299998 -0.26100001 2 0 0 0 0.058430001
1.143 -0.61400002 -0.26300001 2 0 0 0 0.05844
1.1440001 -0.61799997 -0.26499999 2 0 0 0 0.058449998
1.145 -0.62 -0.26800001 2 0 0 0 0.058460001
1.142 -0.62199998 -0.27000001 2 0 0 0 0.05847
1.1440001 -0.625 -0.27200001 2 0 0 0 0.058479998
1.142 -0.62599999 -0.27399999 2 0 0 0 0.058490001
1.143 -0.62900001 -0.27700001 2 0 0 0 0.058499999
1.142 -0.63099998 -0.27900001 2 0 0 0 0.058510002
1.142 -0.634 -0.28099999 2 0 0 0 0.05852
1.142 -0.63599998 -0.28400001 2 0 0 0 0.058529999
1.1440001 -0.639 -0.287 2 0 0 0 0.058540002
1.147 -0.64300001 -0.28999999 2 0 0 0 0.05855
1.147 -0.64499998 -0.292 2 0 0 0 0.058559999
1.1390001 -0.64300001 -0.292 2 0 0 0 0.058570001
1.1440001 -0.648 -0.296 2 0 0 0 0.05858
1.143 -0.64899999 -0.29800001 2 0 0 0 0.058589999
1.1440001 -0.65200001 -0.301 3 0 0 0 0.058600001
1.1440001 -0.65399998 -0.303 3 0 0 0 0.05861
1.142 -0.65499997 -0.30500001 2 0 0 0 0.058619998
1.141 -0.65600002 -0.30700001 3 0 0 0 0.058630001
1.143 -0.65899998 -0.31 2 0 0 0 0.058639999
1.138 -0.65799999 -0.31099999 2 0 0 0 0.058649998
1.146 -0.66500002 -0.31600001 3 0 0 0 0.058660001
1.1390001 -0.662 -0.31600001 2 0 0 0 0.058669999
1.146 -0.66799998 -0.31999999 3 0 0 0 0.058680002
1.145 -0.66900003 -0.32300001 3 0 0 0 0.05869
1.1440001 -0.67000002 -0.324 3 0 0 0 0.058699999
1.145 -0.67199999 -0.32699999 3 0 0 0 0.058710001
1.142 -0.67199999 -0.329 3 0 0 0 0.05872
1.1440001 -0.67500001 -0.33199999 3 0 0 0 0.058729999
1.142 -0.67500001 -0.333 3 0 0 0 0.058740001
1.145 -0.67799997 -0.336 3 0 0 0 0.05875
1.14 -0.67699999 -0.33700001 3 0 0 0 0.058759999
1.145 -0.68099999 -0.34099999 3 0 0 0 0.058770001
1.141 -0.68000001 -0.34200001 3 0 0 0 0.05878
1.141 -0.68099999 -0.34400001 3 0 0 0 0.058789998
1.14 -0.68199998 -0.34599999 3 0 0 0 0.058800001
1.136 -0.68099999 -0.347 3 0 0 0 0.058809999
1.1390001 -0.68300003 -0.34999999 3 0 0 0 0.058820002
1.142 -0.68599999 -0.35299999 4 0 0 0 0.05883
1.142 -0.68699998 -0.35600001 4 0 0 0 0.058839999
1.136 -0.68400002 -0.35600001 4 0 0 0 0.058850002
1.137 -0.68599999 -0.35800001 3 0 0 0 0.05886
1.135 -0.68599999 -0.36000001 4 0 0 0 0.058869999
1.1339999 -0.685 -0.36199999 4 0 0 0 0.058880001
1.135 -0.68699998 -0.36399999 3 0 0 0 0.05889
1.133 -0.68599999 -0.366 3 0 0 0 0.058899999
1.13 -0.685 -0.36700001 3 0 0 0 0.058910001
1.127 -0.68400002 -0.368 2 0 0 0 0.05892
1.126 -0.68400002 -0.36899999 2 0 0 0 0.058929998
1.13 -0.68599999 -0.373 2 0 0 0 0.058940001
1.126 -0.68400002 -0.373 2 0 0 0 0.05895
1.123 -0.68300003 -0.375 1 0 0 0 0.058959998
1.118 -0.68000001 -0.375 1 0 0 0 0.058970001
1.12 -0.68199998 -0.377 1 0 0 0 0.058979999
1.089 -0.66299999 -0.36899999 1 0 0 0 0.058990002
1.0880001 -0.662 -0.37 1 0 0 0 0.059
1.089 -0.66299999 -0.37200001 1 0 0 0 0.059009999
1.075 -0.65399998 -0.36899999 1 0 0 0 0.059020001
1.075 -0.65499997 -0.37099999 1 0 0 0 0.05903
1.08 -0.65799999 -0.37400001 1 0 0 0 0.059039999
1.064 -0.64700001 -0.37 1 0 0 0 0.059050001
1.0599999 -0.64499998 -0.37099999 1 0 0 0 0.05906
1.049 -0.63800001 -0.368 1 0 0 0 0.059069999
1.043 -0.634 -0.36700001 1 0 0 0 0.059080001
1.043 -0.634 -0.36899999 1 0 0 0 0.05909
1.034 -0.62800002 -0.36700001 1 0 0 0 0.059099998
1.026 -0.62300003 -0.366 1 0 0 0 0.059110001
1.024 -0.62099999 -0.36700001 1 0 0 0 0.059119999
1.0089999 -0.611 -0.36300001 0 0 0 0 0.059130002
1.006 -0.60900003 -0.36300001 0 0 0 0 0.05914
1 -0.60399997 -0.36199999 0 0 0 0 0.059149999
1 -0.60399997 -0.36300001 0 0 0 0 0.059160002
0.99599999 -0.60000002 -0.36300001 0 0 0 0 0.05917
0.98900002 -0.59500003 -0.361 0 0 0 0 0.059179999
0.98299998 -0.59100002 -0.36000001 0 0 0 0 0.059190001
0.98299998 -0.58999997 -0.36199999 0 0 0 0 0.0592
0.96100003 -0.57599998 -0.35499999 0 0 0 0 0.059209999
0.96100003 -0.57499999 -0.35600001 0 0 0 0 0.059220001
0.96100003 -0.574 -0.35699999 0 0 0 0 0.05923
0.96100003 -0.57300001 -0.35800001 0 0 0 0 0.059239998
0.958 -0.57099998 -0.35800001 0 0 0 0 0.059250001
0.958 -0.56900001 -0.35800001 0 0 0 0 0.05926
0.958 -0.56800002 -0.359 0 0 0 0 0.059269998
0.958 -0.56699997 -0.36000001 0 0 0 0 0.059280001
0.96600002 -0.56999999 -0.36399999 0 0 0 0 0.059289999
0.96600002 -0.56900001 -0.36500001 0 0 0 0 0.059300002
0.958 -0.56300002 -0.36199999 0 0 0 0 0.05931
0.96700001 -0.56699997 -0.366 0 0 0 0 0.059319999
0.97399998 -0.56999999 -0.37 1 0 0 0 0.059330001
0.97399998 -0.56800002 -0.37099999 1 0 0 0 0.05934
0.96600002 -0.56199998 -0.368 0 0 0 0 0.059349999
0.96600002 -0.56099999 -0.36899999 0 0 0 0 0.059360001
0.97799999 -0.56599998 -0.37400001 0 0 0 0 0.05937
0.98299998 -0.56699997 -0.37599999 0 0 0 0 0.059379999
0.995 -0.57200003 -0.38100001 0 0 0 0 0.059390001
0.98699999 -0.56599998 -0.37900001 0 0 0 0 0.0594
0.98299998 -0.56199998 -0.37799999 0 0 0 0 0.059409998
0.98500001 -0.56099999 -0.37900001 0 0 0 0 0.059420001
0.98799998 -0.56099999 -0.38 0 0 0 0 0.059429999
0.99699998 -0.56400001 -0.384 0 0 0 0 0.059440002
1 -0.56400001 -0.38600001 0 0 0 0 0.059450001
0.99900001 -0.56199998 -0.38600001 1 0 0 0 0.059459999
1.0089999 -0.565 -0.38999999 1 0 0 0 0.059470002
1.016 -0.56699997 -0.39300001 1 0 0 0 0.05948
1.0089999 -0.56099999 -0.38999999 1 0 0 0 0.059489999
1.016 -0.56300002 -0.39300001 1 0 0 0 0.059500001
1.0190001 -0.56300002 -0.39399999 1 0 0 0 0.05951
1.02 -0.56099999 -0.39500001 1 0 0 0 0.059519999
1.029 -0.56400001 -0.398 1 0 0 0 0.059530001
1.033 -0.56300002 -0.40000001 1 0 0 0 0.05954
1.04 -0.565 -0.403 1 0 0 0 0.059549998
1.04 -0.56300002 -0.403 1 0 0 0 0.059560001
1.069 -0.57599998 -0.414 1 0 0 0 0.05957
1.0700001 -0.574 -0.414 1 0 0 0 0.059579998
1.073 -0.57300001 -0.41499999 1 0 0 0 0.059590001
1.074 -0.57099998 -0.41499999 1 0 0 0 0.059599999
1.076 -0.56900001 -0.41600001 3 0 0 0 0.059610002
1.079 -0.56800002 -0.41600001 11 0 0 0 0.05962
1.087 -0.56999999 -0.419 23 0 0 0 0.059629999
1.086 -0.56599998 -0.419 77 0 0 0 0.059640002
1.085 -0.56300002 -0.41800001 89 0 0 0 0.05965
1.095 -0.56599998 -0.421 103 0 0 0 0.059659999
1.09 -0.56 -0.419 103 0 0 0 0.059670001
1.096 -0.56099999 -0.421 106 0 0 0 0.05968
1.102 -0.56099999 -0.42199999 114 0 0 0 0.059689999
1.112 -0.56300002 -0.426 111 0 0 0 0.059700001
1.108 -0.55800003 -0.42399999 52 0 0 0 0.05971
1.105 -0.55400002 -0.42199999 10 0 0 0 0.059719998
1.105 -0.551 -0.421 7 0 0 0 0.059730001
1.108 -0.55000001 -0.42199999 7 0 0 0 0.059739999
1.109 -0.54699999 -0.421 6 0 0 0 0.059749998
1.103 -0.54100001 -0.41800001 5 0 0 0 0.059760001
1.105 -0.53899997 -0.419 5 0 0 0 0.059769999
1.11 -0.53799999 -0.419 6 0 0 0 0.059780002
1.109 -0.53500003 -0.41800001 6 0 0 0 0.05979
1.109 -0.53100002 -0.417 6 0 0 0 0.059799999
1.11 -0.52899998 -0.417 37 0 0 0 0.059810001
1.117 -0.52899998 -0.419 119 0 0 0 0.05982
2.187 -1.03 -0.81800002 150 0 0 0 0.059829999
2.1340001 -0.99900001 -0.796 104 0 0 0 0.059840001
2.184 -1.017 -0.81300002 28 0 0 0 0.05985
2.194 -1.015 -0.81400001 29 0 0 0 0.059859999
2.201 -1.012 -0.815 30 0 0 0 0.059870001
2.2060001 -1.008 -0.81400001 31 0 0 0 0.05988
2.2160001 -1.006 -0.81599998 31 0 0 0 0.059889998
2.2190001 -1.001 -0.815 32 0 0 0 0.059900001
2.2219999 -0.99599999 -0.81300002 32 0 0 0 0.059909999
2.2320001 -0.99400002 -0.81400001 30 0 0 0 0.059920002
2.2390001 -0.991 -0.81400001 29 0 0 0 0.05993
2.247 -0.98799998 -0.815 29 0 0 0 0.059939999
2.256 -0.98500001 -0.815 29 0 0 0 0.059950002
2.2639999 -0.98199999 -0.81599998 30 0 0 0 0.05996
2.2679999 -0.977 -0.81400001 29 0 0 0 0.059969999
2.277 -0.97500002 -0.815 29 0 0 0 0.059980001
2.2839999 -0.97100002 -0.815 29 0 0 0 0.05999
2.2920001 -0.96799999 -0.815 29 0 0 0 0.059999999
2.299 -0.96399999 -0.81400001 29 0 0 0 0.060010001
2.3099999 -0.96200001 -0.815 29 0 0 0 0.06002
2.322 -0.95999998 -0.81599998 30 0 0 0 0.060029998
2.3310001 -0.95700002 -0.81599998 29 0 0 0 0.060040001
2.3380001 -0.95300001 -0.815 29 0 0 0 0.06005
2.3499999 -0.95099998 -0.81599998 26 0 0 0 0.060059998
2.3570001 -0.94700003 -0.815 27 0 0 0 0.060070001
2.3659999 -0.94300002 -0.815 27 0 0 0 0.060079999
2.3740001 -0.94 -0.81400001 28 0 0 0 0.060090002
2.3859999 -0.93699998 -0.815 28 0 0 0 0.0601
2.3889999 -0.93099999 -0.81199998 25 0 0 0 0.060109999
2.392 -0.92500001 -0.80900002 23 0 0 0 0.060120001
2.3929999 -0.91900003 -0.80599999 21 0 0 0 0.06013
2.3900001 -0.91100001 -0.801 21 0 0 0 0.060139999
2.388 -0.903 -0.79699999 22 0 0 0 0.060150001
2.392 -0.89700001 -0.79500002 23 0 0 0 0.06016
2.3900001 -0.88999999 -0.79000002 24 0 0 0 0.060169999
2.3889999 -0.88300002 -0.78600001 25 0 0 0 0.060180001
2.388 -0.875 -0.78200001 25 0 0 0 0.06019
2.3870001 -0.86799997 -0.778 25 0 0 0 0.060199998
2.3900001 -0.86199999 -0.77499998 25 0 0 0 0.060210001
2.3840001 -0.85299999 -0.76899999 25 0 0 0 0.060219999
2.388 -0.847 -0.76599997 24 0 0 0 0.060230002
2.385 -0.83899999 -0.76099998 22 0 0 0 0.06024
2.3840001 -0.83200002 -0.75700003 23 0 0 0 0.060249999
2.3800001 -0.824 -0.75099999 25 0 0 0 0.060260002
2.381 -0.81699997 -0.74699998 26 0 0 0 0.06027
2.382 -0.81 -0.74299997 26 0 0 0 0.060279999
2.385 -0.80400002 -0.74000001 24 0 0 0 0.060290001
2.381 -0.796 -0.73500001 23 0 0 0 0.0603
2.3840001 -0.79100001 -0.73100001 22 0 0 0 0.060309999
2.385 -0.78399998 -0.727 21 0 0 0 0.060320001
2.3840001 -0.77700001 -0.72299999 19 0 0 0 0.06033
2.382 -0.76899999 -0.71799999 20 0 0 0 0.060339998
2.3800001 -0.76200002 -0.71200001 23 0 0 0 0.060350001
2.382 -0.75599998 -0.70899999 23 0 0 0 0.06036
2.381 -0.74800003 -0.704 22 0 0 0 0.060369998
2.382 -0.74199998 -0.69999999 20 0 0 0 0.060380001
2.382 -0.73500001 -0.69499999 19 0 0 0 0.060389999
2.3800001 -0.72799999 -0.69 23 0 0 0 0.060400002
2.378 -0.72000003 -0.685 26 0 0 0 0.06041
2.3789999 -0.71399999 -0.68099999 25 0 0 0 0.060419999
2.3770001 -0.70700002 -0.676 24 0 0 0 0.060430001
2.382 -0.70200002 -0.67199999 24 0 0 0 0.06044
2.381 -0.69499999 -0.66799998 27 0 0 0 0.060449999
2.3740001 -0.68599999 -0.66100001 31 0 0 0 0.060460001
2.3770001 -0.68000001 -0.65700001 28 0 0 0 0.06047
2.3789999 -0.67400002 -0.653 24 0 0 0 0.060479999
2.3759999 -0.667 -0.64700001 26 0 0 0 0.060490001
2.381 -0.662 -0.64399999 24 0 0 0 0.0605
2.372 -0.653 -0.63700002 23 0 0 0 0.060509998
2.3759999 -0.64700001 -0.63300002 24 0 0 0 0.060520001
2.3770001 -0.64099997 -0.62900001 26 0 0 0 0.060529999
2.3740001 -0.634 -0.62300003 25 0 0 0 0.060540002
2.3740001 -0.62699997 -0.61799997 22 0 0 0 0.060550001
2.3729999 -0.62 -0.61299998 20 0 0 0 0.060559999
2.3759999 -0.61500001 -0.60900003 16 0 0 0 0.060570002
2.372 -0.60699999 -0.60299999 17 0 0 0 0.06058
2.3740001 -0.60100001 -0.59899998 21 0 0 0 0.060589999
2.375 -0.59500003 -0.59399998 22 0 0 0 0.060600001
2.372 -0.588 -0.588 19 0 0 0 0.06061
2.3710001 -0.58099997 -0.583 18 0 0 0 0.060619999
2.3699999 -0.57499999 -0.57800001 16 0 0 0 0.060630001
2.3710001 -0.56900001 -0.57300001 18 0 0 0 0.06064
2.3740001 -0.56300002 -0.56900001 22 0 0 0 0.060649998
2.369 -0.55599999 -0.56199998 24 0 0 0 0.060660001
2.368 -0.54900002 -0.55699998 22 0 0 0 0.06067
2.362 -0.542 -0.551 20 0 0 0 0.060679998
2.3670001 -0.53600001 -0.54699999 17 0 0 0 0.060690001
2.3670001 -0.52999997 -0.542 15 0 0 0 0.060699999
2.3629999 -0.523 -0.53500003 19 0 0 0 0.060710002
2.3699999 -0.51800001 -0.53200001 22 0 0 0 0.06072
2.368 -0.51200002 -0.52600002 21 0 0 0 0.060729999
2.372 -0.50700003 -0.52200001 17 0 0 0 0.060740001
2.3770001 -0.50099999 -0.51800001 14 0 0 0 0.06075
2.382 -0.49599999 -0.514 15 0 0 0 0.060759999
2.3740001 -0.48899999 -0.50700003 16 0 0 0 0.060770001
2.3699999 -0.48199999 -0.50099999 17 0 0 0 0.06078
2.3629999 -0.47400001 -0.49399999 16 0 0 0 0.060789999
2.365 -0.46900001 -0.49000001 16 0 0 0 0.060800001
2.3640001 -0.46200001 -0.484 16 0 0 0 0.06081
2.365 -0.45699999 -0.479 18 0 0 0 0.060819998
2.365 -0.45100001 -0.47400001 18 0 0 0 0.060830001
2.3629999 -0.44400001 -0.46799999 17 0 0 0 0.060839999
2.369 -0.43900001 -0.46399999 20 0 0 0 0.060849998
2.365 -0.433 -0.458 23 0 0 0 0.060860001
2.365 -0.42699999 -0.45300001 24 0 0 0 0.060869999
2.3670001 -0.421 -0.44800001 24 0 0 0 0.060880002
2.365 -0.41499999 -0.442 24 0 0 0 0.06089
2.3629999 -0.40900001 -0.43599999 25 0 0 0 0.060899999
2.365 -0.403 -0.43099999 25 0 0 0 0.060910001
2.359 -0.396 -0.42500001 23 0 0 0 0.06092
2.3610001 -0.391 -0.41999999 23 0 0 0 0.060929999
2.365 -0.38600001 -0.41499999 22 0 0 0 0.060940001
2.3599999 -0.37900001 -0.40900001 20 0 0 0 0.06095
2.362 -0.37400001 -0.40400001 19 0 0 0 0.060959999
2.3640001 -0.368 -0.39899999 18 0 0 0 0.060970001
2.3640001 -0.36300001 -0.39300001 16 0 0 0 0.06098
2.3629999 -0.35699999 -0.38800001 15 0 0 0 0.060989998
2.3659999 -0.352 -0.38299999 16 0 0 0 0.061000001
2.3629999 -0.345 -0.377 17 0 0 0 0.061009999
2.359 -0.33899999 -0.37099999 19 0 0 0 0.061020002
2.3610001 -0.33399999 -0.366 18 0 0 0 0.06103
2.3699999 -0.33000001 -0.36199999 18 0 0 0 0.061039999
2.391 -0.32699999 -0.36000001 16 0 0 0 0.061050002
2.428 -0.32600001 -0.36000001 20 0 0 0 0.06106
2.4579999 -0.324 -0.35800001 22 0 0 0 0.061069999
2.4909999 -0.32300001 -0.35699999 22 0 0 0 0.061080001
2.5179999 -0.31999999 -0.35499999 21 0 0 0 0.06109
2.546 -0.31799999 -0.35299999 21 0 0 0 0.061099999
2.7720001 -0.34 -0.37799999 74 0 0 0 0.061110001
2.8829999 -0.347 -0.38699999 150 0 0 0 0.06112
3.152 -0.37200001 -0.41600001 150 0 0 0 0.061129998
3.2090001 -0.37099999 -0.41499999 150 0 0 0 0.061140001
3.2060001 -0.36300001 -0.40799999 150 0 0 0 0.061149999
3.211 -0.35600001 -0.40099999 150 0 0 0 0.061159998
3.207 -0.34799999 -0.39300001 150 0 0 0 0.061170001
