# .PCD v0.7 - Point Cloud Data file format
VERSION 0.7
FIELDS x y z intensity normal_x normal_y normal_z curvature
SIZE 4 4 4 4 4 4 4 4
TYPE F F F F F F F F
COUNT 1 1 1 1 1 1 1 1
WIDTH 1001
HEIGHT 1
VIEWPOINT 0 0 0 1 0 0 0
POINTS 1001
DATA ascii
2.2360001 0.61299998 0.87400001 150 0 0 0 0.062369999
2.2349999 0.60699999 0.86900002 150 0 0 0 0.062380001
2.2279999 0.60000002 0.861 150 0 0 0 0.06239
2.2279999 0.59500003 0.85600001 150 0 0 0 0.062399998
2.23 0.58999997 0.85100001 150 0 0 0 0.062410001
2.2309999 0.58399999 0.84600002 150 0 0 0 0.062419999
2.233 0.57999998 0.84200001 150 0 0 0 0.062430002
2.2320001 0.574 0.83600003 150 0 0 0 0.06244
2.2309999 0.56800002 0.82999998 150 0 0 0 0.062449999
2.2309999 0.56300002 0.82499999 150 0 0 0 0.062460002
2.2290001 0.55699998 0.81900001 150 0 0 0 0.06247
2.233 0.55299997 0.815 151 0 0 0 0.062479999
2.2309999 0.54699999 0.80900002 150 0 0 0 0.062490001
2.24 0.54400003 0.80699998 150 0 0 0 0.0625
2.2579999 0.54299998 0.80800003 150 0 0 0 0.062509999
2.2650001 0.53899997 0.80400002 151 0 0 0 0.062519997
2.2609999 0.53299999 0.79699999 151 0 0 0 0.062530003
2.2639999 0.528 0.79299998 151 0 0 0 0.062540002
2.267 0.52399999 0.78799999 150 0 0 0 0.062550001
2.283 0.52200001 0.78799999 30 0 0 0 0.06256
2.345 0.53100002 0.80400002 16 0 0 0 0.062569998
2.3800001 0.53399998 0.81 13 0 0 0 0.062579997
2.4189999 0.537 0.81699997 15 0 0 0 0.062590003
2.4519999 0.53799999 0.82200003 17 0 0 0 0.062600002
2.4949999 0.542 0.82999998 18 0 0 0 0.06261
2.5380001 0.546 0.838 19 0 0 0 0.062619999
2.586 0.55000001 0.847 21 0 0 0 0.062629998
2.6259999 0.55299997 0.85299999 21 0 0 0 0.062639996
2.678 0.55800003 0.86299998 22 0 0 0 0.062650003
2.7309999 0.56300002 0.87300003 22 0 0 0 0.062660001
2.783 0.56699997 0.88300002 24 0 0 0 0.06267
2.858 0.57599998 0.89899999 26 0 0 0 0.062679999
2.9300001 0.58399999 0.91399997 28 0 0 0 0.062689997
3.0150001 0.59500003 0.93300003 30 0 0 0 0.062700003
3.073 0.59899998 0.94300002 29 0 0 0 0.062710002
3.1159999 0.60100001 0.94800001 29 0 0 0 0.062720001
3.1600001 0.60299999 0.95300001 28 0 0 0 0.062729999
3.2090001 0.60500002 0.95899999 28 0 0 0 0.062739998
3.2479999 0.60500002 0.96200001 29 0 0 0 0.062749997
3.2679999 0.602 0.95899999 30 0 0 0 0.062760003
3.286 0.59799999 0.95599997 86 0 0 0 0.062770002
3.2920001 0.59200001 0.949 150 0 0 0 0.06278
3.296 0.58600003 0.94099998 150 0 0 0 0.062789999
3.2950001 0.579 0.93300003 150 0 0 0 0.062799998
3.2969999 0.57200003 0.92400002 150 0 0 0 0.062809996
3.296 0.565 0.91500002 150 0 0 0 0.062820002
3.2969999 0.55800003 0.90700001 150 0 0 0 0.062830001
3.3080001 0.55299997 0.90100002 150 0 0 0 0.06284
3.3239999 0.54900002 0.89600003 150 0 0 0 0.062849998
3.329 0.54299998 0.889 150 0 0 0 0.062859997
3.3299999 0.537 0.88 150 0 0 0 0.062870003
3.3299999 0.52999997 0.87099999 150 0 0 0 0.062880002
3.365 0.528 0.87099999 150 0 0 0 0.062890001
3.3889999 0.52499998 0.86799997 150 0 0 0 0.062899999
3.392 0.51899999 0.86000001 150 0 0 0 0.062909998
3.391 0.51200002 0.85000002 150 0 0 0 0.062919997
3.392 0.505 0.84100002 150 0 0 0 0.062930003
3.391 0.498 0.83200002 150 0 0 0 0.062940001
3.392 0.49200001 0.82300001 150 0 0 0 0.06295
3.3940001 0.48500001 0.81400001 150 0 0 0 0.062959999
3.3940001 0.47799999 0.80500001 150 0 0 0 0.062969998
3.3989999 0.47299999 0.79699999 150 0 0 0 0.062980004
3.395 0.465 0.78600001 150 0 0 0 0.062990002
3.3959999 0.45899999 0.778 150 0 0 0 0.063000001
3.395 0.45199999 0.76800001 150 0 0 0 0.06301
3.398 0.44600001 0.759 150 0 0 0 0.063019998
3.401 0.44 0.75099999 150 0 0 0 0.063029997
3.398 0.433 0.741 150 0 0 0 0.063040003
3.3959999 0.426 0.73100001 150 0 0 0 0.063050002
3.3959999 0.41999999 0.722 150 0 0 0 0.063060001
3.398 0.41299999 0.713 150 0 0 0 0.063069999
3.4000001 0.40700001 0.704 150 0 0 0 0.063079998
3.4000001 0.40099999 0.69400001 150 0 0 0 0.063089997
3.398 0.39399999 0.68400002 150 0 0 0 0.063100003
3.3989999 0.38800001 0.67500001 150 0 0 0 0.063110001
3.4000001 0.382 0.66600001 150 0 0 0 0.06312
3.401 0.37599999 0.65700001 150 0 0 0 0.063129999
3.4030001 0.37 0.648 150 0 0 0 0.063139997
3.402 0.36300001 0.63800001 150 0 0 0 0.063150004
3.408 0.35800001 0.63 150 0 0 0 0.063160002
3.404 0.35100001 0.62 150 0 0 0 0.063170001
3.4089999 0.34599999 0.611 150 0 0 0 0.06318
3.402 0.33899999 0.60000002 150 0 0 0 0.063189998
3.404 0.333 0.59100002 150 0 0 0 0.063199997
3.405 0.32699999 0.58200002 150 0 0 0 0.063210003
3.4030001 0.31999999 0.57200003 150 0 0 0 0.063220002
3.3989999 0.31400001 0.56199998 150 0 0 0 0.06323
3.401 0.308 0.55299997 150 0 0 0 0.063239999
3.404 0.303 0.54400003 150 0 0 0 0.063249998
3.405 0.29699999 0.53399998 150 0 0 0 0.063259996
3.4059999 0.29100001 0.52499998 150 0 0 0 0.063270003
3.4100001 0.285 0.51599997 150 0 0 0 0.063280001
3.408 0.27900001 0.50599998 150 0 0 0 0.06329
3.4100001 0.273 0.49700001 150 0 0 0 0.063299999
3.408 0.26699999 0.48699999 150 0 0 0 0.063309997
3.4100001 0.26199999 0.47799999 150 0 0 0 0.063320003
3.4100001 0.25600001 0.46799999 150 0 0 0 0.063330002
3.4059999 0.25 0.458 150 0 0 0 0.063340001
3.4119999 0.244 0.449 150 0 0 0 0.063349999
3.4089999 0.23899999 0.43900001 150 0 0 0 0.063359998
3.411 0.233 0.43000001 150 0 0 0 0.063369997
3.405 0.227 0.41999999 150 0 0 0 0.063380003
3.414 0.222 0.41100001 150 0 0 0 0.063390002
3.408 0.21600001 0.40099999 150 0 0 0 0.0634
3.408 0.20999999 0.391 150 0 0 0 0.063409999
3.411 0.204 0.382 150 0 0 0 0.063419998
3.4100001 0.199 0.37200001 150 0 0 0 0.063429996
3.4119999 0.193 0.36300001 150 0 0 0 0.063440003
3.4059999 0.18700001 0.35299999 150 0 0 0 0.063450001
3.4100001 0.182 0.34299999 150 0 0 0 0.06346
3.4119999 0.177 0.33399999 150 0 0 0 0.063469999
3.4130001 0.171 0.324 150 0 0 0 0.063479997
3.4100001 0.16599999 0.31400001 151 0 0 0 0.063490003
3.411 0.16 0.30500001 151 0 0 0 0.063500002
3.411 0.155 0.29499999 151 0 0 0 0.063510001
3.4130001 0.149 0.285 151 0 0 0 0.063519999
3.405 0.14399999 0.27500001 151 0 0 0 0.063529998
3.4100001 0.138 0.266 151 0 0 0 0.063539997
3.4089999 0.133 0.25600001 151 0 0 0 0.063550003
3.4070001 0.12800001 0.24600001 151 0 0 0 0.063560002
3.408 0.122 0.237 151 0 0 0 0.06357
3.4119999 0.117 0.227 151 0 0 0 0.063579999
3.4119999 0.112 0.21699999 151 0 0 0 0.063589998
3.4119999 0.107 0.208 151 0 0 0 0.063600004
3.4130001 0.101 0.198 151 0 0 0 0.063610002
3.4119999 0.096000001 0.18799999 151 0 0 0 0.063620001
3.411 0.090999998 0.178 151 0 0 0 0.06363
3.4159999 0.086000003 0.169 151 0 0 0 0.063639998
3.415 0.081 0.15899999 151 0 0 0 0.063649997
3.4130001 0.075000003 0.149 152 0 0 0 0.063660003
3.4189999 0.07 0.14 151 0 0 0 0.063670002
3.4159999 0.064999998 0.13 151 0 0 0 0.063680001
3.4200001 0.059999999 0.12 152 0 0 0 0.063689999
3.415 0.055 0.11 152 0 0 0 0.063699998
3.418 0.050000001 0.1 151 0 0 0 0.063709997
3.4170001 0.045000002 0.090000004 152 0 0 0 0.063720003
3.4219999 0.039999999 0.081 151 0 0 0 0.063730001
3.418 0.035 0.071000002 151 0 0 0 0.06374
3.4260001 0.029999999 0.061000001 152 0 0 0 0.063749999
3.4200001 0.025 0.050999999 151 0 0 0 0.063759997
3.421 0.02 0.041000001 151 0 0 0 0.063770004
3.421 0.015 0.030999999 151 0 0 0 0.063780002
3.4189999 0.0099999998 0.021 151 0 0 0 0.063790001
3.4159999 0.0049999999 0.011 151 0 0 0 0.0638
3.415 0 0.001 151 0 0 0 0.063809998
3.4170001 -0.0040000002 -0.0070000002 151 0 0 0 0.063819997
3.414 -0.0089999996 -0.017000001 151 0 0 0 0.063830003
3.4159999 -0.014 -0.027000001 151 0 0 0 0.063840002
3.4200001 -0.018999999 -0.037 151 0 0 0 0.063850001
3.418 -0.023 -0.046999998 151 0 0 0 0.063859999
3.418 -0.028000001 -0.057 151 0 0 0 0.063869998
3.418 -0.033 -0.067000002 151 0 0 0 0.063879997
3.415 -0.037999999 -0.077 151 0 0 0 0.063890003
3.4200001 -0.043000001 -0.086999997 151 0 0 0 0.063900001
3.4189999 -0.046999998 -0.097000003 151 0 0 0 0.06391
3.4230001 -0.052000001 -0.108 151 0 0 0 0.063919999
3.4159999 -0.057 -0.117 151 0 0 0 0.063929997
3.4260001 -0.061999999 -0.12800001 151 0 0 0 0.063940004
3.425 -0.066 -0.138 151 0 0 0 0.063950002
3.424 -0.071000002 -0.148 151 0 0 0 0.063960001
3.421 -0.075999998 -0.15800001 151 0 0 0 0.06397
3.4219999 -0.079999998 -0.168 151 0 0 0 0.063979998
3.428 -0.085000001 -0.178 151 0 0 0 0.063989997
3.4219999 -0.089000002 -0.18799999 151 0 0 0 0.064000003
3.425 -0.093999997 -0.198 150 0 0 0 0.064010002
3.4200001 -0.098999999 -0.208 150 0 0 0 0.06402
3.428 -0.103 -0.219 150 0 0 0 0.064029999
3.427 -0.108 -0.229 150 0 0 0 0.064039998
3.4260001 -0.112 -0.23899999 150 0 0 0 0.064049996
3.425 -0.117 -0.249 150 0 0 0 0.064060003
3.427 -0.121 -0.259 150 0 0 0 0.064070001
3.4330001 -0.126 -0.27000001 150 0 0 0 0.06408
3.4300001 -0.13 -0.28 150 0 0 0 0.064089999
3.4260001 -0.13500001 -0.28999999 150 0 0 0 0.064099997
3.4289999 -0.139 -0.30000001 150 0 0 0 0.064110003
3.428 -0.14399999 -0.31099999 150 0 0 0 0.064120002
3.427 -0.148 -0.32100001 150 0 0 0 0.064130001
3.434 -0.153 -0.33199999 150 0 0 0 0.064139999
3.4330001 -0.15700001 -0.34200001 150 0 0 0 0.064149998
3.4319999 -0.161 -0.352 150 0 0 0 0.064159997
3.4300001 -0.16500001 -0.36199999 150 0 0 0 0.064170003
3.4349999 -0.17 -0.373 150 0 0 0 0.064180002
3.427 -0.17399999 -0.38299999 151 0 0 0 0.06419
3.4289999 -0.178 -0.39300001 151 0 0 0 0.064199999
3.4300001 -0.183 -0.40400001 150 0 0 0 0.064209998
3.402 -0.185 -0.41100001 150 0 0 0 0.064219996
3.3729999 -0.18799999 -0.41800001 150 0 0 0 0.064230002
3.3640001 -0.192 -0.42699999 150 0 0 0 0.064240001
3.368 -0.19599999 -0.43700001 150 0 0 0 0.06425
3.3659999 -0.2 -0.447 150 0 0 0 0.064259999
3.365 -0.204 -0.45699999 150 0 0 0 0.064269997
3.3699999 -0.208 -0.46799999 151 0 0 0 0.064280003
3.3640001 -0.212 -0.47799999 151 0 0 0 0.064290002
3.362 -0.21600001 -0.48800001 151 0 0 0 0.064300001
3.352 -0.219 -0.49700001 150 0 0 0 0.064309999
3.3399999 -0.222 -0.505 150 0 0 0 0.064319998
3.335 -0.226 -0.51499999 150 0 0 0 0.064329997
3.336 -0.23 -0.52499998 150 0 0 0 0.064340003
3.3329999 -0.234 -0.53500003 150 0 0 0 0.064350002
3.335 -0.23800001 -0.54500002 150 0 0 0 0.06436
3.336 -0.241 -0.55599999 150 0 0 0 0.064369999
3.3340001 -0.245 -0.56599998 150 0 0 0 0.064379998
3.3340001 -0.249 -0.57599998 150 0 0 0 0.064390004
3.332 -0.25299999 -0.58600003 150 0 0 0 0.064400002
3.3329999 -0.25600001 -0.597 150 0 0 0 0.064410001
3.3340001 -0.25999999 -0.60699999 151 0 0 0 0.06442
3.3329999 -0.264 -0.61799997 150 0 0 0 0.064429998
3.3269999 -0.26699999 -0.62699997 150 0 0 0 0.064439997
3.3199999 -0.27000001 -0.63599998 37 0 0 0 0.064450003
3.2780001 -0.271 -0.63800001 32 0 0 0 0.064460002
3.24 -0.271 -0.64099997 61 0 0 0 0.064470001
3.237 -0.27399999 -0.65100002 150 0 0 0 0.064479999
3.233 -0.27700001 -0.66000003 150 0 0 0 0.064489998
3.2360001 -0.28099999 -0.671 150 0 0 0 0.064499997
3.234 -0.285 -0.68000001 150 0 0 0 0.064510003
3.2309999 -0.28799999 -0.69 150 0 0 0 0.064520001
3.234 -0.29100001 -0.70099998 150 0 0 0 0.06453
3.2320001 -0.29499999 -0.71100003 150 0 0 0 0.064539999
3.234 -0.29800001 -0.72100002 150 0 0 0 0.064549997
3.234 -0.30199999 -0.73199999 150 0 0 0 0.064560004
3.2309999 -0.30500001 -0.741 150 0 0 0 0.064570002
3.234 -0.308 -0.75199997 150 0 0 0 0.064580001
3.2360001 -0.31200001 -0.76300001 150 0 0 0 0.06459
3.2320001 -0.315 -0.773 150 0 0 0 0.064599998
3.2360001 -0.31799999 -0.78399998 150 0 0 0 0.064609997
3.233 -0.32100001 -0.79299998 150 0 0 0 0.064620003
3.2279999 -0.324 -0.80299997 150 0 0 0 0.064630002
3.2320001 -0.32699999 -0.81400001 150 0 0 0 0.06464
3.2290001 -0.33000001 -0.82300001 150 0 0 0 0.064649999
3.2179999 -0.33199999 -0.83099997 150 0 0 0 0.064659998
3.201 -0.33399999 -0.83700001 45 0 0 0 0.064669997
3.164 -0.333 -0.838 25 0 0 0 0.064680003
3.1289999 -0.33199999 -0.838 25 0 0 0 0.064690001
3.0940001 -0.331 -0.83899999 27 0 0 0 0.0647
3.0639999 -0.331 -0.84100002 27 0 0 0 0.064709999
3.0280001 -0.33000001 -0.84100002 27 0 0 0 0.064719997
2.9909999 -0.32800001 -0.83999997 27 0 0 0 0.064730003
2.9590001 -0.32800001 -0.84100002 27 0 0 0 0.064740002
2.9260001 -0.32699999 -0.84100002 27 0 0 0 0.064750001
2.8759999 -0.324 -0.83600003 25 0 0 0 0.06476
2.849 -0.32300001 -0.838 25 0 0 0 0.064769998
2.8150001 -0.322 -0.83700001 26 0 0 0 0.064779997
2.786 -0.32100001 -0.83700001 26 0 0 0 0.064790003
2.7509999 -0.31900001 -0.83600003 27 0 0 0 0.064800002
2.72 -0.31799999 -0.83499998 26 0 0 0 0.06481
2.6900001 -0.31600001 -0.83499998 25 0 0 0 0.064819999
2.665 -0.31600001 -0.83600003 27 0 0 0 0.064829998
2.631 -0.31400001 -0.83399999 26 0 0 0 0.064839996
2.602 -0.31299999 -0.833 25 0 0 0 0.064850003
2.5769999 -0.31200001 -0.83399999 26 0 0 0 0.064860001
2.5439999 -0.31 -0.83200002 25 0 0 0 0.06487
2.516 -0.308 -0.83099997 26 0 0 0 0.064879999
2.494 -0.30700001 -0.83200002 25 0 0 0 0.064889997
2.47 -0.30599999 -0.83200002 26 0 0 0 0.064900003
2.4449999 -0.30500001 -0.83200002 25 0 0 0 0.064910002
2.414 -0.303 -0.829 25 0 0 0 0.064920001
2.3889999 -0.30199999 -0.82800001 25 0 0 0 0.064929999
2.368 -0.301 -0.829 24 0 0 0 0.064939998
2.3499999 -0.30000001 -0.83099997 25 0 0 0 0.064949997
2.3239999 -0.29800001 -0.829 25 0 0 0 0.064960003
2.306 -0.29800001 -0.83099997 24 0 0 0 0.064970002
2.2820001 -0.296 -0.82999998 25 0 0 0 0.06498
2.2639999 -0.29499999 -0.83099997 25 0 0 0 0.064989999
2.2409999 -0.294 -0.82999998 25 0 0 0 0.064999998
2.2179999 -0.292 -0.82800001 26 0 0 0 0.065009996
2.197 -0.29100001 -0.82800001 25 0 0 0 0.065020002
2.178 -0.28999999 -0.82800001 27 0 0 0 0.065030001
2.161 -0.289 -0.829 27 0 0 0 0.06504
2.138 -0.287 -0.82700002 24 0 0 0 0.065049998
2.1199999 -0.28600001 -0.82800001 24 0 0 0 0.065059997
2.1010001 -0.285 -0.82700002 25 0 0 0 0.065070003
2.0780001 -0.28200001 -0.82499999 25 0 0 0 0.065080002
2.066 -0.28200001 -0.82700002 26 0 0 0 0.065090001
2.043 -0.28 -0.82499999 27 0 0 0 0.065099999
2.033 -0.28 -0.82800001 29 0 0 0 0.065109998
2.017 -0.27900001 -0.82800001 28 0 0 0 0.065119997
1.997 -0.27700001 -0.82700002 29 0 0 0 0.065130003
1.982 -0.27599999 -0.82700002 29 0 0 0 0.065140001
1.965 -0.27399999 -0.82700002 29 0 0 0 0.06515
1.9450001 -0.27200001 -0.82499999 29 0 0 0 0.065159999
1.929 -0.271 -0.82499999 30 0 0 0 0.065169998
1.9170001 -0.27000001 -0.82599998 29 0 0 0 0.065180004
1.9 -0.26899999 -0.82499999 29 0 0 0 0.065190002
1.888 -0.26800001 -0.82599998 29 0 0 0 0.065200001
1.873 -0.266 -0.82599998 30 0 0 0 0.06521
1.857 -0.26499999 -0.82499999 31 0 0 0 0.065219998
1.845 -0.264 -0.82599998 30 0 0 0 0.065229997
1.83 -0.26199999 -0.82499999 32 0 0 0 0.065240003
1.819 -0.26100001 -0.82700002 29 0 0 0 0.065250002
1.799 -0.259 -0.82300001 27 0 0 0 0.065260001
1.789 -0.25799999 -0.82499999 31 0 0 0 0.065269999
1.775 -0.25600001 -0.824 32 0 0 0 0.065279998
1.7640001 -0.255 -0.82499999 35 0 0 0 0.065289997
1.753 -0.25400001 -0.82599998 35 0 0 0 0.065300003
1.739 -0.25299999 -0.82499999 35 0 0 0 0.065310001
1.723 -0.25099999 -0.82300001 36 0 0 0 0.06532
1.716 -0.25 -0.82499999 12 0 0 0 0.065329999
1.701 -0.248 -0.824 38 0 0 0 0.065339997
1.691 -0.24699999 -0.82499999 40 0 0 0 0.065350004
1.6849999 -0.24699999 -0.82700002 12 0 0 0 0.065360002
1.677 -0.24600001 -0.829 12 0 0 0 0.065370001
1.659 -0.243 -0.82599998 13 0 0 0 0.06538
1.65 -0.242 -0.82599998 13 0 0 0 0.065389998
1.637 -0.23999999 -0.82599998 13 0 0 0 0.065399997
1.627 -0.23899999 -0.82599998 13 0 0 0 0.065410003
1.6160001 -0.23800001 -0.82599998 13 0 0 0 0.065420002
1.608 -0.237 -0.82599998 13 0 0 0 0.06543
1.601 -0.235 -0.82800001 13 0 0 0 0.065439999
1.592 -0.234 -0.829 13 0 0 0 0.065449998
1.5829999 -0.233 -0.829 12 0 0 0 0.065459996
1.563 -0.23 -0.82300001 11 0 0 0 0.065470003
1.556 -0.229 -0.82499999 10 0 0 0 0.065480001
1.548 -0.228 -0.82599998 7 0 0 0 0.06549
1.54 -0.226 -0.82599998 7 0 0 0 0.065499999
1.53 -0.22499999 -0.82599998 10 0 0 0 0.065509997
1.522 -0.223 -0.82599998 10 0 0 0 0.065520003
1.512 -0.222 -0.82599998 11 0 0 0 0.065530002
1.5 -0.22 -0.824 12 0 0 0 0.065540001
1.489 -0.21799999 -0.82200003 12 0 0 0 0.065549999
1.483 -0.21699999 -0.824 13 0 0 0 0.065559998
1.474 -0.215 -0.82300001 12 0 0 0 0.065569997
1.461 -0.213 -0.81999999 12 0 0 0 0.065580003
1.455 -0.212 -0.82099998 13 0 0 0 0.065590002
1.451 -0.211 -0.82300001 14 0 0 0 0.0656
1.4400001 -0.20900001 -0.82200003 14 0 0 0 0.065609999
1.433 -0.208 -0.82200003 14 0 0 0 0.065619998
1.429 -0.206 -0.824 13 0 0 0 0.065629996
1.416 -0.204 -0.82099998 14 0 0 0 0.065640002
1.413 -0.20299999 -0.82300001 14 0 0 0 0.065650001
1.4069999 -0.20200001 -0.824 14 0 0 0 0.06566
1.398 -0.2 -0.82200003 13 0 0 0 0.065669999
1.391 -0.198 -0.82200003 13 0 0 0 0.065679997
1.385 -0.197 -0.82300001 13 0 0 0 0.065690003
1.376 -0.19499999 -0.82099998 13 0 0 0 0.065700002
1.373 -0.19400001 -0.824 14 0 0 0 0.065710001
1.365 -0.192 -0.82200003 13 0 0 0 0.065719999
1.36 -0.191 -0.82300001 14 0 0 0 0.065729998
1.353 -0.189 -0.82200003 14 0 0 0 0.065739997
1.346 -0.18700001 -0.82200003 14 0 0 0 0.065750003
1.3380001 -0.186 -0.82099998 14 0 0 0 0.065760002
1.336 -0.185 -0.82300001 14 0 0 0 0.06577
1.332 -0.183 -0.824 13 0 0 0 0.065779999
1.327 -0.182 -0.824 14 0 0 0 0.065789998
1.317 -0.17900001 -0.82099998 14 0 0 0 0.065800004
1.313 -0.178 -0.82200003 13 0 0 0 0.065810002
1.307 -0.176 -0.82200003 14 0 0 0 0.065820001
1.301 -0.175 -0.82099998 14 0 0 0 0.06583
1.3 -0.17299999 -0.824 14 0 0 0 0.065839998
1.2920001 -0.17200001 -0.82200003 14 0 0 0 0.065849997
1.2869999 -0.17 -0.82200003 14 0 0 0 0.065860003
1.283 -0.168 -0.82200003 14 0 0 0 0.065870002
1.281 -0.167 -0.824 14 0 0 0 0.065880001
1.272 -0.16500001 -0.82099998 14 0 0 0 0.065889999
1.27 -0.164 -0.82300001 14 0 0 0 0.065899998
1.262 -0.161 -0.81999999 14 0 0 0 0.065909997
1.261 -0.16 -0.82200003 14 0 0 0 0.065920003
1.257 -0.15800001 -0.82200003 14 0 0 0 0.065930001
1.255 -0.15700001 -0.82300001 14 0 0 0 0.06594
1.251 -0.156 -0.824 13 0 0 0 0.065949999
1.248 -0.154 -0.824 14 0 0 0 0.065959997
1.244 -0.152 -0.824 14 0 0 0 0.065970004
1.238 -0.15000001 -0.82200003 14 0 0 0 0.065980002
1.237 -0.149 -0.824 15 0 0 0 0.065990001
1.2309999 -0.147 -0.82200003 14 0 0 0 0.066
1.232 -0.146 -0.82499999 14 0 0 0 0.066009998
1.228 -0.14399999 -0.824 14 0 0 0 0.066019997
1.226 -0.14300001 -0.82499999 14 0 0 0 0.066030003
1.22 -0.141 -0.82300001 14 0 0 0 0.066040002
1.221 -0.139 -0.82499999 14 0 0 0 0.06605
1.2180001 -0.138 -0.82499999 14 0 0 0 0.066059999
1.212 -0.13600001 -0.82300001 15 0 0 0 0.066069998
1.206 -0.134 -0.82099998 14 0 0 0 0.066079997
1.2079999 -0.132 -0.824 16 0 0 0 0.066090003
1.2029999 -0.13 -0.82200003 15 0 0 0 0.066100001
1.207 -0.12899999 -0.82599998 16 0 0 0 0.06611
1.2 -0.127 -0.824 16 0 0 0 0.066119999
1.201 -0.126 -0.82599998 16 0 0 0 0.066129997
1.199 -0.124 -0.82599998 16 0 0 0 0.066140004
1.196 -0.122 -0.82499999 15 0 0 0 0.066150002
1.197 -0.121 -0.82700002 16 0 0 0 0.066160001
1.194 -0.119 -0.82599998 16 0 0 0 0.06617
1.1900001 -0.117 -0.824 16 0 0 0 0.066179998
1.189 -0.116 -0.824 16 0 0 0 0.066189997
1.1849999 -0.114 -0.82300001 16 0 0 0 0.066200003
1.1849999 -0.112 -0.824 17 0 0 0 0.066210002
1.1849999 -0.11 -0.824 16 0 0 0 0.06622
1.183 -0.109 -0.824 17 0 0 0 0.066229999
1.182 -0.107 -0.824 16 0 0 0 0.066239998
1.181 -0.105 -0.824 16 0 0 0 0.066249996
1.181 -0.104 -0.82499999 17 0 0 0 0.066260003
1.181 -0.102 -0.82499999 16 0 0 0 0.066270001
1.181 -0.1 -0.82599998 16 0 0 0 0.06628
1.1799999 -0.098999999 -0.82499999 17 0 0 0 0.066289999
1.178 -0.097000003 -0.824 17 0 0 0 0.066299997
1.1799999 -0.094999999 -0.82599998 17 0 0 0 0.066310003
1.178 -0.093999997 -0.82499999 17 0 0 0 0.066320002
1.178 -0.092 -0.82499999 17 0 0 0 0.066330001
1.177 -0.090000004 -0.82499999 17 0 0 0 0.066339999
1.182 -0.089000002 -0.82800001 17 0 0 0 0.066349998
1.1799999 -0.086999997 -0.82599998 17 0 0 0 0.066359997
1.178 -0.085000001 -0.82499999 17 0 0 0 0.066370003
1.179 -0.083999999 -0.82499999 16 0 0 0 0.066380002
1.1799999 -0.082000002 -0.82599998 17 0 0 0 0.06639
1.177 -0.079999998 -0.82300001 17 0 0 0 0.066399999
1.179 -0.079000004 -0.82499999 17 0 0 0 0.066409998
1.1799999 -0.077 -0.82499999 16 0 0 0 0.066419996
1.181 -0.075000003 -0.82499999 17 0 0 0 0.066430002
1.1849999 -0.074000001 -0.82700002 17 0 0 0 0.066440001
1.183 -0.071999997 -0.82499999 16 0 0 0 0.06645
1.183 -0.07 -0.82499999 17 0 0 0 0.066459998
1.1849999 -0.068000004 -0.82499999 17 0 0 0 0.066469997
1.187 -0.067000002 -0.82599998 17 0 0 0 0.066480003
1.187 -0.064999998 -0.82499999 17 0 0 0 0.066490002
1.1900001 -0.064000003 -0.82599998 17 0 0 0 0.066500001
1.191 -0.061999999 -0.82599998 17 0 0 0 0.066509999
1.192 -0.059999999 -0.82499999 16 0 0 0 0.066519998
1.197 -0.059 -0.82800001 17 0 0 0 0.066529997
1.196 -0.057 -0.82599998 16 0 0 0 0.066540003
1.199 -0.055 -0.82700002 17 0 0 0 0.066550002
1.2 -0.052999999 -0.82599998 17 0 0 0 0.06656
1.2 -0.052000001 -0.82499999 16 0 0 0 0.066569999
1.201 -0.050000001 -0.824 16 0 0 0 0.066579998
1.205 -0.048999999 -0.82499999 16 0 0 0 0.066590004
1.2079999 -0.046999998 -0.82599998 16 0 0 0 0.066600002
1.2079999 -0.045000002 -0.824 16 0 0 0 0.066610001
1.214 -0.044 -0.82599998 16 0 0 0 0.06662
1.216 -0.041999999 -0.82599998 16 0 0 0 0.066629998
1.219 -0.041000001 -0.82599998 16 0 0 0 0.066639997
1.223 -0.039000001 -0.82700002 16 0 0 0 0.066650003
1.228 -0.037 -0.829 16 0 0 0 0.066660002
1.228 -0.035999998 -0.82599998 15 0 0 0 0.066670001
1.2309999 -0.034000002 -0.82599998 16 0 0 0 0.066679999
1.235 -0.033 -0.82700002 16 0 0 0 0.066689998
1.2410001 -0.030999999 -0.829 16 0 0 0 0.066699997
1.243 -0.028999999 -0.82800001 16 0 0 0 0.066710003
1.245 -0.028000001 -0.82700002 17 0 0 0 0.066720001
1.25 -0.026000001 -0.82800001 16 0 0 0 0.06673
1.253 -0.025 -0.82700002 1 0 0 0 0.066739999
1.256 -0.023 -0.82700002 16 0 0 0 0.066749997
1.261 -0.022 -0.82700002 16 0 0 0 0.066760004
1.265 -0.02 -0.82800001 16 0 0 0 0.066770002
1.2690001 -0.017999999 -0.82800001 16 0 0 0 0.066780001
1.271 -0.017000001 -0.82599998 15 0 0 0 0.06679
1.278 -0.015 -0.82800001 16 0 0 0 0.066799998
1.281 -0.014 -0.82700002 16 0 0 0 0.066809997
1.2869999 -0.012 -0.82800001 17 0 0 0 0.066820003
1.288 -0.011 -0.82599998 16 0 0 0 0.066830002
1.296 -0.0089999996 -0.82800001 16 0 0 0 0.06684
1.298 -0.0080000004 -0.82599998 16 0 0 0 0.066849999
1.306 -0.0060000001 -0.82800001 16 0 0 0 0.066859998
1.307 -0.0049999999 -0.82599998 17 0 0 0 0.066869996
1.314 -0.003 -0.82700002 17 0 0 0 0.066880003
1.3150001 -0.0020000001 -0.824 16 0 0 0 0.066890001
1.324 0 -0.82599998 17 0 0 0 0.0669
1.3329999 0 -0.82800001 17 0 0 0 0.066909999
1.335 0.0020000001 -0.82599998 16 0 0 0 0.066919997
1.344 0.003 -0.829 17 0 0 0 0.066930003
1.349 0.0049999999 -0.82800001 16 0 0 0 0.066940002
1.354 0.0060000001 -0.82700002 16 0 0 0 0.066950001
1.3609999 0.0080000004 -0.82800001 16 0 0 0 0.06696
1.367 0.0089999996 -0.82800001 17 0 0 0 0.066969998
1.374 0.011 -0.82800001 16 0 0 0 0.066979997
1.376 0.012 -0.82599998 16 0 0 0 0.066990003
1.386 0.014 -0.82800001 17 0 0 0 0.067000002
1.39 0.015 -0.82700002 17 0 0 0 0.06701
1.399 0.017000001 -0.82800001 16 0 0 0 0.067019999
1.41 0.017999999 -0.82999998 16 0 0 0 0.067029998
1.4119999 0.018999999 -0.82700002 16 0 0 0 0.067039996
1.419 0.021 -0.82800001 17 0 0 0 0.067050003
1.428 0.022 -0.829 16 0 0 0 0.067060001
1.434 0.024 -0.82800001 16 0 0 0 0.06707
1.4450001 0.025 -0.82999998 14 0 0 0 0.067079999
1.4529999 0.026000001 -0.82999998 14 0 0 0 0.067089997
1.464 0.028000001 -0.83200002 14 0 0 0 0.067100003
1.47 0.028999999 -0.83099997 17 0 0 0 0.067110002
1.478 0.030999999 -0.83099997 16 0 0 0 0.067120001
1.488 0.032000002 -0.83200002 16 0 0 0 0.067129999
1.494 0.033 -0.83099997 16 0 0 0 0.067139998
1.5 0.035 -0.82999998 16 0 0 0 0.067149997
1.5089999 0.035999998 -0.82999998 16 0 0 0 0.067160003
1.518 0.037 -0.82999998 16 0 0 0 0.067170002
1.524 0.039000001 -0.829 16 0 0 0 0.06718
1.543 0.039999999 -0.83399999 16 0 0 0 0.067189999
1.548 0.041999999 -0.83200002 16 0 0 0 0.067199998
1.564 0.043000001 -0.83499998 16 0 0 0 0.067209996
1.5700001 0.044 -0.83399999 16 0 0 0 0.067220002
1.582 0.046 -0.83499998 16 0 0 0 0.067230001
1.591 0.046999998 -0.83499998 16 0 0 0 0.06724
1.604 0.048 -0.83600003 17 0 0 0 0.067249998
1.613 0.050000001 -0.83600003 16 0 0 0 0.067259997
1.624 0.050999999 -0.83600003 16 0 0 0 0.067270003
1.637 0.052000001 -0.838 17 0 0 0 0.067280002
1.6440001 0.054000001 -0.83600003 16 0 0 0 0.067290001
1.651 0.055 -0.83399999 16 0 0 0 0.067299999
1.664 0.056000002 -0.83499998 17 0 0 0 0.067309998
1.676 0.057 -0.83499998 16 0 0 0 0.067319997
1.6849999 0.059 -0.83499998 17 0 0 0 0.067330003
1.698 0.059999999 -0.83499998 17 0 0 0 0.067340001
1.712 0.061000001 -0.83700001 17 0 0 0 0.06735
1.721 0.061999999 -0.83499998 16 0 0 0 0.067359999
1.735 0.064000003 -0.83600003 17 0 0 0 0.067369998
1.7460001 0.064999998 -0.83600003 17 0 0 0 0.067380004
1.758 0.066 -0.83600003 16 0 0 0 0.067390002
1.774 0.067000002 -0.83700001 16 0 0 0 0.067400001
1.784 0.068999998 -0.83600003 15 0 0 0 0.06741
1.799 0.07 -0.83700001 16 0 0 0 0.067419998
1.813 0.071000002 -0.83700001 17 0 0 0 0.067429997
1.826 0.071999997 -0.83700001 16 0 0 0 0.067440003
1.8380001 0.072999999 -0.83600003 16 0 0 0 0.067450002
1.851 0.075000003 -0.83600003 1 0 0 0 0.067460001
1.8660001 0.075999998 -0.83700001 50 0 0 0 0.067469999
1.875 0.077 -0.83399999 44 0 0 0 0.067479998
1.897 0.078000002 -0.838 43 0 0 0 0.067489997
1.905 0.079000004 -0.83499998 40 0 0 0 0.067500003
1.9220001 0.079999998 -0.83600003 42 0 0 0 0.067510001
1.937 0.081 -0.83600003 33 0 0 0 0.06752
1.956 0.082999997 -0.83700001 33 0 0 0 0.067529999
1.97 0.083999999 -0.83700001 32 0 0 0 0.067539997
1.987 0.085000001 -0.83700001 32 0 0 0 0.067550004
2.0039999 0.086000003 -0.83700001 32 0 0 0 0.067560002
2.0220001 0.086999997 -0.838 32 0 0 0 0.067570001
2.039 0.089000002 -0.838 32 0 0 0 0.06758
2.056 0.090000004 -0.838 32 0 0 0 0.067589998
2.0710001 0.090999998 -0.83700001 31 0 0 0 0.067599997
2.092 0.092 -0.838 32 0 0 0 0.067610003
2.112 0.093000002 -0.83899999 30 0 0 0 0.067620002
2.1270001 0.093999997 -0.838 28 0 0 0 0.06763
2.151 0.094999999 -0.83999997 31 0 0 0 0.067639999
2.1659999 0.096000001 -0.83899999 31 0 0 0 0.067649998
2.1930001 0.097999997 -0.84200001 32 0 0 0 0.067659996
2.2119999 0.098999999 -0.84100002 31 0 0 0 0.067670003
2.234 0.1 -0.84200001 32 0 0 0 0.067680001
2.2539999 0.101 -0.84200001 34 0 0 0 0.06769
2.273 0.102 -0.84100002 33 0 0 0 0.067699999
2.2950001 0.103 -0.84100002 33 0 0 0 0.067709997
2.3210001 0.104 -0.84299999 33 0 0 0 0.067720003
2.336 0.105 -0.84100002 32 0 0 0 0.067730002
2.362 0.106 -0.84200001 32 0 0 0 0.067740001
2.385 0.107 -0.84200001 32 0 0 0 0.067749999
2.4089999 0.108 -0.84200001 32 0 0 0 0.067759998
2.431 0.109 -0.84200001 31 0 0 0 0.067769997
2.4630001 0.111 -0.84399998 31 0 0 0 0.067780003
2.4879999 0.112 -0.84399998 32 0 0 0 0.067790002
2.5109999 0.113 -0.84399998 33 0 0 0 0.0678
2.546 0.114 -0.847 35 0 0 0 0.067809999
2.569 0.115 -0.84600002 33 0 0 0 0.067819998
2.6010001 0.116 -0.84799999 34 0 0 0 0.067829996
2.631 0.117 -0.84899998 32 0 0 0 0.067840002
2.664 0.119 -0.85000002 32 0 0 0 0.067850001
2.691 0.12 -0.85000002 32 0 0 0 0.06786
2.724 0.121 -0.85100001 33 0 0 0 0.067869999
2.753 0.122 -0.85100001 32 0 0 0 0.067879997
2.783 0.123 -0.85000002 31 0 0 0 0.067890003
2.809 0.123 -0.84899998 32 0 0 0 0.067900002
2.8429999 0.124 -0.84899998 33 0 0 0 0.067910001
2.891 0.126 -0.85399997 32 0 0 0 0.067919999
2.925 0.127 -0.85399997 29 0 0 0 0.067929998
2.9679999 0.12800001 -0.85699999 30 0 0 0 0.067939997
3.0039999 0.12899999 -0.85699999 31 0 0 0 0.067950003
3.0510001 0.131 -0.86000001 31 0 0 0 0.067960002
3.089 0.132 -0.861 32 0 0 0 0.06797
3.1240001 0.133 -0.86000001 31 0 0 0 0.067979999
3.1600001 0.134 -0.85900003 31 0 0 0 0.067989998
3.191 0.134 -0.85699999 30 0 0 0 0.068000004
3.2290001 0.13500001 -0.85600001 31 0 0 0 0.068010002
3.276 0.13600001 -0.85799998 31 0 0 0 0.068020001
3.3169999 0.13699999 -0.85699999 31 0 0 0 0.06803
3.348 0.13699999 -0.85399997 32 0 0 0 0.068039998
3.392 0.138 -0.85399997 33 0 0 0 0.068049997
3.408 0.138 -0.847 137 0 0 0 0.068060003
3.401 0.13699999 -0.833 151 0 0 0 0.068070002
3.404 0.13600001 -0.82300001 151 0 0 0 0.068080001
3.4030001 0.13500001 -0.81099999 151 0 0 0 0.068089999
3.402 0.134 -0.80000001 151 0 0 0 0.068099998
3.405 0.133 -0.78899997 151 0 0 0 0.068109997
3.4070001 0.132 -0.778 151 0 0 0 0.068120003
3.4059999 0.131 -0.76700002 151 0 0 0 0.068130001
3.4030001 0.12899999 -0.755 151 0 0 0 0.06814
3.4059999 0.12800001 -0.74400002 151 0 0 0 0.068149999
3.4059999 0.127 -0.73299998 151 0 0 0 0.068159997
3.408 0.126 -0.722 151 0 0 0 0.068170004
3.4100001 0.125 -0.71100003 151 0 0 0 0.068180002
3.4030001 0.123 -0.699 151 0 0 0 0.068190001
3.4059999 0.122 -0.68800002 151 0 0 0 0.0682
3.408 0.121 -0.67699999 151 0 0 0 0.068209998
3.408 0.12 -0.66600001 151 0 0 0 0.068219997
3.4089999 0.118 -0.65499997 151 0 0 0 0.068230003
3.4089999 0.117 -0.64399999 151 0 0 0 0.068240002
3.411 0.116 -0.63300002 151 0 0 0 0.06825
3.4059999 0.114 -0.62099999 151 0 0 0 0.068259999
3.408 0.113 -0.61000001 151 0 0 0 0.068269998
3.4100001 0.111 -0.59899998 151 0 0 0 0.068279997
3.4100001 0.11 -0.588 151 0 0 0 0.068290003
3.4089999 0.108 -0.57700002 151 0 0 0 0.068300001
3.411 0.107 -0.56599998 151 0 0 0 0.06831
3.408 0.105 -0.55400002 151 0 0 0 0.068319999
3.4130001 0.104 -0.54400003 151 0 0 0 0.068329997
3.4119999 0.102 -0.53299999 151 0 0 0 0.068340003
3.408 0.1 -0.52100003 151 0 0 0 0.068350002
3.4100001 0.098999999 -0.50999999 151 0 0 0 0.068360001
3.4119999 0.097000003 -0.5 151 0 0 0 0.06837
3.4070001 0.094999999 -0.48800001 151 0 0 0 0.068379998
3.4130001 0.093999997 -0.47799999 151 0 0 0 0.068389997
3.411 0.092 -0.46599999 151 0 0 0 0.068400003
3.408 0.090000004 -0.45500001 151 0 0 0 0.068410002
3.4130001 0.088 -0.44400001 151 0 0 0 0.06842
3.4130001 0.086999997 -0.433 151 0 0 0 0.068429999
3.415 0.085000001 -0.42300001 151 0 0 0 0.068439998
3.414 0.082999997 -0.41100001 151 0 0 0 0.068449996
3.415 0.081 -0.40099999 151 0 0 0 0.068460003
3.4159999 0.079000004 -0.38999999 151 0 0 0 0.068470001
3.4130001 0.078000002 -0.37799999 151 0 0 0 0.06848
3.414 0.075999998 -0.368 151 0 0 0 0.068489999
3.415 0.074000001 -0.35699999 151 0 0 0 0.068499997
3.4159999 0.071999997 -0.34599999 151 0 0 0 0.068510003
3.4059999 0.07 -0.33399999 151 0 0 0 0.068520002
3.418 0.068000004 -0.324 151 0 0 0 0.068530001
3.4170001 0.066 -0.31299999 151 0 0 0 0.068539999
3.415 0.064000003 -0.30199999 151 0 0 0 0.068549998
3.414 0.061999999 -0.29100001 151 0 0 0 0.068559997
3.414 0.059999999 -0.28 151 0 0 0 0.068570003
3.4159999 0.057999998 -0.26899999 151 0 0 0 0.068580002
3.4170001 0.056000002 -0.259 151 0 0 0 0.06859
3.4159999 0.052999999 -0.248 152 0 0 0 0.068599999
3.4170001 0.050999999 -0.237 151 0 0 0 0.068609998
3.4159999 0.048999999 -0.226 152 0 0 0 0.068619996
3.4159999 0.046999998 -0.215 152 0 0 0 0.068630002
3.4200001 0.045000002 -0.204 152 0 0 0 0.068640001
3.421 0.043000001 -0.193 152 0 0 0 0.06865
3.418 0.039999999 -0.183 152 0 0 0 0.068659998
3.4200001 0.037999999 -0.17200001 152 0 0 0 0.068669997
3.4230001 0.035999998 -0.161 152 0 0 0 0.068680003
3.4230001 0.034000002 -0.15000001 152 0 0 0 0.068690002
3.421 0.030999999 -0.139 152 0 0 0 0.068700001
3.415 0.028999999 -0.12800001 152 0 0 0 0.068709999
3.424 0.027000001 -0.118 152 0 0 0 0.068719998
3.4219999 0.024 -0.107 152 0 0 0 0.068729997
3.4219999 0.022 -0.096000001 152 0 0 0 0.068740003
3.425 0.02 -0.085000001 152 0 0 0 0.068750001
3.4230001 0.017000001 -0.074000001 152 0 0 0 0.06876
3.418 0.015 -0.063000001 152 0 0 0 0.068769999
3.4230001 0.012 -0.052999999 152 0 0 0 0.068779998
3.4219999 0.0099999998 -0.041999999 152 0 0 0 0.068790004
3.421 0.0070000002 -0.030999999 152 0 0 0 0.068800002
3.4200001 0.0049999999 -0.02 152 0 0 0 0.068810001
3.4219999 0.0020000001 -0.0089999996 152 0 0 0 0.06882
3.4219999 0 0.001 152 0 0 0 0.068829998
3.4219999 -0.0020000001 0.011 152 0 0 0 0.068839997
3.4219999 -0.0040000002 0.022 152 0 0 0 0.068850003
3.4219999 -0.0070000002 0.033 152 0 0 0 0.068860002
3.425 -0.0099999998 0.044 152 0 0 0 0.068870001
3.424 -0.012 0.054000001 151 0 0 0 0.068879999
3.4230001 -0.015 0.064999998 151 0 0 0 0.068889998
3.425 -0.017999999 0.075999998 152 0 0 0 0.068899997
3.427 -0.02 0.086999997 152 0 0 0 0.068910003
3.427 -0.023 0.097999997 151 0 0 0 0.068920001
3.427 -0.026000001 0.108 152 0 0 0 0.06893
3.4230001 -0.028000001 0.119 152 0 0 0 0.068939999
3.428 -0.030999999 0.13 151 0 0 0 0.068949997
3.427 -0.034000002 0.14 151 0 0 0 0.068960004
3.4260001 -0.037 0.15099999 151 0 0 0 0.068970002
3.424 -0.039999999 0.162 151 0 0 0 0.068980001
3.425 -0.041999999 0.17200001 151 0 0 0 0.06899
3.427 -0.045000002 0.183 151 0 0 0 0.068999998
3.4300001 -0.048 0.19400001 151 0 0 0 0.069009997
3.428 -0.050999999 0.205 151 0 0 0 0.069020003
3.427 -0.054000001 0.21600001 151 0 0 0 0.069030002
3.434 -0.057 0.227 151 0 0 0 0.06904
3.4360001 -0.059999999 0.23800001 151 0 0 0 0.069049999
3.434 -0.063000001 0.248 151 0 0 0 0.069059998
3.4289999 -0.066 0.259 151 0 0 0 0.069069996
3.428 -0.068999998 0.26899999 151 0 0 0 0.069080003
3.4330001 -0.071999997 0.28 151 0 0 0 0.069090001
3.4319999 -0.075000003 0.29100001 151 0 0 0 0.0691
3.4330001 -0.078000002 0.30199999 151 0 0 0 0.069109999
3.431 -0.081 0.31200001 151 0 0 0 0.069119997
3.4349999 -0.085000001 0.324 151 0 0 0 0.069130003
3.4289999 -0.088 0.33399999 151 0 0 0 0.069140002
3.431 -0.090999998 0.345 151 0 0 0 0.069150001
3.438 -0.093999997 0.35600001 151 0 0 0 0.069159999
3.437 -0.097000003 0.36700001 151 0 0 0 0.069169998
3.437 -0.101 0.37799999 151 0 0 0 0.069179997
3.4360001 -0.104 0.38800001 151 0 0 0 0.069190003
3.4349999 -0.107 0.39899999 151 0 0 0 0.069200002
3.4330001 -0.11 0.40900001 151 0 0 0 0.06921
3.4389999 -0.114 0.421 151 0 0 0 0.069219999
3.4360001 -0.117 0.43099999 151 0 0 0 0.069229998
3.438 -0.12 0.442 151 0 0 0 0.069239996
3.4419999 -0.124 0.45300001 151 0 0 0 0.069250003
3.438 -0.127 0.46399999 151 0 0 0 0.069260001
3.4389999 -0.131 0.47400001 151 0 0 0 0.06927
3.441 -0.134 0.48500001 151 0 0 0 0.069279999
3.438 -0.138 0.49599999 151 0 0 0 0.069289997
3.437 -0.141 0.50599998 151 0 0 0 0.069300003
3.4449999 -0.145 0.51800001 151 0 0 0 0.069310002
3.4419999 -0.148 0.52899998 151 0 0 0 0.069320001
3.4389999 -0.152 0.53899997 151 0 0 0 0.069329999
3.444 -0.156 0.55000001 151 0 0 0 0.069339998
3.437 -0.15899999 0.56 151 0 0 0 0.069349997
3.4430001 -0.163 0.57200003 151 0 0 0 0.069360003
3.425 -0.16599999 0.579 150 0 0 0 0.069370002
3.3929999 -0.168 0.58499998 150 0 0 0 0.06938
3.3800001 -0.171 0.59299999 150 0 0 0 0.069389999
3.3789999 -0.17399999 0.60299999 150 0 0 0 0.069399998
3.381 -0.178 0.61400002 150 0 0 0 0.069410004
3.381 -0.182 0.625 151 0 0 0 0.069420002
3.3800001 -0.186 0.63499999 151 0 0 0 0.069430001
3.3800001 -0.189 0.64600003 151 0 0 0 0.06944
3.3759999 -0.193 0.65499997 150 0 0 0 0.069449998
3.3659999 -0.19599999 0.66399997 150 0 0 0 0.069459997
3.3529999 -0.199 0.67199999 150 0 0 0 0.069470003
3.3529999 -0.20299999 0.68199998 150 0 0 0 0.069480002
3.355 -0.207 0.69300002 150 0 0 0 0.069490001
3.3559999 -0.211 0.704 150 0 0 0 0.069499999
3.3540001 -0.215 0.71399999 151 0 0 0 0.069509998
3.352 -0.219 0.72399998 151 0 0 0 0.069519997
3.3510001 -0.223 0.73400003 150 0 0 0 0.069530003
3.3510001 -0.227 0.74400002 150 0 0 0 0.069540001
3.355 -0.23100001 0.75599998 151 0 0 0 0.06955
3.352 -0.235 0.76499999 151 0 0 0 0.069559999
3.3540001 -0.23899999 0.77600002 150 0 0 0 0.069569997
3.3529999 -0.243 0.787 118 0 0 0 0.069580004
3.335 -0.24600001 0.79299998 31 0 0 0 0.069590002
3.2720001 -0.245 0.78799999 49 0 0 0 0.069600001
3.24 -0.24699999 0.79000002 150 0 0 0 0.06961
3.2379999 -0.25099999 0.80000001 150 0 0 0 0.069619998
3.2390001 -0.255 0.81 150 0 0 0 0.069629997
3.2379999 -0.259 0.81999999 150 0 0 0 0.069640003
3.2349999 -0.26300001 0.829 150 0 0 0 0.069650002
3.2390001 -0.26699999 0.83999997 150 0 0 0 0.069660001
3.2360001 -0.271 0.84899998 150 0 0 0 0.069669999
3.24 -0.27599999 0.86000001 150 0 0 0 0.069679998
3.244 -0.28 0.87199998 150 0 0 0 0.069689997
3.244 -0.285 0.88200003 151 0 0 0 0.069700003
3.247 -0.289 0.89300001 151 0 0 0 0.069710001
3.24 -0.29300001 0.90100002 151 0 0 0 0.06972
3.2309999 -0.29699999 0.90799999 150 0 0 0 0.069729999
3.2179999 -0.30000001 0.91399997 150 0 0 0 0.069739997
3.2160001 -0.30399999 0.92400002 150 0 0 0 0.069750004
3.2160001 -0.30899999 0.93400002 150 0 0 0 0.069760002
3.2149999 -0.31299999 0.94300002 150 0 0 0 0.069770001
3.22 -0.31799999 0.95499998 150 0 0 0 0.06978
3.217 -0.322 0.96399999 150 0 0 0 0.069789998
3.22 -0.32699999 0.97500002 150 0 0 0 0.069799997
3.22 -0.331 0.98500001 150 0 0 0 0.069810003
3.2179999 -0.336 0.99400002 150 0 0 0 0.069820002
3.22 -0.34099999 1.0039999 150 0 0 0 0.06983
3.217 -0.345 1.013 150 0 0 0 0.069839999
3.0969999 -0.33700001 0.98500001 151 0 0 0 0.069849998
2.934 -0.32300001 0.94199997 150 0 0 0 0.069859996
2.845 -0.31799999 0.92199999 150 0 0 0 0.069870003
2.585 -0.292 0.84600002 31 0 0 0 0.069880001
2.5569999 -0.29300001 0.84399998 30 0 0 0 0.06989
2.5309999 -0.294 0.84399998 28 0 0 0 0.069899999
2.5090001 -0.29499999 0.84399998 28 0 0 0 0.069909997
2.4809999 -0.296 0.84200001 25 0 0 0 0.069920003
2.454 -0.296 0.83999997 22 0 0 0 0.069930002
2.4219999 -0.296 0.83700001 20 0 0 0 0.069940001
2.3970001 -0.29699999 0.83499998 45 0 0 0 0.069949999
2.3870001 -0.29899999 0.83899999 78 0 0 0 0.069959998
2.3829999 -0.303 0.84500003 34 0 0 0 0.069969997
2.391 -0.308 0.85500002 4 0 0 0 0.069980003
0 0 0 0 0 0 0 0.069990002
0 0 0 0 0 0 0 0.07
0 0 0 0 0 0 0 0.070009999
0 0 0 0 0 0 0 0.070019998
0 0 0 0 0 0 0 0.070029996
0 0 0 0 0 0 0 0.070040002
4.2150002 -0.58999997 1.596 37 0 0 0 0.070050001
4.1760001 -0.59200001 1.594 38 0 0 0 0.07006
4.1300001 -0.59200001 1.589 29 0 0 0 0.070069999
4.1009998 -0.59500003 1.59 39 0 0 0 0.070079997
4.073 -0.59799999 1.591 43 0 0 0 0.070090003
4.053 -0.602 1.595 49 0 0 0 0.070100002
4.026 -0.60500002 1.596 46 0 0 0 0.070110001
3.993 -0.60699999 1.595 38 0 0 0 0.070119999
3.9690001 -0.61000001 1.597 41 0 0 0 0.070129998
3.938 -0.61199999 1.596 42 0 0 0 0.070139997
3.9119999 -0.61500001 1.597 42 0 0 0 0.070150003
3.8829999 -0.61699998 1.596 39 0 0 0 0.070160002
3.8559999 -0.62 1.597 43 0 0 0 0.07017
3.8310001 -0.62300003 1.597 45 0 0 0 0.070179999
3.809 -0.62599999 1.599 43 0 0 0 0.070189998
3.7850001 -0.62900001 1.6 42 0 0 0 0.070200004
3.7639999 -0.63200003 1.602 41 0 0 0 0.070210002
3.7379999 -0.63499999 1.602 39 0 0 0 0.070220001
3.711 -0.63700002 1.6 40 0 0 0 0.07023
3.6889999 -0.63999999 1.601 42 0 0 0 0.070239998
3.665 -0.64300001 1.602 39 0 0 0 0.070249997
3.645 -0.64600003 1.603 45 0 0 0 0.070260003
3.6240001 -0.64899999 1.604 46 0 0 0 0.070270002
3.599 -0.65100002 1.603 46 0 0 0 0.070280001
3.576 -0.65399998 1.603 45 0 0 0 0.070289999
3.563 -0.65799999 1.6059999 45 0 0 0 0.070299998
3.5380001 -0.66000003 1.605 45 0 0 0 0.070309997
3.517 -0.66299999 1.605 44 0 0 0 0.070320003
3.4879999 -0.66500002 1.601 43 0 0 0 0.070330001
3.4749999 -0.66900003 1.605 44 0 0 0 0.07034
3.4549999 -0.67199999 1.605 43 0 0 0 0.070349999
3.4349999 -0.67500001 1.605 44 0 0 0 0.070359997
3.4159999 -0.67799997 1.605 43 0 0 0 0.070370004
3.3959999 -0.68099999 1.605 51 0 0 0 0.070380002
3.3740001 -0.68300003 1.603 51 0 0 0 0.070390001
3.335 -0.68199998 1.5930001 59 0 0 0 0.0704
3.3150001 -0.68400002 1.5930001 61 0 0 0 0.070409998
3.323 -0.69300002 1.605 50 0 0 0 0.070419997
3.309 -0.69599998 1.607 49 0 0 0 0.070430003
3.2880001 -0.699 1.605 48 0 0 0 0.070440002
3.2780001 -0.70300001 1.608 48 0 0 0 0.07045
3.2520001 -0.704 1.604 47 0 0 0 0.070459999
3.24 -0.708 1.6059999 48 0 0 0 0.070469998
3.237 -0.71399999 1.613 46 0 0 0 0.070479997
3.2119999 -0.71499997 1.608 73 0 0 0 0.070490003
2.7839999 -0.625 1.4 150 0 0 0 0.070500001
2.447 -0.55500001 1.237 87 0 0 0 0.07051
2.4000001 -0.54900002 1.219 25 0 0 0 0.070519999
2.3900001 -0.55199999 1.22 22 0 0 0 0.070529997
2.3959999 -0.55800003 1.228 26 0 0 0 0.070540003
2.398 -0.56400001 1.235 26 0 0 0 0.070550002
2.3940001 -0.56800002 1.238 25 0 0 0 0.070560001
2.392 -0.57200003 1.243 21 0 0 0 0.07057
2.3900001 -0.57700002 1.247 15 0 0 0 0.070579998
2.395 -0.583 1.255 18 0 0 0 0.070589997
2.3959999 -0.58899999 1.261 27 0 0 0 0.070600003
2.398 -0.59399998 1.267 27 0 0 0 0.070610002
2.395 -0.59799999 1.271 28 0 0 0 0.07062
2.398 -0.60399997 1.278 28 0 0 0 0.070629999
2.401 -0.61000001 1.284 28 0 0 0 0.070639998
2.3970001 -0.61400002 1.2869999 27 0 0 0 0.070649996
2.4000001 -0.62 1.294 27 0 0 0 0.070660003
2.3989999 -0.625 1.298 27 0 0 0 0.070670001
2.398 -0.63 1.303 28 0 0 0 0.07068
2.401 -0.63599998 1.309 25 0 0 0 0.070689999
2.404 -0.64200002 1.3150001 21 0 0 0 0.070699997
2.401 -0.64600003 1.318 22 0 0 0 0.070710003
2.4030001 -0.65200001 1.324 28 0 0 0 0.070720002
2.4000001 -0.65700001 1.327 28 0 0 0 0.070730001
2.402 -0.662 1.332 28 0 0 0 0.070739999
2.405 -0.66799998 1.3380001 24 0 0 0 0.070749998
2.404 -0.67299998 1.342 23 0 0 0 0.070759997
2.4059999 -0.67900002 1.348 25 0 0 0 0.070770003
2.401 -0.68199998 1.349 26 0 0 0 0.070780002
2.404 -0.68900001 1.355 28 0 0 0 0.07079
2.404 -0.69400001 1.358 29 0 0 0 0.070799999
2.404 -0.699 1.362 27 0 0 0 0.070809998
2.4059999 -0.704 1.367 23 0 0 0 0.070819996
2.4070001 -0.70999998 1.3710001 22 0 0 0 0.070830002
2.4089999 -0.71600002 1.376 22 0 0 0 0.070840001
2.4070001 -0.72000003 1.378 19 0 0 0 0.07085
2.408 -0.72500002 1.382 18 0 0 0 0.070859998
2.4130001 -0.73199999 1.388 17 0 0 0 0.070869997
2.4100001 -0.736 1.39 18 0 0 0 0.070880003
2.408 -0.74000001 1.392 21 0 0 0 0.070890002
2.4130001 -0.74699998 1.398 27 0 0 0 0.070900001
2.411 -0.75099999 1.4 23 0 0 0 0.070909999
2.415 -0.75800002 1.405 25 0 0 0 0.070919998
2.4119999 -0.76099998 1.406 25 0 0 0 0.070929997
2.414 -0.76700002 1.41 28 0 0 0 0.070940003
2.415 -0.77200001 1.413 28 0 0 0 0.070950001
2.4159999 -0.77700001 1.416 23 0 0 0 0.07096
2.4159999 -0.78200001 1.418 18 0 0 0 0.070969999
2.415 -0.787 1.419 18 0 0 0 0.070979998
2.418 -0.79299998 1.424 20 0 0 0 0.070990004
2.4170001 -0.79699999 1.425 22 0 0 0 0.071000002
2.418 -0.80199999 1.427 18 0 0 0 0.071010001
2.4200001 -0.80800003 1.431 17 0 0 0 0.07102
2.418 -0.81099999 1.431 17 0 0 0 0.071029998
2.4159999 -0.815 1.431 18 0 0 0 0.071039997
2.4189999 -0.82099998 1.4349999 20 0 0 0 0.071050003
2.414 -0.824 1.433 20 0 0 0 0.071060002
2.415 -0.82800001 1.4349999 21 0 0 0 0.071070001
2.4170001 -0.83399999 1.437 23 0 0 0 0.071079999
2.415 -0.838 1.437 22 0 0 0 0.071089998
2.4159999 -0.84200001 1.439 27 0 0 0 0.071099997
2.418 -0.847 1.441 29 0 0 0 0.071110003
2.4200001 -0.852 1.442 33 0 0 0 0.071120001
2.418 -0.85600001 1.442 31 0 0 0 0.07113
2.4170001 -0.86000001 1.442 33 0 0 0 0.071139999
2.421 -0.86500001 1.4450001 30 0 0 0 0.071149997
2.4200001 -0.86900002 1.444 26 0 0 0 0.071160004
2.4200001 -0.87300003 1.444 23 0 0 0 0.071170002
2.4219999 -0.87800002 1.446 23 0 0 0 0.071180001
2.4219999 -0.88099998 1.4450001 20 0 0 0 0.07119
2.425 -0.88599998 1.447 20 0 0 0 0.071199998
2.4159999 -0.88700002 1.441 17 0 0 0 0.071209997
2.4170001 -0.89099997 1.442 17 0 0 0 0.071220003
2.4260001 -0.898 1.446 16 0 0 0 0.071230002
2.4219999 -0.89999998 1.443 14 0 0 0 0.07124
2.4260001 -0.90499997 1.4450001 14 0 0 0 0.071249999
2.4260001 -0.90799999 1.443 14 0 0 0 0.071259998
2.421 -0.91000003 1.4400001 14 0 0 0 0.071269996
2.4260001 -0.91500002 1.441 15 0 0 0 0.071280003
2.424 -0.91799998 1.439 16 0 0 0 0.071290001
2.424 -0.921 1.438 15 0 0 0 0.0713
2.425 -0.92400002 1.437 16 0 0 0 0.071309999
2.4289999 -0.92900002 1.437 17 0 0 0 0.071319997
2.425 -0.93000001 1.433 17 0 0 0 0.071330003
2.428 -0.93400002 1.433 18 0 0 0 0.071340002
2.428 -0.93699998 1.431 20 0 0 0 0.071350001
2.425 -0.93900001 1.427 22 0 0 0 0.071359999
2.427 -0.94199997 1.426 25 0 0 0 0.071369998
2.4230001 -0.94300002 1.4220001 26 0 0 0 0.071379997
2.4230001 -0.94599998 1.419 27 0 0 0 0.071390003
2.4230001 -0.949 1.4170001 26 0 0 0 0.071400002
2.428 -0.95300001 1.4170001 24 0 0 0 0.07141
2.4230001 -0.95300001 1.4119999 23 0 0 0 0.071419999
2.4260001 -0.95700002 1.411 22 0 0 0 0.071429998
2.428 -0.95999998 1.408 22 0 0 0 0.071439996
2.428 -0.96200001 1.405 22 0 0 0 0.071450002
2.4289999 -0.96399999 1.403 23 0 0 0 0.071460001
2.428 -0.96600002 1.399 23 0 0 0 0.07147
2.4260001 -0.96600002 1.3940001 24 0 0 0 0.071479999
2.4289999 -0.97000003 1.393 26 0 0 0 0.071489997
2.4260001 -0.97000003 1.388 23 0 0 0 0.071500003
2.4260001 -0.972 1.3839999 25 0 0 0 0.071510002
2.425 -0.97299999 1.38 25 0 0 0 0.071520001
2.427 -0.97500002 1.377 25 0 0 0 0.071529999
2.428 -0.97600001 1.373 25 0 0 0 0.071539998
2.4289999 -0.97799999 1.37 25 0 0 0 0.071549997
2.4289999 -0.97899997 1.3660001 26 0 0 0 0.071560003
2.427 -0.97899997 1.36 27 0 0 0 0.071570002
2.425 -0.97899997 1.355 26 0 0 0 0.07158
2.4289999 -0.98199999 1.353 27 0 0 0 0.071589999
2.427 -0.98199999 1.347 28 0 0 0 0.071599998
2.4289999 -0.98400003 1.344 25 0 0 0 0.071610004
2.4260001 -0.98299998 1.337 24 0 0 0 0.071620002
2.428 -0.98400003 1.334 23 0 0 0 0.071630001
2.424 -0.98299998 1.327 20 0 0 0 0.07164
2.424 -0.98400003 1.322 21 0 0 0 0.071649998
2.428 -0.986 1.319 21 0 0 0 0.071659997
2.425 -0.98400003 1.312 21 0 0 0 0.071670003
2.4260001 -0.98500001 1.308 21 0 0 0 0.071680002
2.4260001 -0.98500001 1.302 21 0 0 0 0.071690001
2.425 -0.98500001 1.2970001 21 0 0 0 0.071699999
2.4260001 -0.98500001 1.2920001 23 0 0 0 0.071709998
2.4219999 -0.98299998 1.284 24 0 0 0 0.071719997
2.424 -0.98400003 1.28 23 0 0 0 0.071730003
2.4260001 -0.98400003 1.275 24 0 0 0 0.071740001
2.428 -0.98500001 1.271 23 0 0 0 0.07175
2.4289999 -0.98400003 1.265 24 0 0 0 0.071759999
2.4289999 -0.98400003 1.26 23 0 0 0 0.071769997
2.424 -0.98100001 1.252 22 0 0 0 0.071780004
2.427 -0.98100001 1.247 24 0 0 0 0.071790002
2.4260001 -0.98000002 1.24 25 0 0 0 0.071800001
2.4200001 -0.977 1.232 20 0 0 0 0.07181
2.428 -0.97899997 1.23 13 0 0 0 0.071819998
2.4300001 -0.97799999 1.224 11 0 0 0 0.071829997
2.4630001 -0.991 1.235 36 0 0 0 0.071840003
3.224 -1.295 1.608 81 0 0 0 0.071850002
3.283 -1.317 1.6289999 22 0 0 0 0.07186
3.2880001 -1.317 1.623 29 0 0 0 0.071869999
3.3069999 -1.323 1.624 35 0 0 0 0.071879998
3.3280001 -1.329 1.626 36 0 0 0 0.071889997
3.3440001 -1.3329999 1.625 32 0 0 0 0.071900003
3.3629999 -1.339 1.625 34 0 0 0 0.071910001
3.3889999 -1.346 1.628 34 0 0 0 0.07192
3.4000001 -1.348 1.625 32 0 0 0 0.071929999
3.4200001 -1.353 1.625 29 0 0 0 0.071939997
3.4400001 -1.359 1.625 32 0 0 0 0.071950004
3.4590001 -1.363 1.625 28 0 0 0 0.071960002
3.4809999 -1.369 1.626 27 0 0 0 0.071970001
3.503 -1.374 1.626 28 0 0 0 0.07198
3.5220001 -1.378 1.625 28 0 0 0 0.071989998
3.5450001 -1.3839999 1.626 28 0 0 0 0.071999997
3.5639999 -1.388 1.625 31 0 0 0 0.072010003
3.5780001 -1.39 1.622 32 0 0 0 0.072020002
3.6040001 -1.396 1.623 37 0 0 0 0.07203
3.622 -1.399 1.6210001 40 0 0 0 0.072039999
3.642 -1.403 1.62 38 0 0 0 0.072049998
3.658 -1.405 1.617 33 0 0 0 0.072059996
3.6700001 -1.405 1.612 25 0 0 0 0.072070003
3.6800001 -1.405 1.6059999 20 0 0 0 0.072080001
3.691 -1.405 1.6 18 0 0 0 0.07209
3.7049999 -1.406 1.596 17 0 0 0 0.072099999
3.7149999 -1.405 1.589 17 0 0 0 0.072109997
3.7260001 -1.404 1.5829999 16 0 0 0 0.072120003
3.7409999 -1.405 1.579 16 0 0 0 0.072130002
3.747 -1.402 1.571 16 0 0 0 0.072140001
3.7620001 -1.403 1.566 16 0 0 0 0.072149999
3.776 -1.403 1.561 16 0 0 0 0.072159998
3.7839999 -1.401 1.554 16 0 0 0 0.072169997
3.8 -1.401 1.549 16 0 0 0 0.072180003
3.8169999 -1.402 1.545 17 0 0 0 0.072190002
3.826 -1.4 1.538 16 0 0 0 0.0722
3.842 -1.4 1.533 16 0 0 0 0.072209999
3.8540001 -1.399 1.527 17 0 0 0 0.072219998
3.872 -1.4 1.523 17 0 0 0 0.072229996
3.8840001 -1.399 1.517 17 0 0 0 0.072240002
3.9000001 -1.398 1.511 17 0 0 0 0.072250001
3.911 -1.396 1.5039999 16 0 0 0 0.07226
3.9289999 -1.397 1.5 16 0 0 0 0.072269998
3.9460001 -1.396 1.495 17 0 0 0 0.072279997
3.9619999 -1.396 1.49 17 0 0 0 0.072290003
3.974 -1.393 1.482 17 0 0 0 0.072300002
3.9909999 -1.393 1.477 16 0 0 0 0.072310001
4.006 -1.392 1.472 16 0 0 0 0.072319999
4.02 -1.3890001 1.465 16 0 0 0 0.072329998
4.0370002 -1.3890001 1.46 17 0 0 0 0.072339997
4.0560002 -1.388 1.455 17 0 0 0 0.072350003
4.073 -1.387 1.449 17 0 0 0 0.072360002
4.086 -1.3839999 1.442 16 0 0 0 0.07237
