# .PCD v0.7 - Point Cloud Data file format
VERSION 0.7
FIELDS x y z intensity normal_x normal_y normal_z curvature
SIZE 4 4 4 4 4 4 4 4
TYPE F F F F F F F F
COUNT 1 1 1 1 1 1 1 1
WIDTH 1109
HEIGHT 1
VIEWPOINT 0 0 0 1 0 0 0
POINTS 1109
DATA ascii
3.2360001 -0.31099999 0.226 151 0 0 0 0.0054100002
3.2149999 -0.317 0.23100001 150 0 0 0 0.0054199998
3.207 -0.32499999 0.236 151 0 0 0 0.0054299999
3.21 -0.33399999 0.242 151 0 0 0 0.00544
3.2090001 -0.34299999 0.248 151 0 0 0 0.0054500001
3.2130001 -0.352 0.25400001 151 0 0 0 0.0054600001
3.214 -0.361 0.25999999 151 0 0 0 0.0054700002
3.0050001 -0.34599999 0.248 151 0 0 0 0.0054799998
2.8139999 -0.331 0.23800001 127 0 0 0 0.0054899999
2.5699999 -0.31 0.222 30 0 0 0 0.0055
2.5179999 -0.31 0.222 26 0 0 0 0.00551
2.4619999 -0.31 0.221 22 0 0 0 0.0055200001
2.4119999 -0.31 0.221 20 0 0 0 0.0055300002
2.382 -0.31299999 0.222 31 0 0 0 0.0055399998
2.3840001 -0.31999999 0.227 7 0 0 0 0.0055499999
2.3829999 -0.32699999 0.23100001 0 0 0 0 0.00556
2.3840001 -0.333 0.235 0 0 0 0 0.00557
2.385 -0.34 0.23899999 0 0 0 0 0.0055800001
2.3789999 -0.34599999 0.243 1 0 0 0 0.0055900002
2.3929999 -0.35499999 0.249 0 0 0 0 0.0055999998
2.4289999 -0.36700001 0.257 0 0 0 0 0.0056099999
2.402 -0.36899999 0.25799999 0 0 0 0 0.00562
2.408 -0.377 0.26300001 0 0 0 0 0.00563
2.3989999 -0.382 0.266 0 0 0 0 0.0056400001
0 0 0 0 0 0 0 0.0056500002
0 0 0 0 0 0 0 0.0056599998
0 0 0 0 0 0 0 0.0056699999
0 0 0 0 0 0 0 0.0056799999
0 0 0 0 0 0 0 0.00569
0 0 0 0 0 0 0 0.0057000001
0 0 0 0 0 0 0 0.0057100002
0 0 0 0 0 0 0 0.0057199998
0 0 0 0 0 0 0 0.0057299999
0 0 0 0 0 0 0 0.0057399999
0 0 0 0 0 0 0 0.00575
0 0 0 0 0 0 0 0.0057600001
0 0 0 0 0 0 0 0.0057700002
0 0 0 0 0 0 0 0.0057799998
0 0 0 0 0 0 0 0.0057899999
0 0 0 0 0 0 0 0.0057999999
0 0 0 0 0 0 0 0.00581
0 0 0 0 0 0 0 0.0058200001
0 0 0 0 0 0 0 0.0058300002
0 0 0 0 0 0 0 0.0058400002
0 0 0 0 0 0 0 0.0058499998
0 0 0 0 0 0 0 0.0058599999
0 0 0 0 0 0 0 0.00587
0 0 0 0 0 0 0 0.0058800001
0 0 0 0 0 0 0 0.0058900001
0 0 0 0 0 0 0 0.0059000002
0 0 0 0 0 0 0 0.0059099998
0 0 0 0 0 0 0 0.0059199999
0 0 0 0 0 0 0 0.00593
0 0 0 0 0 0 0 0.0059400001
0 0 0 0 0 0 0 0.0059500001
0 0 0 0 0 0 0 0.0059600002
0 0 0 0 0 0 0 0.0059699998
0 0 0 0 0 0 0 0.0059799999
0 0 0 0 0 0 0 0.00599
0 0 0 0 0 0 0 0.0060000001
0 0 0 0 0 0 0 0.0060100001
0 0 0 0 0 0 0 0.0060200002
0 0 0 0 0 0 0 0.0060299998
0 0 0 0 0 0 0 0.0060399999
0 0 0 0 0 0 0 0.00605
0 0 0 0 0 0 0 0.00606
0 0 0 0 0 0 0 0.0060700001
0 0 0 0 0 0 0 0.0060800002
0 0 0 0 0 0 0 0.0060899998
0 0 0 0 0 0 0 0.0060999999
0 0 0 0 0 0 0 0.00611
0 0 0 0 0 0 0 0.00612
0 0 0 0 0 0 0 0.0061300001
0 0 0 0 0 0 0 0.0061400002
0 0 0 0 0 0 0 0.0061499998
0 0 0 0 0 0 0 0.0061599999
0 0 0 0 0 0 0 0.0061699999
0 0 0 0 0 0 0 0.00618
0 0 0 0 0 0 0 0.0061900001
0 0 0 0 0 0 0 0.0062000002
0 0 0 0 0 0 0 0.0062099998
0 0 0 0 0 0 0 0.0062199999
0 0 0 0 0 0 0 0.0062299999
0 0 0 0 0 0 0 0.00624
2.4070001 -0.824 0.493 0 0 0 0 0.0062500001
0 0 0 0 0 0 0 0.0062600002
0 0 0 0 0 0 0 0.0062699998
0 0 0 0 0 0 0 0.0062799999
3.6440001 -1.293 0.76499999 3 0 0 0 0.0062899999
4.0560002 -1.452 0.85699999 8 0 0 0 0.0063
4.0149999 -1.45 0.85399997 23 0 0 0 0.0063100001
3.99 -1.454 0.85299999 60 0 0 0 0.0063200002
4.0219998 -1.479 0.86500001 29 0 0 0 0.0063299998
3.994 -1.4809999 0.86400002 23 0 0 0 0.0063399998
3.9430001 -1.475 0.85699999 17 0 0 0 0.0063499999
3.8989999 -1.471 0.852 16 0 0 0 0.00636
3.8770001 -1.475 0.852 19 0 0 0 0.0063700001
3.869 -1.484 0.85500002 19 0 0 0 0.0063800002
3.849 -1.489 0.85500002 22 0 0 0 0.0063900002
3.8269999 -1.493 0.85399997 23 0 0 0 0.0063999998
3.7079999 -1.4579999 0.83099997 38 0 0 0 0.0064099999
3.661 -1.451 0.82499999 64 0 0 0 0.00642
3.6589999 -1.462 0.82800001 70 0 0 0 0.0064300001
3.6600001 -1.475 0.833 68 0 0 0 0.0064400001
3.658 -1.4859999 0.83600003 67 0 0 0 0.0064500002
3.6619999 -1.499 0.84100002 68 0 0 0 0.0064599998
3.6619999 -1.511 0.84399998 68 0 0 0 0.0064699999
3.6659999 -1.524 0.84899998 66 0 0 0 0.00648
3.6689999 -1.5369999 0.85299999 67 0 0 0 0.0064900001
3.665 -1.548 0.85600001 66 0 0 0 0.0065000001
3.6659999 -1.559 0.86000001 65 0 0 0 0.0065100002
3.6730001 -1.574 0.86500001 66 0 0 0 0.0065199998
3.6670001 -1.584 0.86699998 64 0 0 0 0.0065299999
3.6719999 -1.598 0.87099999 65 0 0 0 0.00654
3.6719999 -1.609 0.875 65 0 0 0 0.00655
3.675 -1.623 0.87900001 70 0 0 0 0.0065600001
3.6760001 -1.635 0.88200003 70 0 0 0 0.0065700002
3.6730001 -1.646 0.88499999 70 0 0 0 0.0065799998
3.677 -1.659 0.889 69 0 0 0 0.0065899999
3.6760001 -1.67 0.89099997 69 0 0 0 0.0066
3.6789999 -1.684 0.89499998 66 0 0 0 0.00661
3.6800001 -1.696 0.898 67 0 0 0 0.0066200001
3.6800001 -1.707 0.90100002 67 0 0 0 0.0066300002
3.681 -1.72 0.90399998 67 0 0 0 0.0066399998
3.681 -1.7309999 0.90700001 66 0 0 0 0.0066499999
3.6849999 -1.745 0.91000003 65 0 0 0 0.00666
3.6830001 -1.756 0.912 68 0 0 0 0.00667
3.6849999 -1.768 0.91500002 65 0 0 0 0.0066800001
3.684 -1.78 0.91799998 63 0 0 0 0.0066900002
3.688 -1.793 0.921 64 0 0 0 0.0066999998
3.9389999 -1.928 0.986 152 0 0 0 0.0067099999
2.4519999 -1.207 0.61500001 0 0 0 0 0.0067199999
0 0 0 0 0 0 0 0.00673
2.4449999 -1.22 0.616 0 0 0 0 0.0067400001
2.4170001 -1.2130001 0.61000001 0 0 0 0 0.0067500002
2.4679999 -1.2460001 0.625 0 0 0 0 0.0067599998
2.3889999 -1.214 0.60600001 0 0 0 0 0.0067699999
2.5139999 -1.285 0.639 0 0 0 0 0.0067799999
2.487 -1.279 0.63300002 0 0 0 0 0.00679
2.49 -1.288 0.63499999 0 0 0 0 0.0068000001
2.4920001 -1.2970001 0.63599998 0 0 0 0 0.0068100002
4.7189999 -2.47 1.207 35 0 0 0 0.0068199998
4.7179999 -2.484 1.209 38 0 0 0 0.0068299999
4.7179999 -2.4979999 1.21 37 0 0 0 0.0068399999
4.7179999 -2.5120001 1.212 38 0 0 0 0.00685
4.7129998 -2.5239999 1.212 37 0 0 0 0.0068600001
4.7199998 -2.5409999 1.215 37 0 0 0 0.0068700002
4.7210002 -2.556 1.216 38 0 0 0 0.0068799998
2.4849999 -1.353 0.64099997 0 0 0 0 0.0068899998
4.7220001 -2.5840001 1.219 39 0 0 0 0.0068999999
4.7220001 -2.598 1.22 38 0 0 0 0.00691
4.724 -2.6129999 1.221 38 0 0 0 0.0069200001
4.7220001 -2.625 1.221 37 0 0 0 0.0069300001
4.724 -2.6400001 1.222 36 0 0 0 0.0069400002
4.7210002 -2.651 1.222 37 0 0 0 0.0069499998
4.7249999 -2.6670001 1.223 36 0 0 0 0.0069599999
4.724 -2.6800001 1.223 35 0 0 0 0.00697
2.4679999 -1.4069999 0.639 0 0 0 0 0.0069800001
4.7249999 -2.7060001 1.223 34 0 0 0 0.0069900001
4.7259998 -2.7190001 1.223 31 0 0 0 0.0070000002
2.51 -1.451 0.64899999 0 0 0 0 0.0070099998
2.5639999 -1.489 0.66299999 0 0 0 0 0.0070199999
2.4949999 -1.455 0.64499998 0 0 0 0 0.00703
4.4289999 -2.595 1.145 0 0 0 0 0.0070400001
4.3930001 -2.586 1.135 0 0 0 0 0.0070500001
4.3759999 -2.5869999 1.1289999 1 0 0 0 0.0070600002
4.329 -2.5699999 1.117 0 0 0 0 0.0070699998
2.461 -1.467 0.634 0 0 0 0 0.0070799999
2.5050001 -1.5 0.64499998 0 0 0 0 0.00709
4.2470002 -2.553 1.092 4 0 0 0 0.0071
2.494 -1.505 0.63999999 0 0 0 0 0.0071100001
4.197 -2.543 1.076 8 0 0 0 0.0071200002
4.223 -2.569 1.081 9 0 0 0 0.0071299998
4.2150002 -2.5739999 1.0779999 9 0 0 0 0.0071399999
4.211 -2.5810001 1.075 10 0 0 0 0.00715
4.2490001 -2.6140001 1.0829999 14 0 0 0 0.00716
2.5280001 -1.5599999 0.64300001 0 0 0 0 0.0071700001
2.4460001 -1.515 0.62099999 0 0 0 0 0.0071800002
4.2049999 -2.615 1.066 10 0 0 0 0.0071899998
4.3319998 -2.7030001 1.095 15 0 0 0 0.0071999999
4.2849998 -2.6819999 1.081 13 0 0 0 0.00721
4.2290001 -2.655 1.064 9 0 0 0 0.00722
4.2030001 -2.648 1.0549999 7 0 0 0 0.0072300001
4.2020001 -2.6559999 1.052 8 0 0 0 0.0072400002
4.2160001 -2.6719999 1.053 13 0 0 0 0.0072499998
4.2049999 -2.6730001 1.0470001 13 0 0 0 0.0072599999
4.2080002 -2.6830001 1.045 13 0 0 0 0.0072699999
4.2020001 -2.6860001 1.04 13 0 0 0 0.00728
4.198 -2.691 1.036 14 0 0 0 0.0072900001
4.1919999 -2.6949999 1.031 13 0 0 0 0.0073000002
4.1820002 -2.6949999 1.025 14 0 0 0 0.0073099998
4.177 -2.6989999 1.02 14 0 0 0 0.0073199999
4.1739998 -2.704 1.016 13 0 0 0 0.0073299999
4.1570001 -2.6989999 1.008 14 0 0 0 0.00734
4.145 -2.697 1.001 15 0 0 0 0.0073500001
4.1279998 -2.6919999 0.99299997 14 0 0 0 0.0073600002
4.1009998 -2.6800001 0.98299998 17 0 0 0 0.0073699998
4.098 -2.684 0.97799999 53 0 0 0 0.0073799998
4.0929999 -2.6860001 0.97299999 56 0 0 0 0.0073899999
4.0770001 -2.6800001 0.96499997 22 0 0 0 0.0074
4.0560002 -2.6719999 0.95499998 14 0 0 0 0.0074100001
4.0409999 -2.6659999 0.94700003 12 0 0 0 0.0074200002
4.0100002 -2.6500001 0.93599999 7 0 0 0 0.0074300002
4.0009999 -2.648 0.92900002 7 0 0 0 0.0074399998
4.0009999 -2.652 0.92500001 7 0 0 0 0.0074499999
4.0110002 -2.6630001 0.92299998 17 0 0 0 0.00746
4.0100002 -2.665 0.917 24 0 0 0 0.0074700001
4.0110002 -2.6700001 0.91299999 28 0 0 0 0.0074800001
4.0050001 -2.6689999 0.90600002 24 0 0 0 0.0074900002
4.0079999 -2.674 0.90200001 24 0 0 0 0.0074999998
4.0149999 -2.681 0.89899999 25 0 0 0 0.0075099999
4.0110002 -2.681 0.89300001 22 0 0 0 0.00752
4.013 -2.6849999 0.88800001 16 0 0 0 0.0075300001
4.0149999 -2.6889999 0.88300002 12 0 0 0 0.0075400001
4.013 -2.6889999 0.87699997 13 0 0 0 0.0075500002
2.9719999 -1.993 0.64499998 0 0 0 0 0.0075599998
4.0139999 -2.6930001 0.866 13 0 0 0 0.0075699999
4.0139999 -2.694 0.861 14 0 0 0 0.00758
4.0050001 -2.6889999 0.85299999 14 0 0 0 0.0075900001
2.3929999 -1.607 0.50599998 0 0 0 0 0.0076000001
4.0120001 -2.6949999 0.84299999 10 0 0 0 0.0076100002
3.9860001 -2.6789999 0.83200002 7 0 0 0 0.0076199998
2.4349999 -1.636 0.50400001 0 0 0 0 0.0076299999
3.954 -2.6570001 0.81400001 7 0 0 0 0.00764
3.0350001 -2.039 0.62 0 0 0 0 0.00765
3.0120001 -2.023 0.611 0 0 0 0 0.0076600001
3.0079999 -2.02 0.60500002 0 0 0 0 0.0076700002
3.6789999 -2.47 0.73500001 5 0 0 0 0.0076799998
2.9419999 -1.974 0.583 0 0 0 0 0.0076899999
3.783 -2.5380001 0.74400002 7 0 0 0 0.0077
2.967 -1.99 0.579 0 0 0 0 0.00771
2.9170001 -1.955 0.56400001 0 0 0 0 0.0077200001
2.9489999 -1.974 0.565 0 0 0 0 0.0077300002
2.9679999 -1.9859999 0.56400001 0 0 0 0 0.0077399998
2.9590001 -1.978 0.55800003 0 0 0 0 0.0077499999
3.691 -2.4649999 0.69 4 0 0 0 0.0077599999
2.9660001 -1.979 0.54900002 0 0 0 0 0.00777
2.928 -1.951 0.53799999 0 0 0 0 0.0077800001
3.575 -2.3800001 0.65100002 6 0 0 0 0.0077900002
4.0120001 -2.6670001 0.72399998 11 0 0 0 0.0077999998
4.013 -2.664 0.71700001 15 0 0 0 0.0078099999
4.007 -2.6570001 0.70999998 21 0 0 0 0.0078199999
4.0100002 -2.655 0.704 33 0 0 0 0.0078299996
4.006 -2.648 0.69599998 39 0 0 0 0.0078400001
4.0100002 -2.6459999 0.69 45 0 0 0 0.0078499997
2.9660001 -1.954 0.50599998 0 0 0 0 0.0078600002
2.9649999 -1.95 0.50099999 0 0 0 0 0.0078699999
4.0079999 -2.6300001 0.67000002 46 0 0 0 0.0078800004
4.0050001 -2.6229999 0.66299999 43 0 0 0 0.00789
4.007 -2.6199999 0.65600002 26 0 0 0 0.0078999996
2.483 -1.62 0.40200001 0 0 0 0 0.0079100002
2.4170001 -1.574 0.38800001 0 0 0 0 0.0079199998
2.4430001 -1.586 0.38800001 0 0 0 0 0.0079300003
2.444 -1.584 0.384 0 0 0 0 0.0079399999
2.428 -1.5700001 0.377 0 0 0 0 0.0079500005
2.414 -1.557 0.37099999 0 0 0 0 0.0079600001
2.951 -1.898 0.449 0 0 0 0 0.0079699997
3.8770001 -2.4879999 0.583 4 0 0 0 0.0079800002
3.95 -2.5280001 0.58700001 6 0 0 0 0.0079899998
3.9400001 -2.5139999 0.579 6 0 0 0 0.0080000004
3.9330001 -2.503 0.57099998 6 0 0 0 0.00801
3.5829999 -2.273 0.51499999 5 0 0 0 0.0080199996
2.448 -1.549 0.347 0 0 0 0 0.0080300001
2.9189999 -1.841 0.40900001 0 0 0 0 0.0080399998
3.9219999 -2.4660001 0.54400003 6 0 0 0 0.0080500003
3.938 -2.4690001 0.53899997 6 0 0 0 0.0080599999
4.0009999 -2.5 0.54100001 11 0 0 0 0.0080700004
3.8099999 -2.3729999 0.509 6 0 0 0 0.0080800001
3.9130001 -2.4289999 0.51700002 4 0 0 0 0.0080899997
3.9909999 -2.4679999 0.51999998 4 0 0 0 0.0081000002
3.941 -2.4289999 0.50700003 5 0 0 0 0.0081099998
3.9990001 -2.4560001 0.50800002 8 0 0 0 0.0081200004
3.99 -2.441 0.50099999 5 0 0 0 0.00813
3.9909999 -2.4330001 0.49399999 5 0 0 0 0.0081399996
3.9319999 -2.388 0.48100001 5 0 0 0 0.0081500001
3.0250001 -1.83 0.36500001 0 0 0 0 0.0081599997
3.8870001 -2.3429999 0.463 4 0 0 0 0.0081700003
2.4590001 -1.476 0.289 0 0 0 0 0.0081799999
2.96 -1.7690001 0.34299999 0 0 0 0 0.0081900004
4.072 -2.425 0.46599999 3 0 0 0 0.0082
4.026 -2.3870001 0.454 2 0 0 0 0.0082099997
2.4519999 -1.448 0.273 0 0 0 0 0.0082200002
2.5109999 -1.477 0.27500001 0 0 0 0 0.0082299998
4.198 -2.457 0.454 3 0 0 0 0.0082400003
2.497 -1.455 0.266 0 0 0 0 0.00825
2.9519999 -1.7130001 0.31 0 0 0 0 0.0082599996
2.9719999 -1.717 0.308 0 0 0 0 0.0082700001
4.2259998 -2.4300001 0.43200001 10 0 0 0 0.0082799997
4.2839999 -2.4519999 0.43200001 5 0 0 0 0.0082900003
2.4560001 -1.399 0.244 0 0 0 0 0.0082999999
4.2989998 -2.437 0.421 5 0 0 0 0.0083100004
4.335 -2.4449999 0.41800001 6 0 0 0 0.00832
4.3400002 -2.4360001 0.412 5 0 0 0 0.0083299996
4.3530002 -2.431 0.40700001 3 0 0 0 0.0083400002
2.536 -1.409 0.233 0 0 0 0 0.0083499998
2.4690001 -1.365 0.22400001 0 0 0 0 0.0083600003
2.4260001 -1.334 0.21600001 0 0 0 0 0.0083699999
2.4619999 -1.347 0.21600001 0 0 0 0 0.0083799995
2.4790001 -1.349 0.214 0 0 0 0 0.0083900001
2.5220001 -1.3660001 0.214 0 0 0 0 0.0083999997
2.533 -1.364 0.212 0 0 0 0 0.0084100002
2.503 -1.34 0.206 0 0 0 0 0.0084199999
4.5359998 -2.4159999 0.368 2 0 0 0 0.0084300004
2.4579999 -1.302 0.19599999 0 0 0 0 0.00844
2.448 -1.289 0.192 0 0 0 0 0.0084499996
2.4119999 -1.263 0.186 0 0 0 0 0.0084600002
2.461 -1.281 0.186 0 0 0 0 0.0084699998
2.4419999 -1.2640001 0.182 0 0 0 0 0.0084800003
2.461 -1.266 0.18000001 0 0 0 0 0.0084899999
2.4779999 -1.268 0.17900001 0 0 0 0 0.0085000005
2.4059999 -1.223 0.17 0 0 0 0 0.0085100001
2.4130001 -1.22 0.168 0 0 0 0 0.0085199997
2.4820001 -1.2460001 0.17 0 0 0 0 0.0085300002
2.385 -1.1900001 0.16 0 0 0 0 0.0085399998
2.418 -1.2 0.16 0 0 0 0 0.0085500004
2.4920001 -1.229 0.162 0 0 0 0 0.00856
2.4349999 -1.193 0.155 0 0 0 0 0.0085699996
0 0 0 0 0 0 0 0.0085800001
4.6890001 -2.267 0.28799999 26 0 0 0 0.0085899998
0 0 0 0 0 0 0 0.0086000003
1.301 -0.62099999 0.077 0 0 0 0 0.0086099999
1.256 -0.59500003 0.072999999 0 0 0 0 0.0086200004
1.244 -0.58499998 0.071000002 0 0 0 0 0.0086300001
1.222 -0.57099998 0.068000004 1 0 0 0 0.0086399997
1.219 -0.56599998 0.067000002 0 0 0 0 0.0086500002
1.2410001 -0.57200003 0.066 1 0 0 0 0.0086599998
1.233 -0.56400001 0.064999998 1 0 0 0 0.0086700004
1.2309999 -0.55900002 0.063000001 1 0 0 0 0.00868
1.229 -0.55500001 0.061999999 1 0 0 0 0.0086899996
1.224 -0.54799998 0.061000001 1 0 0 0 0.0087000001
1.225 -0.54500002 0.059 1 0 0 0 0.0087099997
1.224 -0.54000002 0.057999998 1 0 0 0 0.0087200003
1.198 -0.52499998 0.056000002 0 0 0 0 0.0087299999
1.197 -0.52100003 0.055 0 0 0 0 0.0087400004
1.214 -0.52399999 0.054000001 1 0 0 0 0.00875
1.217 -0.52200001 0.052999999 1 0 0 0 0.0087599996
1.2130001 -0.51599997 0.052000001 18 0 0 0 0.0087700002
2.4130001 -1.018 0.102 150 0 0 0 0.0087799998
2.3770001 -0.995 0.097999997 40 0 0 0 0.0087900003
2.4089999 -1.001 0.097000003 24 0 0 0 0.0088
2.4119999 -0.99400002 0.094999999 23 0 0 0 0.0088099996
2.4059999 -0.98400003 0.093000002 21 0 0 0 0.0088200001
2.4100001 -0.977 0.090999998 22 0 0 0 0.0088299997
2.4059999 -0.96700001 0.089000002 20 0 0 0 0.0088400003
2.408 -0.96100003 0.086999997 19 0 0 0 0.0088499999
2.408 -0.95300001 0.085000001 19 0 0 0 0.0088600004
2.4059999 -0.94300002 0.082999997 20 0 0 0 0.00887
2.405 -0.935 0.081 18 0 0 0 0.0088799996
2.4070001 -0.92799997 0.079000004 18 0 0 0 0.0088900002
2.405 -0.91900003 0.077 18 0 0 0 0.0088999998
2.404 -0.91100001 0.075000003 20 0 0 0 0.0089100003
2.401 -0.90200001 0.072999999 21 0 0 0 0.0089199999
2.402 -0.89399999 0.071999997 25 0 0 0 0.0089299995
2.3970001 -0.884 0.07 26 0 0 0 0.0089400001
2.3970001 -0.87599999 0.068000004 22 0 0 0 0.0089499997
2.402 -0.87 0.066 20 0 0 0 0.0089600002
2.395 -0.86000001 0.064999998 21 0 0 0 0.0089699998
2.398 -0.852 0.063000001 21 0 0 0 0.0089800004
2.3929999 -0.84299999 0.061000001 23 0 0 0 0.00899
2.3940001 -0.83499998 0.059999999 23 0 0 0 0.0089999996
2.3940001 -0.82700002 0.057999998 23 0 0 0 0.0090100002
2.3929999 -0.81900001 0.057 24 0 0 0 0.0090199998
2.3940001 -0.81099999 0.055 21 0 0 0 0.0090300003
2.395 -0.80299997 0.054000001 22 0 0 0 0.0090399999
2.395 -0.796 0.052000001 23 0 0 0 0.0090500005
2.3929999 -0.787 0.050999999 24 0 0 0 0.0090600001
2.392 -0.77899998 0.048999999 22 0 0 0 0.0090699997
2.3970001 -0.77200001 0.048 22 0 0 0 0.0090800002
2.392 -0.76300001 0.046 20 0 0 0 0.0090899998
2.3929999 -0.755 0.045000002 18 0 0 0 0.0091000004
2.3900001 -0.74599999 0.044 17 0 0 0 0.00911
2.392 -0.73799998 0.041999999 18 0 0 0 0.0091199996
2.3900001 -0.73000002 0.041000001 20 0 0 0 0.0091300001
2.3870001 -0.72100002 0.039999999 21 0 0 0 0.0091399997
2.3870001 -0.713 0.037999999 21 0 0 0 0.0091500003
2.3829999 -0.704 0.037 22 0 0 0 0.0091599999
2.388 -0.69800001 0.035999998 24 0 0 0 0.0091700004
2.3889999 -0.69 0.035 25 0 0 0 0.0091800001
2.385 -0.68099999 0.034000002 22 0 0 0 0.0091899997
2.385 -0.67299998 0.033 21 0 0 0 0.0092000002
2.3859999 -0.66500002 0.032000002 17 0 0 0 0.0092099998
2.382 -0.65600002 0.029999999 16 0 0 0 0.0092200004
2.3859999 -0.64899999 0.028999999 20 0 0 0 0.00923
2.3870001 -0.64099997 0.028000001 21 0 0 0 0.0092399996
2.381 -0.63200003 0.027000001 23 0 0 0 0.0092500001
2.385 -0.625 0.026000001 24 0 0 0 0.0092599997
2.378 -0.61500001 0.025 19 0 0 0 0.0092700003
2.381 -0.60799998 0.024 19 0 0 0 0.0092799999
2.3829999 -0.60100001 0.023 17 0 0 0 0.0092900004
2.381 -0.59200001 0.022 19 0 0 0 0.0093
2.3829999 -0.58499998 0.021 19 0 0 0 0.0093099996
2.3789999 -0.57599998 0.02 16 0 0 0 0.0093200002
2.3859999 -0.56999999 0.02 19 0 0 0 0.0093299998
2.3759999 -0.56 0.018999999 22 0 0 0 0.0093400003
2.3789999 -0.55199999 0.017999999 23 0 0 0 0.0093499999
2.3800001 -0.54500002 0.017000001 21 0 0 0 0.0093599996
2.3740001 -0.53500003 0.016000001 19 0 0 0 0.0093700001
2.378 -0.528 0.016000001 16 0 0 0 0.0093799997
2.378 -0.52100003 0.015 16 0 0 0 0.0093900003
2.381 -0.51300001 0.014 22 0 0 0 0.0093999999
2.3729999 -0.50400001 0.013 23 0 0 0 0.0094100004
2.3740001 -0.49599999 0.013 23 0 0 0 0.00942
2.3729999 -0.48800001 0.012 20 0 0 0 0.0094299996
2.3729999 -0.47999999 0.011 17 0 0 0 0.0094400002
2.378 -0.47299999 0.011 15 0 0 0 0.0094499998
2.372 -0.46399999 0.0099999998 14 0 0 0 0.0094600003
2.375 -0.45699999 0.0089999996 14 0 0 0 0.0094699999
2.3710001 -0.449 0.0089999996 17 0 0 0 0.0094799995
2.3729999 -0.44100001 0.0080000004 18 0 0 0 0.0094900001
2.3740001 -0.433 0.0080000004 18 0 0 0 0.0094999997
2.3699999 -0.42500001 0.0070000002 19 0 0 0 0.0095100002
2.3670001 -0.417 0.0060000001 24 0 0 0 0.0095199998
2.3710001 -0.41 0.0060000001 24 0 0 0 0.0095300004
2.369 -0.40099999 0.0049999999 21 0 0 0 0.00954
2.3699999 -0.39399999 0.0049999999 22 0 0 0 0.0095499996
2.3659999 -0.38499999 0.0040000002 22 0 0 0 0.0095600002
2.3670001 -0.37799999 0.0040000002 18 0 0 0 0.0095699998
2.3710001 -0.37 0.0040000002 15 0 0 0 0.0095800003
2.3699999 -0.36300001 0.003 16 0 0 0 0.0095899999
2.3640001 -0.354 0.003 16 0 0 0 0.0096000005
2.3640001 -0.34599999 0.0020000001 18 0 0 0 0.0096100001
2.3629999 -0.338 0.0020000001 18 0 0 0 0.0096199997
2.3640001 -0.331 0.0020000001 20 0 0 0 0.0096300002
2.3659999 -0.32300001 0.001 21 0 0 0 0.0096399998
2.402 -0.31999999 0.001 29 0 0 0 0.0096500004
2.4460001 -0.31799999 0.001 23 0 0 0 0.00966
2.516 -0.31900001 0 30 0 0 0 0.0096699996
2.5739999 -0.31799999 0 30 0 0 0 0.0096800001
2.839 -0.34099999 0 99 0 0 0 0.0096899997
3.0899999 -0.36199999 0 150 0 0 0 0.0097000003
3.2130001 -0.36500001 0 150 0 0 0 0.0097099999
3.211 -0.35499999 0 150 0 0 0 0.0097200004
3.207 -0.34400001 -0.001 150 0 0 0 0.00973
3.2060001 -0.333 -0.001 150 0 0 0 0.0097399997
3.2090001 -0.32300001 -0.001 150 0 0 0 0.0097500002
3.2409999 -0.31600001 -0.001 152 0 0 0 0.0097599998
3.2390001 -0.30500001 -0.0020000001 151 0 0 0 0.0097700004
3.2349999 -0.294 -0.0020000001 151 0 0 0 0.00978
3.2360001 -0.28400001 -0.0020000001 152 0 0 0 0.0097899996
3.237 -0.273 -0.0020000001 152 0 0 0 0.0098000001
3.2309999 -0.26199999 -0.0020000001 151 0 0 0 0.0098099997
3.332 -0.25999999 -0.0020000001 65 0 0 0 0.0098200003
3.3440001 -0.25 -0.003 152 0 0 0 0.0098299999
3.346 -0.23899999 -0.003 151 0 0 0 0.0098400004
3.345 -0.228 -0.003 152 0 0 0 0.00985
3.346 -0.21699999 -0.003 151 0 0 0 0.0098599996
3.3740001 -0.208 -0.003 151 0 0 0 0.0098700002
3.375 -0.197 -0.003 151 0 0 0 0.0098799998
3.3659999 -0.186 -0.003 151 0 0 0 0.0098900003
3.4200001 -0.178 -0.003 152 0 0 0 0.0098999999
3.434 -0.167 -0.003 152 0 0 0 0.0099099996
3.4330001 -0.156 -0.003 150 0 0 0 0.0099200001
3.4330001 -0.145 -0.003 150 0 0 0 0.0099299997
3.4319999 -0.134 -0.003 150 0 0 0 0.0099400003
3.4360001 -0.123 -0.003 150 0 0 0 0.0099499999
3.4330001 -0.112 -0.0020000001 150 0 0 0 0.0099600004
3.431 -0.1 -0.0020000001 150 0 0 0 0.00997
3.4300001 -0.089000002 -0.0020000001 150 0 0 0 0.0099799996
3.427 -0.078000002 -0.0020000001 150 0 0 0 0.0099900002
3.428 -0.067000002 -0.0020000001 150 0 0 0 0.0099999998
3.428 -0.056000002 -0.001 150 0 0 0 0.01001
3.427 -0.045000002 -0.001 150 0 0 0 0.01002
3.424 -0.034000002 -0.001 150 0 0 0 0.01003
3.4189999 -0.023 -0.001 150 0 0 0 0.01004
3.4189999 -0.012 0 150 0 0 0 0.01005
3.4189999 -0.001 0 151 0 0 0 0.01006
3.4189999 0.0099999998 0 151 0 0 0 0.01007
3.418 0.021 0 151 0 0 0 0.01008
3.4170001 0.032000002 0 151 0 0 0 0.01009
3.4219999 0.043000001 0 152 0 0 0 0.0101
3.4170001 0.054000001 0.001 152 0 0 0 0.01011
3.415 0.064999998 0.001 153 0 0 0 0.01012
3.4070001 0.075999998 0.0020000001 153 0 0 0 0.01013
3.4030001 0.086999997 0.0020000001 153 0 0 0 0.01014
3.401 0.097999997 0.003 154 0 0 0 0.01015
3.385 0.108 0.003 154 0 0 0 0.01016
3.382 0.119 0.0040000002 154 0 0 0 0.01017
3.3829999 0.13 0.0040000002 155 0 0 0 0.01018
3.3829999 0.141 0.0049999999 155 0 0 0 0.01019
3.3710001 0.15099999 0.0049999999 157 0 0 0 0.0102
3.365 0.162 0.0060000001 158 0 0 0 0.01021
3.369 0.17299999 0.0070000002 158 0 0 0 0.01022
3.362 0.184 0.0070000002 158 0 0 0 0.01023
3.3629999 0.19400001 0.0080000004 159 0 0 0 0.01024
3.362 0.205 0.0089999996 159 0 0 0 0.01025
3.3599999 0.21600001 0.0089999996 159 0 0 0 0.01026
3.3610001 0.227 0.0099999998 159 0 0 0 0.01027
3.3570001 0.237 0.011 160 0 0 0 0.01028
3.3540001 0.248 0.012 160 0 0 0 0.01029
3.3529999 0.259 0.012 159 0 0 0 0.0103
3.362 0.271 0.013 160 0 0 0 0.01031
3.355 0.28099999 0.014 159 0 0 0 0.01032
3.3570001 0.292 0.015 159 0 0 0 0.01033
3.3529999 0.303 0.016000001 159 0 0 0 0.01034
3.3610001 0.31400001 0.017000001 158 0 0 0 0.01035
3.3659999 0.32600001 0.017000001 157 0 0 0 0.01036
3.3640001 0.336 0.017999999 156 0 0 0 0.01037
3.3559999 0.34599999 0.018999999 158 0 0 0 0.01038
3.355 0.35699999 0.02 158 0 0 0 0.01039
3.3629999 0.36899999 0.021 156 0 0 0 0.0104
3.3629999 0.38 0.022 155 0 0 0 0.01041
3.3770001 0.39300001 0.023 154 0 0 0 0.01042
3.375 0.403 0.024 154 0 0 0 0.01043
3.3770001 0.414 0.025 154 0 0 0 0.01044
3.391 0.42699999 0.027000001 152 0 0 0 0.01045
3.392 0.43799999 0.028000001 152 0 0 0 0.01046
3.3929999 0.449 0.028999999 152 0 0 0 0.01047
3.385 0.46000001 0.029999999 152 0 0 0 0.01048
3.3859999 0.47099999 0.030999999 151 0 0 0 0.01049
3.3870001 0.48199999 0.032000002 151 0 0 0 0.0105
3.385 0.49200001 0.033 151 0 0 0 0.01051
3.3829999 0.50300002 0.035 152 0 0 0 0.01052
3.3659999 0.51200002 0.035999998 154 0 0 0 0.01053
3.3180001 0.51499999 0.037 151 0 0 0 0.01054
3.3210001 0.52700001 0.037999999 151 0 0 0 0.01055
3.306 0.53500003 0.039000001 151 0 0 0 0.01056
3.289 0.54299998 0.039999999 153 0 0 0 0.01057
3.2809999 0.55199999 0.041000001 153 0 0 0 0.01058
3.28 0.56300002 0.043000001 153 0 0 0 0.01059
3.28 0.574 0.044 153 0 0 0 0.0106
3.273 0.583 0.045000002 62 0 0 0 0.01061
3.227 0.58600003 0.046 24 0 0 0 0.01062
3.1670001 0.58499998 0.046999998 25 0 0 0 0.01063
3.098 0.58200002 0.046999998 25 0 0 0 0.01064
3.007 0.57499999 0.046999998 24 0 0 0 0.01065
2.934 0.57099998 0.046999998 25 0 0 0 0.01066
2.8959999 0.57300001 0.048 26 0 0 0 0.01067
2.8169999 0.56599998 0.048 26 0 0 0 0.01068
2.7249999 0.55699998 0.048 26 0 0 0 0.01069
2.6340001 0.54699999 0.046999998 24 0 0 0 0.0107
2.5450001 0.537 0.046999998 21 0 0 0 0.01071
2.487 0.53299999 0.046999998 21 0 0 0 0.01072
2.428 0.528 0.046999998 20 0 0 0 0.01073
2.372 0.52399999 0.046999998 20 0 0 0 0.01074
2.289 0.51300001 0.046999998 97 0 0 0 0.01075
2.26 0.514 0.048 151 0 0 0 0.01076
2.247 0.51800001 0.048999999 151 0 0 0 0.01077
2.2449999 0.52499998 0.050000001 151 0 0 0 0.01078
2.2409999 0.53200001 0.050999999 150 0 0 0 0.01079
2.227 0.53600001 0.052000001 151 0 0 0 0.0108
2.2309999 0.54400003 0.052999999 151 0 0 0 0.01081
2.223 0.54900002 0.054000001 151 0 0 0 0.01082
2.2279999 0.55800003 0.056000002 151 0 0 0 0.01083
2.227 0.565 0.057 151 0 0 0 0.01084
2.224 0.57200003 0.057999998 151 0 0 0 0.01085
2.223 0.57800001 0.059999999 150 0 0 0 0.01086
2.223 0.58600003 0.061000001 151 0 0 0 0.01087
2.2279999 0.59399998 0.063000001 150 0 0 0 0.01088
2.2360001 0.60399997 0.064000003 151 0 0 0 0.01089
2.233 0.61000001 0.066 151 0 0 0 0.0109
2.233 0.61799997 0.067000002 151 0 0 0 0.01091
2.2309999 0.625 0.068999998 151 0 0 0 0.01092
2.2309999 0.63200003 0.07 151 0 0 0 0.01093
2.277 0.653 0.072999999 150 0 0 0 0.01094
2.4319999 0.70499998 0.079999998 150 0 0 0 0.01095
2.4849999 0.72899997 0.082999997 150 0 0 0 0.01096
2.4890001 0.73799998 0.085000001 150 0 0 0 0.01097
2.4809999 0.74400002 0.086999997 150 0 0 0 0.01098
2.4820001 0.75300002 0.089000002 150 0 0 0 0.01099
2.346 0.71899998 0.085000001 150 0 0 0 0.011
2.5020001 0.77499998 0.093000002 133 0 0 0 0.01101
1.4910001 0.46700001 0.056000002 1 0 0 0 0.01102
1.448 0.458 0.056000002 1 0 0 0 0.01103
1.429 0.45699999 0.056000002 1 0 0 0 0.01104
1.425 0.46000001 0.057 1 0 0 0 0.01105
1.404 0.458 0.057 1 0 0 0 0.01106
1.375 0.45300001 0.057 1 0 0 0 0.01107
1.362 0.45300001 0.057999998 1 0 0 0 0.01108
1.344 0.45199999 0.057999998 0 0 0 0 0.01109
1.339 0.454 0.059 1 0 0 0 0.0111
1.321 0.45300001 0.059 8 0 0 0 0.01111
1.3 0.44999999 0.059999999 118 0 0 0 0.01112
1.293 0.45199999 0.059999999 150 0 0 0 0.01113
1.2920001 0.456 0.061999999 146 0 0 0 0.01114
1.293 0.46000001 0.063000001 150 0 0 0 0.01115
1.2970001 0.46599999 0.064000003 150 0 0 0 0.01116
1.296 0.47 0.064999998 140 0 0 0 0.01117
1.295 0.47400001 0.066 145 0 0 0 0.01118
1.295 0.47799999 0.068000004 145 0 0 0 0.01119
1.294 0.48199999 0.068999998 141 0 0 0 0.0112
1.2920001 0.48500001 0.07 138 0 0 0 0.01121
1.293 0.49000001 0.071000002 149 0 0 0 0.01122
1.3 0.49700001 0.072999999 58 0 0 0 0.01123
1.296 0.5 0.074000001 11 0 0 0 0.01124
1.2640001 0.491 0.072999999 5 0 0 0 0.01125
1.252 0.491 0.074000001 0 0 0 0 0.01126
3.3340001 1.318 0.20100001 2 0 0 0 0.01127
3.316 1.322 0.20299999 5 0 0 0 0.01128
3.3199999 1.334 0.207 5 0 0 0 0.01129
3.3169999 1.344 0.20999999 5 0 0 0 0.0113
3.325 1.358 0.214 3 0 0 0 0.01131
3.303 1.359 0.21600001 2 0 0 0 0.01132
3.257 1.351 0.21699999 2 0 0 0 0.01133
3.2579999 1.362 0.22 4 0 0 0 0.01134
3.25 1.369 0.223 4 0 0 0 0.01135
3.2460001 1.378 0.227 3 0 0 0 0.01136
3.237 1.385 0.23 3 0 0 0 0.01137
3.2379999 1.395 0.233 3 0 0 0 0.01138
3.234 1.404 0.237 3 0 0 0 0.01139
3.23 1.4119999 0.23999999 3 0 0 0 0.0114
3.2279999 1.4220001 0.244 3 0 0 0 0.01141
3.2 1.42 0.24600001 2 0 0 0 0.01142
3.187 1.424 0.248 0 0 0 0 0.01143
3.1459999 1.416 0.249 0 0 0 0 0.01144
3.118 1.413 0.25099999 1 0 0 0 0.01145
3.109 1.419 0.25400001 2 0 0 0 0.01146
3.109 1.429 0.25799999 2 0 0 0 0.01147
3.1129999 1.4400001 0.26199999 3 0 0 0 0.01148
3.1129999 1.45 0.266 2 0 0 0 0.01149
3.109 1.4579999 0.27000001 2 0 0 0 0.0115
3.098 1.462 0.273 2 0 0 0 0.01151
3.0780001 1.4630001 0.27500001 2 0 0 0 0.01152
3.0739999 1.47 0.278 2 0 0 0 0.01153
3.0669999 1.476 0.28200001 2 0 0 0 0.01154
3.069 1.487 0.28600001 2 0 0 0 0.01155
3.0650001 1.494 0.28999999 2 0 0 0 0.01156
3.0799999 1.511 0.296 2 0 0 0 0.01157
3.0799999 1.52 0.30000001 2 0 0 0 0.01158
3.059 1.5190001 0.30199999 1 0 0 0 0.01159
3.079 1.538 0.308 1 0 0 0 0.0116
0.912 0.458 0.092 0 0 0 0 0.01161
0.912 0.461 0.093999997 3 0 0 0 0.01162
0.91100001 0.463 0.094999999 3 0 0 0 0.01163
0.912 0.46700001 0.096000001 4 0 0 0 0.01164
0.92000002 0.47299999 0.097999997 4 0 0 0 0.01165
0.91399997 0.47299999 0.098999999 4 0 0 0 0.01166
0.90899998 0.47299999 0.1 0 0 0 0 0.01167
3.6700001 1.92 0.41 3 0 0 0 0.01168
3.6860001 1.939 0.417 8 0 0 0 0.01169
3.688 1.951 0.42300001 14 0 0 0 0.0117
3.688 1.962 0.428 20 0 0 0 0.01171
3.6830001 1.969 0.433 20 0 0 0 0.01172
3.688 1.982 0.44 22 0 0 0 0.01173
3.684 1.9910001 0.44499999 22 0 0 0 0.01174
3.681 1.999 0.44999999 22 0 0 0 0.01175
3.678 2.0079999 0.456 18 0 0 0 0.01176
3.677 2.017 0.461 15 0 0 0 0.01177
3.661 2.0179999 0.465 10 0 0 0 0.01178
3.6630001 2.029 0.47099999 8 0 0 0 0.01179
3.6270001 2.0190001 0.472 7 0 0 0 0.0118
3.566 1.995 0.47 5 0 0 0 0.01181
3.526 1.982 0.47099999 5 0 0 0 0.01182
3.553 2.006 0.47999999 5 0 0 0 0.01183
3.55 2.0139999 0.486 5 0 0 0 0.01184
3.5239999 2.0079999 0.48800001 5 0 0 0 0.01185
3.516 2.0120001 0.49200001 6 0 0 0 0.01186
3.529 2.0280001 0.5 6 0 0 0 0.01187
3.54 2.0439999 0.50800002 6 0 0 0 0.01188
3.5280001 2.0450001 0.51200002 6 0 0 0 0.01189
3.4879999 2.03 0.51200002 5 0 0 0 0.0119
3.4330001 2.007 0.50999999 4 0 0 0 0.01191
3.3410001 1.961 0.50199997 3 0 0 0 0.01192
3.25 1.915 0.49399999 2 0 0 0 0.01193
3.234 1.913 0.49700001 2 0 0 0 0.01194
3.237 1.9220001 0.50300002 1 0 0 0 0.01195
3.2290001 1.925 0.50700003 1 0 0 0 0.01196
3.214 1.923 0.50999999 1 0 0 0 0.01197
3.194 1.918 0.51300001 1 0 0 0 0.01198
3.2149999 1.938 0.52200001 1 0 0 0 0.01199
1.295 0.78299999 0.212 0 0 0 0 0.012
1.309 0.79400003 0.21699999 0 0 0 0 0.01201
3.1900001 1.943 0.53399998 1 0 0 0 0.01202
3.2349999 1.977 0.54799998 1 0 0 0 0.01203
3.28 2.0109999 0.56099999 1 0 0 0 0.01204
3.326 2.0450001 0.57499999 1 0 0 0 0.01205
3.2869999 2.0280001 0.574 1 0 0 0 0.01206
3.25 2.0109999 0.57300001 1 0 0 0 0.01207
3.233 2.006 0.57599998 1 0 0 0 0.01208
3.244 2.0190001 0.58399999 1 0 0 0 0.01209
3.3499999 2.0910001 0.60900003 1 0 0 0 0.0121
3.48 2.1789999 0.63800001 2 0 0 0 0.01211
3.576 2.2449999 0.662 3 0 0 0 0.01212
3.586 2.256 0.671 4 0 0 0 0.01213
3.585 2.2620001 0.67699999 4 0 0 0 0.01214
3.6140001 2.286 0.68900001 4 0 0 0 0.01215
3.612 2.29 0.69499999 4 0 0 0 0.01216
3.6040001 2.29 0.69999999 4 0 0 0 0.01217
3.612 2.3 0.708 4 0 0 0 0.01218
3.6170001 2.309 0.71499997 4 0 0 0 0.01219
3.618 2.3139999 0.722 3 0 0 0 0.0122
3.6259999 2.3239999 0.73000002 3 0 0 0 0.01221
3.6300001 2.332 0.73699999 3 0 0 0 0.01222
3.6389999 2.342 0.745 3 0 0 0 0.01223
3.6210001 2.335 0.74800003 3 0 0 0 0.01224
3.5710001 2.306 0.74400002 2 0 0 0 0.01225
3.6329999 2.3499999 0.76300001 2 0 0 0 0.01226
3.4519999 2.237 0.73199999 1 0 0 0 0.01227
3.2379999 2.1010001 0.69099998 0 0 0 0 0.01228
3.1800001 2.0669999 0.685 0 0 0 0 0.01229
3.1429999 2.0450001 0.68199998 1 0 0 0 0.0123
0 0 0 0 0 0 0 0.01231
0 0 0 0 0 0 0 0.01232
0 0 0 0 0 0 0 0.01233
0 0 0 0 0 0 0 0.01234
0 0 0 0 0 0 0 0.01235
0 0 0 0 0 0 0 0.01236
0 0 0 0 0 0 0 0.01237
0 0 0 0 0 0 0 0.01238
0 0 0 0 0 0 0 0.01239
0 0 0 0 0 0 0 0.0124
1.4529999 0.95499998 0.34200001 0 0 0 0 0.01241
1.415 0.93000001 0.33500001 0 0 0 0 0.01242
1.369 0.89999998 0.32600001 2 0 0 0 0.01243
1.331 0.87599999 0.31900001 15 0 0 0 0.01244
0 0 0 0 0 0 0 0.01245
1.2460001 0.81999999 0.303 151 0 0 0 0.01246
1.2460001 0.81999999 0.30399999 152 0 0 0 0.01247
1.245 0.81900001 0.30599999 151 0 0 0 0.01248
0 0 0 0 0 0 0 0.01249
0 0 0 0 0 0 0 0.0125
0 0 0 0 0 0 0 0.01251
0 0 0 0 0 0 0 0.01252
0 0 0 0 0 0 0 0.01253
0 0 0 0 0 0 0 0.01254
1.34 0.88 0.34299999 14 0 0 0 0.01255
1.38 0.90499997 0.35499999 1 0 0 0 0.01256
1.421 0.93099999 0.36700001 0 0 0 0 0.01257
1.3329999 0.87300003 0.347 0 0 0 0 0.01258
1.369 0.89600003 0.35699999 0 0 0 0 0.01259
0 0 0 0 0 0 0 0.0126
0 0 0 0 0 0 0 0.01261
0 0 0 0 0 0 0 0.01262
0 0 0 0 0 0 0 0.01263
0 0 0 0 0 0 0 0.01264
0 0 0 0 0 0 0 0.01265
0 0 0 0 0 0 0 0.01266
0 0 0 0 0 0 0 0.01267
0 0 0 0 0 0 0 0.01268
0 0 0 0 0 0 0 0.01269
0 0 0 0 0 0 0 0.0127
0 0 0 0 0 0 0 0.01271
0 0 0 0 0 0 0 0.01272
0 0 0 0 0 0 0 0.01273
0 0 0 0 0 0 0 0.01274
0 0 0 0 0 0 0 0.01275
0 0 0 0 0 0 0 0.01276
0 0 0 0 0 0 0 0.01277
0 0 0 0 0 0 0 0.01278
0 0 0 0 0 0 0 0.01279
0 0 0 0 0 0 0 0.0128
0 0 0 0 0 0 0 0.01281
3.691 2.3139999 1.05 1 0 0 0 0.01282
3.6919999 2.3080001 1.053 2 0 0 0 0.01283
3.675 2.2909999 1.051 2 0 0 0 0.01284
3.681 2.2880001 1.0549999 1 0 0 0 0.01285
0 0 0 0 0 0 0 0.01286
0 0 0 0 0 0 0 0.01287
0 0 0 0 0 0 0 0.01288
0 0 0 0 0 0 0 0.01289
0 0 0 0 0 0 0 0.0129
0 0 0 0 0 0 0 0.01291
0 0 0 0 0 0 0 0.01292
0 0 0 0 0 0 0 0.01293
0 0 0 0 0 0 0 0.01294
1.131 0.68000001 0.33000001 1 0 0 0 0.01295
0 0 0 0 0 0 0 0.01296
0 0 0 0 0 0 0 0.01297
0 0 0 0 0 0 0 0.01298
0 0 0 0 0 0 0 0.01299
1.183 0.69700003 0.34599999 0 0 0 0 0.013
1.2029999 0.70700002 0.352 0 0 0 0 0.01301
3.6029999 2.1070001 1.057 2 0 0 0 0.01302
3.595 2.0940001 1.0549999 0 0 0 0 0.01303
3.576 2.0739999 1.05 2 0 0 0 0.01304
0 0 0 0 0 0 0 0.01305
0 0 0 0 0 0 0 0.01306
0 0 0 0 0 0 0 0.01307
1.216 0.69300002 0.35699999 0 0 0 0 0.01308
0 0 0 0 0 0 0 0.01309
1.1900001 0.671 0.34900001 0 0 0 0 0.0131
0 0 0 0 0 0 0 0.01311
0 0 0 0 0 0 0 0.01312
0 0 0 0 0 0 0 0.01313
0 0 0 0 0 0 0 0.01314
1.067 0.58700001 0.31200001 0 0 0 0 0.01315
0 0 0 0 0 0 0 0.01316
1.301 0.70899999 0.38100001 0 0 0 0 0.01317
1.2920001 0.70099998 0.377 0 0 0 0 0.01318
0 0 0 0 0 0 0 0.01319
0 0 0 0 0 0 0 0.0132
0 0 0 0 0 0 0 0.01321
0 0 0 0 0 0 0 0.01322
0.91799998 0.484 0.266 0 0 0 0 0.01323
0.90899998 0.477 0.264 5 0 0 0 0.01324
0.903 0.47099999 0.26100001 7 0 0 0 0.01325
0.89300001 0.463 0.25799999 16 0 0 0 0.01326
0.89200002 0.46000001 0.257 21 0 0 0 0.01327
0.89600003 0.46000001 0.25799999 18 0 0 0 0.01328
0.90499997 0.46200001 0.25999999 10 0 0 0 0.01329
0.90899998 0.461 0.26100001 5 0 0 0 0.0133
0.91900003 0.463 0.26300001 0 0 0 0 0.01331
0.91500002 0.45899999 0.26199999 0 0 0 0 0.01332
0.92400002 0.46000001 0.264 0 0 0 0 0.01333
0.92500001 0.458 0.26300001 0 0 0 0 0.01334
0.93099999 0.458 0.264 0 0 0 0 0.01335
0.94 0.46000001 0.266 0 0 0 0 0.01336
0.94499999 0.45899999 0.26699999 0 0 0 0 0.01337
0.96200001 0.465 0.271 0 0 0 0 0.01338
0.97600001 0.46799999 0.27399999 0 0 0 0 0.01339
0.98299998 0.46900001 0.27599999 0 0 0 0 0.0134
0.986 0.46700001 0.27599999 0 0 0 0 0.01341
0.99800003 0.46900001 0.278 0 0 0 0 0.01342
1.003 0.46900001 0.27900001 0 0 0 0 0.01343
1.0140001 0.47099999 0.28099999 0 0 0 0 0.01344
1.018 0.47 0.28099999 0 0 0 0 0.01345
1.022 0.46799999 0.28200001 0 0 0 0 0.01346
1.033 0.47 0.28299999 0 0 0 0 0.01347
1.045 0.472 0.28600001 0 0 0 0 0.01348
1.0549999 0.47299999 0.28799999 0 0 0 0 0.01349
1.061 0.472 0.28799999 0 0 0 0 0.0135
1.069 0.47299999 0.289 0 0 0 0 0.01351
1.0700001 0.47 0.289 0 0 0 0 0.01352
1.091 0.47499999 0.29300001 0 0 0 0 0.01353
1.096 0.47400001 0.29300001 0 0 0 0 0.01354
1.102 0.47400001 0.294 0 0 0 0 0.01355
1.114 0.47499999 0.296 0 0 0 0 0.01356
1.123 0.47499999 0.29699999 0 0 0 0 0.01357
1.133 0.47600001 0.29899999 0 0 0 0 0.01358
1.143 0.477 0.30000001 0 0 0 0 0.01359
1.158 0.479 0.30199999 0 0 0 0 0.0136
1.164 0.47799999 0.303 0 0 0 0 0.01361
1.179 0.48100001 0.30500001 0 0 0 0 0.01362
1.1849999 0.479 0.30500001 0 0 0 0 0.01363
1.199 0.48100001 0.308 0 0 0 0 0.01364
1.216 0.484 0.31 0 0 0 0 0.01365
1.244 0.491 0.31600001 0 0 0 0 0.01366
1.26 0.49399999 0.31900001 9 0 0 0 0.01367
1.28 0.49700001 0.322 32 0 0 0 0.01368
1.281 0.49399999 0.32100001 112 0 0 0 0.01369
1.273 0.48699999 0.317 150 0 0 0 0.0137
1.275 0.48300001 0.31600001 150 0 0 0 0.01371
1.272 0.479 0.31400001 150 0 0 0 0.01372
1.273 0.47499999 0.31200001 150 0 0 0 0.01373
1.275 0.472 0.31099999 150 0 0 0 0.01374
1.276 0.46799999 0.31 150 0 0 0 0.01375
1.278 0.465 0.308 150 0 0 0 0.01376
1.278 0.461 0.30599999 150 0 0 0 0.01377
1.279 0.45699999 0.30500001 150 0 0 0 0.01378
1.276 0.45199999 0.303 150 0 0 0 0.01379
1.279 0.449 0.301 150 0 0 0 0.0138
1.2869999 0.44800001 0.301 150 0 0 0 0.01381
1.304 0.44999999 0.30399999 62 0 0 0 0.01382
1.326 0.45300001 0.30700001 10 0 0 0 0.01383
1.349 0.45699999 0.31 7 0 0 0 0.01384
1.358 0.456 0.31 7 0 0 0 0.01385
1.375 0.45699999 0.31200001 7 0 0 0 0.01386
1.397 0.46000001 0.315 8 0 0 0 0.01387
1.411 0.461 0.31600001 8 0 0 0 0.01388
1.427 0.46200001 0.31799999 8 0 0 0 0.01389
1.442 0.46200001 0.31900001 9 0 0 0 0.0139
1.459 0.463 0.32100001 9 0 0 0 0.01391
1.478 0.46399999 0.322 9 0 0 0 0.01392
1.48 0.461 0.32100001 8 0 0 0 0.01393
1.497 0.461 0.322 4 0 0 0 0.01394
1.503 0.458 0.32100001 0 0 0 0 0.01395
4.0139999 1.2130001 0.85100001 59 0 0 0 0.01396
4.013 1.201 0.84500003 56 0 0 0 0.01397
4.0180001 1.1900001 0.83899999 56 0 0 0 0.01398
4.0180001 1.178 0.833 57 0 0 0 0.01399
0 0 0 0 0 0 0 0.014
0 0 0 0 0 0 0 0.01401
2.23 0.63300002 0.45100001 151 0 0 0 0.01402
2.23 0.62699997 0.44800001 151 0 0 0 0.01403
2.23 0.62 0.44400001 151 0 0 0 0.01404
2.2320001 0.61400002 0.44100001 151 0 0 0 0.01405
2.234 0.60799998 0.43799999 151 0 0 0 0.01406
2.2349999 0.602 0.43399999 151 0 0 0 0.01407
2.224 0.59200001 0.428 151 0 0 0 0.01408
2.224 0.58499998 0.42399999 151 0 0 0 0.01409
2.2279999 0.57999998 0.421 151 0 0 0 0.0141
2.227 0.57300001 0.41800001 151 0 0 0 0.01411
2.223 0.565 0.41299999 151 0 0 0 0.01412
2.227 0.56 0.41 151 0 0 0 0.01413
2.2290001 0.55400002 0.40599999 151 0 0 0 0.01414
2.2290001 0.54799998 0.403 151 0 0 0 0.01415
2.2279999 0.54100001 0.39899999 151 0 0 0 0.01416
2.2279999 0.53399998 0.39500001 150 0 0 0 0.01417
2.2550001 0.53399998 0.396 151 0 0 0 0.01418
2.2550001 0.528 0.39199999 151 0 0 0 0.01419
2.2579999 0.52200001 0.38800001 151 0 0 0 0.0142
2.26 0.51599997 0.38499999 150 0 0 0 0.01421
2.277 0.51300001 0.384 34 0 0 0 0.01422
2.359 0.52499998 0.39300001 17 0 0 0 0.01423
2.4059999 0.528 0.39700001 17 0 0 0 0.01424
2.457 0.53299999 0.40099999 18 0 0 0 0.01425
2.5150001 0.53799999 0.40599999 19 0 0 0 0.01426
2.5650001 0.54100001 0.40900001 19 0 0 0 0.01427
2.6210001 0.546 0.414 21 0 0 0 0.01428
2.6800001 0.55000001 0.41800001 21 0 0 0 0.01429
2.7420001 0.55599999 0.42300001 22 0 0 0 0.0143
2.819 0.56300002 0.42899999 23 0 0 0 0.01431
2.888 0.56900001 0.435 23 0 0 0 0.01432
2.9630001 0.57499999 0.44100001 24 0 0 0 0.01433
3.0409999 0.58200002 0.447 25 0 0 0 0.01434
3.1140001 0.588 0.45199999 25 0 0 0 0.01435
3.1760001 0.58999997 0.45500001 24 0 0 0 0.01436
3.2249999 0.58999997 0.456 22 0 0 0 0.01437
3.2709999 0.58999997 0.45699999 33 0 0 0 0.01438
3.2839999 0.583 0.45199999 150 0 0 0 0.01439
3.2850001 0.574 0.44600001 151 0 0 0 0.0144
3.2839999 0.565 0.44 151 0 0 0 0.01441
3.286 0.55599999 0.43399999 150 0 0 0 0.01442
3.2850001 0.54699999 0.428 150 0 0 0 0.01443
3.3010001 0.54100001 0.42399999 150 0 0 0 0.01444
3.323 0.53500003 0.41999999 151 0 0 0 0.01445
3.3210001 0.52600002 0.414 150 0 0 0 0.01446
3.3299999 0.51800001 0.40900001 150 0 0 0 0.01447
3.382 0.51700002 0.40799999 150 0 0 0 0.01448
3.392 0.509 0.403 150 0 0 0 0.01449
3.392 0.5 0.39700001 150 0 0 0 0.0145
3.3940001 0.491 0.391 150 0 0 0 0.01451
3.395 0.48199999 0.384 150 0 0 0 0.01452
3.398 0.47400001 0.37799999 150 0 0 0 0.01453
3.3889999 0.46399999 0.37 150 0 0 0 0.01454
3.3889999 0.454 0.36399999 150 0 0 0 0.01455
3.3970001 0.44600001 0.35800001 150 0 0 0 0.01456
3.3940001 0.43700001 0.35100001 150 0 0 0 0.01457
3.3940001 0.428 0.345 150 0 0 0 0.01458
3.3940001 0.419 0.338 150 0 0 0 0.01459
3.3959999 0.41 0.33199999 150 0 0 0 0.0146
3.3929999 0.40099999 0.32499999 150 0 0 0 0.01461
3.392 0.39199999 0.31799999 150 0 0 0 0.01462
3.401 0.384 0.31200001 150 0 0 0 0.01463
3.398 0.375 0.30500001 151 0 0 0 0.01464
3.4000001 0.366 0.29899999 150 0 0 0 0.01465
3.3959999 0.35699999 0.292 151 0 0 0 0.01466
3.395 0.34799999 0.285 151 0 0 0 0.01467
3.3989999 0.33899999 0.27900001 150 0 0 0 0.01468
3.401 0.33000001 0.27200001 151 0 0 0 0.01469
3.402 0.322 0.26499999 151 0 0 0 0.0147
3.402 0.31299999 0.259 151 0 0 0 0.01471
3.398 0.30399999 0.252 151 0 0 0 0.01472
3.3989999 0.29499999 0.245 151 0 0 0 0.01473
3.401 0.287 0.23800001 151 0 0 0 0.01474
3.402 0.278 0.23100001 151 0 0 0 0.01475
3.402 0.26899999 0.22499999 151 0 0 0 0.01476
3.404 0.26100001 0.21799999 151 0 0 0 0.01477
3.405 0.252 0.211 151 0 0 0 0.01478
3.404 0.243 0.204 151 0 0 0 0.01479
3.405 0.235 0.197 151 0 0 0 0.0148
3.4089999 0.226 0.191 151 0 0 0 0.01481
3.4100001 0.21799999 0.184 151 0 0 0 0.01482
3.4100001 0.20900001 0.177 152 0 0 0 0.01483
3.4089999 0.20100001 0.17 152 0 0 0 0.01484
3.408 0.192 0.163 152 0 0 0 0.01485
3.404 0.183 0.155 152 0 0 0 0.01486
3.411 0.175 0.149 152 0 0 0 0.01487
3.411 0.16599999 0.142 152 0 0 0 0.01488
3.4130001 0.15800001 0.13500001 151 0 0 0 0.01489
3.415 0.149 0.12800001 152 0 0 0 0.0149
3.4130001 0.141 0.121 152 0 0 0 0.01491
3.411 0.132 0.114 153 0 0 0 0.01492
3.4119999 0.124 0.107 152 0 0 0 0.01493
3.4089999 0.115 0.098999999 153 0 0 0 0.01494
3.405 0.106 0.092 153 0 0 0 0.01495
3.4100001 0.097999997 0.085000001 152 0 0 0 0.01496
3.4100001 0.090000004 0.078000002 153 0 0 0 0.01497
3.414 0.081 0.071000002 152 0 0 0 0.01498
3.4170001 0.072999999 0.064000003 152 0 0 0 0.01499
3.4159999 0.064999998 0.057 152 0 0 0 0.015
3.4230001 0.056000002 0.048999999 152 0 0 0 0.01501
3.4170001 0.048 0.041999999 152 0 0 0 0.01502
3.418 0.039000001 0.035 152 0 0 0 0.01503
3.4200001 0.030999999 0.028000001 152 0 0 0 0.01504
3.4200001 0.023 0.02 151 0 0 0 0.01505
3.4230001 0.014 0.013 151 0 0 0 0.01506
3.421 0.0060000001 0.0060000001 151 0 0 0 0.01507
3.4159999 -0.001 0 151 0 0 0 0.01508
3.4219999 -0.0099999998 -0.0080000004 151 0 0 0 0.01509
3.418 -0.017999999 -0.015 151 0 0 0 0.0151
3.4230001 -0.026000001 -0.023 151 0 0 0 0.01511
3.418 -0.034000002 -0.029999999 151 0 0 0 0.01512
3.424 -0.043000001 -0.037 151 0 0 0 0.01513
3.424 -0.050999999 -0.045000002 151 0 0 0 0.01514
3.424 -0.059 -0.052000001 151 0 0 0 0.01515
3.427 -0.068000004 -0.059999999 151 0 0 0 0.01516
3.4260001 -0.075999998 -0.067000002 151 0 0 0 0.01517
3.4260001 -0.083999999 -0.074000001 150 0 0 0 0.01518
3.4300001 -0.092 -0.082000002 151 0 0 0 0.01519
3.4300001 -0.1 -0.090000004 150 0 0 0 0.0152
3.4289999 -0.109 -0.097000003 150 0 0 0 0.01521
3.4289999 -0.117 -0.105 150 0 0 0 0.01522
3.428 -0.125 -0.112 151 0 0 0 0.01523
3.4319999 -0.133 -0.12 150 0 0 0 0.01524
3.431 -0.141 -0.127 150 0 0 0 0.01525
3.4330001 -0.149 -0.13500001 150 0 0 0 0.01526
3.4319999 -0.15800001 -0.14300001 150 0 0 0 0.01527
3.434 -0.16599999 -0.15000001 151 0 0 0 0.01528
3.411 -0.17299999 -0.15700001 153 0 0 0 0.01529
3.4119999 -0.18099999 -0.16500001 151 0 0 0 0.0153
3.369 -0.186 -0.17 150 0 0 0 0.01531
3.369 -0.19400001 -0.178 151 0 0 0 0.01532
3.365 -0.20200001 -0.185 151 0 0 0 0.01533
3.3699999 -0.20999999 -0.193 151 0 0 0 0.01534
3.3510001 -0.21699999 -0.199 150 0 0 0 0.01535
3.3410001 -0.22400001 -0.206 151 0 0 0 0.01536
3.3399999 -0.23199999 -0.214 152 0 0 0 0.01537
3.3410001 -0.23999999 -0.221 151 0 0 0 0.01538
3.342 -0.248 -0.229 151 0 0 0 0.01539
3.3380001 -0.255 -0.237 152 0 0 0 0.0154
3.3329999 -0.26199999 -0.244 150 0 0 0 0.01541
3.2620001 -0.264 -0.24600001 83 0 0 0 0.01542
3.2309999 -0.26899999 -0.25099999 150 0 0 0 0.01543
3.2279999 -0.27700001 -0.25799999 151 0 0 0 0.01544
3.237 -0.285 -0.26699999 151 0 0 0 0.01545
3.2379999 -0.292 -0.27399999 151 0 0 0 0.01546
3.2309999 -0.29899999 -0.28099999 151 0 0 0 0.01547
3.2379999 -0.30700001 -0.289 151 0 0 0 0.01548
3.2349999 -0.31400001 -0.29699999 151 0 0 0 0.01549
3.23 -0.32100001 -0.30399999 151 0 0 0 0.0155
3.21 -0.32699999 -0.30899999 150 0 0 0 0.01551
3.207 -0.33399999 -0.31600001 150 0 0 0 0.01552
3.2049999 -0.34099999 -0.324 150 0 0 0 0.01553
3.207 -0.34799999 -0.33199999 150 0 0 0 0.01554
3.2090001 -0.35600001 -0.33899999 150 0 0 0 0.01555
3.2060001 -0.36300001 -0.347 150 0 0 0 0.01556
3.2079999 -0.37 -0.354 150 0 0 0 0.01557
3.1989999 -0.37599999 -0.361 150 0 0 0 0.01558
2.9089999 -0.34900001 -0.33500001 150 0 0 0 0.01559
2.7809999 -0.34 -0.32699999 78 0 0 0 0.0156
2.549 -0.317 -0.30599999 18 0 0 0 0.01561
2.5220001 -0.31900001 -0.30899999 18 0 0 0 0.01562
2.4890001 -0.32100001 -0.31099999 19 0 0 0 0.015629999
2.461 -0.32300001 -0.31299999 18 0 0 0 0.01564
2.427 -0.324 -0.315 16 0 0 0 0.01565
2.398 -0.32499999 -0.317 17 0 0 0 0.015659999
2.3740001 -0.32699999 -0.31999999 18 0 0 0 0.01567
2.359 -0.331 -0.32300001 18 0 0 0 0.01568
2.3610001 -0.336 -0.329 16 0 0 0 0.015690001
2.3559999 -0.34099999 -0.33500001 16 0 0 0 0.015699999
2.3640001 -0.347 -0.34099999 15 0 0 0 0.01571
2.358 -0.35100001 -0.34599999 14 0 0 0 0.01572
2.365 -0.35800001 -0.35299999 14 0 0 0 0.015729999
2.3670001 -0.36300001 -0.359 16 0 0 0 0.01574
2.358 -0.36700001 -0.36399999 19 0 0 0 0.01575
2.3599999 -0.37200001 -0.37 18 0 0 0 0.015760001
2.362 -0.37799999 -0.37599999 17 0 0 0 0.015769999
2.3610001 -0.38299999 -0.382 17 0 0 0 0.01578
2.362 -0.38800001 -0.38800001 16 0 0 0 0.015790001
2.3599999 -0.39300001 -0.39399999 16 0 0 0 0.015799999
2.3640001 -0.39899999 -0.40000001 18 0 0 0 0.01581
2.362 -0.40400001 -0.40599999 20 0 0 0 0.01582
2.3599999 -0.40900001 -0.412 20 0 0 0 0.015830001
2.365 -0.414 -0.419 18 0 0 0 0.01584
2.368 -0.41999999 -0.42500001 22 0 0 0 0.01585
2.365 -0.42500001 -0.43099999 23 0 0 0 0.015860001
2.3640001 -0.43000001 -0.43700001 22 0 0 0 0.015869999
2.368 -0.435 -0.44400001 20 0 0 0 0.01588
2.3659999 -0.44 -0.449 17 0 0 0 0.01589
2.3640001 -0.44499999 -0.45500001 16 0 0 0 0.015900001
2.3629999 -0.44999999 -0.461 16 0 0 0 0.01591
2.3670001 -0.45500001 -0.46799999 16 0 0 0 0.01592
2.365 -0.46000001 -0.47400001 15 0 0 0 0.015930001
2.365 -0.465 -0.47999999 14 0 0 0 0.015939999
2.3659999 -0.47 -0.486 15 0 0 0 0.01595
2.3640001 -0.47499999 -0.49200001 15 0 0 0 0.01596
2.3710001 -0.48100001 -0.5 17 0 0 0 0.015969999
2.381 -0.48800001 -0.50800002 15 0 0 0 0.01598
2.3859999 -0.49399999 -0.51599997 13 0 0 0 0.01599
2.375 -0.49700001 -0.51999998 15 0 0 0 0.016000001
2.3629999 -0.49900001 -0.523 19 0 0 0 0.016009999
2.3659999 -0.505 -0.52999997 20 0 0 0 0.01602
2.3659999 -0.50999999 -0.537 21 0 0 0 0.016030001
2.3640001 -0.514 -0.54299998 21 0 0 0 0.016039999
2.3659999 -0.51899999 -0.54900002 21 0 0 0 0.01605
2.368 -0.52499998 -0.55599999 19 0 0 0 0.01606
2.369 -0.52999997 -0.56300002 17 0 0 0 0.016070001
2.369 -0.53500003 -0.56900001 17 0 0 0 0.01608
2.3710001 -0.54000002 -0.57599998 19 0 0 0 0.01609
2.3659999 -0.54299998 -0.58200002 21 0 0 0 0.016100001
2.3670001 -0.54900002 -0.588 21 0 0 0 0.016109999
2.368 -0.55299997 -0.59500003 24 0 0 0 0.01612
2.369 -0.55800003 -0.602 23 0 0 0 0.01613
2.368 -0.56300002 -0.60799998 22 0 0 0 0.016140001
2.3699999 -0.56800002 -0.61500001 17 0 0 0 0.01615
2.3710001 -0.57300001 -0.62199998 16 0 0 0 0.01616
2.368 -0.57700002 -0.62800002 17 0 0 0 0.016170001
2.372 -0.583 -0.63599998 18 0 0 0 0.016179999
2.372 -0.58700001 -0.64200002 20 0 0 0 0.01619
2.3699999 -0.59100002 -0.648 20 0 0 0 0.0162
2.3699999 -0.59600002 -0.65499997 21 0 0 0 0.016209999
2.3699999 -0.60100001 -0.662 20 0 0 0 0.01622
2.369 -0.60500002 -0.66799998 19 0 0 0 0.01623
2.3729999 -0.61000001 -0.676 17 0 0 0 0.016240001
2.372 -0.61500001 -0.68199998 17 0 0 0 0.016249999
2.372 -0.61900002 -0.68900001 16 0 0 0 0.01626
2.3710001 -0.62300003 -0.69599998 17 0 0 0 0.01627
2.378 -0.62900001 -0.704 20 0 0 0 0.016279999
2.372 -0.63200003 -0.70899999 21 0 0 0 0.01629
2.3740001 -0.63700002 -0.71700001 22 0 0 0 0.0163
2.378 -0.64300001 -0.72500002 23 0 0 0 0.016310001
2.3729999 -0.64600003 -0.73000002 22 0 0 0 0.016319999
2.3789999 -0.65200001 -0.73900002 21 0 0 0 0.01633
2.3759999 -0.65499997 -0.745 20 0 0 0 0.016340001
2.3740001 -0.65899998 -0.75099999 20 0 0 0 0.016349999
2.3770001 -0.66399997 -0.759 19 0 0 0 0.01636
2.3759999 -0.66799998 -0.76599997 20 0 0 0 0.01637
2.3789999 -0.67299998 -0.773 19 0 0 0 0.016380001
2.3770001 -0.67699999 -0.77999997 18 0 0 0 0.01639
2.3759999 -0.68099999 -0.78600001 17 0 0 0 0.0164
2.378 -0.685 -0.79400003 18 0 0 0 0.016410001
2.378 -0.68900001 -0.801 23 0 0 0 0.016419999
2.378 -0.69300002 -0.80800003 25 0 0 0 0.01643
2.3800001 -0.69800001 -0.81599998 27 0 0 0 0.01644
2.375 -0.70099998 -0.82099998 29 0 0 0 0.016450001
2.3570001 -0.699 -0.82200003 27 0 0 0 0.01646
2.3340001 -0.69599998 -0.82099998 27 0 0 0 0.01647
2.3180001 -0.69499999 -0.82200003 27 0 0 0 0.016480001
2.2939999 -0.69199997 -0.81999999 26 0 0 0 0.016489999
