# .PCD v0.7 - Point Cloud Data file format
VERSION 0.7
FIELDS x y z intensity normal_x normal_y normal_z curvature
SIZE 4 4 4 4 4 4 4 4
TYPE F F F F F F F F
COUNT 1 1 1 1 1 1 1 1
WIDTH 1101
HEIGHT 1
VIEWPOINT 0 0 0 1 0 0 0
POINTS 1101
DATA ascii
1.278 0.45300001 -0.54500002 150 0 0 0 0.025110001
1.279 0.45199999 -0.542 150 0 0 0 0.025119999
1.281 0.45100001 -0.53899997 150 0 0 0 0.02513
1.28 0.449 -0.53500003 150 0 0 0 0.025140001
1.278 0.447 -0.52999997 150 0 0 0 0.025149999
1.28 0.44499999 -0.52700001 150 0 0 0 0.02516
1.279 0.44299999 -0.523 150 0 0 0 0.02517
1.281 0.442 -0.51999998 150 0 0 0 0.025180001
1.28 0.44 -0.51599997 150 0 0 0 0.025189999
1.284 0.44 -0.514 150 0 0 0 0.0252
1.286 0.43799999 -0.51099998 150 0 0 0 0.025210001
1.2920001 0.43900001 -0.509 70 0 0 0 0.025219999
1.306 0.442 -0.51099998 17 0 0 0 0.02523
1.318 0.44400001 -0.51200002 9 0 0 0 0.02524
1.332 0.44600001 -0.514 3 0 0 0 0.025250001
1.34 0.447 -0.51300001 2 0 0 0 0.02526
1.345 0.447 -0.51099998 2 0 0 0 0.02527
1.355 0.44800001 -0.50999999 2 0 0 0 0.025280001
1.3660001 0.449 -0.51099998 2 0 0 0 0.025289999
1.372 0.449 -0.509 2 0 0 0 0.0253
1.3789999 0.449 -0.50700003 2 0 0 0 0.02531
1.393 0.45100001 -0.509 2 0 0 0 0.025319999
1.4 0.45100001 -0.50700003 2 0 0 0 0.02533
1.408 0.45100001 -0.50599998 2 0 0 0 0.02534
1.4220001 0.454 -0.50700003 2 0 0 0 0.025350001
1.427 0.45300001 -0.50400001 2 0 0 0 0.025359999
1.443 0.45500001 -0.50599998 2 0 0 0 0.02537
1.449 0.45500001 -0.50400001 2 0 0 0 0.02538
1.46 0.456 -0.50300002 2 0 0 0 0.025389999
1.471 0.45699999 -0.50300002 2 0 0 0 0.0254
1.483 0.458 -0.50199997 2 0 0 0 0.02541
1.505 0.46200001 -0.505 59 0 0 0 0.025420001
2.3080001 0.704 -0.76899999 150 0 0 0 0.025429999
2.326 0.70599997 -0.76800001 150 0 0 0 0.02544
2.3929999 0.722 -0.78299999 150 0 0 0 0.025450001
2.4790001 0.74299997 -0.80400002 150 0 0 0 0.025459999
2.4790001 0.73900002 -0.79699999 150 0 0 0 0.02547
2.4820001 0.73500001 -0.79100001 150 0 0 0 0.02548
2.477 0.72899997 -0.78200001 150 0 0 0 0.025490001
2.4779999 0.72500002 -0.77499998 150 0 0 0 0.0255
2.4809999 0.72100002 -0.76899999 150 0 0 0 0.02551
2.477 0.71499997 -0.76099998 150 0 0 0 0.025520001
2.4749999 0.70999998 -0.75400001 150 0 0 0 0.025529999
2.3570001 0.67199999 -0.71100003 150 0 0 0 0.02554
2.2720001 0.64300001 -0.67900002 150 0 0 0 0.02555
2.234 0.62800002 -0.66100001 151 0 0 0 0.025560001
2.227 0.62099999 -0.653 151 0 0 0 0.02557
2.227 0.61699998 -0.64600003 151 0 0 0 0.02558
2.224 0.61199999 -0.639 151 0 0 0 0.025590001
2.2260001 0.60799998 -0.634 151 0 0 0 0.025599999
2.2260001 0.60399997 -0.62800002 151 0 0 0 0.02561
2.221 0.59799999 -0.62 151 0 0 0 0.02562
2.224 0.59399998 -0.61500001 151 0 0 0 0.025629999
2.223 0.58999997 -0.60799998 151 0 0 0 0.02564
2.217 0.58399999 -0.60100001 151 0 0 0 0.02565
2.22 0.57999998 -0.59500003 151 0 0 0 0.025660001
2.214 0.574 -0.588 151 0 0 0 0.025669999
2.2160001 0.56999999 -0.58200002 151 0 0 0 0.02568
2.2160001 0.565 -0.57599998 151 0 0 0 0.025690001
2.2179999 0.56099999 -0.57099998 151 0 0 0 0.025699999
2.2119999 0.55500001 -0.56300002 151 0 0 0 0.02571
2.2149999 0.551 -0.55800003 151 0 0 0 0.02572
2.217 0.54699999 -0.55199999 151 0 0 0 0.025730001
2.2190001 0.54299998 -0.54699999 151 0 0 0 0.025739999
2.2190001 0.53799999 -0.54100001 151 0 0 0 0.02575
2.221 0.53399998 -0.53500003 151 0 0 0 0.025760001
2.2179999 0.52899998 -0.52899998 151 0 0 0 0.025769999
2.223 0.52499998 -0.52399999 151 0 0 0 0.02578
2.23 0.52200001 -0.51999998 150 0 0 0 0.02579
2.244 0.52100003 -0.51700002 151 0 0 0 0.025800001
2.2360001 0.514 -0.509 152 0 0 0 0.02581
2.2379999 0.50999999 -0.50400001 152 0 0 0 0.02582
2.2409999 0.50599998 -0.498 152 0 0 0 0.025830001
2.2539999 0.50400001 -0.49599999 151 0 0 0 0.025839999
2.273 0.50300002 -0.49399999 144 0 0 0 0.02585
2.3429999 0.514 -0.50300002 32 0 0 0 0.02586
2.3800001 0.51700002 -0.505 27 0 0 0 0.025869999
2.4189999 0.51999998 -0.50700003 25 0 0 0 0.02588
2.46 0.523 -0.509 27 0 0 0 0.02589
2.4960001 0.52600002 -0.50999999 27 0 0 0 0.025900001
2.5339999 0.528 -0.51099998 26 0 0 0 0.025909999
2.5769999 0.53100002 -0.51300001 27 0 0 0 0.02592
2.6300001 0.53600001 -0.51700002 28 0 0 0 0.02593
2.6719999 0.53899997 -0.51899999 28 0 0 0 0.025939999
2.7249999 0.54400003 -0.52200001 29 0 0 0 0.02595
2.8099999 0.55500001 -0.53100002 33 0 0 0 0.02596
2.8900001 0.56400001 -0.53899997 34 0 0 0 0.025970001
2.947 0.56900001 -0.542 35 0 0 0 0.025979999
2.9949999 0.57099998 -0.54400003 34 0 0 0 0.02599
3.0380001 0.57300001 -0.54400003 32 0 0 0 0.026000001
3.0610001 0.56999999 -0.54000002 30 0 0 0 0.026009999
3.0969999 0.56999999 -0.53899997 30 0 0 0 0.02602
3.152 0.57300001 -0.54100001 30 0 0 0 0.02603
3.2030001 0.57499999 -0.54100001 29 0 0 0 0.026040001
3.2349999 0.57300001 -0.53899997 30 0 0 0 0.02605
3.2690001 0.57200003 -0.53600001 150 0 0 0 0.02606
3.2750001 0.56599998 -0.52899998 152 0 0 0 0.026070001
3.277 0.55900002 -0.52200001 152 0 0 0 0.026079999
3.2809999 0.55199999 -0.514 152 0 0 0 0.02609
3.283 0.54500002 -0.50700003 152 0 0 0 0.0261
3.2820001 0.537 -0.498 151 0 0 0 0.026110001
3.29 0.53100002 -0.49200001 150 0 0 0 0.02612
3.3110001 0.52700001 -0.48699999 151 0 0 0 0.02613
3.3139999 0.51999998 -0.479 151 0 0 0 0.026140001
3.3139999 0.51200002 -0.47099999 151 0 0 0 0.026149999
3.3299999 0.50700003 -0.46599999 150 0 0 0 0.02616
3.382 0.50700003 -0.465 152 0 0 0 0.02617
3.382 0.49900001 -0.45699999 151 0 0 0 0.026179999
3.3800001 0.491 -0.449 151 0 0 0 0.02619
3.382 0.484 -0.44100001 151 0 0 0 0.0262
3.3840001 0.47600001 -0.433 151 0 0 0 0.026210001
3.3859999 0.46799999 -0.42500001 151 0 0 0 0.026219999
3.388 0.461 -0.41800001 151 0 0 0 0.02623
3.3870001 0.45300001 -0.41 151 0 0 0 0.026240001
3.3859999 0.44499999 -0.40200001 151 0 0 0 0.026249999
3.388 0.43700001 -0.39399999 151 0 0 0 0.02626
3.3900001 0.42899999 -0.38600001 151 0 0 0 0.02627
3.391 0.42199999 -0.37799999 151 0 0 0 0.026280001
3.3889999 0.414 -0.37 151 0 0 0 0.026289999
3.385 0.405 -0.36199999 151 0 0 0 0.0263
3.3929999 0.398 -0.35499999 151 0 0 0 0.026310001
3.388 0.38999999 -0.347 151 0 0 0 0.026319999
3.388 0.382 -0.33899999 151 0 0 0 0.02633
3.3870001 0.373 -0.331 151 0 0 0 0.02634
3.3929999 0.366 -0.324 151 0 0 0 0.026350001
3.3929999 0.35800001 -0.317 151 0 0 0 0.02636
3.3889999 0.34999999 -0.30899999 151 0 0 0 0.02637
3.3900001 0.34200001 -0.301 152 0 0 0 0.026380001
3.391 0.33399999 -0.29300001 151 0 0 0 0.026389999
3.3959999 0.32600001 -0.28600001 152 0 0 0 0.0264
3.398 0.31799999 -0.27900001 152 0 0 0 0.02641
3.398 0.31 -0.271 152 0 0 0 0.026419999
3.3970001 0.30199999 -0.264 152 0 0 0 0.02643
3.392 0.29300001 -0.25600001 152 0 0 0 0.02644
3.402 0.28600001 -0.249 153 0 0 0 0.026450001
3.3989999 0.278 -0.241 153 0 0 0 0.026459999
3.3940001 0.26899999 -0.233 153 0 0 0 0.02647
3.3900001 0.26100001 -0.22499999 153 0 0 0 0.02648
3.3859999 0.252 -0.21799999 154 0 0 0 0.026489999
3.3870001 0.244 -0.20999999 154 0 0 0 0.0265
3.385 0.236 -0.20299999 154 0 0 0 0.02651
3.3759999 0.227 -0.19499999 154 0 0 0 0.026520001
3.3740001 0.219 -0.18700001 155 0 0 0 0.026529999
3.3729999 0.211 -0.18000001 156 0 0 0 0.02654
3.375 0.20299999 -0.17299999 155 0 0 0 0.026550001
3.375 0.19400001 -0.16500001 155 0 0 0 0.026559999
3.3770001 0.186 -0.15800001 156 0 0 0 0.02657
3.3759999 0.178 -0.15099999 156 0 0 0 0.02658
3.378 0.17 -0.14399999 156 0 0 0 0.026590001
3.3770001 0.162 -0.13699999 156 0 0 0 0.0266
3.3800001 0.154 -0.12899999 156 0 0 0 0.02661
3.3800001 0.145 -0.122 156 0 0 0 0.026620001
3.381 0.13699999 -0.115 156 0 0 0 0.026629999
3.3800001 0.12899999 -0.108 155 0 0 0 0.02664
3.382 0.12 -0.101 156 0 0 0 0.02665
3.381 0.112 -0.093000002 156 0 0 0 0.026660001
3.3970001 0.104 -0.086999997 154 0 0 0 0.02667
3.3970001 0.096000001 -0.079999998 154 0 0 0 0.02668
3.398 0.086999997 -0.071999997 154 0 0 0 0.026690001
3.398 0.079000004 -0.064999998 154 0 0 0 0.026699999
3.398 0.071000002 -0.057999998 154 0 0 0 0.02671
3.4070001 0.063000001 -0.050999999 153 0 0 0 0.02672
3.4070001 0.054000001 -0.044 154 0 0 0 0.026729999
3.4119999 0.046 -0.037 153 0 0 0 0.02674
3.418 0.037 -0.029999999 153 0 0 0 0.02675
3.4230001 0.028999999 -0.023 153 0 0 0 0.026760001
3.421 0.02 -0.016000001 152 0 0 0 0.026769999
3.4230001 0.012 -0.0089999996 152 0 0 0 0.02678
3.4230001 0.003 -0.0020000001 152 0 0 0 0.02679
3.421 -0.0040000002 0.0040000002 151 0 0 0 0.026799999
3.4260001 -0.013 0.011 151 0 0 0 0.02681
3.4260001 -0.021 0.017999999 151 0 0 0 0.02682
3.4260001 -0.029999999 0.025 151 0 0 0 0.026830001
3.4260001 -0.039000001 0.032000002 151 0 0 0 0.026839999
3.421 -0.046999998 0.039000001 151 0 0 0 0.02685
3.421 -0.056000002 0.046 151 0 0 0 0.026860001
3.4300001 -0.064999998 0.052999999 151 0 0 0 0.026869999
3.4319999 -0.074000001 0.059999999 151 0 0 0 0.02688
3.4319999 -0.082000002 0.067000002 151 0 0 0 0.02689
3.4260001 -0.090999998 0.074000001 151 0 0 0 0.026900001
3.437 -0.1 0.081 151 0 0 0 0.02691
3.4260001 -0.108 0.086999997 151 0 0 0 0.02692
3.4349999 -0.117 0.093999997 151 0 0 0 0.026930001
3.4349999 -0.126 0.101 151 0 0 0 0.026939999
3.437 -0.13500001 0.108 151 0 0 0 0.02695
3.4389999 -0.14399999 0.115 151 0 0 0 0.02696
3.4360001 -0.153 0.122 151 0 0 0 0.026969999
3.437 -0.161 0.12899999 151 0 0 0 0.02698
3.4319999 -0.17 0.13500001 153 0 0 0 0.02699
3.3859999 -0.176 0.14 150 0 0 0 0.027000001
3.3729999 -0.185 0.146 152 0 0 0 0.027009999
3.3770001 -0.19400001 0.153 152 0 0 0 0.02702
3.3710001 -0.20200001 0.15899999 151 0 0 0 0.02703
3.3429999 -0.20900001 0.16500001 150 0 0 0 0.027039999
3.348 -0.21799999 0.171 152 0 0 0 0.02705
3.3499999 -0.227 0.178 151 0 0 0 0.02706
3.349 -0.236 0.184 151 0 0 0 0.027070001
3.349 -0.244 0.191 152 0 0 0 0.027079999
3.3429999 -0.25299999 0.197 150 0 0 0 0.02709
3.2679999 -0.255 0.199 57 0 0 0 0.027100001
3.2349999 -0.26100001 0.20299999 150 0 0 0 0.027109999
3.2390001 -0.27000001 0.20999999 151 0 0 0 0.02712
3.2390001 -0.27900001 0.21600001 151 0 0 0 0.02713
3.233 -0.287 0.222 151 0 0 0 0.027140001
3.237 -0.296 0.228 151 0 0 0 0.02715
3.2420001 -0.30500001 0.235 151 0 0 0 0.02716
3.23 -0.31200001 0.23999999 151 0 0 0 0.027170001
3.207 -0.31799999 0.244 151 0 0 0 0.027179999
3.211 -0.32699999 0.25099999 151 0 0 0 0.02719
3.2079999 -0.336 0.25600001 151 0 0 0 0.0272
3.2130001 -0.345 0.26300001 151 0 0 0 0.027210001
3.217 -0.354 0.26899999 151 0 0 0 0.02722
3.2149999 -0.36199999 0.27500001 151 0 0 0 0.02723
2.9560001 -0.34099999 0.25799999 151 0 0 0 0.027240001
2.799 -0.33000001 0.25 108 0 0 0 0.027249999
2.5550001 -0.308 0.233 28 0 0 0 0.02726
2.5050001 -0.30899999 0.233 24 0 0 0 0.02727
2.461 -0.31 0.233 21 0 0 0 0.027279999
2.408 -0.31 0.233 22 0 0 0 0.02729
2.3829999 -0.31400001 0.235 27 0 0 0 0.0273
2.382 -0.31999999 0.23899999 3 0 0 0 0.027310001
2.3859999 -0.32699999 0.244 0 0 0 0 0.027319999
2.381 -0.333 0.248 0 0 0 0 0.02733
2.411 -0.34400001 0.255 0 0 0 0 0.02734
0 0 0 0 0 0 0 0.027349999
0 0 0 0 0 0 0 0.02736
0 0 0 0 0 0 0 0.02737
0 0 0 0 0 0 0 0.027380001
0 0 0 0 0 0 0 0.027389999
0 0 0 0 0 0 0 0.0274
0 0 0 0 0 0 0 0.027410001
0 0 0 0 0 0 0 0.027419999
0 0 0 0 0 0 0 0.02743
0 0 0 0 0 0 0 0.02744
0 0 0 0 0 0 0 0.027450001
0 0 0 0 0 0 0 0.02746
0 0 0 0 0 0 0 0.02747
0 0 0 0 0 0 0 0.027480001
0 0 0 0 0 0 0 0.027489999
0 0 0 0 0 0 0 0.0275
0 0 0 0 0 0 0 0.02751
0 0 0 0 0 0 0 0.027519999
0 0 0 0 0 0 0 0.02753
0 0 0 0 0 0 0 0.02754
0 0 0 0 0 0 0 0.027550001
0 0 0 0 0 0 0 0.027559999
0 0 0 0 0 0 0 0.02757
0 0 0 0 0 0 0 0.02758
0 0 0 0 0 0 0 0.027589999
0 0 0 0 0 0 0 0.0276
0 0 0 0 0 0 0 0.02761
0 0 0 0 0 0 0 0.027620001
0 0 0 0 0 0 0 0.027629999
0 0 0 0 0 0 0 0.02764
0 0 0 0 0 0 0 0.027650001
0 0 0 0 0 0 0 0.027659999
0 0 0 0 0 0 0 0.02767
0 0 0 0 0 0 0 0.02768
0 0 0 0 0 0 0 0.027690001
0 0 0 0 0 0 0 0.0277
0 0 0 0 0 0 0 0.02771
0 0 0 0 0 0 0 0.027720001
0 0 0 0 0 0 0 0.027729999
0 0 0 0 0 0 0 0.02774
0 0 0 0 0 0 0 0.02775
0 0 0 0 0 0 0 0.027760001
0 0 0 0 0 0 0 0.02777
0 0 0 0 0 0 0 0.02778
0 0 0 0 0 0 0 0.027790001
0 0 0 0 0 0 0 0.027799999
0 0 0 0 0 0 0 0.02781
0 0 0 0 0 0 0 0.02782
0 0 0 0 0 0 0 0.027829999
0 0 0 0 0 0 0 0.02784
0 0 0 0 0 0 0 0.02785
0 0 0 0 0 0 0 0.027860001
0 0 0 0 0 0 0 0.027869999
0 0 0 0 0 0 0 0.02788
0 0 0 0 0 0 0 0.02789
0 0 0 0 0 0 0 0.027899999
0 0 0 0 0 0 0 0.02791
0 0 0 0 0 0 0 0.02792
0 0 0 0 0 0 0 0.027930001
0 0 0 0 0 0 0 0.027939999
0 0 0 0 0 0 0 0.02795
0 0 0 0 0 0 0 0.027960001
0 0 0 0 0 0 0 0.027969999
0 0 0 0 0 0 0 0.02798
0 0 0 0 0 0 0 0.02799
0 0 0 0 0 0 0 0.028000001
0 0 0 0 0 0 0 0.02801
0 0 0 0 0 0 0 0.02802
0 0 0 0 0 0 0 0.028030001
4.1570001 -1.451 0.912 6 0 0 0 0.028039999
0 0 0 0 0 0 0 0.02805
4.099 -1.457 0.91000003 5 0 0 0 0.02806
4.0619998 -1.456 0.90700001 8 0 0 0 0.028069999
4.0250001 -1.456 0.90399998 21 0 0 0 0.02808
3.9960001 -1.4579999 0.903 58 0 0 0 0.02809
4.0050001 -1.474 0.91000003 44 0 0 0 0.028100001
3.99 -1.4809999 0.912 26 0 0 0 0.028109999
3.9560001 -1.4809999 0.90899998 21 0 0 0 0.02812
3.9219999 -1.4809999 0.90600002 20 0 0 0 0.02813
3.898 -1.484 0.90499997 22 0 0 0 0.028139999
3.8759999 -1.488 0.90499997 20 0 0 0 0.02815
3.8440001 -1.488 0.90200001 23 0 0 0 0.02816
3.8069999 -1.4859999 0.898 26 0 0 0 0.028170001
3.6819999 -1.449 0.87199998 41 0 0 0 0.028179999
3.6559999 -1.45 0.87 67 0 0 0 0.02819
3.661 -1.464 0.87599999 67 0 0 0 0.028200001
3.6600001 -1.475 0.88 69 0 0 0 0.028209999
3.6600001 -1.487 0.884 66 0 0 0 0.02822
3.6630001 -1.5 0.88800001 66 0 0 0 0.02823
3.6670001 -1.513 0.89300001 65 0 0 0 0.028240001
3.6659999 -1.524 0.89700001 69 0 0 0 0.02825
3.6659999 -1.536 0.90100002 70 0 0 0 0.02826
3.6689999 -1.549 0.90499997 68 0 0 0 0.028270001
3.671 -1.561 0.91000003 70 0 0 0 0.028279999
3.668 -1.572 0.91299999 70 0 0 0 0.02829
3.6700001 -1.585 0.917 71 0 0 0 0.0283
3.6719999 -1.597 0.921 68 0 0 0 0.028310001
3.6700001 -1.608 0.92400002 69 0 0 0 0.02832
3.674 -1.622 0.92799997 68 0 0 0 0.02833
3.6719999 -1.632 0.93099999 67 0 0 0 0.028340001
3.674 -1.645 0.935 67 0 0 0 0.028349999
3.6789999 -1.659 0.93900001 68 0 0 0 0.02836
3.6789999 -1.671 0.94300002 68 0 0 0 0.02837
3.6789999 -1.682 0.94599998 66 0 0 0 0.028379999
3.6819999 -1.6950001 0.949 67 0 0 0 0.02839
3.684 -1.7079999 0.95300001 69 0 0 0 0.0284
3.681 -1.7180001 0.95499998 68 0 0 0 0.028410001
3.6800001 -1.729 0.958 67 0 0 0 0.028419999
3.6819999 -1.742 0.96100003 65 0 0 0 0.02843
3.6889999 -1.756 0.96600002 66 0 0 0 0.02844
3.687 -1.767 0.96799999 63 0 0 0 0.028449999
3.6860001 -1.778 0.97000003 63 0 0 0 0.02846
3.688 -1.791 0.97299999 65 0 0 0 0.02847
3.938 -1.924 1.0420001 152 0 0 0 0.028480001
2.5109999 -1.235 0.66600001 0 0 0 0 0.028489999
2.49 -1.232 0.662 0 0 0 0 0.0285
2.4909999 -1.2410001 0.66399997 0 0 0 0 0.028510001
2.4649999 -1.235 0.65799999 0 0 0 0 0.028519999
2.428 -1.224 0.64899999 0 0 0 0 0.02853
2.4360001 -1.2359999 0.653 0 0 0 0 0.02854
2.52 -1.286 0.67699999 0 0 0 0 0.028550001
2.553 -1.3099999 0.68699998 0 0 0 0 0.02856
2.602 -1.344 0.70099998 0 0 0 0 0.02857
2.4779999 -1.2869999 0.66900003 0 0 0 0 0.028580001
4.7179999 -2.464 1.276 37 0 0 0 0.028589999
2.5480001 -1.339 0.69 0 0 0 0 0.0286
2.5109999 -1.327 0.68099999 0 0 0 0 0.02861
2.5120001 -1.335 0.68199998 0 0 0 0 0.028620001
2.4719999 -1.321 0.67199999 0 0 0 0 0.02863
2.4860001 -1.336 0.67699999 0 0 0 0 0.02864
2.4289999 -1.312 0.662 0 0 0 0 0.028650001
2.4960001 -1.355 0.68099999 0 0 0 0 0.028659999
2.3829999 -1.301 0.64999998 0 0 0 0 0.02867
2.5239999 -1.385 0.68900001 0 0 0 0 0.02868
2.4719999 -1.364 0.676 0 0 0 0 0.028689999
4.7199998 -2.6170001 1.291 37 0 0 0 0.0287
4.7199998 -2.6300001 1.2920001 35 0 0 0 0.02871
4.7210002 -2.6440001 1.293 35 0 0 0 0.028720001
4.7249999 -2.6589999 1.295 36 0 0 0 0.028729999
4.724 -2.671 1.294 35 0 0 0 0.02874
4.7290001 -2.687 1.296 36 0 0 0 0.028750001
4.7210002 -2.6949999 1.294 35 0 0 0 0.028759999
4.723 -2.7090001 1.294 34 0 0 0 0.02877
4.7259998 -2.723 1.295 36 0 0 0 0.02878
4.724 -2.734 1.294 36 0 0 0 0.028790001
4.7259998 -2.7479999 1.294 41 0 0 0 0.0288
4.7270002 -2.7609999 1.294 40 0 0 0 0.02881
2.418 -1.418 0.66100001 0 0 0 0 0.028820001
4.6859999 -2.76 1.281 27 0 0 0 0.028829999
4.6680002 -2.7620001 1.276 27 0 0 0 0.02884
4.6560001 -2.766 1.271 27 0 0 0 0.02885
4.6329999 -2.763 1.263 25 0 0 0 0.028860001
4.6230001 -2.7679999 1.2589999 24 0 0 0 0.02887
4.598 -2.7639999 1.251 23 0 0 0 0.02888
4.585 -2.767 1.2460001 22 0 0 0 0.028890001
4.5650001 -2.766 1.239 22 0 0 0 0.028899999
4.553 -2.7690001 1.234 23 0 0 0 0.02891
4.54 -2.7709999 1.229 26 0 0 0 0.02892
4.527 -2.773 1.223 26 0 0 0 0.028929999
4.507 -2.7709999 1.216 26 0 0 0 0.02894
4.4970002 -2.7739999 1.211 25 0 0 0 0.02895
4.4809999 -2.7739999 1.204 24 0 0 0 0.028960001
4.4640002 -2.7720001 1.197 24 0 0 0 0.028969999
4.4460001 -2.77 1.1900001 21 0 0 0 0.02898
4.427 -2.767 1.182 17 0 0 0 0.02899
4.2090001 -2.6389999 1.1210001 9 0 0 0 0.028999999
4.1500001 -2.6099999 1.103 9 0 0 0 0.02901
4.2249999 -2.665 1.12 7 0 0 0 0.02902
4.3940001 -2.779 1.1619999 17 0 0 0 0.029030001
4.3720002 -2.773 1.153 27 0 0 0 0.029039999
4.3499999 -2.766 1.1440001 30 0 0 0 0.02905
4.3010001 -2.743 1.128 32 0 0 0 0.029060001
4.2709999 -2.73 1.1160001 31 0 0 0 0.029069999
4.2459998 -2.721 1.1059999 26 0 0 0 0.02908
4.2129998 -2.707 1.094 20 0 0 0 0.02909
4.1789999 -2.691 1.082 15 0 0 0 0.029100001
2.4619999 -1.589 0.63499999 0 0 0 0 0.02911
4.1620002 -2.6919999 1.0700001 6 0 0 0 0.02912
4.1529999 -2.6919999 1.063 7 0 0 0 0.029130001
4.1350002 -2.6860001 1.0549999 8 0 0 0 0.029139999
4.1240001 -2.684 1.048 12 0 0 0 0.02915
4.119 -2.6860001 1.0420001 15 0 0 0 0.02916
4.1170001 -2.6900001 1.038 16 0 0 0 0.029170001
4.1079998 -2.688 1.031 15 0 0 0 0.02918
4.0970001 -2.6849999 1.023 24 0 0 0 0.02919
4.092 -2.6860001 1.018 39 0 0 0 0.029200001
4.0840001 -2.6849999 1.011 45 0 0 0 0.029209999
4.0809999 -2.687 1.006 33 0 0 0 0.02922
4.0819998 -2.691 1.001 30 0 0 0 0.02923
4.0830002 -2.6949999 0.99599999 31 0 0 0 0.029239999
4.0809999 -2.697 0.991 30 0 0 0 0.02925
4.0840001 -2.7019999 0.986 24 0 0 0 0.02926
4.079 -2.7019999 0.98000002 19 0 0 0 0.029270001
4.0749998 -2.701 0.97399998 15 0 0 0 0.029279999
4.0669999 -2.698 0.96600002 12 0 0 0 0.02929
4.0279999 -2.675 0.95200002 8 0 0 0 0.029300001
4.0079999 -2.6630001 0.94199997 7 0 0 0 0.029309999
3.9879999 -2.651 0.93199998 7 0 0 0 0.02932
4.0110002 -2.6689999 0.93199998 14 0 0 0 0.02933
4.0040002 -2.665 0.92400002 19 0 0 0 0.029340001
4.0079999 -2.6689999 0.91900003 22 0 0 0 0.02935
4.006 -2.668 0.91299999 24 0 0 0 0.02936
4.0079999 -2.6700001 0.90799999 25 0 0 0 0.029370001
4.0079999 -2.671 0.90200001 27 0 0 0 0.029379999
4.0050001 -2.6689999 0.89499998 31 0 0 0 0.02939
4.0050001 -2.6689999 0.889 29 0 0 0 0.0294
4.0120001 -2.6730001 0.88499999 32 0 0 0 0.029410001
4.0120001 -2.6730001 0.87900001 24 0 0 0 0.02942
4.0100002 -2.6700001 0.87199998 21 0 0 0 0.02943
4.0159998 -2.6730001 0.86699998 19 0 0 0 0.029440001
4.0110002 -2.6689999 0.86000001 15 0 0 0 0.029449999
4.0180001 -2.6719999 0.85500002 16 0 0 0 0.02946
4.0139999 -2.668 0.84799999 17 0 0 0 0.02947
4.0029998 -2.6589999 0.83899999 17 0 0 0 0.029479999
4.0079999 -2.6600001 0.83399999 16 0 0 0 0.02949
4.0079999 -2.658 0.82700002 14 0 0 0 0.0295
4.0149999 -2.661 0.82200003 14 0 0 0 0.029510001
4.0089998 -2.654 0.81400001 12 0 0 0 0.029519999
3.99 -2.6389999 0.80400002 7 0 0 0 0.02953
3.9979999 -2.641 0.79900002 6 0 0 0 0.02954
2.461 -1.624 0.48699999 0 0 0 0 0.029549999
3.99 -2.6289999 0.78399998 5 0 0 0 0.02956
2.3989999 -1.579 0.46700001 0 0 0 0 0.02957
3.954 -2.598 0.764 7 0 0 0 0.029580001
3.925 -2.575 0.75099999 7 0 0 0 0.029589999
3.8 -2.4890001 0.72100002 6 0 0 0 0.0296
3.7939999 -2.4809999 0.713 6 0 0 0 0.029610001
3.0009999 -1.959 0.55900002 0 0 0 0 0.029619999
3.0079999 -1.96 0.55500001 0 0 0 0 0.02963
3.0150001 -1.961 0.551 0 0 0 0 0.02964
3.7869999 -2.4590001 0.68599999 6 0 0 0 0.029650001
3.0190001 -1.956 0.542 0 0 0 0 0.02966
2.9879999 -1.932 0.53100002 0 0 0 0 0.02967
3.6989999 -2.3870001 0.65100002 6 0 0 0 0.029680001
3.803 -2.448 0.66299999 6 0 0 0 0.029689999
2.8859999 -1.854 0.498 0 0 0 0 0.0297
3.937 -2.523 0.67299998 4 0 0 0 0.02971
3.974 -2.54 0.67199999 5 0 0 0 0.029720001
3.9879999 -2.5420001 0.667 5 0 0 0 0.02973
3.9760001 -2.5280001 0.65799999 5 0 0 0 0.02974
3.9760001 -2.5209999 0.65200001 7 0 0 0 0.029750001
3.983 -2.5179999 0.64600003 7 0 0 0 0.029759999
3.9360001 -2.4820001 0.63099998 6 0 0 0 0.02977
3.9230001 -2.4660001 0.62300003 6 0 0 0 0.02978
2.9879999 -1.873 0.46900001 0 0 0 0 0.029789999
3.8789999 -2.425 0.60299999 6 0 0 0 0.0298
3.9979999 -2.4909999 0.61400002 10 0 0 0 0.02981
2.8870001 -1.793 0.43799999 0 0 0 0 0.029820001
2.9319999 -1.8150001 0.44 0 0 0 0 0.029829999
3.927 -2.4230001 0.583 3 0 0 0 0.02984
3.925 -2.4130001 0.57599998 5 0 0 0 0.029850001
3.987 -2.444 0.579 6 0 0 0 0.029859999
3.961 -2.4189999 0.56800002 4 0 0 0 0.02987
3.948 -2.402 0.56 4 0 0 0 0.02988
2.9230001 -1.772 0.40900001 0 0 0 0 0.029890001
3.053 -1.844 0.42300001 0 0 0 0 0.029899999
2.9649999 -1.784 0.405 0 0 0 0 0.02991
3.908 -2.3429999 0.528 2 0 0 0 0.029920001
4.072 -2.431 0.54400003 2 0 0 0 0.029929999
4.0760002 -2.425 0.537 2 0 0 0 0.02994
4.1009998 -2.4289999 0.53399998 2 0 0 0 0.02995
2.546 -1.502 0.32699999 0 0 0 0 0.029960001
4.0500002 -2.3789999 0.514 2 0 0 0 0.02997
4.059 -2.375 0.509 2 0 0 0 0.02998
2.517 -1.466 0.31099999 0 0 0 0 0.029990001
2.9660001 -1.72 0.36199999 0 0 0 0 0.029999999
4.1890001 -2.4189999 0.505 18 0 0 0 0.03001
2.9590001 -1.701 0.352 0 0 0 0 0.03002
2.454 -1.404 0.28799999 0 0 0 0 0.030029999
2.536 -1.444 0.294 0 0 0 0 0.03004
2.4590001 -1.3940001 0.28099999 0 0 0 0 0.03005
2.4530001 -1.3839999 0.27700001 0 0 0 0 0.030060001
2.9219999 -1.64 0.32499999 0 0 0 0 0.030069999
2.898 -1.619 0.31799999 0 0 0 0 0.03008
2.9590001 -1.645 0.31999999 0 0 0 0 0.03009
2.461 -1.3609999 0.26300001 0 0 0 0 0.030099999
2.425 -1.335 0.255 0 0 0 0 0.03011
2.359 -1.2920001 0.245 0 0 0 0 0.03012
2.441 -1.33 0.25 0 0 0 0 0.030130001
2.487 -1.348 0.25099999 0 0 0 0 0.030139999
4.4819999 -2.4159999 0.44600001 3 0 0 0 0.03015
2.54 -1.362 0.249 0 0 0 0 0.030160001
4.5229998 -2.4119999 0.43700001 3 0 0 0 0.030169999
2.4530001 -1.301 0.233 0 0 0 0 0.03018
2.5050001 -1.322 0.235 0 0 0 0 0.03019
4.7010002 -2.4660001 0.435 39 0 0 0 0.030200001
2.4430001 -1.274 0.222 0 0 0 0 0.03021
2.487 -1.29 0.223 0 0 0 0 0.03022
2.464 -1.27 0.21799999 0 0 0 0 0.030230001
2.49 -1.276 0.21699999 0 0 0 0 0.030239999
2.4530001 -1.25 0.20999999 0 0 0 0 0.03025
2.4400001 -1.2359999 0.206 0 0 0 0 0.03026
2.4760001 -1.2460001 0.206 0 0 0 0 0.030270001
2.5209999 -1.261 0.206 0 0 0 0 0.03028
2.4530001 -1.22 0.197 0 0 0 0 0.03029
2.4430001 -1.2079999 0.193 0 0 0 0 0.030300001
2.401 -1.179 0.18700001 0 0 0 0 0.030309999
2.4449999 -1.193 0.18799999 0 0 0 0 0.03032
2.438 -1.182 0.184 0 0 0 0 0.03033
2.421 -1.166 0.18000001 0 0 0 0 0.030339999
2.5239999 -1.2079999 0.184 0 0 0 0 0.03035
2.5350001 -1.206 0.182 0 0 0 0 0.03036
2.4000001 -1.1339999 0.17 0 0 0 0 0.030370001
2.4860001 -1.166 0.17299999 0 0 0 0 0.030379999
2.5250001 -1.177 0.17200001 0 0 0 0 0.03039
2.454 -1.136 0.16500001 0 0 0 0 0.030400001
0 0 0 0 0 0 0 0.030409999
4.6700001 -2.132 0.303 22 0 0 0 0.03042
4.6079998 -2.089 0.294 39 0 0 0 0.03043
3.733 -1.6799999 0.234 3 0 0 0 0.030440001
3.648 -1.631 0.22499999 3 0 0 0 0.030449999
3.6400001 -1.615 0.22 1 0 0 0 0.03046
3.661 -1.613 0.21799999 3 0 0 0 0.030470001
0 0 0 0 0 0 0 0.030479999
1.194 -0.51800001 0.068000004 0 0 0 0 0.03049
1.223 -0.52700001 0.068999998 1 0 0 0 0.0305
1.219 -0.52100003 0.067000002 1 0 0 0 0.030510001
1.22 -0.51800001 0.066 2 0 0 0 0.03052
2.391 -1.006 0.127 150 0 0 0 0.03053
2.411 -1.007 0.126 150 0 0 0 0.030540001
2.4030001 -0.99599999 0.123 4 0 0 0 0.030549999
2.4089999 -0.99000001 0.121 21 0 0 0 0.03056
2.404 -0.98000002 0.119 20 0 0 0 0.03057
2.4059999 -0.97299999 0.117 20 0 0 0 0.030579999
2.4070001 -0.96600002 0.114 19 0 0 0 0.03059
2.4070001 -0.958 0.112 19 0 0 0 0.0306
2.405 -0.949 0.11 20 0 0 0 0.030610001
2.4059999 -0.94199997 0.108 19 0 0 0 0.030619999
2.405 -0.93300003 0.106 18 0 0 0 0.03063
2.404 -0.92500001 0.104 18 0 0 0 0.03064
2.4059999 -0.91799998 0.102 21 0 0 0 0.030649999
2.401 -0.90799999 0.098999999 20 0 0 0 0.03066
2.4030001 -0.90100002 0.097000003 20 0 0 0 0.03067
2.402 -0.89200002 0.094999999 24 0 0 0 0.030680001
2.3959999 -0.88200003 0.093000002 25 0 0 0 0.030689999
2.402 -0.87599999 0.092 20 0 0 0 0.0307
2.4000001 -0.86799997 0.090000004 20 0 0 0 0.030710001
2.4000001 -0.86000001 0.088 20 0 0 0 0.030719999
2.3989999 -0.852 0.086000003 21 0 0 0 0.03073
2.392 -0.84100002 0.083999999 23 0 0 0 0.03074
2.392 -0.833 0.082000002 23 0 0 0 0.030750001
2.3970001 -0.82700002 0.079999998 23 0 0 0 0.03076
2.392 -0.81699997 0.078000002 22 0 0 0 0.03077
2.391 -0.80900002 0.077 22 0 0 0 0.030780001
2.3940001 -0.80199999 0.075000003 23 0 0 0 0.030789999
2.392 -0.79299998 0.072999999 23 0 0 0 0.0308
2.3929999 -0.78600001 0.071999997 22 0 0 0 0.03081
2.3940001 -0.778 0.07 22 0 0 0 0.030820001
2.3900001 -0.76899999 0.068000004 21 0 0 0 0.03083
2.3900001 -0.76099998 0.067000002 19 0 0 0 0.03084
2.3889999 -0.75199997 0.064999998 17 0 0 0 0.030850001
2.3940001 -0.74599999 0.064000003 17 0 0 0 0.030859999
2.3940001 -0.73799998 0.061999999 20 0 0 0 0.03087
2.3900001 -0.72899997 0.059999999 19 0 0 0 0.03088
2.3870001 -0.72000003 0.059 21 0 0 0 0.030889999
2.388 -0.713 0.057 18 0 0 0 0.0309
2.388 -0.70499998 0.056000002 21 0 0 0 0.03091
2.388 -0.69700003 0.055 25 0 0 0 0.030920001
2.3870001 -0.68900001 0.052999999 25 0 0 0 0.030929999
2.3859999 -0.68000001 0.052000001 22 0 0 0 0.03094
2.381 -0.671 0.050000001 21 0 0 0 0.030950001
2.385 -0.66399997 0.048999999 19 0 0 0 0.030959999
2.3859999 -0.65700001 0.048 17 0 0 0 0.03097
2.382 -0.648 0.046 20 0 0 0 0.03098
2.385 -0.64099997 0.045000002 21 0 0 0 0.030990001
2.3829999 -0.63200003 0.044 24 0 0 0 0.030999999
2.3829999 -0.62400001 0.043000001 22 0 0 0 0.03101
2.3789999 -0.61500001 0.041000001 18 0 0 0 0.031020001
2.3829999 -0.60799998 0.039999999 19 0 0 0 0.031029999
2.3829999 -0.60000002 0.039000001 18 0 0 0 0.03104
2.381 -0.59200001 0.037999999 19 0 0 0 0.03105
2.3829999 -0.58499998 0.037 18 0 0 0 0.031060001
2.378 -0.57499999 0.035999998 16 0 0 0 0.03107
2.381 -0.56800002 0.035 19 0 0 0 0.03108
2.3770001 -0.56 0.034000002 22 0 0 0 0.031090001
2.3789999 -0.55199999 0.033 23 0 0 0 0.031099999
2.3789999 -0.54400003 0.032000002 20 0 0 0 0.03111
2.3729999 -0.53500003 0.030999999 18 0 0 0 0.03112
2.382 -0.52899998 0.029999999 15 0 0 0 0.031129999
2.378 -0.51999998 0.028999999 16 0 0 0 0.03114
2.3800001 -0.51300001 0.028000001 20 0 0 0 0.03115
2.378 -0.505 0.027000001 22 0 0 0 0.031160001
2.3740001 -0.49599999 0.026000001 22 0 0 0 0.031169999
2.3759999 -0.48800001 0.025 20 0 0 0 0.03118
2.378 -0.48100001 0.024 18 0 0 0 0.03119
2.3729999 -0.472 0.023 14 0 0 0 0.031199999
2.372 -0.46399999 0.022 14 0 0 0 0.03121
2.372 -0.456 0.021 14 0 0 0 0.03122
2.3789999 -0.44999999 0.021 17 0 0 0 0.031230001
2.378 -0.442 0.02 18 0 0 0 0.031239999
2.3759999 -0.43399999 0.018999999 17 0 0 0 0.03125
2.372 -0.42500001 0.017999999 19 0 0 0 0.031259999
2.3699999 -0.417 0.017000001 23 0 0 0 0.031270001
2.3670001 -0.40900001 0.017000001 23 0 0 0 0.03128
2.3659999 -0.40099999 0.016000001 21 0 0 0 0.031289998
2.365 -0.39300001 0.015 21 0 0 0 0.031300001
2.368 -0.38600001 0.015 21 0 0 0 0.03131
2.3670001 -0.37799999 0.014 19 0 0 0 0.031319998
2.3740001 -0.37099999 0.013 15 0 0 0 0.031330001
2.369 -0.36300001 0.013 15 0 0 0 0.031339999
2.368 -0.35499999 0.012 16 0 0 0 0.031350002
2.3610001 -0.34599999 0.011 18 0 0 0 0.03136
2.3610001 -0.338 0.011 17 0 0 0 0.031369999
2.359 -0.33000001 0.0099999998 20 0 0 0 0.031380001
2.3699999 -0.324 0.0099999998 22 0 0 0 0.03139
2.402 -0.32100001 0.0089999996 26 0 0 0 0.031399999
2.4419999 -0.31799999 0.0089999996 23 0 0 0 0.031410001
2.506 -0.31799999 0.0089999996 28 0 0 0 0.03142
2.5699999 -0.31799999 0.0080000004 30 0 0 0 0.031429999
2.8299999 -0.34099999 0.0089999996 73 0 0 0 0.031440001
3.0569999 -0.35800001 0.0089999996 150 0 0 0 0.03145
3.2079999 -0.366 0.0089999996 150 0 0 0 0.031459998
3.2119999 -0.35600001 0.0080000004 150 0 0 0 0.031470001
3.207 -0.345 0.0080000004 150 0 0 0 0.031479999
3.2130001 -0.33500001 0.0070000002 150 0 0 0 0.031490002
3.207 -0.324 0.0060000001 150 0 0 0 0.031500001
3.2360001 -0.31600001 0.0060000001 152 0 0 0 0.031509999
3.233 -0.30500001 0.0049999999 151 0 0 0 0.031520002
3.2349999 -0.29499999 0.0049999999 151 0 0 0 0.03153
3.2349999 -0.28400001 0.0049999999 152 0 0 0 0.031539999
3.2309999 -0.27399999 0.0040000002 152 0 0 0 0.031550001
3.2360001 -0.26300001 0.0040000002 151 0 0 0 0.03156
3.332 -0.25999999 0.003 53 0 0 0 0.031569999
3.3440001 -0.25099999 0.003 152 0 0 0 0.031580001
3.346 -0.23999999 0.003 151 0 0 0 0.03159
3.342 -0.229 0.0020000001 151 0 0 0 0.031599998
3.3469999 -0.21799999 0.0020000001 151 0 0 0 0.031610001
3.369 -0.20900001 0.0020000001 151 0 0 0 0.03162
3.372 -0.198 0.001 151 0 0 0 0.031629998
3.3699999 -0.18700001 0.001 151 0 0 0 0.031640001
3.4159999 -0.178 0.001 152 0 0 0 0.031649999
3.4260001 -0.168 0.001 153 0 0 0 0.031660002
3.4330001 -0.15700001 0 150 0 0 0 0.03167
3.4330001 -0.146 0 150 0 0 0 0.031679999
3.434 -0.13500001 0 150 0 0 0 0.031690001
3.4319999 -0.124 0 150 0 0 0 0.0317
3.4289999 -0.112 0 150 0 0 0 0.031709999
3.4300001 -0.101 0 150 0 0 0 0.031720001
3.431 -0.090000004 0 150 0 0 0 0.03173
3.427 -0.079000004 0 150 0 0 0 0.031739999
3.427 -0.068000004 0 150 0 0 0 0.031750001
3.431 -0.057 0 150 0 0 0 0.03176
3.424 -0.046 0 150 0 0 0 0.031769998
3.428 -0.035 0 150 0 0 0 0.031780001
3.4289999 -0.023 0 151 0 0 0 0.031789999
3.4189999 -0.012 0 151 0 0 0 0.031800002
3.4230001 -0.001 0 150 0 0 0 0.031810001
3.4189999 0.0089999996 0 151 0 0 0 0.031819999
3.4159999 0.02 0 151 0 0 0 0.031830002
3.4170001 0.030999999 0 151 0 0 0 0.03184
3.4200001 0.041999999 0 152 0 0 0 0.031849999
3.4170001 0.052999999 0 152 0 0 0 0.031860001
3.415 0.064000003 0 152 0 0 0 0.03187
3.4070001 0.075000003 0 153 0 0 0 0.031879999
3.4000001 0.086000003 0 153 0 0 0 0.031890001
3.401 0.097000003 0 154 0 0 0 0.0319
3.388 0.107 0 154 0 0 0 0.031909999
3.382 0.118 0.001 154 0 0 0 0.031920001
3.3829999 0.12899999 0.001 155 0 0 0 0.03193
3.3770001 0.14 0.001 155 0 0 0 0.031939998
3.368 0.15000001 0.001 157 0 0 0 0.031950001
3.365 0.161 0.0020000001 158 0 0 0 0.031959999
3.3610001 0.17200001 0.0020000001 158 0 0 0 0.031970002
3.362 0.183 0.0020000001 158 0 0 0 0.03198
3.3629999 0.19400001 0.003 159 0 0 0 0.031989999
3.3610001 0.205 0.003 159 0 0 0 0.032000002
3.362 0.21600001 0.0040000002 159 0 0 0 0.03201
3.359 0.226 0.0040000002 160 0 0 0 0.032019999
3.355 0.237 0.0040000002 160 0 0 0 0.032030001
3.358 0.248 0.0049999999 161 0 0 0 0.03204
3.3559999 0.259 0.0049999999 160 0 0 0 0.032049999
3.3559999 0.27000001 0.0060000001 159 0 0 0 0.032060001
3.3570001 0.28099999 0.0060000001 160 0 0 0 0.03207
3.3540001 0.29100001 0.0070000002 160 0 0 0 0.032079998
3.3559999 0.30199999 0.0080000004 159 0 0 0 0.032090001
3.352 0.31299999 0.0080000004 159 0 0 0 0.032099999
3.358 0.324 0.0089999996 157 0 0 0 0.032109998
3.365 0.336 0.0089999996 157 0 0 0 0.032120001
3.3559999 0.34599999 0.0099999998 158 0 0 0 0.032129999
3.3540001 0.35699999 0.011 158 0 0 0 0.032140002
3.3629999 0.36899999 0.011 156 0 0 0 0.03215
3.3640001 0.38 0.012 156 0 0 0 0.032159999
3.3659999 0.391 0.013 154 0 0 0 0.032170001
3.375 0.403 0.014 154 0 0 0 0.03218
3.3740001 0.414 0.014 154 0 0 0 0.032189999
3.3859999 0.426 0.015 153 0 0 0 0.032200001
3.392 0.43799999 0.016000001 152 0 0 0 0.03221
3.3940001 0.449 0.017000001 152 0 0 0 0.032219999
3.3889999 0.46000001 0.017999999 152 0 0 0 0.032230001
3.3859999 0.47 0.018999999 152 0 0 0 0.03224
3.3870001 0.48199999 0.02 152 0 0 0 0.032249998
3.3870001 0.493 0.02 152 0 0 0 0.032260001
3.3870001 0.50400001 0.021 152 0 0 0 0.032269999
3.3610001 0.51099998 0.022 154 0 0 0 0.032280002
3.3239999 0.51599997 0.023 152 0 0 0 0.03229
3.322 0.52700001 0.024 152 0 0 0 0.032299999
3.306 0.53500003 0.025 151 0 0 0 0.032310002
3.2839999 0.542 0.026000001 154 0 0 0 0.03232
3.266 0.55000001 0.027000001 154 0 0 0 0.032329999
3.267 0.56099999 0.028000001 154 0 0 0 0.032340001
3.2739999 0.57300001 0.028999999 154 0 0 0 0.03235
3.2679999 0.583 0.029999999 58 0 0 0 0.032359999
3.2260001 0.58499998 0.029999999 25 0 0 0 0.032370001
3.168 0.58499998 0.030999999 25 0 0 0 0.03238
3.102 0.583 0.032000002 25 0 0 0 0.032389998
3.0039999 0.57499999 0.032000002 25 0 0 0 0.032400001
2.9400001 0.57200003 0.032000002 25 0 0 0 0.03241
2.902 0.574 0.033 27 0 0 0 0.032419998
2.8139999 0.56599998 0.033 26 0 0 0 0.032430001
2.7090001 0.55400002 0.033 25 0 0 0 0.032439999
2.609 0.542 0.033 23 0 0 0 0.032450002
2.539 0.53600001 0.033 20 0 0 0 0.03246
2.4849999 0.53299999 0.033 21 0 0 0 0.032469999
2.4260001 0.528 0.033 21 0 0 0 0.032480001
2.362 0.52200001 0.033 20 0 0 0 0.03249
2.2739999 0.50999999 0.033 132 0 0 0 0.032499999
2.2490001 0.51200002 0.034000002 151 0 0 0 0.032510001
2.2390001 0.51700002 0.035 152 0 0 0 0.03252
2.2449999 0.52600002 0.035999998 151 0 0 0 0.032529999
2.2320001 0.52999997 0.037 150 0 0 0 0.032540001
2.227 0.53600001 0.037999999 151 0 0 0 0.03255
2.2260001 0.54299998 0.039000001 151 0 0 0 0.032559998
2.23 0.551 0.039999999 151 0 0 0 0.032570001
2.2290001 0.55900002 0.041000001 151 0 0 0 0.032579999
2.234 0.56699997 0.041999999 151 0 0 0 0.032590002
2.2260001 0.57200003 0.043000001 151 0 0 0 0.032600001
2.224 0.579 0.044 151 0 0 0 0.032609999
2.221 0.58600003 0.045000002 151 0 0 0 0.032620002
2.2309999 0.59600002 0.046999998 151 0 0 0 0.03263
2.234 0.60399997 0.048 151 0 0 0 0.032639999
2.23 0.611 0.048999999 151 0 0 0 0.032650001
2.2360001 0.62 0.050999999 151 0 0 0 0.03266
2.2320001 0.62599999 0.052000001 151 0 0 0 0.032669999
2.2309999 0.63300002 0.052999999 151 0 0 0 0.032680001
2.2909999 0.65799999 0.056000002 150 0 0 0 0.03269
2.48 0.72000003 0.061999999 150 0 0 0 0.032699998
2.483 0.72899997 0.064000003 150 0 0 0 0.032710001
2.4809999 0.73699999 0.064999998 150 0 0 0 0.03272
2.4809999 0.745 0.067000002 150 0 0 0 0.032729998
2.46 0.74699998 0.068000004 150 0 0 0 0.032740001
2.332 0.71600002 0.066 150 0 0 0 0.032749999
2.507 0.778 0.072999999 106 0 0 0 0.032760002
1.472 0.46200001 0.043000001 1 0 0 0 0.03277
1.4450001 0.458 0.044 1 0 0 0 0.032779999
1.4220001 0.45500001 0.044 1 0 0 0 0.032790001
1.416 0.458 0.045000002 1 0 0 0 0.0328
1.405 0.45899999 0.045000002 1 0 0 0 0.032809999
1.357 0.44800001 0.045000002 0 0 0 0 0.032820001
1.368 0.456 0.046 0 0 0 0 0.03283
1.341 0.45199999 0.046 0 0 0 0 0.032839999
1.327 0.45100001 0.046999998 4 0 0 0 0.032850001
1.309 0.449 0.046999998 51 0 0 0 0.03286
1.3 0.45100001 0.048 133 0 0 0 0.032869998
1.294 0.45300001 0.048 150 0 0 0 0.032880001
1.294 0.45699999 0.048999999 150 0 0 0 0.032889999
1.294 0.461 0.050999999 150 0 0 0 0.032900002
1.298 0.46700001 0.052000001 150 0 0 0 0.032910001
1.296 0.47099999 0.052999999 150 0 0 0 0.032919999
1.2920001 0.47400001 0.054000001 133 0 0 0 0.032930002
1.295 0.479 0.055 150 0 0 0 0.03294
1.2920001 0.48199999 0.056000002 150 0 0 0 0.032949999
1.293 0.48699999 0.057 150 0 0 0 0.032960001
1.294 0.491 0.057999998 107 0 0 0 0.03297
1.298 0.49700001 0.059 34 0 0 0 0.032979999
1.29 0.49900001 0.059999999 8 0 0 0 0.032990001
1.253 0.48800001 0.059999999 5 0 0 0 0.033
3.3139999 1.303 0.162 1 0 0 0 0.033009999
3.336 1.323 0.16599999 3 0 0 0 0.033020001
3.3169999 1.326 0.168 5 0 0 0 0.03303
3.3139999 1.336 0.171 5 0 0 0 0.033039998
3.3110001 1.345 0.17399999 4 0 0 0 0.033050001
3.306 1.354 0.177 2 0 0 0 0.033059999
3.2809999 1.355 0.17900001 2 0 0 0 0.033070002
3.2690001 1.36 0.182 3 0 0 0 0.03308
3.2590001 1.367 0.184 3 0 0 0 0.033089999
3.2609999 1.378 0.18799999 3 0 0 0 0.033100002
3.2360001 1.378 0.19 2 0 0 0 0.03311
3.237 1.3890001 0.193 3 0 0 0 0.033119999
3.2379999 1.4 0.19599999 3 0 0 0 0.033130001
3.234 1.409 0.2 3 0 0 0 0.03314
3.2379999 1.421 0.20299999 3 0 0 0 0.033149999
3.2190001 1.423 0.206 2 0 0 0 0.033160001
3.178 1.415 0.207 1 0 0 0 0.03317
3.155 1.415 0.20900001 0 0 0 0 0.033179998
3.128 1.413 0.20999999 1 0 0 0 0.033190001
3.096 1.409 0.212 2 0 0 0 0.033199999
3.102 1.421 0.21600001 2 0 0 0 0.033209998
3.109 1.434 0.22 3 0 0 0 0.033220001
3.105 1.442 0.223 2 0 0 0 0.033229999
3.1129999 1.456 0.227 2 0 0 0 0.033240002
3.095 1.457 0.23 2 0 0 0 0.03325
3.1010001 1.47 0.234 1 0 0 0 0.033259999
3.0810001 1.47 0.236 1 0 0 0 0.033270001
3.079 1.479 0.23999999 1 0 0 0 0.03328
3.0769999 1.487 0.243 2 0 0 0 0.033289999
3.0699999 1.493 0.24699999 2 0 0 0 0.033300001
3.073 1.5039999 0.25099999 2 0 0 0 0.03331
3.0580001 1.506 0.25299999 2 0 0 0 0.033319999
3.0710001 1.522 0.259 2 0 0 0 0.033330001
3.076 1.534 0.26300001 1 0 0 0 0.03334
3.155 1.5829999 0.27399999 0 0 0 0 0.033349998
0.91500002 0.46200001 0.079999998 0 0 0 0 0.033360001
0.91000003 0.46200001 0.081 3 0 0 0 0.033369999
0.90200001 0.461 0.082000002 4 0 0 0 0.033380002
0.91299999 0.46900001 0.083999999 4 0 0 0 0.03339
0.91399997 0.472 0.085000001 4 0 0 0 0.033399999
0.90700001 0.47099999 0.086000003 0 0 0 0 0.033410002
3.674 1.92 0.354 3 0 0 0 0.03342
3.6919999 1.941 0.361 8 0 0 0 0.033429999
3.687 1.949 0.366 13 0 0 0 0.033440001
3.6860001 1.959 0.37099999 18 0 0 0 0.03345
3.6900001 1.972 0.37599999 18 0 0 0 0.033459999
3.6860001 1.9809999 0.38100001 20 0 0 0 0.033470001
3.6830001 1.99 0.38600001 22 0 0 0 0.03348
3.6800001 1.999 0.39199999 23 0 0 0 0.033489998
3.677 2.007 0.39700001 23 0 0 0 0.033500001
3.681 2.02 0.403 26 0 0 0 0.03351
3.6800001 2.029 0.40799999 26 0 0 0 0.033519998
3.675 2.0369999 0.41299999 24 0 0 0 0.033530001
3.681 2.05 0.419 26 0 0 0 0.033539999
3.681 2.0599999 0.42500001 25 0 0 0 0.033550002
3.6800001 2.069 0.43000001 25 0 0 0 0.03356
3.677 2.0780001 0.43599999 23 0 0 0 0.033569999
3.681 2.089 0.442 25 0 0 0 0.033580001
3.6760001 2.096 0.447 22 0 0 0 0.03359
3.6760001 2.1059999 0.45300001 19 0 0 0 0.033599999
3.674 2.1140001 0.45899999 15 0 0 0 0.033610001
3.655 2.1129999 0.46200001 11 0 0 0 0.03362
3.684 2.1389999 0.472 9 0 0 0 0.033629999
3.595 2.096 0.46599999 8 0 0 0 0.033640001
3.536 2.0699999 0.46399999 6 0 0 0 0.03365
3.4960001 2.056 0.465 6 0 0 0 0.033659998
3.5109999 2.073 0.472 6 0 0 0 0.033670001
3.5139999 2.0829999 0.479 6 0 0 0 0.033679999
3.5139999 2.092 0.484 6 0 0 0 0.033690002
3.5079999 2.096 0.48899999 6 0 0 0 0.0337
3.5150001 2.108 0.49599999 6 0 0 0 0.033709999
3.5280001 2.1240001 0.50400001 6 0 0 0 0.033720002
3.4979999 2.1140001 0.50599998 5 0 0 0 0.03373
3.487 2.115 0.50999999 5 0 0 0 0.033739999
3.4260001 2.086 0.50700003 4 0 0 0 0.033750001
3.3710001 2.059 0.50400001 3 0 0 0 0.03376
3.2920001 2.0179999 0.498 2 0 0 0 0.033769999
3.2409999 1.994 0.49599999 1 0 0 0 0.033780001
3.22 1.987 0.498 1 0 0 0 0.03379
3.21 1.987 0.50199997 1 0 0 0 0.033799998
3.22 2 0.509 1 0 0 0 0.033810001
3.221 2.007 0.51499999 1 0 0 0 0.03382
3.2620001 2.0380001 0.52700001 1 0 0 0 0.033829998
3.549 2.224 0.57999998 1 0 0 0 0.033840001
3.487 2.1919999 0.57599998 2 0 0 0 0.033849999
3.5350001 2.2290001 0.58999997 3 0 0 0 0.033860002
3.552 2.2460001 0.59899998 4 0 0 0 0.03387
3.562 2.2579999 0.60699999 4 0 0 0 0.033879999
3.562 2.2639999 0.61299998 4 0 0 0 0.033890001
3.5309999 2.25 0.61400002 3 0 0 0 0.0339
3.5009999 2.2360001 0.61500001 3 0 0 0 0.033909999
3.4790001 2.227 0.61699998 2 0 0 0 0.033920001
3.4809999 2.234 0.62300003 2 0 0 0 0.03393
3.497 2.2490001 0.63200003 2 0 0 0 0.033939999
3.5420001 2.283 0.64600003 3 0 0 0 0.033950001
3.5580001 2.2980001 0.65600002 3 0 0 0 0.03396
3.5829999 2.319 0.66600001 4 0 0 0 0.033969998
3.5539999 2.3050001 0.667 3 0 0 0 0.033980001
3.5 2.2739999 0.66299999 2 0 0 0 0.033989999
3.5969999 2.342 0.68800002 2 0 0 0 0.034000002
0 0 0 0 0 0 0 0.034010001
3.348 2.187 0.65100002 0 0 0 0 0.034019999
1.548 1.012 0.30399999 0 0 0 0 0.034030002
1.497 0.98100001 0.296 0 0 0 0 0.03404
1.507 0.98900002 0.301 0 0 0 0 0.034049999
1.5039999 0.98799998 0.30199999 0 0 0 0 0.034060001
1.507 0.991 0.30599999 0 0 0 0 0.03407
1.495 0.98500001 0.30599999 0 0 0 0 0.034079999
1.499 0.98900002 0.30899999 0 0 0 0 0.034090001
1.5089999 0.99599999 0.31400001 0 0 0 0 0.0341
1.51 0.99800003 0.31600001 0 0 0 0 0.034109998
1.508 0.99699998 0.31799999 0 0 0 0 0.034120001
1.505 0.99599999 0.31999999 0 0 0 0 0.03413
1.499 0.99299997 0.32100001 0 0 0 0 0.034139998
1.492 0.98900002 0.322 0 0 0 0 0.034150001
1.472 0.97600001 0.31999999 0 0 0 0 0.034159999
1.561 1.036 0.34200001 0 0 0 0 0.034170002
1.543 1.024 0.34099999 0 0 0 0 0.03418
1.534 1.018 0.34099999 0 0 0 0 0.034189999
0 0 0 0 0 0 0 0.034200002
0 0 0 0 0 0 0 0.03421
0 0 0 0 0 0 0 0.034219999
0 0 0 0 0 0 0 0.034230001
0 0 0 0 0 0 0 0.03424
0 0 0 0 0 0 0 0.034249999
0 0 0 0 0 0 0 0.034260001
1.457 0.96700001 0.34099999 0 0 0 0 0.03427
1.498 0.99400002 0.35299999 0 0 0 0 0.034279998
1.419 0.94199997 0.336 1 0 0 0 0.034290001
1.396 0.92500001 0.333 3 0 0 0 0.034299999
1.391 0.921 0.333 12 0 0 0 0.034309998
1.399 0.926 0.33700001 13 0 0 0 0.034320001
1.386 0.917 0.336 15 0 0 0 0.034329999
0 0 0 0 0 0 0 0.034340002
0 0 0 0 0 0 0 0.03435
1.26 0.83099997 0.31 151 0 0 0 0.034359999
0 0 0 0 0 0 0 0.034370001
0 0 0 0 0 0 0 0.03438
0 0 0 0 0 0 0 0.034389999
0 0 0 0 0 0 0 0.034400001
0 0 0 0 0 0 0 0.03441
0 0 0 0 0 0 0 0.034419999
0 0 0 0 0 0 0 0.034430001
1.317 0.85900003 0.33700001 12 0 0 0 0.03444
1.41 0.91799998 0.36199999 0 0 0 0 0.034449998
0 0 0 0 0 0 0 0.034460001
0 0 0 0 0 0 0 0.034469999
0 0 0 0 0 0 0 0.034480002
0 0 0 0 0 0 0 0.03449
0 0 0 0 0 0 0 0.034499999
0 0 0 0 0 0 0 0.034510002
0 0 0 0 0 0 0 0.03452
0 0 0 0 0 0 0 0.034529999
0 0 0 0 0 0 0 0.034540001
0 0 0 0 0 0 0 0.03455
0 0 0 0 0 0 0 0.034559999
0 0 0 0 0 0 0 0.034570001
0 0 0 0 0 0 0 0.03458
0 0 0 0 0 0 0 0.034589998
0 0 0 0 0 0 0 0.034600001
0 0 0 0 0 0 0 0.03461
0 0 0 0 0 0 0 0.034619998
3.7260001 2.323 1.0140001 1 0 0 0 0.034630001
3.711 2.306 1.012 2 0 0 0 0.034639999
3.6789999 2.279 1.005 2 0 0 0 0.034650002
3.7049999 2.2869999 1.0140001 1 0 0 0 0.03466
0 0 0 0 0 0 0 0.034669999
0 0 0 0 0 0 0 0.034680001
0 0 0 0 0 0 0 0.03469
0 0 0 0 0 0 0 0.034699999
1.258 0.76300001 0.347 0 0 0 0 0.034710001
1.2359999 0.74699998 0.34099999 0 0 0 0 0.03472
1.2410001 0.74699998 0.34299999 0 0 0 0 0.034729999
1.2460001 0.74699998 0.345 0 0 0 0 0.034740001
1.194 0.713 0.331 1 0 0 0 0.03475
1.137 0.676 0.315 1 0 0 0 0.034759998
0 0 0 0 0 0 0 0.034770001
1.147 0.67699999 0.31900001 0 0 0 0 0.034779999
0 0 0 0 0 0 0 0.034790002
0 0 0 0 0 0 0 0.0348
0 0 0 0 0 0 0 0.034809999
0 0 0 0 0 0 0 0.034820002
1.21 0.699 0.33700001 1 0 0 0 0.03483
1.206 0.69300002 0.336 1 0 0 0 0.034839999
1.217 0.69599998 0.33899999 0 0 0 0 0.034850001
1.23 0.69999999 0.34299999 0 0 0 0 0.03486
3.677 2.0840001 1.025 2 0 0 0 0.034869999
3.6800001 2.076 1.025 1 0 0 0 0.034880001
0 0 0 0 0 0 0 0.03489
0 0 0 0 0 0 0 0.034899998
0 0 0 0 0 0 0 0.034910001
1.173 0.648 0.32600001 0 0 0 0 0.03492
1.178 0.648 0.32699999 0 0 0 0 0.034929998
0 0 0 0 0 0 0 0.034940001
0 0 0 0 0 0 0 0.034949999
0 0 0 0 0 0 0 0.034960002
0 0 0 0 0 0 0 0.03497
0 0 0 0 0 0 0 0.034979999
0 0 0 0 0 0 0 0.034990001
0 0 0 0 0 0 0 0.035
0.898 0.47299999 0.24699999 0 0 0 0 0.035009999
0.90600002 0.47400001 0.249 0 0 0 0 0.035020001
0.90100002 0.46900001 0.24699999 9 0 0 0 0.03503
0.89600003 0.46399999 0.24600001 17 0 0 0 0.035039999
0.89700001 0.46200001 0.245 18 0 0 0 0.035050001
0.90100002 0.461 0.24600001 14 0 0 0 0.03506
0.90499997 0.461 0.24699999 7 0 0 0 0.035069998
0.91600001 0.463 0.249 5 0 0 0 0.035080001
0.90499997 0.45500001 0.24600001 0 0 0 0 0.035089999
0.91799998 0.45899999 0.249 0 0 0 0 0.035100002
0.92400002 0.45899999 0.25 0 0 0 0 0.035110001
0.93400002 0.461 0.252 0 0 0 0 0.035119999
0.93699998 0.45899999 0.252 0 0 0 0 0.035130002
0.94 0.458 0.25299999 0 0 0 0 0.03514
0.95099998 0.461 0.255 0 0 0 0 0.035149999
0.972 0.46799999 0.25999999 0 0 0 0 0.035160001
0.96100003 0.45899999 0.25600001 0 0 0 0 0.03517
0.986 0.46799999 0.26199999 0 0 0 0 0.035179999
0.991 0.46799999 0.26300001 0 0 0 0 0.035190001
0.99900001 0.46799999 0.264 0 0 0 0 0.0352
1.013 0.47099999 0.26699999 0 0 0 0 0.035209998
1.017 0.47 0.26699999 0 0 0 0 0.035220001
1.024 0.47 0.26800001 0 0 0 0 0.03523
1.0319999 0.47 0.26899999 0 0 0 0 0.035239998
1.038 0.47 0.27000001 0 0 0 0 0.035250001
1.048 0.47099999 0.27200001 0 0 0 0 0.035259999
1.059 0.47299999 0.273 0 0 0 0 0.035270002
1.0650001 0.472 0.27399999 0 0 0 0 0.03528
1.072 0.472 0.27500001 0 0 0 0 0.035289999
1.079 0.47099999 0.27599999 0 0 0 0 0.035300002
1.0930001 0.47400001 0.278 0 0 0 0 0.03531
1.103 0.47499999 0.28 0 0 0 0 0.035319999
1.11 0.47400001 0.28 0 0 0 0 0.035330001
1.1210001 0.47600001 0.28200001 0 0 0 0 0.03534
1.136 0.47799999 0.28400001 0 0 0 0 0.035349999
1.1390001 0.47600001 0.28400001 0 0 0 0 0.035360001
1.151 0.477 0.28600001 0 0 0 0 0.03537
1.16 0.477 0.287 0 0 0 0 0.035379998
1.173 0.479 0.289 0 0 0 0 0.035390001
1.182 0.479 0.289 0 0 0 0 0.035399999
1.193 0.479 0.29100001 0 0 0 0 0.035409998
1.215 0.48500001 0.29499999 0 0 0 0 0.035420001
1.238 0.49000001 0.29899999 0 0 0 0 0.035429999
1.2589999 0.49399999 0.303 9 0 0 0 0.035440002
1.281 0.49900001 0.30599999 17 0 0 0 0.03545
1.278 0.493 0.30399999 85 0 0 0 0.035459999
1.273 0.48699999 0.301 150 0 0 0 0.035470001
1.273 0.48300001 0.30000001 150 0 0 0 0.03548
1.276 0.47999999 0.29899999 150 0 0 0 0.035489999
1.276 0.47600001 0.29699999 150 0 0 0 0.035500001
1.278 0.47299999 0.296 150 0 0 0 0.03551
1.276 0.46799999 0.294 150 0 0 0 0.035519999
1.277 0.465 0.29300001 150 0 0 0 0.035530001
1.279 0.461 0.29100001 150 0 0 0 0.03554
1.278 0.45699999 0.289 150 0 0 0 0.035549998
1.277 0.45300001 0.28799999 150 0 0 0 0.035560001
1.281 0.44999999 0.287 150 0 0 0 0.035569999
1.281 0.44600001 0.285 150 0 0 0 0.035580002
1.302 0.449 0.28799999 65 0 0 0 0.03559
1.3279999 0.454 0.292 11 0 0 0 0.035599999
1.346 0.456 0.294 7 0 0 0 0.035610002
1.3559999 0.45500001 0.294 7 0 0 0 0.03562
1.376 0.458 0.29699999 7 0 0 0 0.035629999
1.3940001 0.45899999 0.29899999 8 0 0 0 0.035640001
1.4119999 0.461 0.30000001 8 0 0 0 0.03565
1.427 0.461 0.30199999 9 0 0 0 0.035659999
1.446 0.463 0.30399999 8 0 0 0 0.035670001
1.459 0.463 0.30399999 9 0 0 0 0.03568
1.483 0.46599999 0.30700001 9 0 0 0 0.035689998
1.482 0.461 0.30500001 7 0 0 0 0.035700001
1.497 0.461 0.30599999 3 0 0 0 0.03571
1.4960001 0.456 0.303 0 0 0 0 0.035719998
4.0139999 1.212 0.80800003 53 0 0 0 0.035730001
4.0180001 1.2 0.80199999 56 0 0 0 0.035739999
4.0180001 1.188 0.796 57 0 0 0 0.035750002
3.967 1.161 0.77999997 150 0 0 0 0.03576
2.3610001 0.68400002 0.461 152 0 0 0 0.035769999
2.24 0.64200002 0.433 151 0 0 0 0.035780001
2.2249999 0.63099998 0.42699999 151 0 0 0 0.03579
2.2360001 0.62699997 0.426 151 0 0 0 0.035799999
2.234 0.62 0.42199999 151 0 0 0 0.035810001
2.2379999 0.61400002 0.419 151 0 0 0 0.03582
2.237 0.60699999 0.41499999 151 0 0 0 0.035829999
2.227 0.59799999 0.41 151 0 0 0 0.035840001
2.2279999 0.59100002 0.40599999 151 0 0 0 0.03585
2.22 0.583 0.40099999 151 0 0 0 0.035859998
2.2219999 0.57700002 0.398 151 0 0 0 0.035870001
2.2249999 0.57099998 0.39500001 151 0 0 0 0.035879999
2.2249999 0.56400001 0.391 151 0 0 0 0.035890002
2.227 0.55800003 0.38800001 151 0 0 0 0.0359
2.2219999 0.55000001 0.384 151 0 0 0 0.035909999
2.227 0.54500002 0.38100001 151 0 0 0 0.035920002
2.224 0.53799999 0.377 150 0 0 0 0.03593
2.237 0.53399998 0.375 150 0 0 0 0.035939999
2.2539999 0.53200001 0.37400001 151 0 0 0 0.035950001
2.2590001 0.52600002 0.37099999 151 0 0 0 0.03596
2.253 0.51800001 0.366 151 0 0 0 0.035969999
2.2620001 0.514 0.36399999 150 0 0 0 0.035980001
2.3069999 0.51700002 0.36700001 19 0 0 0 0.03599
2.3789999 0.52700001 0.375 17 0 0 0 0.035999998
2.428 0.52999997 0.37900001 18 0 0 0 0.036010001
2.4879999 0.53600001 0.384 20 0 0 0 0.03602
2.5469999 0.542 0.38800001 21 0 0 0 0.036029998
2.596 0.54500002 0.391 21 0 0 0 0.036040001
2.6500001 0.54799998 0.39500001 21 0 0 0 0.036049999
2.7060001 0.55199999 0.39899999 21 0 0 0 0.036060002
2.7739999 0.55800003 0.40400001 22 0 0 0 0.03607
2.848 0.565 0.40900001 23 0 0 0 0.036079999
2.925 0.57200003 0.41499999 24 0 0 0 0.036090001
3.006 0.579 0.42199999 24 0 0 0 0.0361
3.076 0.58399999 0.426 24 0 0 0 0.036109999
