# .PCD v0.7 - Point Cloud Data file format
VERSION 0.7
FIELDS x y z intensity normal_x normal_y normal_z curvature
SIZE 4 4 4 4 4 4 4 4
TYPE F F F F F F F F
COUNT 1 1 1 1 1 1 1 1
WIDTH 1003
HEIGHT 1
VIEWPOINT 0 0 0 1 0 0 0
POINTS 1003
DATA ascii
2.2509999 0.64200002 0.147 150 0 0 0 0.066890001
2.2290001 0.62800002 0.145 151 0 0 0 0.0669
2.2279999 0.62099999 0.14399999 151 0 0 0 0.066909999
2.23 0.61400002 0.14300001 151 0 0 0 0.066919997
2.2260001 0.60500002 0.142 151 0 0 0 0.066930003
2.2279999 0.59799999 0.141 151 0 0 0 0.066940002
2.224 0.58999997 0.14 151 0 0 0 0.066950001
2.2260001 0.583 0.139 151 0 0 0 0.06696
2.22 0.574 0.13699999 151 0 0 0 0.066969998
2.2219999 0.56699997 0.13600001 151 0 0 0 0.066979997
2.224 0.56 0.13500001 151 0 0 0 0.066990003
2.2260001 0.55299997 0.134 151 0 0 0 0.067000002
2.227 0.546 0.133 151 0 0 0 0.06701
2.2279999 0.53899997 0.132 151 0 0 0 0.067019999
2.2249999 0.53100002 0.13 150 0 0 0 0.067029998
2.2490001 0.52899998 0.13 151 0 0 0 0.067039996
2.243 0.52100003 0.12899999 151 0 0 0 0.067050003
2.2449999 0.514 0.12800001 151 0 0 0 0.067060001
2.256 0.509 0.127 150 0 0 0 0.06707
2.335 0.51899999 0.13 19 0 0 0 0.067079999
2.3929999 0.52399999 0.132 18 0 0 0 0.067089997
2.45 0.52899998 0.134 19 0 0 0 0.067100003
2.51 0.53299999 0.13500001 19 0 0 0 0.067110002
2.5769999 0.53899997 0.13699999 21 0 0 0 0.067120001
2.6600001 0.54799998 0.14 23 0 0 0 0.067129999
2.756 0.55900002 0.14399999 24 0 0 0 0.067139998
2.8469999 0.56800002 0.147 25 0 0 0 0.067149997
2.9030001 0.56999999 0.148 24 0 0 0 0.067160003
2.9849999 0.57599998 0.15000001 24 0 0 0 0.067170002
3.0610001 0.58099997 0.152 25 0 0 0 0.06718
3.1389999 0.58499998 0.154 25 0 0 0 0.067189999
3.211 0.588 0.155 25 0 0 0 0.067199998
3.26 0.58700001 0.155 26 0 0 0 0.067209996
3.28 0.57999998 0.154 151 0 0 0 0.067220002
3.289 0.57099998 0.152 152 0 0 0 0.067230001
3.2909999 0.56 0.15000001 152 0 0 0 0.06724
3.2850001 0.54900002 0.147 152 0 0 0 0.067249998
3.29 0.53899997 0.145 151 0 0 0 0.067259997
3.3169999 0.53299999 0.14399999 151 0 0 0 0.067270003
3.319 0.52200001 0.142 151 0 0 0 0.067280002
3.329 0.51300001 0.14 150 0 0 0 0.067290001
3.388 0.51200002 0.14 152 0 0 0 0.067299999
3.385 0.5 0.13699999 152 0 0 0 0.067309998
3.3900001 0.49000001 0.13500001 152 0 0 0 0.067319997
3.3859999 0.479 0.133 152 0 0 0 0.067330003
3.388 0.46799999 0.13 152 0 0 0 0.067340001
3.3829999 0.45699999 0.127 151 0 0 0 0.06735
3.391 0.447 0.125 152 0 0 0 0.067359999
3.392 0.43599999 0.123 152 0 0 0 0.067369998
3.3940001 0.426 0.12 152 0 0 0 0.067380004
3.391 0.41499999 0.117 152 0 0 0 0.067390002
3.3970001 0.405 0.115 152 0 0 0 0.067400001
3.388 0.39300001 0.112 152 0 0 0 0.06741
3.3829999 0.382 0.109 152 0 0 0 0.067419998
3.385 0.37099999 0.106 153 0 0 0 0.067429997
3.3840001 0.36000001 0.104 153 0 0 0 0.067440003
3.3659999 0.34799999 0.1 154 0 0 0 0.067450002
3.3699999 0.33700001 0.097999997 154 0 0 0 0.067460001
3.3659999 0.32600001 0.094999999 154 0 0 0 0.067469999
3.3699999 0.31600001 0.092 154 0 0 0 0.067479998
3.368 0.30500001 0.089000002 154 0 0 0 0.067489997
3.368 0.29499999 0.086999997 155 0 0 0 0.067500003
3.3670001 0.28400001 0.083999999 155 0 0 0 0.067510001
3.3670001 0.27399999 0.081 156 0 0 0 0.06752
3.3599999 0.26199999 0.078000002 156 0 0 0 0.067529999
3.3699999 0.25299999 0.075000003 156 0 0 0 0.067539997
3.3629999 0.242 0.071999997 156 0 0 0 0.067550004
3.365 0.23100001 0.068999998 157 0 0 0 0.067560002
3.3659999 0.221 0.066 156 0 0 0 0.067570001
3.3659999 0.20999999 0.063000001 156 0 0 0 0.06758
3.3659999 0.2 0.059999999 156 0 0 0 0.067589998
3.375 0.19 0.057 156 0 0 0 0.067599997
3.3670001 0.17900001 0.054000001 156 0 0 0 0.067610003
3.368 0.168 0.050999999 156 0 0 0 0.067620002
3.3759999 0.15800001 0.048 156 0 0 0 0.06763
3.382 0.148 0.045000002 155 0 0 0 0.067639999
3.381 0.13699999 0.041999999 155 0 0 0 0.067649998
3.3840001 0.127 0.039000001 154 0 0 0 0.067659996
3.3829999 0.116 0.035999998 154 0 0 0 0.067670003
3.398 0.106 0.033 154 0 0 0 0.067680001
3.398 0.096000001 0.029999999 153 0 0 0 0.06769
3.398 0.085000001 0.027000001 154 0 0 0 0.067699999
3.402 0.075000003 0.024 154 0 0 0 0.067709997
3.4119999 0.064000003 0.02 153 0 0 0 0.067720003
3.418 0.054000001 0.017000001 153 0 0 0 0.067730002
3.418 0.043000001 0.014 153 0 0 0 0.067740001
3.421 0.033 0.011 152 0 0 0 0.067749999
3.418 0.022 0.0070000002 151 0 0 0 0.067759998
3.4200001 0.012 0.0040000002 151 0 0 0 0.067769997
3.421 0.001 0.001 151 0 0 0 0.067780003
3.4219999 -0.0080000004 -0.0020000001 151 0 0 0 0.067790002
3.4189999 -0.018999999 -0.0049999999 151 0 0 0 0.0678
3.4219999 -0.028999999 -0.0089999996 151 0 0 0 0.067809999
3.424 -0.039999999 -0.012 151 0 0 0 0.067819998
3.427 -0.050000001 -0.016000001 151 0 0 0 0.067829996
3.4230001 -0.061000001 -0.018999999 151 0 0 0 0.067840002
3.4230001 -0.071000002 -0.022 151 0 0 0 0.067850001
3.4230001 -0.082000002 -0.026000001 151 0 0 0 0.06786
3.4319999 -0.093000002 -0.029999999 151 0 0 0 0.067869999
3.4319999 -0.103 -0.033 151 0 0 0 0.067879997
3.431 -0.114 -0.037 151 0 0 0 0.067890003
3.431 -0.124 -0.039999999 151 0 0 0 0.067900002
3.431 -0.13500001 -0.044 151 0 0 0 0.067910001
3.4330001 -0.145 -0.048 151 0 0 0 0.067919999
3.4300001 -0.156 -0.050999999 151 0 0 0 0.067929998
3.434 -0.16599999 -0.055 152 0 0 0 0.067939997
3.4030001 -0.175 -0.057999998 154 0 0 0 0.067950003
3.3699999 -0.184 -0.061000001 151 0 0 0 0.067960002
3.369 -0.19400001 -0.064999998 151 0 0 0 0.06797
3.3729999 -0.205 -0.068999998 152 0 0 0 0.067979999
3.3510001 -0.214 -0.071999997 151 0 0 0 0.067989998
3.342 -0.223 -0.075000003 152 0 0 0 0.068000004
3.3440001 -0.234 -0.079000004 152 0 0 0 0.068010002
3.3440001 -0.244 -0.082999997 153 0 0 0 0.068020001
3.3429999 -0.25400001 -0.086000003 152 0 0 0 0.06803
3.289 -0.25999999 -0.089000002 126 0 0 0 0.068039998
3.2349999 -0.266 -0.090999998 152 0 0 0 0.068049997
3.2349999 -0.27599999 -0.094999999 152 0 0 0 0.068060003
3.237 -0.28600001 -0.097999997 152 0 0 0 0.068070002
3.2360001 -0.29499999 -0.102 152 0 0 0 0.068080001
3.2349999 -0.30500001 -0.106 151 0 0 0 0.068089999
3.2390001 -0.315 -0.11 152 0 0 0 0.068099998
3.211 -0.322 -0.112 150 0 0 0 0.068109997
3.21 -0.33199999 -0.116 151 0 0 0 0.068120003
3.207 -0.34099999 -0.12 150 0 0 0 0.068130001
3.21 -0.35100001 -0.124 150 0 0 0 0.06814
3.2090001 -0.361 -0.12800001 151 0 0 0 0.068149999
3.2079999 -0.37099999 -0.131 151 0 0 0 0.068159997
2.931 -0.34799999 -0.123 150 0 0 0 0.068170004
2.5910001 -0.315 -0.112 24 0 0 0 0.068180002
2.5409999 -0.317 -0.113 26 0 0 0 0.068190001
2.4960001 -0.31900001 -0.114 26 0 0 0 0.0682
2.448 -0.31999999 -0.115 22 0 0 0 0.068209998
2.401 -0.32100001 -0.116 19 0 0 0 0.068219997
2.368 -0.324 -0.117 21 0 0 0 0.068230003
2.359 -0.33000001 -0.12 18 0 0 0 0.068240002
2.359 -0.33700001 -0.123 16 0 0 0 0.06825
2.359 -0.34400001 -0.125 17 0 0 0 0.068259999
2.368 -0.35299999 -0.12899999 15 0 0 0 0.068269998
2.362 -0.359 -0.132 17 0 0 0 0.068279997
2.365 -0.36700001 -0.13500001 18 0 0 0 0.068290003
2.3659999 -0.37400001 -0.138 18 0 0 0 0.068300001
2.3640001 -0.38100001 -0.141 23 0 0 0 0.06831
2.3659999 -0.38800001 -0.14399999 23 0 0 0 0.068319999
2.3629999 -0.39500001 -0.147 21 0 0 0 0.068329997
2.3640001 -0.40200001 -0.15000001 19 0 0 0 0.068340003
2.3670001 -0.41 -0.154 20 0 0 0 0.068350002
2.3629999 -0.41600001 -0.156 20 0 0 0 0.068360001
2.368 -0.42500001 -0.16 20 0 0 0 0.06837
2.368 -0.43200001 -0.163 18 0 0 0 0.068379998
2.368 -0.43900001 -0.16599999 20 0 0 0 0.068389997
2.3699999 -0.44600001 -0.17 18 0 0 0 0.068400003
2.3699999 -0.45300001 -0.17299999 16 0 0 0 0.068410002
2.369 -0.46000001 -0.176 15 0 0 0 0.06842
2.3699999 -0.46799999 -0.17900001 16 0 0 0 0.068429999
2.3800001 -0.477 -0.184 17 0 0 0 0.068439998
2.3789999 -0.484 -0.18700001 15 0 0 0 0.068449996
2.3870001 -0.493 -0.191 14 0 0 0 0.068460003
2.3859999 -0.5 -0.19400001 15 0 0 0 0.068470001
2.3870001 -0.50700003 -0.198 17 0 0 0 0.06848
2.3789999 -0.51200002 -0.2 19 0 0 0 0.068489999
2.3770001 -0.51899999 -0.20299999 20 0 0 0 0.068499997
2.3770001 -0.52600002 -0.207 15 0 0 0 0.068510003
2.375 -0.53299999 -0.20999999 18 0 0 0 0.068520002
2.3699999 -0.53899997 -0.213 22 0 0 0 0.068530001
2.3740001 -0.54699999 -0.21699999 25 0 0 0 0.068539999
2.3740001 -0.55400002 -0.22 26 0 0 0 0.068549998
2.3759999 -0.56199998 -0.22400001 28 0 0 0 0.068559997
2.375 -0.56900001 -0.228 29 0 0 0 0.068570003
2.375 -0.57599998 -0.23100001 23 0 0 0 0.068580002
2.375 -0.583 -0.235 21 0 0 0 0.06859
2.3770001 -0.58999997 -0.23899999 24 0 0 0 0.068599999
2.3789999 -0.59799999 -0.242 19 0 0 0 0.068609998
2.378 -0.60500002 -0.24600001 15 0 0 0 0.068619996
2.3800001 -0.61299998 -0.25 15 0 0 0 0.068630002
2.3770001 -0.61900002 -0.25299999 19 0 0 0 0.068640001
2.3789999 -0.62699997 -0.257 21 0 0 0 0.06865
2.382 -0.63499999 -0.26100001 22 0 0 0 0.068659998
2.3759999 -0.63999999 -0.264 23 0 0 0 0.068669997
2.378 -0.648 -0.26800001 21 0 0 0 0.068680003
2.3789999 -0.65499997 -0.27200001 20 0 0 0 0.068690002
2.3770001 -0.66100001 -0.27599999 20 0 0 0 0.068700001
2.378 -0.66900003 -0.28 21 0 0 0 0.068709999
2.3800001 -0.676 -0.28400001 22 0 0 0 0.068719998
2.381 -0.68400002 -0.28799999 24 0 0 0 0.068729997
2.381 -0.69099998 -0.292 22 0 0 0 0.068740003
2.3829999 -0.699 -0.296 21 0 0 0 0.068750001
2.3840001 -0.70599997 -0.30000001 19 0 0 0 0.06876
2.3840001 -0.713 -0.30399999 21 0 0 0 0.068769999
2.3840001 -0.72000003 -0.308 22 0 0 0 0.068779998
2.382 -0.72600001 -0.31200001 21 0 0 0 0.068790004
2.3829999 -0.73400003 -0.31600001 19 0 0 0 0.068800002
2.382 -0.741 -0.31999999 18 0 0 0 0.068810001
2.382 -0.74699998 -0.324 18 0 0 0 0.06882
2.388 -0.75599998 -0.329 16 0 0 0 0.068829998
2.3889999 -0.764 -0.333 14 0 0 0 0.068839997
2.3870001 -0.76999998 -0.33700001 21 0 0 0 0.068850003
2.3889999 -0.778 -0.34099999 25 0 0 0 0.068860002
2.3870001 -0.78399998 -0.345 22 0 0 0 0.068870001
2.3859999 -0.79100001 -0.34900001 24 0 0 0 0.068879999
2.388 -0.79799998 -0.354 25 0 0 0 0.068889998
2.388 -0.80500001 -0.35800001 22 0 0 0 0.068899997
2.3870001 -0.81199998 -0.36199999 23 0 0 0 0.068910003
2.3840001 -0.81800002 -0.366 24 0 0 0 0.068920001
2.3900001 -0.82700002 -0.37099999 26 0 0 0 0.06893
2.388 -0.833 -0.375 26 0 0 0 0.068939999
2.391 -0.84100002 -0.38 26 0 0 0 0.068949997
2.395 -0.84899998 -0.38499999 23 0 0 0 0.068960004
2.388 -0.85299999 -0.389 20 0 0 0 0.068970002
2.392 -0.861 -0.39399999 18 0 0 0 0.068980001
2.395 -0.87 -0.39899999 17 0 0 0 0.06899
2.3929999 -0.87599999 -0.403 17 0 0 0 0.068999998
2.3970001 -0.884 -0.40799999 21 0 0 0 0.069009997
2.3929999 -0.889 -0.412 24 0 0 0 0.069020003
2.3940001 -0.89700001 -0.417 19 0 0 0 0.069030002
2.3940001 -0.903 -0.421 17 0 0 0 0.06904
2.4000001 -0.912 -0.42699999 21 0 0 0 0.069049999
2.398 -0.91799998 -0.43099999 22 0 0 0 0.069059998
2.3970001 -0.92500001 -0.43599999 20 0 0 0 0.069069996
2.3959999 -0.93099999 -0.44 17 0 0 0 0.069080003
2.3959999 -0.93800002 -0.44499999 14 0 0 0 0.069090001
2.3959999 -0.94400001 -0.44999999 17 0 0 0 0.0691
2.4000001 -0.95300001 -0.45500001 18 0 0 0 0.069109999
2.401 -0.95899999 -0.46000001 17 0 0 0 0.069119997
2.4000001 -0.96600002 -0.465 18 0 0 0 0.069130003
2.4000001 -0.972 -0.47 22 0 0 0 0.069140002
2.4000001 -0.97899997 -0.47499999 21 0 0 0 0.069150001
2.4000001 -0.98500001 -0.47999999 22 0 0 0 0.069159999
2.4000001 -0.99199998 -0.484 21 0 0 0 0.069169998
2.4030001 -1 -0.49000001 21 0 0 0 0.069179997
2.4089999 -1.008 -0.49599999 20 0 0 0 0.069190003
2.4159999 -1.018 -0.50300002 15 0 0 0 0.069200002
2.415 -1.024 -0.50800002 16 0 0 0 0.06921
2.4070001 -1.027 -0.51099998 17 0 0 0 0.069219999
2.4059999 -1.033 -0.51499999 23 0 0 0 0.069229998
2.4059999 -1.039 -0.52100003 27 0 0 0 0.069239996
2.408 -1.0470001 -0.52600002 25 0 0 0 0.069250003
2.4059999 -1.052 -0.53100002 22 0 0 0 0.069260001
2.4059999 -1.058 -0.53600001 21 0 0 0 0.06927
2.4070001 -1.0650001 -0.54100001 21 0 0 0 0.069279999
2.4059999 -1.0700001 -0.546 20 0 0 0 0.069289997
2.4030001 -1.075 -0.551 19 0 0 0 0.069300003
2.404 -1.082 -0.55599999 22 0 0 0 0.069310002
2.405 -1.0880001 -0.56199998 23 0 0 0 0.069320001
2.4070001 -1.095 -0.56699997 24 0 0 0 0.069329999
2.405 -1.1 -0.57200003 22 0 0 0 0.069339998
2.408 -1.108 -0.57800001 19 0 0 0 0.069349997
2.4000001 -1.11 -0.58099997 20 0 0 0 0.069360003
2.3940001 -1.113 -0.58499998 150 0 0 0 0.069370002
2.322 -1.085 -0.57300001 150 0 0 0 0.06938
2.303 -1.082 -0.57300001 150 0 0 0 0.069389999
2.3199999 -1.095 -0.583 150 0 0 0 0.069399998
1.117 -0.52999997 -0.28299999 4 0 0 0 0.069410004
1.1160001 -0.53200001 -0.285 5 0 0 0 0.069420002
1.112 -0.53299999 -0.287 5 0 0 0 0.069430001
1.117 -0.53799999 -0.28999999 5 0 0 0 0.06944
1.113 -0.53799999 -0.292 3 0 0 0 0.069449998
1.12 -0.54400003 -0.296 2 0 0 0 0.069459997
1.1160001 -0.54500002 -0.29800001 1 0 0 0 0.069470003
1.1160001 -0.54699999 -0.30000001 1 0 0 0 0.069480002
1.117 -0.55000001 -0.303 1 0 0 0 0.069490001
1.119 -0.55299997 -0.30599999 1 0 0 0 0.069499999
1.124 -0.55800003 -0.31 1 0 0 0 0.069509998
1.1289999 -0.56300002 -0.31400001 1 0 0 0 0.069519997
1.124 -0.56300002 -0.315 1 0 0 0 0.069530003
1.127 -0.56699997 -0.31900001 2 0 0 0 0.069540001
1.128 -0.56999999 -0.32100001 2 0 0 0 0.06955
1.128 -0.57200003 -0.324 2 0 0 0 0.069559999
1.128 -0.574 -0.32699999 2 0 0 0 0.069569997
1.126 -0.57499999 -0.32800001 2 0 0 0 0.069580004
1.126 -0.57800001 -0.331 2 0 0 0 0.069590002
1.126 -0.57999998 -0.33399999 2 0 0 0 0.069600001
1.128 -0.583 -0.33700001 2 0 0 0 0.06961
1.1289999 -0.58600003 -0.34 2 0 0 0 0.069619998
1.125 -0.58600003 -0.34099999 2 0 0 0 0.069629997
1.131 -0.59100002 -0.34599999 2 0 0 0 0.069640003
1.1289999 -0.59200001 -0.347 2 0 0 0 0.069650002
1.128 -0.59299999 -0.34999999 2 0 0 0 0.069660001
1.126 -0.59399998 -0.352 2 0 0 0 0.069669999
1.127 -0.597 -0.35499999 2 0 0 0 0.069679998
1.123 -0.59600002 -0.35600001 3 0 0 0 0.069689997
1.13 -0.602 -0.361 3 0 0 0 0.069700003
1.1289999 -0.60299999 -0.36300001 3 0 0 0 0.069710001
1.123 -0.602 -0.36399999 2 0 0 0 0.06972
1.12 -0.602 -0.36500001 2 0 0 0 0.069729999
1.122 -0.60500002 -0.368 2 0 0 0 0.069739997
1.115 -0.60299999 -0.36899999 2 0 0 0 0.069750004
1.1109999 -0.602 -0.37 1 0 0 0 0.069760002
1.114 -0.60500002 -0.373 1 0 0 0 0.069770001
1.107 -0.60299999 -0.373 1 0 0 0 0.06978
1.09 -0.59500003 -0.37 1 0 0 0 0.069789998
1.073 -0.58700001 -0.36700001 1 0 0 0 0.069799997
1.077 -0.59100002 -0.37 1 0 0 0 0.069810003
1.069 -0.588 -0.37 0 0 0 0 0.069820002
1.067 -0.588 -0.37200001 1 0 0 0 0.06983
1.056 -0.583 -0.37 0 0 0 0 0.069839999
1.043 -0.57700002 -0.368 0 0 0 0 0.069849998
1.028 -0.56999999 -0.36500001 0 0 0 0 0.069859996
1.026 -0.56999999 -0.366 0 0 0 0 0.069870003
1.017 -0.56599998 -0.36500001 1 0 0 0 0.069880001
1.012 -0.56400001 -0.366 1 0 0 0 0.06989
1.016 -0.56699997 -0.36899999 1 0 0 0 0.069899999
1.006 -0.56199998 -0.368 1 0 0 0 0.069909997
1.01 -0.565 -0.37099999 1 0 0 0 0.069920003
1.006 -0.56400001 -0.37200001 1 0 0 0 0.069930002
1.01 -0.56699997 -0.375 1 0 0 0 0.069940001
1.008 -0.56699997 -0.377 1 0 0 0 0.069949999
1.011 -0.56900001 -0.38 1 0 0 0 0.069959998
1 -0.56300002 -0.37799999 1 0 0 0 0.069969997
0.991 -0.55900002 -0.37599999 0 0 0 0 0.069980003
0.98900002 -0.55800003 -0.37799999 0 0 0 0 0.069990002
0.98900002 -0.55800003 -0.37900001 0 0 0 0 0.07
1 -0.565 -0.38499999 1 0 0 0 0.070009999
0.99199998 -0.56099999 -0.384 0 0 0 0 0.070019998
1.0039999 -0.56800002 -0.391 1 0 0 0 0.070029996
0.99000001 -0.56099999 -0.38699999 0 0 0 0 0.070040002
1.005 -0.56900001 -0.39500001 1 0 0 0 0.070050001
0.99400002 -0.56300002 -0.39199999 0 0 0 0 0.07006
1 -0.56699997 -0.39700001 1 0 0 0 0.070069999
0.99599999 -0.565 -0.396 0 0 0 0 0.070079997
1.006 -0.56999999 -0.40200001 1 0 0 0 0.070090003
1.041 -0.59100002 -0.41800001 1 0 0 0 0.070100002
0 0 0 0 0 0 0 0.070110001
1.972 -1.119 -0.79900002 150 0 0 0 0.070119999
1.98 -1.123 -0.80599999 150 0 0 0 0.070129998
1.96 -1.1109999 -0.801 150 0 0 0 0.070139997
1.9579999 -1.109 -0.80299997 150 0 0 0 0.070150003
1.918 -1.086 -0.78899997 48 0 0 0 0.070160002
1.943 -1.1 -0.80299997 23 0 0 0 0.07017
1.944 -1.1 -0.80599999 29 0 0 0 0.070179999
1.938 -1.096 -0.80699998 30 0 0 0 0.070189998
1.936 -1.094 -0.80800003 30 0 0 0 0.070200004
1.933 -1.091 -0.81 31 0 0 0 0.070210002
1.923 -1.085 -0.80800003 31 0 0 0 0.070220001
1.92 -1.082 -0.81 31 0 0 0 0.07023
1.909 -1.075 -0.80800003 30 0 0 0 0.070239998
1.904 -1.0700001 -0.80800003 31 0 0 0 0.070249997
1.902 -1.068 -0.80900002 31 0 0 0 0.070260003
1.896 -1.063 -0.80900002 31 0 0 0 0.070270002
1.888 -1.057 -0.80800003 32 0 0 0 0.070280001
1.8839999 -1.053 -0.80900002 33 0 0 0 0.070289999
1.8789999 -1.048 -0.80800003 31 0 0 0 0.070299998
1.874 -1.044 -0.80800003 31 0 0 0 0.070309997
1.867 -1.038 -0.80699998 30 0 0 0 0.070320003
1.865 -1.035 -0.80800003 31 0 0 0 0.070330001
1.863 -1.0319999 -0.80900002 31 0 0 0 0.07034
1.857 -1.027 -0.80800003 30 0 0 0 0.070349999
1.854 -1.023 -0.80800003 31 0 0 0 0.070359997
1.849 -1.018 -0.80800003 30 0 0 0 0.070370004
1.846 -1.0140001 -0.80800003 31 0 0 0 0.070380002
1.8430001 -1.01 -0.80900002 31 0 0 0 0.070390001
1.839 -1.006 -0.80800003 31 0 0 0 0.0704
1.836 -1.002 -0.80800003 32 0 0 0 0.070409998
1.834 -0.99800003 -0.80900002 32 0 0 0 0.070419997
1.835 -0.99599999 -0.81 32 0 0 0 0.070430003
1.827 -0.98900002 -0.80800003 32 0 0 0 0.070440002
1.8279999 -0.98699999 -0.80900002 32 0 0 0 0.07045
1.825 -0.98199999 -0.80900002 32 0 0 0 0.070459999
1.826 -0.98000002 -0.81 32 0 0 0 0.070469998
1.826 -0.977 -0.81099999 33 0 0 0 0.070479997
1.825 -0.97299999 -0.81099999 33 0 0 0 0.070490003
1.821 -0.96799999 -0.81 33 0 0 0 0.070500001
1.816 -0.96200001 -0.80900002 34 0 0 0 0.07051
1.817 -0.95899999 -0.80900002 34 0 0 0 0.070519999
1.8150001 -0.95499998 -0.80900002 34 0 0 0 0.070529997
1.8150001 -0.95200002 -0.80900002 34 0 0 0 0.070540003
1.816 -0.949 -0.81 34 0 0 0 0.070550002
1.814 -0.94499999 -0.81 31 0 0 0 0.070560001
1.814 -0.94099998 -0.81 30 0 0 0 0.07057
1.8150001 -0.93800002 -0.81099999 30 0 0 0 0.070579998
1.814 -0.93400002 -0.81 29 0 0 0 0.070589997
1.814 -0.93000001 -0.81 28 0 0 0 0.070600003
1.817 -0.92799997 -0.81199998 29 0 0 0 0.070610002
1.8099999 -0.921 -0.80900002 29 0 0 0 0.07062
1.819 -0.92199999 -0.81199998 30 0 0 0 0.070629999
1.818 -0.917 -0.81199998 29 0 0 0 0.070639998
1.807 -0.90799999 -0.80599999 33 0 0 0 0.070649996
1.771 -0.88499999 -0.79000002 44 0 0 0 0.070660003
1.684 -0.838 -0.75 116 0 0 0 0.070670001
1.8099999 -0.89700001 -0.80599999 58 0 0 0 0.07068
1.1440001 -0.56400001 -0.509 27 0 0 0 0.070689999
1.1160001 -0.54799998 -0.49599999 6 0 0 0 0.070699997
1.11 -0.542 -0.493 5 0 0 0 0.070710003
1.1109999 -0.54000002 -0.493 6 0 0 0 0.070720002
1.113 -0.53899997 -0.493 6 0 0 0 0.070730001
1.1109999 -0.53500003 -0.49200001 6 0 0 0 0.070739999
1.108 -0.53100002 -0.49000001 6 0 0 0 0.070749998
1.113 -0.52999997 -0.49200001 6 0 0 0 0.070759997
1.128 -0.53500003 -0.498 19 0 0 0 0.070770003
1.223 -0.57700002 -0.53899997 62 0 0 0 0.070780002
1.648 -0.773 -0.72500002 129 0 0 0 0.07079
1.779 -0.83099997 -0.78100002 78 0 0 0 0.070799999
1.8430001 -0.85600001 -0.80800003 32 0 0 0 0.070809998
1.858 -0.85799998 -0.81300002 29 0 0 0 0.070819996
1.862 -0.85600001 -0.81400001 29 0 0 0 0.070830002
1.865 -0.852 -0.81300002 31 0 0 0 0.070840001
1.868 -0.84899998 -0.81300002 33 0 0 0 0.07085
1.8710001 -0.84500003 -0.81300002 32 0 0 0 0.070859998
1.878 -0.84399998 -0.81400001 31 0 0 0 0.070869997
1.883 -0.84100002 -0.81400001 30 0 0 0 0.070880003
1.888 -0.838 -0.815 31 0 0 0 0.070890002
1.89 -0.83399999 -0.81400001 30 0 0 0 0.070900001
1.896 -0.83200002 -0.81400001 30 0 0 0 0.070909999
1.9 -0.82800001 -0.81400001 30 0 0 0 0.070919998
1.904 -0.82499999 -0.81300002 31 0 0 0 0.070929997
1.913 -0.824 -0.815 31 0 0 0 0.070940003
1.9170001 -0.81999999 -0.81400001 30 0 0 0 0.070950001
1.919 -0.81599998 -0.81300002 31 0 0 0 0.07096
1.931 -0.81599998 -0.81599998 31 0 0 0 0.070969999
1.933 -0.81099999 -0.81400001 31 0 0 0 0.070979998
1.9400001 -0.80900002 -0.815 31 0 0 0 0.070990004
1.947 -0.80699998 -0.815 31 0 0 0 0.071000002
1.952 -0.80299997 -0.815 32 0 0 0 0.071010001
1.961 -0.80199999 -0.81599998 32 0 0 0 0.07102
1.967 -0.79900002 -0.81599998 33 0 0 0 0.071029998
1.974 -0.796 -0.81599998 30 0 0 0 0.071039997
1.9809999 -0.79400003 -0.81599998 30 0 0 0 0.071050003
1.987 -0.79100001 -0.81599998 30 0 0 0 0.071060002
1.998 -0.79000002 -0.81699997 31 0 0 0 0.071070001
2.0050001 -0.787 -0.81699997 31 0 0 0 0.071079999
2.0109999 -0.78299999 -0.81599998 30 0 0 0 0.071089998
2.0190001 -0.78100002 -0.81599998 30 0 0 0 0.071099997
2.0280001 -0.77899998 -0.81699997 30 0 0 0 0.071110003
2.039 -0.778 -0.81800002 30 0 0 0 0.071120001
2.0469999 -0.77499998 -0.81800002 30 0 0 0 0.07113
2.052 -0.77100003 -0.81699997 30 0 0 0 0.071139999
2.062 -0.76899999 -0.81699997 29 0 0 0 0.071149997
2.0769999 -0.76899999 -0.81999999 30 0 0 0 0.071160004
2.085 -0.76700002 -0.81999999 31 0 0 0 0.071170002
2.0969999 -0.76499999 -0.82099998 30 0 0 0 0.071180001
2.0999999 -0.75999999 -0.81800002 29 0 0 0 0.07119
2.118 -0.76099998 -0.82099998 31 0 0 0 0.071199998
2.1270001 -0.75800002 -0.82099998 30 0 0 0 0.071209997
2.1329999 -0.75400001 -0.81999999 30 0 0 0 0.071220003
2.1489999 -0.75400001 -0.82200003 31 0 0 0 0.071230002
2.1589999 -0.75199997 -0.82200003 30 0 0 0 0.07124
2.171 -0.75 -0.82200003 30 0 0 0 0.071249999
2.181 -0.74699998 -0.82200003 30 0 0 0 0.071259998
2.1889999 -0.74400002 -0.82099998 30 0 0 0 0.071269996
2.201 -0.74199998 -0.82099998 28 0 0 0 0.071280003
2.211 -0.73900002 -0.82099998 29 0 0 0 0.071290001
2.2219999 -0.73699999 -0.82099998 29 0 0 0 0.0713
2.2360001 -0.736 -0.82200003 28 0 0 0 0.071309999
2.25 -0.73400003 -0.82200003 29 0 0 0 0.071319997
2.2620001 -0.73199999 -0.82200003 29 0 0 0 0.071330003
2.2709999 -0.72899997 -0.82099998 28 0 0 0 0.071340002
2.286 -0.72799999 -0.82200003 30 0 0 0 0.071350001
2.2950001 -0.72399998 -0.81999999 29 0 0 0 0.071359999
2.309 -0.722 -0.82099998 28 0 0 0 0.071369998
2.3310001 -0.72299999 -0.824 28 0 0 0 0.071379997
2.3380001 -0.71899998 -0.82200003 29 0 0 0 0.071390003
2.355 -0.71799999 -0.82300001 29 0 0 0 0.071400002
2.3659999 -0.71399999 -0.82200003 31 0 0 0 0.07141
2.375 -0.71100003 -0.81999999 30 0 0 0 0.071419999
2.378 -0.70599997 -0.81599998 26 0 0 0 0.071429998
2.3770001 -0.699 -0.81099999 26 0 0 0 0.071439996
2.378 -0.69300002 -0.80599999 26 0 0 0 0.071450002
2.3759999 -0.68599999 -0.80000001 22 0 0 0 0.071460001
2.3759999 -0.68000001 -0.79500002 22 0 0 0 0.07147
2.3800001 -0.67500001 -0.79100001 24 0 0 0 0.071479999
2.3770001 -0.667 -0.78500003 21 0 0 0 0.071489997
2.3789999 -0.662 -0.77999997 21 0 0 0 0.071500003
2.3770001 -0.65499997 -0.77499998 23 0 0 0 0.071510002
2.3740001 -0.648 -0.76899999 24 0 0 0 0.071520001
2.3710001 -0.64099997 -0.76200002 26 0 0 0 0.071529999
2.3699999 -0.63499999 -0.75700003 22 0 0 0 0.071539998
2.3710001 -0.62900001 -0.75199997 20 0 0 0 0.071549997
2.3740001 -0.62300003 -0.74699998 21 0 0 0 0.071560003
2.372 -0.61699998 -0.741 20 0 0 0 0.071570002
2.3710001 -0.61000001 -0.736 21 0 0 0 0.07158
2.369 -0.60399997 -0.73000002 23 0 0 0 0.071589999
2.372 -0.59899998 -0.72500002 23 0 0 0 0.071599998
2.369 -0.59200001 -0.71899998 20 0 0 0 0.071610004
2.3699999 -0.58600003 -0.71399999 19 0 0 0 0.071620002
2.372 -0.58099997 -0.70899999 17 0 0 0 0.071630001
2.368 -0.574 -0.70200002 17 0 0 0 0.07164
2.3710001 -0.56900001 -0.69800001 21 0 0 0 0.071649998
2.365 -0.56099999 -0.69099998 24 0 0 0 0.071659997
2.369 -0.55599999 -0.68599999 26 0 0 0 0.071670003
2.368 -0.55000001 -0.68000001 24 0 0 0 0.071680002
2.368 -0.54400003 -0.67500001 22 0 0 0 0.071690001
2.3699999 -0.53899997 -0.67000002 20 0 0 0 0.071699999
2.3710001 -0.53299999 -0.66399997 19 0 0 0 0.071709998
2.368 -0.52700001 -0.65799999 22 0 0 0 0.071719997
2.3659999 -0.51999998 -0.65200001 23 0 0 0 0.071730003
2.365 -0.51499999 -0.64600003 23 0 0 0 0.071740001
2.3659999 -0.509 -0.63999999 22 0 0 0 0.07175
2.365 -0.50300002 -0.634 20 0 0 0 0.071759999
2.369 -0.498 -0.63 18 0 0 0 0.071769997
2.3599999 -0.491 -0.62199998 16 0 0 0 0.071780004
2.3640001 -0.486 -0.61699998 16 0 0 0 0.071790002
2.3629999 -0.47999999 -0.611 18 0 0 0 0.071800001
2.3610001 -0.47400001 -0.60500002 21 0 0 0 0.07181
2.3629999 -0.46900001 -0.60000002 20 0 0 0 0.071819998
2.3599999 -0.46200001 -0.59299999 20 0 0 0 0.071829997
2.3659999 -0.458 -0.58899999 22 0 0 0 0.071840003
2.368 -0.45300001 -0.58399999 24 0 0 0 0.071850002
2.3629999 -0.44600001 -0.57700002 23 0 0 0 0.07186
2.3629999 -0.44100001 -0.57099998 22 0 0 0 0.071869999
2.358 -0.43399999 -0.56400001 23 0 0 0 0.071879998
2.3599999 -0.42899999 -0.55900002 24 0 0 0 0.071889997
2.3640001 -0.42399999 -0.55400002 26 0 0 0 0.071900003
2.362 -0.419 -0.54699999 26 0 0 0 0.071910001
2.362 -0.41299999 -0.542 26 0 0 0 0.07192
2.3659999 -0.40900001 -0.537 26 0 0 0 0.071929999
2.359 -0.40200001 -0.52899998 26 0 0 0 0.071939997
2.365 -0.398 -0.52499998 19 0 0 0 0.071950004
2.3670001 -0.39300001 -0.51899999 13 0 0 0 0.071960002
2.365 -0.38699999 -0.51300001 14 0 0 0 0.071970001
2.3710001 -0.38299999 -0.50800002 18 0 0 0 0.07198
2.3640001 -0.37599999 -0.50099999 21 0 0 0 0.071989998
2.358 -0.37 -0.49399999 20 0 0 0 0.071999997
2.3610001 -0.36500001 -0.48800001 18 0 0 0 0.072010003
2.3599999 -0.36000001 -0.48199999 16 0 0 0 0.072020002
2.3659999 -0.35600001 -0.477 17 0 0 0 0.07203
2.365 -0.34999999 -0.47099999 18 0 0 0 0.072039999
2.358 -0.34400001 -0.46399999 17 0 0 0 0.072049998
2.359 -0.33899999 -0.458 17 0 0 0 0.072059996
2.3629999 -0.33399999 -0.45300001 20 0 0 0 0.072070003
2.372 -0.331 -0.449 20 0 0 0 0.072080001
2.391 -0.32800001 -0.44600001 21 0 0 0 0.07209
2.4189999 -0.32699999 -0.44499999 22 0 0 0 0.072099999
2.4489999 -0.32499999 -0.44499999 20 0 0 0 0.072109997
2.483 -0.32499999 -0.44499999 21 0 0 0 0.072120003
2.5109999 -0.32300001 -0.44299999 21 0 0 0 0.072130002
2.539 -0.32100001 -0.442 22 0 0 0 0.072140001
2.5639999 -0.31900001 -0.43900001 22 0 0 0 0.072149999
2.816 -0.34400001 -0.47499999 150 0 0 0 0.072159998
2.9460001 -0.354 -0.49000001 150 0 0 0 0.072169997
3.198 -0.37799999 -0.52399999 150 0 0 0 0.072180003
3.2079999 -0.37200001 -0.51700002 150 0 0 0 0.072190002
3.2030001 -0.36500001 -0.50800002 150 0 0 0 0.0722
3.2049999 -0.35800001 -0.5 150 0 0 0 0.072209999
3.2090001 -0.352 -0.49200001 150 0 0 0 0.072219998
3.2090001 -0.34599999 -0.484 150 0 0 0 0.072229996
3.2030001 -0.338 -0.47499999 150 0 0 0 0.072240002
3.2079999 -0.33199999 -0.46700001 150 0 0 0 0.072250001
3.2249999 -0.32699999 -0.461 150 0 0 0 0.07226
3.2349999 -0.322 -0.454 151 0 0 0 0.072269998
3.234 -0.315 -0.44600001 151 0 0 0 0.072279997
3.24 -0.30899999 -0.43799999 151 0 0 0 0.072290003
3.233 -0.30199999 -0.42899999 151 0 0 0 0.072300002
3.2260001 -0.29499999 -0.41999999 151 0 0 0 0.072310001
3.234 -0.289 -0.412 151 0 0 0 0.072319999
3.2349999 -0.28299999 -0.40400001 151 0 0 0 0.072329998
3.2320001 -0.27599999 -0.39500001 151 0 0 0 0.072339997
3.233 -0.27000001 -0.38699999 150 0 0 0 0.072350003
3.266 -0.266 -0.382 66 0 0 0 0.072360002
3.329 -0.26499999 -0.38100001 150 0 0 0 0.07237
3.3329999 -0.25799999 -0.373 151 0 0 0 0.072379999
3.3340001 -0.252 -0.36399999 151 0 0 0 0.072389998
3.336 -0.245 -0.35600001 151 0 0 0 0.072400004
3.3369999 -0.23899999 -0.347 151 0 0 0 0.072410002
3.3369999 -0.23199999 -0.338 151 0 0 0 0.072420001
3.339 -0.226 -0.33000001 151 0 0 0 0.07243
3.3410001 -0.22 -0.32100001 150 0 0 0 0.072439998
3.3640001 -0.215 -0.315 151 0 0 0 0.072449997
3.369 -0.20900001 -0.30599999 151 0 0 0 0.072460003
3.3699999 -0.20200001 -0.29699999 151 0 0 0 0.072470002
3.3710001 -0.19599999 -0.28799999 151 0 0 0 0.072480001
3.369 -0.189 -0.27900001 151 0 0 0 0.072489999
3.381 -0.183 -0.271 150 0 0 0 0.072499998
3.4300001 -0.18000001 -0.266 151 0 0 0 0.072509997
3.4360001 -0.17299999 -0.25799999 152 0 0 0 0.072520003
3.431 -0.167 -0.248 151 0 0 0 0.072530001
3.434 -0.16 -0.23899999 151 0 0 0 0.07254
3.4330001 -0.154 -0.23 151 0 0 0 0.072549999
3.4330001 -0.148 -0.221 151 0 0 0 0.072559997
3.434 -0.141 -0.212 151 0 0 0 0.072570004
3.4330001 -0.13500001 -0.20299999 151 0 0 0 0.072580002
3.434 -0.12800001 -0.19400001 151 0 0 0 0.072590001
3.431 -0.122 -0.184 151 0 0 0 0.0726
3.4319999 -0.116 -0.175 151 0 0 0 0.072609998
3.4330001 -0.109 -0.16599999 151 0 0 0 0.072619997
3.4330001 -0.103 -0.15700001 151 0 0 0 0.072630003
3.424 -0.097000003 -0.147 151 0 0 0 0.072640002
3.424 -0.090000004 -0.138 151 0 0 0 0.07265
3.4300001 -0.083999999 -0.12899999 151 0 0 0 0.072659999
3.4300001 -0.078000002 -0.12 151 0 0 0 0.072669998
3.431 -0.071999997 -0.111 151 0 0 0 0.072679996
3.4260001 -0.066 -0.101 151 0 0 0 0.072690003
3.427 -0.059 -0.092 151 0 0 0 0.072700001
3.4300001 -0.052999999 -0.082999997 151 0 0 0 0.07271
3.4200001 -0.046999998 -0.074000001 151 0 0 0 0.072719999
3.421 -0.041000001 -0.064000003 151 0 0 0 0.072729997
3.421 -0.035 -0.055 151 0 0 0 0.072740003
3.4260001 -0.028999999 -0.046 151 0 0 0 0.072750002
3.4200001 -0.023 -0.035999998 151 0 0 0 0.072760001
3.4200001 -0.017000001 -0.027000001 151 0 0 0 0.07277
3.421 -0.011 -0.017999999 151 0 0 0 0.072779998
3.4200001 -0.0049999999 -0.0089999996 151 0 0 0 0.072789997
3.424 0 0 151 0 0 0 0.072800003
3.421 0.0060000001 0.0089999996 152 0 0 0 0.072810002
3.424 0.012 0.018999999 152 0 0 0 0.07282
3.4219999 0.017999999 0.028000001 152 0 0 0 0.072829999
3.4219999 0.024 0.037 152 0 0 0 0.072839998
3.4230001 0.029999999 0.046999998 152 0 0 0 0.072849996
3.418 0.035999998 0.056000002 152 0 0 0 0.072860003
3.418 0.041999999 0.064999998 153 0 0 0 0.072870001
3.4219999 0.048 0.075000003 152 0 0 0 0.07288
3.421 0.054000001 0.083999999 152 0 0 0 0.072889999
3.4200001 0.059 0.093999997 152 0 0 0 0.072899997
3.424 0.064999998 0.103 152 0 0 0 0.072910003
3.421 0.071000002 0.113 152 0 0 0 0.072920002
3.4200001 0.077 0.122 152 0 0 0 0.072930001
3.4230001 0.082999997 0.132 152 0 0 0 0.072939999
3.418 0.088 0.141 152 0 0 0 0.072949998
3.418 0.093999997 0.15000001 152 0 0 0 0.072959997
3.4170001 0.1 0.16 152 0 0 0 0.072970003
3.421 0.105 0.17 152 0 0 0 0.072980002
3.4170001 0.111 0.17900001 152 0 0 0 0.07299
3.4170001 0.117 0.18799999 152 0 0 0 0.072999999
3.4170001 0.122 0.198 151 0 0 0 0.073009998
3.4119999 0.12800001 0.207 151 0 0 0 0.073019996
3.415 0.133 0.21699999 151 0 0 0 0.073030002
3.4170001 0.139 0.227 152 0 0 0 0.073040001
3.415 0.145 0.236 151 0 0 0 0.07305
3.415 0.15000001 0.24600001 151 0 0 0 0.073059998
3.418 0.156 0.255 151 0 0 0 0.073069997
3.4089999 0.161 0.264 151 0 0 0 0.073080003
3.418 0.167 0.27500001 151 0 0 0 0.073090002
3.4119999 0.17200001 0.28400001 151 0 0 0 0.073100001
3.4159999 0.178 0.294 151 0 0 0 0.073109999
3.4159999 0.183 0.30399999 151 0 0 0 0.073119998
3.414 0.189 0.31299999 151 0 0 0 0.073129997
3.408 0.19400001 0.322 151 0 0 0 0.073140003
3.4159999 0.2 0.333 151 0 0 0 0.073150001
3.418 0.205 0.34299999 151 0 0 0 0.07316
3.4119999 0.20999999 0.352 151 0 0 0 0.073169999
3.418 0.21600001 0.36199999 151 0 0 0 0.073179998
3.414 0.221 0.37200001 151 0 0 0 0.073190004
3.415 0.227 0.38100001 151 0 0 0 0.073200002
3.4130001 0.23199999 0.391 151 0 0 0 0.073210001
3.4130001 0.237 0.40099999 151 0 0 0 0.07322
3.411 0.242 0.41 151 0 0 0 0.073229998
3.4100001 0.248 0.41999999 151 0 0 0 0.073239997
3.4100001 0.25299999 0.43000001 151 0 0 0 0.073250003
3.408 0.25799999 0.44 151 0 0 0 0.073260002
3.4070001 0.26300001 0.449 151 0 0 0 0.073270001
3.4100001 0.26899999 0.46000001 151 0 0 0 0.073279999
3.4100001 0.27399999 0.47 151 0 0 0 0.073289998
3.4100001 0.27900001 0.47999999 151 0 0 0 0.073299997
3.4089999 0.28400001 0.48899999 151 0 0 0 0.073310003
3.4089999 0.289 0.49900001 151 0 0 0 0.073320001
3.411 0.29499999 0.50999999 151 0 0 0 0.07333
3.4070001 0.29899999 0.51899999 151 0 0 0 0.073339999
3.4030001 0.30399999 0.52899998 151 0 0 0 0.073349997
3.4070001 0.31 0.53899997 151 0 0 0 0.073360004
3.4089999 0.315 0.55000001 151 0 0 0 0.073370002
3.4070001 0.31999999 0.55900002 151 0 0 0 0.073380001
3.4070001 0.32499999 0.56900001 151 0 0 0 0.07339
3.4070001 0.33000001 0.579 151 0 0 0 0.073399998
3.405 0.33399999 0.58899999 150 0 0 0 0.073409997
3.404 0.33899999 0.59899998 151 0 0 0 0.073420003
3.4100001 0.345 0.61000001 151 0 0 0 0.073430002
3.408 0.34999999 0.62 151 0 0 0 0.07344
3.4070001 0.354 0.63 151 0 0 0 0.073449999
3.404 0.359 0.63999999 151 0 0 0 0.073459998
3.404 0.36399999 0.64999998 151 0 0 0 0.073469996
3.4059999 0.36899999 0.66100001 151 0 0 0 0.073480003
3.4000001 0.373 0.67000002 150 0 0 0 0.073490001
3.4030001 0.37799999 0.68099999 151 0 0 0 0.0735
3.4030001 0.38299999 0.69099998 151 0 0 0 0.073509999
3.4030001 0.38800001 0.70099998 150 0 0 0 0.073519997
3.401 0.39199999 0.71100003 150 0 0 0 0.073530003
3.4030001 0.39700001 0.722 151 0 0 0 0.073540002
3.4030001 0.40200001 0.73199999 150 0 0 0 0.073550001
3.4000001 0.40599999 0.74199998 151 0 0 0 0.073559999
3.4030001 0.41100001 0.75300002 150 0 0 0 0.073569998
3.401 0.41600001 0.76300001 150 0 0 0 0.073579997
3.4000001 0.41999999 0.773 150 0 0 0 0.073590003
3.3989999 0.42500001 0.78299999 150 0 0 0 0.073600002
3.398 0.42899999 0.79299998 150 0 0 0 0.07361
3.3970001 0.43399999 0.80400002 150 0 0 0 0.073619999
3.3970001 0.43799999 0.81400001 150 0 0 0 0.073629998
3.395 0.44299999 0.824 150 0 0 0 0.073639996
3.395 0.447 0.83499998 150 0 0 0 0.073650002
3.398 0.45199999 0.84600002 150 0 0 0 0.073660001
3.3970001 0.456 0.85600001 150 0 0 0 0.07367
3.3970001 0.461 0.86699998 150 0 0 0 0.073679999
3.3940001 0.465 0.87699997 150 0 0 0 0.073689997
3.3970001 0.46900001 0.88800001 150 0 0 0 0.073700003
3.395 0.47299999 0.898 150 0 0 0 0.073710002
3.3940001 0.477 0.90799999 150 0 0 0 0.073720001
3.3959999 0.48199999 0.92000002 150 0 0 0 0.073729999
3.3970001 0.486 0.93099999 150 0 0 0 0.073739998
3.3959999 0.491 0.94099998 150 0 0 0 0.073749997
3.395 0.495 0.95099998 150 0 0 0 0.073760003
3.398 0.49900001 0.963 150 0 0 0 0.073770002
3.398 0.50300002 0.97399998 150 0 0 0 0.07378
3.3989999 0.50800002 0.98500001 150 0 0 0 0.073789999
3.3959999 0.51099998 0.995 150 0 0 0 0.073799998
3.3970001 0.51599997 1.006 150 0 0 0 0.073810004
3.3940001 0.51899999 1.016 150 0 0 0 0.073820002
3.3929999 0.523 1.026 150 0 0 0 0.073830001
3.402 0.528 1.04 150 0 0 0 0.07384
3.3959999 0.53100002 1.049 151 0 0 0 0.073849998
3.388 0.53399998 1.057 150 0 0 0 0.073859997
3.3670001 0.53500003 1.061 150 0 0 0 0.073870003
3.342 0.53500003 1.0650001 150 0 0 0 0.073880002
3.332 0.537 1.072 150 0 0 0 0.073890001
3.335 0.54100001 1.084 150 0 0 0 0.073899999
3.3280001 0.54299998 1.092 150 0 0 0 0.073909998
3.3310001 0.54699999 1.104 150 0 0 0 0.073919997
3.3299999 0.551 1.114 150 0 0 0 0.073930003
3.3269999 0.55400002 1.124 150 0 0 0 0.073940001
3.3299999 0.55800003 1.136 150 0 0 0 0.07395
3.3180001 0.56 1.142 150 0 0 0 0.073959999
3.306 0.56099999 1.149 150 0 0 0 0.073969997
3.299 0.56300002 1.158 150 0 0 0 0.073980004
3.2939999 0.56599998 1.1670001 150 0 0 0 0.073990002
3.2950001 0.56900001 1.178 150 0 0 0 0.074000001
3.2969999 0.57300001 1.189 150 0 0 0 0.07401
3.296 0.57599998 1.199 150 0 0 0 0.074019998
3.2969999 0.579 1.211 150 0 0 0 0.074029997
3.2939999 0.58200002 1.22 150 0 0 0 0.074040003
3.293 0.58499998 1.2309999 150 0 0 0 0.074050002
3.2969999 0.58899999 1.243 150 0 0 0 0.07406
3.2980001 0.59200001 1.2539999 150 0 0 0 0.074069999
3.293 0.59399998 1.263 150 0 0 0 0.074079998
3.2909999 0.597 1.273 150 0 0 0 0.074089997
3.293 0.60000002 1.285 150 0 0 0 0.074100003
3.289 0.60299999 1.294 150 0 0 0 0.074110001
3.2909999 0.60600001 1.306 150 0 0 0 0.07412
3.2869999 0.60799998 1.3150001 92 0 0 0 0.074129999
3.286 0.611 1.325 62 0 0 0 0.074139997
3.2850001 0.61299998 1.336 45 0 0 0 0.074150003
3.2750001 0.61400002 1.3430001 38 0 0 0 0.074160002
3.266 0.61500001 1.35 32 0 0 0 0.074170001
3.25 0.61500001 1.354 31 0 0 0 0.07418
3.243 0.616 1.3609999 29 0 0 0 0.074189998
3.233 0.616 1.368 32 0 0 0 0.074199997
3.214 0.61500001 1.37 27 0 0 0 0.074210003
3.204 0.616 1.377 31 0 0 0 0.074220002
3.198 0.61699998 1.385 32 0 0 0 0.07423
3.1819999 0.616 1.3890001 32 0 0 0 0.074239999
3.1800001 0.61799997 1.398 33 0 0 0 0.074249998
3.1760001 0.61900002 1.4069999 35 0 0 0 0.074259996
3.1619999 0.61799997 1.411 34 0 0 0 0.074270003
3.155 0.61900002 1.418 38 0 0 0 0.074280001
3.132 0.61699998 1.418 40 0 0 0 0.07429
3.115 0.61500001 1.421 41 0 0 0 0.074299999
3.1010001 0.61400002 1.424 41 0 0 0 0.074309997
3.0840001 0.61299998 1.426 40 0 0 0 0.074320003
3.0680001 0.611 1.429 39 0 0 0 0.074330002
3.059 0.611 1.4349999 41 0 0 0 0.074340001
3.0469999 0.61000001 1.439 41 0 0 0 0.074349999
3.039 0.61000001 1.446 41 0 0 0 0.074359998
3.039 0.61199999 1.456 42 0 0 0 0.074369997
3.017 0.60900003 1.455 40 0 0 0 0.074380003
2.96 0.59899998 1.437 24 0 0 0 0.074390002
2.9330001 0.59500003 1.434 17 0 0 0 0.0744
2.9230001 0.59399998 1.438 15 0 0 0 0.074409999
2.918 0.59399998 1.4450001 14 0 0 0 0.074419998
2.904 0.59200001 1.448 15 0 0 0 0.074429996
2.901 0.59299999 1.455 15 0 0 0 0.074440002
2.895 0.59299999 1.461 14 0 0 0 0.074450001
2.8859999 0.59200001 1.466 14 0 0 0 0.07446
2.8759999 0.59100002 1.47 14 0 0 0 0.074469998
2.868 0.58999997 1.475 14 0 0 0 0.074479997
2.869 0.59100002 1.485 13 0 0 0 0.074490003
2.869 0.59200001 1.494 14 0 0 0 0.074500002
2.8629999 0.59100002 1.5 14 0 0 0 0.074510001
2.8610001 0.59200001 1.508 14 0 0 0 0.074519999
2.8570001 0.59100002 1.515 14 0 0 0 0.074529998
2.8529999 0.59100002 1.522 14 0 0 0 0.074539997
2.8510001 0.59100002 1.529 13 0 0 0 0.074550003
2.8529999 0.59200001 1.539 14 0 0 0 0.074560001
2.8510001 0.59200001 1.5470001 14 0 0 0 0.07457
2.852 0.59200001 1.556 14 0 0 0 0.074579999
2.8529999 0.59299999 1.5650001 15 0 0 0 0.074589998
2.846 0.59100002 1.5700001 14 0 0 0 0.074600004
2.8399999 0.58999997 1.576 15 0 0 0 0.074610002
2.832 0.58899999 1.579 16 0 0 0 0.074620001
2.8280001 0.588 1.586 21 0 0 0 0.07463
2.8180001 0.58600003 1.5880001 29 0 0 0 0.074639998
2.8099999 0.58399999 1.592 38 0 0 0 0.074649997
2.7969999 0.58099997 1.5930001 55 0 0 0 0.074660003
2.7809999 0.57800001 1.592 71 0 0 0 0.074670002
2.767 0.574 1.592 96 0 0 0 0.074680001
2.753 0.57099998 1.592 134 0 0 0 0.074689999
2.743 0.56900001 1.594 144 0 0 0 0.074699998
2.7320001 0.56599998 1.595 141 0 0 0 0.074709997
2.714 0.56199998 1.592 116 0 0 0 0.074720003
2.704 0.55900002 1.594 105 0 0 0 0.074730001
2.691 0.55599999 1.5930001 120 0 0 0 0.07474
2.677 0.55199999 1.592 104 0 0 0 0.074749999
2.6689999 0.55000001 1.595 110 0 0 0 0.074759997
2.655 0.546 1.5930001 114 0 0 0 0.074770004
2.645 0.54299998 1.594 119 0 0 0 0.074780002
2.632 0.53899997 1.5930001 114 0 0 0 0.074790001
2.625 0.537 1.596 113 0 0 0 0.0748
2.612 0.53299999 1.595 110 0 0 0 0.074809998
2.599 0.52899998 1.5930001 117 0 0 0 0.074819997
2.589 0.52600002 1.594 119 0 0 0 0.074830003
2.5769999 0.52200001 1.5930001 116 0 0 0 0.074840002
2.5699999 0.51999998 1.595 101 0 0 0 0.07485
2.5639999 0.51700002 1.597 119 0 0 0 0.074859999
2.552 0.51300001 1.596 112 0 0 0 0.074869998
2.5439999 0.50999999 1.596 108 0 0 0 0.074879996
2.5309999 0.50599998 1.594 116 0 0 0 0.074890003
2.5220001 0.50300002 1.595 114 0 0 0 0.074900001
2.5139999 0.5 1.594 113 0 0 0 0.07491
2.507 0.49700001 1.596 115 0 0 0 0.074919999
2.4949999 0.493 1.594 118 0 0 0 0.074929997
2.4879999 0.49000001 1.594 121 0 0 0 0.074940003
2.4779999 0.486 1.5930001 117 0 0 0 0.074950002
2.4719999 0.48300001 1.594 119 0 0 0 0.074960001
2.464 0.479 1.594 116 0 0 0 0.074969999
2.457 0.47600001 1.594 132 0 0 0 0.074979998
2.4489999 0.47299999 1.594 125 0 0 0 0.074989997
2.441 0.46900001 1.5930001 129 0 0 0 0.075000003
2.438 0.46599999 1.596 127 0 0 0 0.075010002
2.431 0.463 1.595 112 0 0 0 0.07502
2.424 0.45899999 1.595 120 0 0 0 0.075029999
2.4219999 0.45699999 1.598 124 0 0 0 0.075039998
2.411 0.45300001 1.595 119 0 0 0 0.075049996
2.4070001 0.449 1.596 117 0 0 0 0.075060003
2.4000001 0.44600001 1.595 123 0 0 0 0.075070001
2.3959999 0.44299999 1.596 116 0 0 0 0.07508
2.3940001 0.44 1.598 125 0 0 0 0.075089999
2.3870001 0.43599999 1.596 124 0 0 0 0.075099997
2.382 0.433 1.597 119 0 0 0 0.075110003
2.3759999 0.42899999 1.596 130 0 0 0 0.075120002
2.3729999 0.426 1.597 122 0 0 0 0.075130001
2.369 0.42199999 1.597 130 0 0 0 0.075139999
2.365 0.419 1.597 121 0 0 0 0.075149998
2.3640001 0.41600001 1.599 132 0 0 0 0.075159997
2.3570001 0.412 1.597 131 0 0 0 0.075170003
2.352 0.40799999 1.596 128 0 0 0 0.075180002
2.349 0.405 1.596 139 0 0 0 0.07519
2.3440001 0.40099999 1.595 128 0 0 0 0.075199999
2.3429999 0.398 1.597 137 0 0 0 0.075209998
2.339 0.39500001 1.596 123 0 0 0 0.075220004
2.336 0.391 1.595 129 0 0 0 0.075230002
2.3340001 0.38800001 1.595 129 0 0 0 0.075240001
2.3310001 0.384 1.595 132 0 0 0 0.07525
2.3299999 0.38100001 1.596 127 0 0 0 0.075259998
2.3299999 0.37799999 1.597 131 0 0 0 0.075269997
2.329 0.375 1.598 141 0 0 0 0.075280003
2.3269999 0.37099999 1.598 126 0 0 0 0.075290002
2.3269999 0.368 1.598 136 0 0 0 0.075300001
2.3269999 0.36500001 1.599 127 0 0 0 0.075309999
2.3239999 0.361 1.598 130 0 0 0 0.075319998
2.3239999 0.35800001 1.598 143 0 0 0 0.075329997
2.3269999 0.35499999 1.6 133 0 0 0 0.075340003
2.323 0.35100001 1.598 137 0 0 0 0.075350001
2.322 0.34799999 1.598 135 0 0 0 0.07536
2.3239999 0.34400001 1.599 143 0 0 0 0.075369999
2.3239999 0.34099999 1.599 142 0 0 0 0.075379997
2.3210001 0.33700001 1.596 131 0 0 0 0.075390004
2.326 0.33500001 1.6 134 0 0 0 0.075400002
2.323 0.331 1.597 135 0 0 0 0.075410001
2.3280001 0.32800001 1.6 138 0 0 0 0.07542
2.3280001 0.324 1.599 140 0 0 0 0.075429998
2.319 0.31999999 1.592 134 0 0 0 0.075439997
2.3299999 0.31799999 1.598 143 0 0 0 0.075450003
2.3329999 0.315 1.6 134 0 0 0 0.075460002
2.332 0.31099999 1.597 134 0 0 0 0.075470001
2.335 0.308 1.598 137 0 0 0 0.075479999
2.3380001 0.30399999 1.599 134 0 0 0 0.075489998
2.3369999 0.301 1.597 132 0 0 0 0.075499997
2.3410001 0.29699999 1.598 136 0 0 0 0.075510003
2.3469999 0.29499999 1.6 135 0 0 0 0.075520001
2.348 0.29100001 1.598 127 0 0 0 0.07553
2.3529999 0.28799999 1.599 129 0 0 0 0.075539999
2.3540001 0.28400001 1.598 129 0 0 0 0.075549997
2.3559999 0.28099999 1.597 133 0 0 0 0.075560004
2.3599999 0.278 1.597 118 0 0 0 0.075570002
2.362 0.27399999 1.596 118 0 0 0 0.075580001
2.3629999 0.271 1.594 105 0 0 0 0.07559
2.3759999 0.26899999 1.6 117 0 0 0 0.075599998
2.381 0.26499999 1.6 122 0 0 0 0.075609997
2.3829999 0.26199999 1.598 119 0 0 0 0.075620003
2.385 0.25799999 1.597 121 0 0 0 0.075630002
2.3900001 0.255 1.597 126 0 0 0 0.07564
2.3959999 0.252 1.597 127 0 0 0 0.075649999
2.4030001 0.249 1.598 125 0 0 0 0.075659998
2.408 0.24600001 1.598 117 0 0 0 0.075669996
2.4130001 0.243 1.598 124 0 0 0 0.075680003
2.4219999 0.23999999 1.6 115 0 0 0 0.075690001
2.425 0.236 1.597 117 0 0 0 0.0757
2.4289999 0.233 1.596 119 0 0 0 0.075709999
2.4400001 0.23 1.599 121 0 0 0 0.075719997
2.4419999 0.227 1.596 116 0 0 0 0.075730003
2.4519999 0.22400001 1.598 121 0 0 0 0.075740002
2.457 0.221 1.597 113 0 0 0 0.075750001
2.467 0.21799999 1.598 122 0 0 0 0.075759999
2.4719999 0.215 1.597 123 0 0 0 0.075769998
2.4779999 0.211 1.596 130 0 0 0 0.075779997
2.487 0.208 1.597 124 0 0 0 0.075790003
2.493 0.205 1.596 124 0 0 0 0.075800002
2.5009999 0.20200001 1.595 125 0 0 0 0.07581
2.5150001 0.2 1.598 122 0 0 0 0.075819999
2.5190001 0.19599999 1.596 123 0 0 0 0.075829998
2.527 0.193 1.596 118 0 0 0 0.075839996
2.536 0.19 1.595 118 0 0 0 0.075850002
2.549 0.18799999 1.598 109 0 0 0 0.075860001
2.5550001 0.184 1.596 110 0 0 0 0.07587
2.5680001 0.182 1.598 117 0 0 0 0.075879999
2.576 0.17900001 1.597 108 0 0 0 0.075889997
2.5869999 0.176 1.597 113 0 0 0 0.075900003
2.599 0.17299999 1.598 115 0 0 0 0.075910002
2.6059999 0.17 1.596 106 0 0 0 0.075920001
2.618 0.167 1.597 107 0 0 0 0.075929999
2.6270001 0.164 1.596 112 0 0 0 0.075939998
2.641 0.161 1.597 112 0 0 0 0.075949997
2.652 0.15899999 1.597 104 0 0 0 0.075960003
2.6670001 0.156 1.599 100 0 0 0 0.075970002
2.674 0.153 1.597 98 0 0 0 0.07598
2.684 0.15000001 1.595 103 0 0 0 0.075989999
2.698 0.147 1.596 95 0 0 0 0.075999998
2.7130001 0.145 1.597 100 0 0 0 0.076010004
2.7260001 0.142 1.598 100 0 0 0 0.076020002
2.733 0.139 1.595 99 0 0 0 0.076030001
2.75 0.13600001 1.597 97 0 0 0 0.07604
2.7620001 0.133 1.596 98 0 0 0 0.076049998
2.777 0.131 1.597 87 0 0 0 0.076059997
2.7950001 0.12800001 1.599 87 0 0 0 0.076070003
2.809 0.126 1.599 88 0 0 0 0.076080002
2.8210001 0.123 1.598 86 0 0 0 0.076090001
2.8380001 0.12 1.599 87 0 0 0 0.076099999
2.849 0.117 1.597 83 0 0 0 0.076109998
2.8640001 0.115 1.597 89 0 0 0 0.076119997
2.8770001 0.112 1.595 90 0 0 0 0.076130003
2.8959999 0.109 1.598 92 0 0 0 0.076140001
2.9119999 0.107 1.598 96 0 0 0 0.07615
2.9289999 0.104 1.598 91 0 0 0 0.076159999
2.944 0.102 1.598 86 0 0 0 0.076169997
2.9619999 0.098999999 1.598 86 0 0 0 0.076180004
2.9779999 0.097000003 1.597 84 0 0 0 0.076190002
2.9960001 0.093999997 1.598 86 0 0 0 0.076200001
3.0139999 0.092 1.598 84 0 0 0 0.07621
3.0309999 0.089000002 1.598 85 0 0 0 0.076219998
3.049 0.086999997 1.598 87 0 0 0 0.076229997
3.0669999 0.083999999 1.598 87 0 0 0 0.076240003
3.086 0.081 1.598 84 0 0 0 0.076250002
3.1059999 0.079000004 1.599 83 0 0 0 0.07626
3.1229999 0.075999998 1.597 86 0 0 0 0.076269999
3.1459999 0.074000001 1.599 78 0 0 0 0.076279998
3.164 0.071999997 1.598 75 0 0 0 0.076289997
3.1830001 0.068999998 1.598 73 0 0 0 0.076300003
3.2060001 0.067000002 1.599 76 0 0 0 0.076310001
3.2219999 0.064000003 1.596 76 0 0 0 0.07632
3.2460001 0.061999999 1.598 75 0 0 0 0.076329999
3.26 0.059 1.594 75 0 0 0 0.076339997
3.283 0.057 1.595 76 0 0 0 0.076350003
3.3099999 0.055 1.597 78 0 0 0 0.076360002
3.3310001 0.052000001 1.596 138 0 0 0 0.076370001
3.3399999 0.050000001 1.59 150 0 0 0 0.07638
3.3440001 0.046999998 1.581 150 0 0 0 0.076389998
3.3399999 0.045000002 1.568 150 0 0 0 0.076399997
3.345 0.041999999 1.559 150 0 0 0 0.076410003
3.3440001 0.039999999 1.548 150 0 0 0 0.076420002
3.346 0.037 1.5369999 150 0 0 0 0.07643
3.346 0.035 1.526 150 0 0 0 0.076439999
3.346 0.032000002 1.515 150 0 0 0 0.076449998
3.346 0.029999999 1.5039999 150 0 0 0 0.076459996
3.3440001 0.028000001 1.492 150 0 0 0 0.076470003
3.3469999 0.026000001 1.482 150 0 0 0 0.076480001
3.345 0.023 1.47 150 0 0 0 0.07649
3.345 0.021 1.459 150 0 0 0 0.076499999
3.348 0.018999999 1.449 150 0 0 0 0.076509997
3.3440001 0.017000001 1.436 150 0 0 0 0.076520003
3.3440001 0.015 1.425 150 0 0 0 0.076530002
3.348 0.013 1.416 150 0 0 0 0.076540001
3.342 0.011 1.402 150 0 0 0 0.076549999
3.3429999 0.0089999996 1.391 150 0 0 0 0.076559998
3.3469999 0.0070000002 1.381 150 0 0 0 0.076569997
3.345 0.0049999999 1.369 150 0 0 0 0.076580003
3.349 0.003 1.359 150 0 0 0 0.076590002
3.3440001 0.0020000001 1.346 150 0 0 0 0.0766
3.339 0 1.3329999 150 0 0 0 0.076609999
3.3399999 -0.001 1.322 150 0 0 0 0.076619998
3.339 -0.003 1.3099999 150 0 0 0 0.076629996
3.342 -0.0040000002 1.3 150 0 0 0 0.076640002
3.355 -0.0060000001 1.294 150 0 0 0 0.076650001
3.375 -0.0080000004 1.29 150 0 0 0 0.07666
3.3710001 -0.0089999996 1.277 150 0 0 0 0.076669998
3.3710001 -0.0099999998 1.266 150 0 0 0 0.076679997
3.391 -0.012 1.262 70 0 0 0 0.076690003
3.427 -0.014 1.2640001 101 0 0 0 0.076700002
3.438 -0.015 1.256 150 0 0 0 0.076710001
3.4400001 -0.016000001 1.245 150 0 0 0 0.076719999
3.4349999 -0.017999999 1.232 150 0 0 0 0.076729998
3.4349999 -0.018999999 1.22 150 0 0 0 0.076739997
3.437 -0.02 1.209 150 0 0 0 0.076750003
3.4360001 -0.022 1.197 150 0 0 0 0.076760001
3.4389999 -0.023 1.186 150 0 0 0 0.07677
3.4400001 -0.024 1.175 150 0 0 0 0.076779999
3.4330001 -0.025 1.161 150 0 0 0 0.076789998
3.437 -0.026000001 1.151 150 0 0 0 0.076800004
3.4400001 -0.027000001 1.14 150 0 0 0 0.076810002
3.437 -0.028000001 1.127 150 0 0 0 0.076820001
3.438 -0.028999999 1.1160001 150 0 0 0 0.07683
3.4319999 -0.029999999 1.103 150 0 0 0 0.076839998
3.4349999 -0.030999999 1.092 150 0 0 0 0.076849997
3.427 -0.032000002 1.0779999 150 0 0 0 0.076860003
3.4300001 -0.033 1.067 150 0 0 0 0.076870002
3.4330001 -0.034000002 1.057 150 0 0 0 0.076880001
3.431 -0.035 1.044 150 0 0 0 0.076889999
3.431 -0.035 1.033 150 0 0 0 0.076899998
3.4330001 -0.035999998 1.022 150 0 0 0 0.076909997
