# .PCD v0.7 - Point Cloud Data file format
VERSION 0.7
FIELDS x y z intensity normal_x normal_y normal_z curvature
SIZE 4 4 4 4 4 4 4 4
TYPE F F F F F F F F
COUNT 1 1 1 1 1 1 1 1
WIDTH 1044
HEIGHT 1
VIEWPOINT 0 0 0 1 0 0 0
POINTS 1044
DATA ascii
1.056 0.46599999 -0.49700001 84 0 0 0 0.035909999
1.057 0.46599999 -0.495 81 0 0 0 0.035920002
1.057 0.465 -0.49200001 78 0 0 0 0.03593
1.061 0.46599999 -0.491 79 0 0 0 0.035939999
1.061 0.465 -0.48899999 75 0 0 0 0.035950001
1.0650001 0.46599999 -0.48800001 77 0 0 0 0.03596
1.067 0.46599999 -0.486 73 0 0 0 0.035969999
1.066 0.465 -0.48300001 83 0 0 0 0.035980001
1.0700001 0.465 -0.48199999 91 0 0 0 0.03599
1.069 0.46399999 -0.479 77 0 0 0 0.035999998
1.0700001 0.463 -0.47600001 75 0 0 0 0.036010001
1.074 0.46399999 -0.47499999 79 0 0 0 0.03602
1.082 0.46599999 -0.47600001 74 0 0 0 0.036029998
1.085 0.46700001 -0.47499999 75 0 0 0 0.036040001
1.086 0.46599999 -0.472 90 0 0 0 0.036049999
1.087 0.465 -0.47 74 0 0 0 0.036060002
1.0880001 0.46399999 -0.46700001 70 0 0 0 0.03607
1.0930001 0.465 -0.46599999 65 0 0 0 0.036079999
1.098 0.46599999 -0.465 62 0 0 0 0.036090001
1.096 0.46399999 -0.46200001 64 0 0 0 0.0361
1.103 0.465 -0.46200001 66 0 0 0 0.036109999
1.105 0.465 -0.46000001 72 0 0 0 0.036120001
1.115 0.46700001 -0.46000001 31 0 0 0 0.03613
1.119 0.46799999 -0.45899999 41 0 0 0 0.036139999
1.1160001 0.465 -0.45500001 44 0 0 0 0.036150001
1.123 0.46599999 -0.45500001 38 0 0 0 0.03616
1.127 0.46599999 -0.45300001 41 0 0 0 0.036169998
1.125 0.46399999 -0.449 40 0 0 0 0.036180001
1.128 0.46399999 -0.447 32 0 0 0 0.036189999
1.1440001 0.46799999 -0.44999999 31 0 0 0 0.036200002
1.1440001 0.46700001 -0.44800001 30 0 0 0 0.036210001
1.15 0.46700001 -0.447 29 0 0 0 0.036219999
1.151 0.46599999 -0.44400001 27 0 0 0 0.036230002
1.1569999 0.46700001 -0.44299999 27 0 0 0 0.03624
1.163 0.46700001 -0.442 29 0 0 0 0.036249999
1.165 0.46599999 -0.43900001 28 0 0 0 0.036260001
1.176 0.46799999 -0.44100001 30 0 0 0 0.03627
1.181 0.46900001 -0.43900001 29 0 0 0 0.036279999
1.184 0.46799999 -0.43700001 29 0 0 0 0.036290001
1.194 0.47 -0.43700001 30 0 0 0 0.0363
1.194 0.46799999 -0.43399999 27 0 0 0 0.036309998
1.207 0.47099999 -0.43599999 27 0 0 0 0.036320001
1.2130001 0.47099999 -0.43399999 26 0 0 0 0.03633
1.226 0.47400001 -0.43599999 28 0 0 0 0.036339998
1.243 0.47799999 -0.43799999 19 0 0 0 0.036350001
1.265 0.484 -0.44299999 7 0 0 0 0.036359999
1.284 0.48899999 -0.44600001 11 0 0 0 0.036370002
1.288 0.48800001 -0.44400001 23 0 0 0 0.03638
1.285 0.48500001 -0.43900001 118 0 0 0 0.036389999
1.283 0.48199999 -0.435 150 0 0 0 0.036400001
1.284 0.47999999 -0.43200001 150 0 0 0 0.03641
1.279 0.47499999 -0.426 150 0 0 0 0.036419999
1.277 0.472 -0.42199999 150 0 0 0 0.036430001
1.28 0.47099999 -0.41999999 150 0 0 0 0.03644
1.2819999 0.46900001 -0.417 150 0 0 0 0.036449999
1.28 0.46599999 -0.41299999 150 0 0 0 0.036460001
1.283 0.46399999 -0.41 150 0 0 0 0.03647
1.283 0.46200001 -0.40700001 150 0 0 0 0.036479998
1.2819999 0.45899999 -0.403 150 0 0 0 0.036490001
1.2819999 0.456 -0.39899999 150 0 0 0 0.036499999
1.286 0.45500001 -0.39700001 150 0 0 0 0.036509998
1.283 0.45100001 -0.39300001 150 0 0 0 0.036520001
1.283 0.449 -0.38999999 150 0 0 0 0.036529999
1.281 0.44499999 -0.38499999 150 0 0 0 0.036540002
1.284 0.44400001 -0.38299999 150 0 0 0 0.03655
1.283 0.44 -0.37900001 150 0 0 0 0.036559999
1.289 0.44 -0.377 132 0 0 0 0.036570001
1.298 0.44 -0.377 26 0 0 0 0.03658
1.323 0.44600001 -0.38 7 0 0 0 0.036589999
1.34 0.449 -0.382 1 0 0 0 0.036600001
1.352 0.44999999 -0.382 1 0 0 0 0.03661
1.368 0.45199999 -0.382 1 0 0 0 0.036619999
1.377 0.45199999 -0.38100001 1 0 0 0 0.036630001
1.386 0.45199999 -0.38 1 0 0 0 0.03664
1.4069999 0.456 -0.382 1 0 0 0 0.036649998
1.4119999 0.454 -0.38 1 0 0 0 0.036660001
1.4220001 0.454 -0.37900001 1 0 0 0 0.036669999
1.439 0.456 -0.38 1 0 0 0 0.036680002
1.448 0.456 -0.37900001 1 0 0 0 0.03669
1.461 0.45699999 -0.37900001 1 0 0 0 0.036699999
1.475 0.458 -0.37799999 1 0 0 0 0.036710002
1.4960001 0.461 -0.38 22 0 0 0 0.03672
2.273 0.69599998 -0.57200003 150 0 0 0 0.036729999
2.3199999 0.70499998 -0.57700002 150 0 0 0 0.036740001
2.438 0.73500001 -0.60100001 150 0 0 0 0.03675
2.4790001 0.741 -0.60500002 150 0 0 0 0.036759999
2.48 0.736 -0.59899998 150 0 0 0 0.036770001
2.4790001 0.73000002 -0.59200001 150 0 0 0 0.03678
2.477 0.72399998 -0.58600003 150 0 0 0 0.036789998
2.48 0.71899998 -0.57999998 150 0 0 0 0.036800001
2.477 0.71200001 -0.57300001 150 0 0 0 0.036809999
2.3080001 0.65799999 -0.528 150 0 0 0 0.036819998
2.2420001 0.634 -0.50800002 151 0 0 0 0.036830001
2.2219999 0.62300003 -0.498 151 0 0 0 0.036839999
2.2249999 0.61900002 -0.493 151 0 0 0 0.036850002
2.2219999 0.61199999 -0.48699999 151 0 0 0 0.03686
2.2190001 0.60600001 -0.48100001 151 0 0 0 0.036869999
2.2190001 0.60100001 -0.47499999 151 0 0 0 0.036880001
2.224 0.597 -0.47099999 151 0 0 0 0.03689
2.22 0.59100002 -0.465 151 0 0 0 0.036899999
2.22 0.58499998 -0.46000001 151 0 0 0 0.036910001
2.2160001 0.579 -0.45300001 151 0 0 0 0.03692
2.2130001 0.57300001 -0.447 151 0 0 0 0.036929999
2.2119999 0.56699997 -0.442 151 0 0 0 0.036940001
2.217 0.56300002 -0.43799999 151 0 0 0 0.03695
2.217 0.55800003 -0.433 151 0 0 0 0.036959998
2.2160001 0.55199999 -0.42699999 151 0 0 0 0.036970001
2.221 0.54799998 -0.42300001 151 0 0 0 0.036979999
2.22 0.542 -0.41800001 151 0 0 0 0.036990002
2.2219999 0.537 -0.41299999 151 0 0 0 0.037
2.2190001 0.53100002 -0.40700001 151 0 0 0 0.037009999
2.224 0.52600002 -0.403 151 0 0 0 0.037020002
2.2320001 0.523 -0.39899999 151 0 0 0 0.03703
2.2420001 0.51999998 -0.396 151 0 0 0 0.037039999
2.2390001 0.514 -0.38999999 152 0 0 0 0.037050001
2.24 0.50800002 -0.38499999 151 0 0 0 0.03706
2.2609999 0.50700003 -0.384 150 0 0 0 0.037069999
2.2820001 0.50599998 -0.382 68 0 0 0 0.037080001
2.362 0.51800001 -0.38999999 27 0 0 0 0.03709
2.408 0.52200001 -0.39199999 26 0 0 0 0.037099998
2.434 0.52200001 -0.391 24 0 0 0 0.037110001
2.48 0.52600002 -0.39300001 25 0 0 0 0.03712
2.529 0.52999997 -0.39500001 26 0 0 0 0.037129998
2.572 0.53200001 -0.396 25 0 0 0 0.037140001
2.6229999 0.53600001 -0.398 26 0 0 0 0.037149999
2.687 0.542 -0.40200001 28 0 0 0 0.037160002
2.7609999 0.55000001 -0.40700001 30 0 0 0 0.03717
2.8299999 0.55699998 -0.41100001 31 0 0 0 0.037179999
2.8859999 0.56099999 -0.41299999 32 0 0 0 0.037190001
2.9449999 0.565 -0.41499999 31 0 0 0 0.0372
3.016 0.57099998 -0.41800001 31 0 0 0 0.037209999
3.0550001 0.56999999 -0.417 30 0 0 0 0.037220001
3.1170001 0.574 -0.419 29 0 0 0 0.03723
3.1700001 0.57599998 -0.419 29 0 0 0 0.037239999
3.2130001 0.57499999 -0.41800001 29 0 0 0 0.037250001
3.2609999 0.57499999 -0.417 61 0 0 0 0.03726
3.2750001 0.56900001 -0.412 152 0 0 0 0.037269998
3.2839999 0.56300002 -0.40700001 153 0 0 0 0.037280001
3.277 0.55299997 -0.39899999 152 0 0 0 0.037289999
3.283 0.546 -0.39300001 152 0 0 0 0.037300002
3.2869999 0.53799999 -0.38600001 152 0 0 0 0.037310001
3.2969999 0.53100002 -0.38100001 151 0 0 0 0.037319999
3.3139999 0.52499998 -0.37599999 152 0 0 0 0.037330002
3.3150001 0.51700002 -0.36899999 151 0 0 0 0.03734
3.3169999 0.50800002 -0.36199999 151 0 0 0 0.037349999
3.3699999 0.50800002 -0.361 151 0 0 0 0.037360001
3.3840001 0.50099999 -0.35600001 151 0 0 0 0.03737
3.3829999 0.49200001 -0.34900001 151 0 0 0 0.037379999
3.382 0.484 -0.34200001 151 0 0 0 0.037390001
3.3789999 0.47400001 -0.33399999 151 0 0 0 0.0374
3.3800001 0.46599999 -0.32800001 151 0 0 0 0.037409998
3.3870001 0.458 -0.322 151 0 0 0 0.037420001
3.3829999 0.449 -0.31400001 151 0 0 0 0.03743
3.3859999 0.44 -0.308 151 0 0 0 0.037439998
3.388 0.43200001 -0.301 151 0 0 0 0.037450001
3.3889999 0.42300001 -0.29499999 151 0 0 0 0.037459999
3.3940001 0.41499999 -0.28799999 151 0 0 0 0.037470002
3.3859999 0.405 -0.28099999 151 0 0 0 0.03748
3.392 0.39700001 -0.27500001 151 0 0 0 0.037489999
3.388 0.38699999 -0.26800001 151 0 0 0 0.037500001
3.3929999 0.37900001 -0.26100001 152 0 0 0 0.03751
3.392 0.37 -0.255 152 0 0 0 0.037519999
3.3940001 0.361 -0.248 152 0 0 0 0.037530001
3.3970001 0.35299999 -0.242 152 0 0 0 0.03754
3.392 0.34299999 -0.235 153 0 0 0 0.037549999
3.3940001 0.33500001 -0.228 153 0 0 0 0.037560001
3.3959999 0.32600001 -0.222 153 0 0 0 0.03757
3.3859999 0.31600001 -0.215 153 0 0 0 0.037579998
3.3759999 0.30599999 -0.208 154 0 0 0 0.037590001
3.372 0.29699999 -0.20100001 154 0 0 0 0.037599999
3.369 0.28799999 -0.19400001 154 0 0 0 0.037610002
3.3699999 0.27900001 -0.18799999 155 0 0 0 0.037620001
3.3699999 0.27000001 -0.182 155 0 0 0 0.037629999
3.3710001 0.26100001 -0.175 156 0 0 0 0.037640002
3.3670001 0.252 -0.169 157 0 0 0 0.03765
3.3610001 0.242 -0.162 157 0 0 0 0.037659999
3.3629999 0.234 -0.156 158 0 0 0 0.037670001
3.3640001 0.22499999 -0.15000001 158 0 0 0 0.03768
3.3640001 0.21600001 -0.14300001 158 0 0 0 0.037689999
3.362 0.207 -0.13699999 158 0 0 0 0.037700001
3.3629999 0.198 -0.131 159 0 0 0 0.03771
3.365 0.189 -0.125 158 0 0 0 0.037719999
3.368 0.18000001 -0.119 158 0 0 0 0.037730001
3.3670001 0.171 -0.112 157 0 0 0 0.03774
3.3670001 0.162 -0.106 158 0 0 0 0.037749998
3.372 0.153 -0.1 159 0 0 0 0.037760001
3.378 0.14399999 -0.093999997 156 0 0 0 0.037769999
3.382 0.13500001 -0.088 156 0 0 0 0.037780002
3.3800001 0.126 -0.082000002 157 0 0 0 0.03779
3.3829999 0.117 -0.075999998 156 0 0 0 0.037799999
3.382 0.108 -0.07 155 0 0 0 0.037810002
3.3859999 0.098999999 -0.064000003 154 0 0 0 0.03782
3.398 0.090000004 -0.057999998 154 0 0 0 0.037829999
3.398 0.081 -0.052000001 154 0 0 0 0.037840001
3.401 0.071999997 -0.046 154 0 0 0 0.03785
3.4070001 0.063000001 -0.039999999 154 0 0 0 0.037859999
3.4070001 0.054000001 -0.034000002 153 0 0 0 0.037870001
3.418 0.044 -0.028000001 153 0 0 0 0.03788
3.418 0.035 -0.022 153 0 0 0 0.037889998
3.4219999 0.026000001 -0.016000001 152 0 0 0 0.037900001
3.4170001 0.017000001 -0.0099999998 152 0 0 0 0.037909999
3.418 0.0070000002 -0.0040000002 152 0 0 0 0.037919998
3.421 -0.001 0.001 151 0 0 0 0.037930001
3.421 -0.0099999998 0.0070000002 151 0 0 0 0.037939999
3.421 -0.02 0.013 151 0 0 0 0.037950002
3.421 -0.028999999 0.018999999 151 0 0 0 0.03796
3.425 -0.039000001 0.025 151 0 0 0 0.037969999
3.428 -0.048 0.030999999 151 0 0 0 0.037980001
3.428 -0.057 0.037 151 0 0 0 0.03799
3.427 -0.067000002 0.041999999 151 0 0 0 0.037999999
3.4319999 -0.075999998 0.048 151 0 0 0 0.038010001
3.427 -0.086000003 0.054000001 151 0 0 0 0.03802
3.437 -0.094999999 0.059999999 151 0 0 0 0.038029999
3.431 -0.105 0.066 151 0 0 0 0.038040001
3.431 -0.114 0.071999997 151 0 0 0 0.03805
3.4300001 -0.124 0.077 151 0 0 0 0.038059998
3.438 -0.133 0.082999997 151 0 0 0 0.038070001
3.437 -0.14300001 0.089000002 151 0 0 0 0.038079999
3.4389999 -0.153 0.094999999 151 0 0 0 0.038090002
3.4360001 -0.162 0.101 151 0 0 0 0.0381
3.431 -0.171 0.106 153 0 0 0 0.038109999
3.3729999 -0.178 0.11 150 0 0 0 0.038120002
3.369 -0.18700001 0.115 152 0 0 0 0.03813
3.369 -0.197 0.121 152 0 0 0 0.038139999
3.362 -0.205 0.126 150 0 0 0 0.038150001
3.3399999 -0.213 0.131 151 0 0 0 0.03816
3.348 -0.223 0.13699999 151 0 0 0 0.038169999
3.3469999 -0.233 0.142 151 0 0 0 0.038180001
3.346 -0.242 0.147 151 0 0 0 0.03819
3.346 -0.252 0.153 151 0 0 0 0.038199998
3.2920001 -0.257 0.156 48 0 0 0 0.038210001
3.233 -0.26100001 0.15800001 150 0 0 0 0.03822
3.2349999 -0.271 0.163 151 0 0 0 0.038229998
3.2390001 -0.28 0.169 151 0 0 0 0.038240001
3.2349999 -0.289 0.17399999 151 0 0 0 0.038249999
3.2390001 -0.29899999 0.17900001 151 0 0 0 0.038260002
3.234 -0.30700001 0.184 151 0 0 0 0.03827
3.221 -0.315 0.18799999 150 0 0 0 0.038279999
3.21 -0.32300001 0.193 151 0 0 0 0.038290001
3.2090001 -0.33199999 0.198 151 0 0 0 0.0383
3.211 -0.34200001 0.20299999 151 0 0 0 0.038309999
3.211 -0.35100001 0.208 151 0 0 0 0.038320001
3.21 -0.36000001 0.213 151 0 0 0 0.03833
3.0369999 -0.34900001 0.206 151 0 0 0 0.038339999
2.826 -0.333 0.19599999 130 0 0 0 0.038350001
2.566 -0.31 0.182 29 0 0 0 0.03836
2.513 -0.31099999 0.182 25 0 0 0 0.038369998
2.461 -0.31200001 0.182 20 0 0 0 0.038380001
2.4070001 -0.31200001 0.182 21 0 0 0 0.038389999
3.8529999 -1.6720001 0.74000001 12 0 0 0 0.039360002
3.839 -1.679 0.74000001 12 0 0 0 0.03937
3.8280001 -1.686 0.74000001 12 0 0 0 0.039379999
3.822 -1.696 0.74199998 12 0 0 0 0.039390001
3.8099999 -1.7029999 0.74199998 12 0 0 0 0.0394
3.796 -1.71 0.74199998 13 0 0 0 0.039409999
3.786 -1.7180001 0.74199998 13 0 0 0 0.039420001
3.7780001 -1.726 0.74299997 13 0 0 0 0.03943
3.766 -1.733 0.74299997 12 0 0 0 0.039439999
3.757 -1.7410001 0.74299997 12 0 0 0 0.039450001
3.75 -1.75 0.74400002 13 0 0 0 0.03946
3.7360001 -1.756 0.74299997 13 0 0 0 0.039469998
3.724 -1.763 0.74299997 16 0 0 0 0.039480001
3.73 -1.777 0.74599999 66 0 0 0 0.039489999
3.7850001 -1.816 0.759 150 0 0 0 0.039500002
3.9649999 -1.916 0.79699999 151 0 0 0 0.03951
3.964 -1.928 0.79799998 151 0 0 0 0.039519999
3.98 -1.949 0.80299997 151 0 0 0 0.039530002
4.6799998 -2.3069999 0.94599998 89 0 0 0 0.03954
2.5079999 -1.244 0.50800002 0 0 0 0 0.039549999
2.4979999 -1.248 0.50700003 0 0 0 0 0.039560001
2.4560001 -1.234 0.49900001 0 0 0 0 0.03957
2.431 -1.23 0.495 0 0 0 0 0.039579999
2.4960001 -1.27 0.509 0 0 0 0 0.039590001
2.4879999 -1.274 0.50800002 0 0 0 0 0.0396
2.46 -1.268 0.50300002 0 0 0 0 0.039609998
2.447 -1.2690001 0.50099999 0 0 0 0 0.039620001
2.4530001 -1.28 0.50300002 0 0 0 0 0.03963
2.46 -1.291 0.505 0 0 0 0 0.039639998
2.5280001 -1.335 0.51999998 0 0 0 0 0.039650001
2.5179999 -1.337 0.51800001 0 0 0 0 0.039659999
2.4549999 -1.311 0.50599998 0 0 0 0 0.039670002
4.5120001 -2.424 0.93000001 1 0 0 0 0.03968
4.4899998 -2.4260001 0.92699999 1 0 0 0 0.039689999
2.471 -1.3430001 0.50999999 0 0 0 0 0.039700001
2.457 -1.3430001 0.50700003 0 0 0 0 0.03971
2.4879999 -1.367 0.514 0 0 0 0 0.039719999
2.474 -1.367 0.51099998 0 0 0 0 0.039730001
2.4849999 -1.38 0.514 0 0 0 0 0.03974
2.4619999 -1.375 0.509 0 0 0 0 0.039749999
2.4749999 -1.39 0.51200002 0 0 0 0 0.039760001
2.4619999 -1.3890001 0.509 0 0 0 0 0.03977
2.4960001 -1.416 0.51599997 0 0 0 0 0.039779998
2.5580001 -1.459 0.528 0 0 0 0 0.039790001
2.4790001 -1.421 0.51200002 0 0 0 0 0.039799999
2.4820001 -1.4299999 0.51200002 0 0 0 0 0.039810002
2.993 -1.733 0.61699998 0 0 0 0 0.039820001
2.471 -1.438 0.509 0 0 0 0 0.039829999
4.165 -2.4349999 0.85799998 1 0 0 0 0.039840002
2.4590001 -1.444 0.50599998 0 0 0 0 0.03985
4.1220002 -2.4330001 0.847 1 0 0 0 0.039859999
4.1090002 -2.4360001 0.84299999 1 0 0 0 0.039870001
2.5320001 -1.508 0.51899999 0 0 0 0 0.03988
4.073 -2.437 0.83399999 1 0 0 0 0.039889999
2.497 -1.5 0.50999999 0 0 0 0 0.039900001
2.444 -1.475 0.498 0 0 0 0 0.03991
2.967 -1.798 0.60399997 0 0 0 0 0.039919998
3.8740001 -2.359 0.787 2 0 0 0 0.039930001
2.98 -1.822 0.60399997 0 0 0 0 0.03994
2.98 -1.829 0.60299999 0 0 0 0 0.039949998
2.9389999 -1.812 0.59299999 0 0 0 0 0.039960001
3.789 -2.345 0.76300001 2 0 0 0 0.039969999
3.9849999 -2.4760001 0.80000001 7 0 0 0 0.039980002
3.974 -2.4790001 0.796 7 0 0 0 0.03999
3.872 -2.424 0.77399999 6 0 0 0 0.039999999
3.8759999 -2.4349999 0.77200001 6 0 0 0 0.040010002
3.9779999 -2.5090001 0.79000002 6 0 0 0 0.04002
3.9360001 -2.4909999 0.77899998 6 0 0 0 0.040029999
3.928 -2.4949999 0.77499998 6 0 0 0 0.040040001
3.9579999 -2.5220001 0.77899998 6 0 0 0 0.04005
3.951 -2.526 0.77499998 6 0 0 0 0.040059999
3.9489999 -2.533 0.77200001 6 0 0 0 0.040070001
3.8889999 -2.503 0.75700003 6 0 0 0 0.04008
3.8610001 -2.493 0.74900001 6 0 0 0 0.040089998
3.816 -2.4719999 0.73699999 6 0 0 0 0.040100001
3.9460001 -2.563 0.759 6 0 0 0 0.040109999
3.888 -2.533 0.745 6 0 0 0 0.040119998
3.9159999 -2.559 0.74699998 6 0 0 0 0.040130001
2.891 -1.8940001 0.54900002 0 0 0 0 0.040139999
4.0190001 -2.6400001 0.759 10 0 0 0 0.040150002
3.7780001 -2.4879999 0.70999998 6 0 0 0 0.04016
2.8989999 -1.914 0.542 0 0 0 0 0.040169999
2.471 -1.635 0.46000001 0 0 0 0 0.040180001
2.9300001 -1.944 0.54299998 0 0 0 0 0.04019
2.964 -1.971 0.546 0 0 0 0 0.040199999
2.961 -1.974 0.54299998 0 0 0 0 0.040210001
3.5829999 -2.3940001 0.653 6 0 0 0 0.04022
3.5929999 -2.4059999 0.65100002 6 0 0 0 0.040229999
2.9809999 -2 0.537 0 0 0 0 0.040240001
3.7079999 -2.493 0.66399997 6 0 0 0 0.04025
2.9059999 -1.957 0.51700002 0 0 0 0 0.040259998
2.9159999 -1.967 0.51599997 0 0 0 0 0.040270001
3.868 -2.615 0.68000001 6 0 0 0 0.040279999
3.941 -2.668 0.68800002 7 0 0 0 0.040290002
3.9360001 -2.6689999 0.68199998 7 0 0 0 0.0403
3.9389999 -2.675 0.67799997 7 0 0 0 0.040309999
3.924 -2.668 0.671 6 0 0 0 0.040320002
2.8859999 -1.966 0.49000001 0 0 0 0 0.04033
3.882 -2.6470001 0.65399998 6 0 0 0 0.040339999
3.9289999 -2.6819999 0.65700001 7 0 0 0 0.040350001
3.0039999 -2.053 0.498 0 0 0 0 0.04036
3.7880001 -2.592 0.62400001 6 0 0 0 0.040369999
3.7950001 -2.599 0.62 6 0 0 0 0.040380001
3.8829999 -2.661 0.62900001 6 0 0 0 0.04039
3.948 -2.7079999 0.634 7 0 0 0 0.040399998
3.994 -2.7420001 0.63599998 7 0 0 0 0.040410001
4.0050001 -2.7509999 0.63200003 7 0 0 0 0.04042
3.9949999 -2.7449999 0.62599999 7 0 0 0 0.040429998
3.9489999 -2.7149999 0.61299998 7 0 0 0 0.040440001
3.9330001 -2.7049999 0.60500002 7 0 0 0 0.040449999
3.7980001 -2.6129999 0.579 6 0 0 0 0.040460002
3.789 -2.608 0.57200003 6 0 0 0 0.04047
3.812 -2.6229999 0.56999999 6 0 0 0 0.040479999
2.9949999 -2.062 0.44400001 0 0 0 0 0.040490001
2.8840001 -1.985 0.42300001 0 0 0 0 0.0405
3.8759999 -2.6670001 0.56300002 6 0 0 0 0.040509999
2.8759999 -1.979 0.41299999 0 0 0 0 0.040520001
2.9719999 -2.0450001 0.42300001 0 0 0 0 0.04053
3.029 -2.0829999 0.426 0 0 0 0 0.040539999
2.9449999 -2.0250001 0.41 0 0 0 0 0.040550001
3.585 -2.4630001 0.493 5 0 0 0 0.04056
2.451 -1.683 0.33399999 0 0 0 0 0.040569998
3.4749999 -2.385 0.46799999 5 0 0 0 0.040580001
2.4579999 -1.686 0.32699999 0 0 0 0 0.040589999
3.5940001 -2.4630001 0.47299999 5 0 0 0 0.040600002
3.6789999 -2.5190001 0.479 6 0 0 0 0.04061
2.9719999 -2.033 0.382 0 0 0 0 0.040619999
3.7049999 -2.5320001 0.47099999 6 0 0 0 0.040630002
2.9489999 -2.013 0.37 0 0 0 0 0.04064
3.796 -2.5880001 0.47 6 0 0 0 0.040649999
2.9449999 -2.0050001 0.36000001 0 0 0 0 0.040660001
3.911 -2.6600001 0.472 6 0 0 0 0.04067
3.882 -2.6359999 0.463 6 0 0 0 0.040679999
3.0369999 -2.059 0.35699999 0 0 0 0 0.040690001
3.056 -2.069 0.35499999 0 0 0 0 0.0407
3.7950001 -2.5650001 0.435 6 0 0 0 0.040709998
3.803 -2.566 0.43000001 6 0 0 0 0.040720001
3.0409999 -2.0480001 0.33899999 0 0 0 0 0.04073
3.892 -2.6159999 0.42699999 6 0 0 0 0.040739998
3.9489999 -2.6489999 0.42699999 6 0 0 0 0.040750001
3.944 -2.641 0.421 6 0 0 0 0.040759999
2.9400001 -1.964 0.30899999 0 0 0 0 0.040770002
3.697 -2.4649999 0.38299999 6 0 0 0 0.04078
2.99 -1.989 0.30500001 0 0 0 0 0.040789999
3.8150001 -2.5320001 0.384 6 0 0 0 0.040800001
3.8859999 -2.573 0.38499999 6 0 0 0 0.04081
3.9719999 -2.6229999 0.38699999 7 0 0 0 0.040819999
3.964 -2.612 0.38 6 0 0 0 0.040830001
3.99 -2.622 0.37599999 7 0 0 0 0.04084
3.924 -2.5710001 0.36399999 6 0 0 0 0.040849999
3.9289999 -2.5680001 0.359 6 0 0 0 0.040860001
3.9809999 -2.5940001 0.35699999 7 0 0 0 0.04087
3.9300001 -2.553 0.347 6 0 0 0 0.040879998
2.9330001 -1.9 0.25400001 0 0 0 0 0.040890001
3.8540001 -2.4890001 0.329 6 0 0 0 0.040899999
3.9230001 -2.526 0.329 6 0 0 0 0.040910002
3.8829999 -2.493 0.31999999 6 0 0 0 0.040920001
3.865 -2.473 0.31200001 6 0 0 0 0.040929999
3.858 -2.46 0.30599999 6 0 0 0 0.040940002
3.931 -2.4990001 0.30599999 6 0 0 0 0.04095
3.0350001 -1.9220001 0.23199999 0 0 0 0 0.040959999
3.6849999 -2.326 0.27599999 5 0 0 0 0.040970001
3.799 -2.3889999 0.27900001 6 0 0 0 0.04098
3.997 -2.5050001 0.289 11 0 0 0 0.040989999
4.0029998 -2.4990001 0.28299999 12 0 0 0 0.041000001
3.9909999 -2.4820001 0.27700001 10 0 0 0 0.04101
3.994 -2.4749999 0.271 10 0 0 0 0.041019998
3.9979999 -2.467 0.266 16 0 0 0 0.041030001
3.9979999 -2.4579999 0.25999999 22 0 0 0 0.04104
4.0079999 -2.454 0.255 10 0 0 0 0.041049998
0 0 0 0 0 0 0 0.041060001
0 0 0 0 0 0 0 0.041069999
4.0500002 -2.448 0.242 1 0 0 0 0.041080002
0 0 0 0 0 0 0 0.04109
1.271 -0.76200002 0.071999997 1 0 0 0 0.041099999
1.2539999 -0.74800003 0.07 1 0 0 0 0.041110002
1.261 -0.74900001 0.068000004 1 0 0 0 0.04112
1.262 -0.74599999 0.067000002 1 0 0 0 0.041129999
1.2589999 -0.741 0.064999998 2 0 0 0 0.041140001
1.256 -0.736 0.063000001 2 0 0 0 0.04115
1.257 -0.73299998 0.061999999 3 0 0 0 0.041159999
1.256 -0.72899997 0.059999999 3 0 0 0 0.041170001
1.253 -0.72399998 0.057999998 3 0 0 0 0.04118
1.256 -0.722 0.057 3 0 0 0 0.041189998
1.255 -0.71700001 0.055 4 0 0 0 0.041200001
1.2539999 -0.713 0.054000001 4 0 0 0 0.041209999
1.251 -0.708 0.052000001 3 0 0 0 0.041219998
1.249 -0.70300001 0.050999999 3 0 0 0 0.041230001
1.255 -0.70300001 0.050000001 3 0 0 0 0.041239999
1.25 -0.69700003 0.048 3 0 0 0 0.041250002
1.245 -0.69 0.046 2 0 0 0 0.04126
1.25 -0.68900001 0.045000002 2 0 0 0 0.041269999
1.247 -0.68300003 0.044 2 0 0 0 0.041280001
1.2460001 -0.68000001 0.041999999 2 0 0 0 0.04129
1.2460001 -0.676 0.041000001 2 0 0 0 0.041299999
1.244 -0.671 0.039999999 2 0 0 0 0.041310001
1.243 -0.66600001 0.037999999 2 0 0 0 0.04132
1.242 -0.662 0.037 2 0 0 0 0.041329999
1.2410001 -0.65799999 0.035999998 2 0 0 0 0.041340001
1.244 -0.65499997 0.035 2 0 0 0 0.04135
1.2410001 -0.64999998 0.033 2 0 0 0 0.041359998
1.235 -0.64300001 0.032000002 2 0 0 0 0.041370001
1.239 -0.64099997 0.030999999 2 0 0 0 0.041379999
1.235 -0.63499999 0.029999999 2 0 0 0 0.041390002
1.233 -0.63 0.028000001 2 0 0 0 0.0414
1.233 -0.62599999 0.027000001 2 0 0 0 0.041409999
1.229 -0.62 0.026000001 2 0 0 0 0.041420002
1.229 -0.616 0.025 1 0 0 0 0.04143
1.2309999 -0.61299998 0.024 1 0 0 0 0.041439999
1.23 -0.60900003 0.023 1 0 0 0 0.041450001
1.222 -0.60100001 0.022 1 0 0 0 0.04146
1.224 -0.59799999 0.021 1 0 0 0 0.041469999
1.221 -0.59200001 0.018999999 1 0 0 0 0.041480001
1.22 -0.588 0.017999999 1 0 0 0 0.04149
1.224 -0.58600003 0.017000001 1 0 0 0 0.041499998
1.219 -0.57999998 0.016000001 1 0 0 0 0.041510001
1.2180001 -0.57499999 0.016000001 1 0 0 0 0.04152
1.216 -0.56999999 0.015 1 0 0 0 0.041529998
1.2180001 -0.56699997 0.014 1 0 0 0 0.041540001
1.21 -0.55900002 0.013 1 0 0 0 0.041549999
1.211 -0.55599999 0.012 1 0 0 0 0.041560002
1.2079999 -0.55000001 0.011 1 0 0 0 0.04157
1.2130001 -0.54900002 0.0099999998 1 0 0 0 0.041579999
1.1849999 -0.53200001 0.0089999996 0 0 0 0 0.041590001
1.206 -0.537 0.0080000004 1 0 0 0 0.0416
1.202 -0.53200001 0.0080000004 1 0 0 0 0.041609999
1.202 -0.52700001 0.0070000002 2 0 0 0 0.041620001
1.198 -0.52200001 0.0060000001 91 0 0 0 0.04163
2.4189999 -1.046 0.011 150 0 0 0 0.041639999
2.385 -1.023 0.0089999996 38 0 0 0 0.041650001
2.415 -1.028 0.0080000004 20 0 0 0 0.04166
2.411 -1.018 0.0070000002 20 0 0 0 0.041669998
2.4159999 -1.012 0.0049999999 24 0 0 0 0.041680001
2.4119999 -1.002 0.0040000002 26 0 0 0 0.041689999
2.4059999 -0.99199998 0.003 20 0 0 0 0.041700002
2.414 -0.986 0.001 26 0 0 0 0.04171
2.4119999 -0.97799999 0 25 0 0 0 0.041719999
2.408 -0.96799999 0 20 0 0 0 0.041730002
2.4100001 -0.96100003 -0.0020000001 20 0 0 0 0.04174
2.4089999 -0.95200002 -0.003 21 0 0 0 0.041749999
2.4059999 -0.94300002 -0.0040000002 19 0 0 0 0.041760001
2.4089999 -0.93599999 -0.0049999999 16 0 0 0 0.04177
2.408 -0.92699999 -0.0060000001 18 0 0 0 0.041779999
2.402 -0.917 -0.0070000002 18 0 0 0 0.041790001
2.401 -0.90799999 -0.0080000004 21 0 0 0 0.0418
2.401 -0.89999998 -0.0089999996 25 0 0 0 0.041809998
2.4000001 -0.89200002 -0.011 25 0 0 0 0.041820001
2.3940001 -0.88200003 -0.011 25 0 0 0 0.04183
2.3989999 -0.875 -0.012 21 0 0 0 0.041839998
2.3989999 -0.86699998 -0.013 21 0 0 0 0.041850001
2.395 -0.85699999 -0.014 21 0 0 0 0.041859999
2.392 -0.84799999 -0.015 23 0 0 0 0.041870002
2.3929999 -0.83999997 -0.016000001 22 0 0 0 0.04188
2.3970001 -0.83399999 -0.017000001 24 0 0 0 0.041889999
2.3940001 -0.82499999 -0.017999999 25 0 0 0 0.041900001
2.391 -0.815 -0.018999999 23 0 0 0 0.04191
2.392 -0.80800003 -0.018999999 22 0 0 0 0.041919999
2.391 -0.79900002 -0.02 24 0 0 0 0.041930001
2.392 -0.79100001 -0.021 23 0 0 0 0.04194
2.3940001 -0.78399998 -0.021 21 0 0 0 0.041949999
2.3870001 -0.77399999 -0.022 22 0 0 0 0.041960001
2.3940001 -0.76800001 -0.023 20 0 0 0 0.04197
2.395 -0.75999999 -0.023 18 0 0 0 0.041979998
2.3859999 -0.74900001 -0.024 17 0 0 0 0.041990001
2.392 -0.74299997 -0.025 19 0 0 0 0.041999999
2.3889999 -0.73400003 -0.025 19 0 0 0 0.042010002
2.391 -0.727 -0.026000001 21 0 0 0 0.042020001
2.385 -0.71700001 -0.026000001 21 0 0 0 0.042029999
2.3859999 -0.70899999 -0.027000001 24 0 0 0 0.042040002
2.3900001 -0.70200002 -0.027000001 25 0 0 0 0.04205
2.3900001 -0.69400001 -0.028000001 25 0 0 0 0.042059999
2.3859999 -0.685 -0.028000001 22 0 0 0 0.042070001
2.385 -0.67699999 -0.028000001 22 0 0 0 0.04208
2.381 -0.667 -0.028999999 20 0 0 0 0.042089999
2.385 -0.66100001 -0.028999999 18 0 0 0 0.042100001
2.382 -0.65100002 -0.028999999 19 0 0 0 0.04211
2.3859999 -0.64499998 -0.029999999 21 0 0 0 0.042119998
2.385 -0.63599998 -0.029999999 22 0 0 0 0.042130001
2.3789999 -0.62699997 -0.029999999 24 0 0 0 0.04214
2.3789999 -0.61900002 -0.030999999 23 0 0 0 0.042149998
2.388 -0.61299998 -0.030999999 21 0 0 0 0.042160001
2.381 -0.60299999 -0.030999999 20 0 0 0 0.042169999
2.382 -0.59600002 -0.030999999 19 0 0 0 0.042180002
2.3840001 -0.588 -0.030999999 18 0 0 0 0.04219
2.3829999 -0.57999998 -0.032000002 16 0 0 0 0.042199999
2.3840001 -0.57200003 -0.032000002 18 0 0 0 0.042210001
2.3770001 -0.56199998 -0.032000002 22 0 0 0 0.04222
2.381 -0.55599999 -0.032000002 25 0 0 0 0.042229999
2.375 -0.546 -0.032000002 23 0 0 0 0.042240001
2.3729999 -0.53799999 -0.032000002 20 0 0 0 0.04225
2.3759999 -0.53100002 -0.032000002 17 0 0 0 0.042259999
2.3770001 -0.523 -0.032000002 16 0 0 0 0.042270001
2.381 -0.51599997 -0.032000002 22 0 0 0 0.04228
2.3789999 -0.50700003 -0.032000002 25 0 0 0 0.042289998
2.375 -0.49900001 -0.032000002 25 0 0 0 0.042300001
2.3770001 -0.491 -0.032000002 24 0 0 0 0.042309999
2.378 -0.484 -0.032000002 20 0 0 0 0.042319998
2.3770001 -0.47600001 -0.032000002 17 0 0 0 0.042330001
2.3740001 -0.46700001 -0.032000002 14 0 0 0 0.042339999
2.3740001 -0.45899999 -0.032000002 14 0 0 0 0.042350002
2.3729999 -0.45100001 -0.032000002 14 0 0 0 0.04236
2.3759999 -0.44400001 -0.032000002 19 0 0 0 0.042369999
2.3729999 -0.435 -0.030999999 19 0 0 0 0.042380001
2.369 -0.42699999 -0.030999999 19 0 0 0 0.04239
2.368 -0.419 -0.030999999 25 0 0 0 0.042399999
2.368 -0.41100001 -0.030999999 24 0 0 0 0.042410001
2.368 -0.40400001 -0.030999999 23 0 0 0 0.04242
2.3670001 -0.396 -0.029999999 23 0 0 0 0.042429999
2.3699999 -0.38800001 -0.029999999 22 0 0 0 0.042440001
2.3710001 -0.38100001 -0.029999999 19 0 0 0 0.04245
2.372 -0.373 -0.029999999 15 0 0 0 0.042459998
2.365 -0.36399999 -0.028999999 16 0 0 0 0.042470001
2.369 -0.35699999 -0.028999999 17 0 0 0 0.042479999
2.3710001 -0.34900001 -0.028999999 20 0 0 0 0.042490002
2.3640001 -0.34099999 -0.028000001 19 0 0 0 0.0425
2.3640001 -0.333 -0.028000001 20 0 0 0 0.042509999
2.365 -0.32499999 -0.028000001 23 0 0 0 0.042520002
2.391 -0.32100001 -0.028000001 30 0 0 0 0.04253
2.431 -0.31900001 -0.028000001 20 0 0 0 0.042539999
2.4979999 -0.31900001 -0.028000001 28 0 0 0 0.042550001
2.5610001 -0.31900001 -0.028000001 30 0 0 0 0.04256
2.6659999 -0.32300001 -0.028999999 33 0 0 0 0.042569999
3.0079999 -0.35499999 -0.032000002 150 0 0 0 0.042580001
3.2119999 -0.36899999 -0.034000002 150 0 0 0 0.04259
3.211 -0.35800001 -0.033 150 0 0 0 0.042599998
3.2119999 -0.34799999 -0.033 150 0 0 0 0.042610001
3.2130001 -0.33700001 -0.032000002 150 0 0 0 0.042619999
3.2090001 -0.32600001 -0.030999999 150 0 0 0 0.042629998
3.227 -0.31799999 -0.030999999 152 0 0 0 0.042640001
3.237 -0.308 -0.029999999 152 0 0 0 0.042649999
3.237 -0.29800001 -0.028999999 151 0 0 0 0.042660002
3.2390001 -0.287 -0.028999999 152 0 0 0 0.04267
3.237 -0.27700001 -0.028000001 152 0 0 0 0.042679999
3.2249999 -0.26499999 -0.027000001 152 0 0 0 0.042690001
3.279 -0.259 -0.026000001 89 0 0 0 0.0427
3.3440001 -0.25299999 -0.026000001 152 0 0 0 0.042709999
3.346 -0.243 -0.025 151 0 0 0 0.042720001
3.346 -0.23199999 -0.024 151 0 0 0 0.04273
3.346 -0.221 -0.023 152 0 0 0 0.042739999
3.358 -0.211 -0.022 151 0 0 0 0.042750001
3.3699999 -0.20100001 -0.022 152 0 0 0 0.04276
3.372 -0.19 -0.021 151 0 0 0 0.042769998
3.3929999 -0.18000001 -0.02 150 0 0 0 0.042780001
3.415 -0.17 -0.018999999 154 0 0 0 0.042789999
3.4349999 -0.16 -0.017999999 150 0 0 0 0.042800002
3.4349999 -0.149 -0.017000001 150 0 0 0 0.04281
3.4319999 -0.138 -0.016000001 150 0 0 0 0.042819999
3.434 -0.127 -0.014 150 0 0 0 0.042830002
3.428 -0.116 -0.013 150 0 0 0 0.04284
3.431 -0.105 -0.012 150 0 0 0 0.042849999
3.4300001 -0.093999997 -0.011 150 0 0 0 0.042860001
3.4230001 -0.082000002 -0.0099999998 150 0 0 0 0.04287
3.4260001 -0.071999997 -0.0080000004 150 0 0 0 0.042879999
3.427 -0.061000001 -0.0070000002 150 0 0 0 0.042890001
3.424 -0.048999999 -0.0060000001 150 0 0 0 0.0429
3.424 -0.037999999 -0.0049999999 150 0 0 0 0.042909998
3.4219999 -0.028000001 -0.003 151 0 0 0 0.042920001
3.4189999 -0.016000001 -0.0020000001 150 0 0 0 0.04293
3.4189999 -0.0049999999 -0.001 151 0 0 0 0.042939998
3.4230001 0.0049999999 0 151 0 0 0 0.042950001
3.418 0.016000001 0.001 151 0 0 0 0.042959999
3.4170001 0.027000001 0.0020000001 151 0 0 0 0.042970002
3.421 0.037999999 0.0040000002 152 0 0 0 0.04298
3.4260001 0.048999999 0.0049999999 152 0 0 0 0.042989999
3.418 0.059999999 0.0070000002 152 0 0 0 0.043000001
3.4119999 0.07 0.0080000004 153 0 0 0 0.04301
3.4070001 0.081 0.0099999998 153 0 0 0 0.043019999
3.398 0.092 0.011 153 0 0 0 0.043030001
3.398 0.103 0.013 154 0 0 0 0.04304
3.3870001 0.113 0.014 154 0 0 0 0.043049999
3.381 0.124 0.016000001 154 0 0 0 0.043060001
3.382 0.13500001 0.017000001 154 0 0 0 0.04307
3.3800001 0.145 0.018999999 156 0 0 0 0.043079998
3.3699999 0.156 0.02 156 0 0 0 0.043090001
3.3710001 0.167 0.022 157 0 0 0 0.043099999
3.3629999 0.177 0.023 158 0 0 0 0.043110002
3.3599999 0.18799999 0.025 158 0 0 0 0.043120001
3.365 0.199 0.027000001 157 0 0 0 0.043129999
3.3599999 0.20900001 0.028000001 158 0 0 0 0.043140002
3.359 0.22 0.029999999 158 0 0 0 0.04315
3.358 0.23100001 0.032000002 158 0 0 0 0.043159999
3.359 0.242 0.034000002 159 0 0 0 0.043170001
3.3570001 0.252 0.035 159 0 0 0 0.04318
3.3570001 0.26300001 0.037 159 0 0 0 0.043189999
3.3570001 0.27399999 0.039000001 159 0 0 0 0.043200001
3.3540001 0.28400001 0.041000001 159 0 0 0 0.04321
3.352 0.29499999 0.043000001 158 0 0 0 0.043219998
3.368 0.30700001 0.045000002 157 0 0 0 0.043230001
3.3699999 0.31799999 0.046999998 156 0 0 0 0.04324
3.3699999 0.329 0.048 155 0 0 0 0.043249998
3.368 0.33899999 0.050000001 156 0 0 0 0.043260001
3.3559999 0.34900001 0.052000001 158 0 0 0 0.043269999
3.3670001 0.361 0.054000001 156 0 0 0 0.043280002
3.369 0.37200001 0.056000002 154 0 0 0 0.04329
3.3659999 0.382 0.057999998 154 0 0 0 0.043299999
3.3759999 0.39399999 0.059999999 154 0 0 0 0.043310001
3.3829999 0.40599999 0.063000001 153 0 0 0 0.04332
3.392 0.41800001 0.064999998 153 0 0 0 0.043329999
3.3929999 0.42899999 0.067000002 152 0 0 0 0.043340001
3.3870001 0.43900001 0.068999998 152 0 0 0 0.04335
3.388 0.44999999 0.071000002 151 0 0 0 0.043359999
3.3859999 0.461 0.072999999 152 0 0 0 0.043370001
3.3829999 0.47099999 0.075000003 151 0 0 0 0.04338
3.385 0.48300001 0.078000002 151 0 0 0 0.043389998
3.3840001 0.493 0.079999998 151 0 0 0 0.043400001
3.3840001 0.50400001 0.082000002 151 0 0 0 0.043409999
3.378 0.514 0.083999999 153 0 0 0 0.043419998
3.3199999 0.51599997 0.085000001 151 0 0 0 0.043430001
3.3210001 0.52700001 0.088 152 0 0 0 0.043439999
3.3139999 0.53600001 0.090000004 151 0 0 0 0.043450002
3.2880001 0.54299998 0.090999998 153 0 0 0 0.04346
3.283 0.55199999 0.093000002 153 0 0 0 0.043469999
3.279 0.56199998 0.096000001 153 0 0 0 0.043480001
3.2820001 0.57300001 0.097999997 153 0 0 0 0.04349
3.277 0.583 0.1 150 0 0 0 0.043499999
3.2390001 0.58700001 0.102 25 0 0 0 0.043510001
3.1830001 0.58700001 0.102 25 0 0 0 0.04352
3.095 0.57999998 0.102 25 0 0 0 0.043529999
3.046 0.58099997 0.102 25 0 0 0 0.043540001
2.9630001 0.57499999 0.102 25 0 0 0 0.04355
2.901 0.57200003 0.102 26 0 0 0 0.043559998
2.8380001 0.56900001 0.102 26 0 0 0 0.043570001
2.766 0.56300002 0.101 26 0 0 0 0.043579999
2.664 0.551 0.1 25 0 0 0 0.043590002
2.573 0.54100001 0.097999997 21 0 0 0 0.0436
2.506 0.53399998 0.097999997 20 0 0 0 0.043609999
2.4489999 0.52999997 0.097999997 19 0 0 0 0.043620002
2.3900001 0.52499998 0.097000003 16 0 0 0 0.04363
2.335 0.52100003 0.097000003 15 0 0 0 0.043639999
2.2639999 0.51200002 0.096000001 150 0 0 0 0.043650001
2.2539999 0.51700002 0.097000003 151 0 0 0 0.04366
2.2520001 0.52399999 0.098999999 151 0 0 0 0.043669999
2.253 0.53100002 0.101 151 0 0 0 0.043680001
2.2290001 0.53299999 0.102 150 0 0 0 0.04369
2.2309999 0.54000002 0.104 151 0 0 0 0.043699998
2.2290001 0.54699999 0.106 151 0 0 0 0.043710001
2.2279999 0.55400002 0.108 151 0 0 0 0.043719999
2.2260001 0.56099999 0.11 151 0 0 0 0.043729998
2.224 0.56800002 0.112 151 0 0 0 0.043740001
2.224 0.574 0.114 151 0 0 0 0.043749999
2.2260001 0.58200002 0.116 151 0 0 0 0.043760002
2.224 0.58899999 0.118 151 0 0 0 0.04377
2.23 0.59799999 0.121 151 0 0 0 0.043779999
2.234 0.60600001 0.123 151 0 0 0 0.043790001
2.2309999 0.61299998 0.125 151 0 0 0 0.0438
2.23 0.61900002 0.127 151 0 0 0 0.043809999
2.2309999 0.62699997 0.12899999 151 0 0 0 0.043820001
2.233 0.63499999 0.132 151 0 0 0 0.04383
2.276 0.65399998 0.13600001 150 0 0 0 0.043839999
2.448 0.71100003 0.149 150 0 0 0 0.043850001
2.4849999 0.73000002 0.154 150 0 0 0 0.04386
2.4909999 0.74000001 0.15700001 150 0 0 0 0.043869998
2.4890001 0.74699998 0.15899999 150 0 0 0 0.043880001
2.48 0.75300002 0.161 150 0 0 0 0.043889999
2.362 0.72500002 0.156 150 0 0 0 0.043900002
2.313 0.71700001 0.155 150 0 0 0 0.04391
1.552 0.486 0.106 1 0 0 0 0.043919999
1.467 0.46399999 0.102 1 0 0 0 0.043930002
1.454 0.46399999 0.102 1 0 0 0 0.04394
1.434 0.463 0.102 1 0 0 0 0.043949999
1.42 0.463 0.103 1 0 0 0 0.043960001
1.395 0.45899999 0.103 1 0 0 0 0.04397
1.3559999 0.45100001 0.101 1 0 0 0 0.043979999
1.3559999 0.45500001 0.103 5 0 0 0 0.043990001
1.337 0.45300001 0.103 5 0 0 0 0.044
1.324 0.45300001 0.104 12 0 0 0 0.044009998
1.3049999 0.44999999 0.104 68 0 0 0 0.044020001
1.296 0.45100001 0.104 150 0 0 0 0.04403
1.296 0.45500001 0.106 150 0 0 0 0.044039998
1.296 0.46000001 0.107 136 0 0 0 0.044050001
1.295 0.463 0.109 149 0 0 0 0.044059999
1.294 0.46700001 0.111 129 0 0 0 0.044070002
1.295 0.472 0.112 143 0 0 0 0.04408
1.296 0.47600001 0.114 135 0 0 0 0.044089999
1.29 0.47799999 0.115 140 0 0 0 0.044100001
1.2970001 0.48500001 0.117 149 0 0 0 0.04411
1.296 0.48899999 0.119 134 0 0 0 0.044119999
1.294 0.49200001 0.12 124 0 0 0 0.044130001
1.293 0.49599999 0.122 49 0 0 0 0.04414
1.2970001 0.50099999 0.124 10 0 0 0 0.044149999
1.2690001 0.49399999 0.123 6 0 0 0 0.044160001
1.243 0.48800001 0.122 0 0 0 0 0.04417
3.319 1.3150001 0.331 2 0 0 0 0.044179998
3.329 1.329 0.336 4 0 0 0 0.044190001
3.3169999 1.334 0.34 5 0 0 0 0.044199999
3.316 1.344 0.34400001 5 0 0 0 0.044210002
3.345 1.367 0.352 3 0 0 0 0.044220001
3.3039999 1.36 0.352 2 0 0 0 0.044229999
3.273 1.358 0.35299999 2 0 0 0 0.044240002
3.2739999 1.368 0.35800001 3 0 0 0 0.04425
3.2590001 1.372 0.361 3 0 0 0 0.044259999
3.257 1.381 0.366 3 0 0 0 0.044270001
3.2449999 1.386 0.36899999 3 0 0 0 0.04428
3.2390001 1.393 0.373 3 0 0 0 0.044289999
3.24 1.404 0.37799999 3 0 0 0 0.044300001
3.2420001 1.415 0.38299999 3 0 0 0 0.04431
3.237 1.423 0.38699999 3 0 0 0 0.044319998
3.223 1.426 0.38999999 2 0 0 0 0.044330001
3.1730001 1.413 0.389 1 0 0 0 0.04434
3.1730001 1.423 0.39399999 0 0 0 0 0.044349998
3.1270001 1.4119999 0.39300001 0 0 0 0 0.044360001
3.119 1.418 0.39700001 1 0 0 0 0.044369999
3.119 1.427 0.40200001 2 0 0 0 0.044380002
3.1199999 1.437 0.40700001 2 0 0 0 0.04439
3.1099999 1.441 0.41 2 0 0 0 0.044399999
3.118 1.454 0.41600001 3 0 0 0 0.044410001
3.1059999 1.4579999 0.41999999 3 0 0 0 0.04442
3.1099999 1.469 0.42500001 3 0 0 0 0.044429999
3.0999999 1.474 0.42899999 2 0 0 0 0.044440001
3.0680001 1.467 0.42899999 2 0 0 0 0.04445
3.072 1.478 0.435 2 0 0 0 0.044459999
3.0669999 1.484 0.43900001 2 0 0 0 0.044470001
3.0840001 1.502 0.447 2 0 0 0 0.04448
3.0739999 1.506 0.45100001 2 0 0 0 0.044489998
3.076 1.515 0.456 2 0 0 0 0.044500001
3.082 1.527 0.46200001 2 0 0 0 0.044509999
3.0510001 1.52 0.463 1 0 0 0 0.044520002
3.105 1.556 0.47600001 0 0 0 0 0.044530001
0.917 0.46200001 0.142 0 0 0 0 0.044539999
0.90899998 0.461 0.142 3 0 0 0 0.044550002
0.90600002 0.46200001 0.14300001 3 0 0 0 0.04456
0.91600001 0.46900001 0.147 4 0 0 0 0.044569999
0.91600001 0.472 0.148 4 0 0 0 0.044580001
0.91299999 0.47299999 0.149 4 0 0 0 0.04459
0.89999998 0.46799999 0.149 3 0 0 0 0.044599999
0.90600002 0.47400001 0.15099999 0 0 0 0 0.044610001
0 0 0 0 0 0 0 0.04462
3.221 1.702 0.551 0 0 0 0 0.044629999
3.171 1.684 0.54799998 0 0 0 0 0.044640001
3.1949999 1.705 0.55800003 1 0 0 0 0.04465
1.383 0.741 0.244 0 0 0 0 0.044659998
1.392 0.75 0.248 0 0 0 0 0.044670001
3.1930001 1.728 0.57499999 0 0 0 0 0.044679999
3.2219999 1.752 0.58600003 1 0 0 0 0.044690002
3.227 1.762 0.59299999 1 0 0 0 0.0447
3.22 1.767 0.59799999 1 0 0 0 0.044709999
3.24 1.785 0.60799998 1 0 0 0 0.044720002
3.2119999 1.778 0.60799998 1 0 0 0 0.04473
1.077 0.59799999 0.206 0 0 0 0 0.044739999
3.2639999 1.822 0.63 0 0 0 0 0.044750001
3.2520001 1.823 0.634 0 0 0 0 0.04476
3.223 1.814 0.63499999 0 0 0 0 0.044769999
3.2820001 1.854 0.65200001 0 0 0 0 0.044780001
3.3110001 1.878 0.66500002 0 0 0 0 0.04479
3.4530001 1.967 0.69999999 1 0 0 0 0.044799998
3.4990001 2 0.71600002 1 0 0 0 0.044810001
3.6059999 2.0699999 0.745 2 0 0 0 0.044819999
3.608 2.0780001 0.75199997 2 0 0 0 0.044829998
3.618 2.092 0.76099998 2 0 0 0 0.044840001
3.6830001 2.1370001 0.78200001 2 0 0 0 0.044849999
3.671 2.138 0.787 1 0 0 0 0.044860002
3.671 2.145 0.79400003 1 0 0 0 0.04487
3.714 2.177 0.81 2 0 0 0 0.044879999
3.6730001 2.1600001 0.80800003 2 0 0 0 0.044890001
3.727 2.1989999 0.82800001 1 0 0 0 0.0449
0 0 0 0 0 0 0 0.044909999
0 0 0 0 0 0 0 0.044920001
0 0 0 0 0 0 0 0.04493
0 0 0 0 0 0 0 0.044939999
0 0 0 0 0 0 0 0.044950001
0 0 0 0 0 0 0 0.04496
0 0 0 0 0 0 0 0.044969998
0 0 0 0 0 0 0 0.044980001
0 0 0 0 0 0 0 0.044989999
0 0 0 0 0 0 0 0.045000002
0 0 0 0 0 0 0 0.04501
0 0 0 0 0 0 0 0.045019999
0 0 0 0 0 0 0 0.045030002
0 0 0 0 0 0 0 0.04504
0 0 0 0 0 0 0 0.045049999
0 0 0 0 0 0 0 0.045060001
0 0 0 0 0 0 0 0.04507
0 0 0 0 0 0 0 0.045079999
0 0 0 0 0 0 0 0.045090001
0 0 0 0 0 0 0 0.0451
3.7320001 2.319 0.97899997 1 0 0 0 0.045109998
3.7090001 2.309 0.98000002 1 0 0 0 0.045120001
3.7390001 2.3310001 0.995 1 0 0 0 0.04513
3.733 2.3310001 1 1 0 0 0 0.045139998
0 0 0 0 0 0 0 0.045150001
0 0 0 0 0 0 0 0.045159999
0 0 0 0 0 0 0 0.045170002
0 0 0 0 0 0 0 0.04518
0 0 0 0 0 0 0 0.045189999
0 0 0 0 0 0 0 0.045200001
0 0 0 0 0 0 0 0.04521
0 0 0 0 0 0 0 0.045219999
0 0 0 0 0 0 0 0.045230001
0 0 0 0 0 0 0 0.04524
0 0 0 0 0 0 0 0.045249999
0 0 0 0 0 0 0 0.045260001
0 0 0 0 0 0 0 0.04527
0 0 0 0 0 0 0 0.045279998
0 0 0 0 0 0 0 0.045290001
0 0 0 0 0 0 0 0.045299999
0 0 0 0 0 0 0 0.045310002
0 0 0 0 0 0 0 0.04532
0 0 0 0 0 0 0 0.045329999
1.432 0.90700001 0.43200001 0 0 0 0 0.045340002
1.4809999 0.93699998 0.449 0 0 0 0 0.04535
1.4400001 0.91100001 0.43900001 0 0 0 0 0.045359999
1.448 0.91600001 0.44400001 0 0 0 0 0.045370001
1.448 0.91600001 0.44600001 0 0 0 0 0.04538
1.428 0.903 0.442 0 0 0 0 0.045389999
1.437 0.90799999 0.44600001 1 0 0 0 0.045400001
1.434 0.90499997 0.447 1 0 0 0 0.04541
1.434 0.90499997 0.449 1 0 0 0 0.045419998
1.419 0.89499998 0.447 1 0 0 0 0.045430001
1.41 0.88800001 0.44600001 1 0 0 0 0.04544
1.401 0.88200003 0.44499999 0 0 0 0 0.045449998
1.418 0.89099997 0.45199999 0 0 0 0 0.045460001
1.411 0.88599998 0.45100001 0 0 0 0 0.045469999
1.3839999 0.86799997 0.44400001 0 0 0 0 0.045480002
1.39 0.87099999 0.44800001 0 0 0 0 0.04549
1.377 0.861 0.44499999 0 0 0 0 0.045499999
1.386 0.866 0.44999999 0 0 0 0 0.045510001
1.362 0.84899998 0.44299999 0 0 0 0 0.04552
1.392 0.86699998 0.45500001 0 0 0 0 0.045529999
1.395 0.86699998 0.45699999 0 0 0 0 0.045540001
1.398 0.86699998 0.46000001 0 0 0 0 0.04555
1.391 0.86199999 0.45899999 0 0 0 0 0.045559999
1.404 0.86799997 0.46399999 0 0 0 0 0.045570001
1.363 0.84100002 0.45199999 0 0 0 0 0.04558
1.342 0.82599998 0.44600001 0 0 0 0 0.045589998
1.351 0.82999998 0.44999999 0 0 0 0 0.045600001
1.358 0.83200002 0.454 0 0 0 0 0.045609999
1.363 0.833 0.45699999 1 0 0 0 0.045620002
1.348 0.82300001 0.45300001 3 0 0 0 0.045630001
1.345 0.81900001 0.45300001 7 0 0 0 0.045639999
1.341 0.81400001 0.45300001 8 0 0 0 0.045650002
1.341 0.81199998 0.454 8 0 0 0 0.04566
1.339 0.80900002 0.454 8 0 0 0 0.045669999
1.334 0.80400002 0.45300001 8 0 0 0 0.045680001
1.336 0.80199999 0.454 9 0 0 0 0.04569
1.3279999 0.796 0.45300001 9 0 0 0 0.045699999
1.327 0.792 0.45300001 9 0 0 0 0.045710001
1.322 0.787 0.45199999 9 0 0 0 0.04572
1.322 0.78399998 0.45199999 9 0 0 0 0.045729998
1.321 0.78100002 0.45300001 8 0 0 0 0.045740001
1.317 0.77600002 0.45199999 8 0 0 0 0.04575
1.3200001 0.77499998 0.45300001 6 0 0 0 0.045759998
1.322 0.77399999 0.45500001 2 0 0 0 0.045770001
1.314 0.76700002 0.45199999 1 0 0 0 0.045779999
1.323 0.76899999 0.456 0 0 0 0 0.045790002
1.308 0.75800002 0.45100001 0 0 0 0 0.0458
1.357 0.78299999 0.46799999 0 0 0 0 0.045809999
1.307 0.75099999 0.45100001 0 0 0 0 0.045820002
1.295 0.74199998 0.447 0 0 0 0 0.04583
1.319 0.75199997 0.456 0 0 0 0 0.045839999
1.3099999 0.74400002 0.45300001 0 0 0 0 0.045850001
1.318 0.74599999 0.456 0 0 0 0 0.04586
1.316 0.741 0.45500001 0 0 0 0 0.045869999
1.353 0.759 0.46799999 0 0 0 0 0.045880001
0 0 0 0 0 0 0 0.04589
0 0 0 0 0 0 0 0.045899998
1.362 0.755 0.47099999 0 0 0 0 0.045910001
1.383 0.76300001 0.47799999 0 0 0 0 0.045919999
0 0 0 0 0 0 0 0.045929998
1.299 0.70999998 0.449 0 0 0 0 0.045940001
1.307 0.71100003 0.45100001 0 0 0 0 0.045949999
1.3099999 0.70899999 0.45199999 1 0 0 0 0.045960002
1.271 0.685 0.43799999 1 0 0 0 0.04597
0 0 0 0 0 0 0 0.045979999
0 0 0 0 0 0 0 0.045990001
0 0 0 0 0 0 0 0.046
0.91100001 0.48100001 0.31299999 0 0 0 0 0.046009999
0.90200001 0.47400001 0.30899999 7 0 0 0 0.046020001
0.89999998 0.47 0.308 17 0 0 0 0.04603
0.89700001 0.46599999 0.30700001 27 0 0 0 0.046039999
0.89700001 0.46399999 0.30599999 28 0 0 0 0.046050001
0.89499998 0.461 0.30500001 22 0 0 0 0.04606
0.89999998 0.46000001 0.30599999 13 0 0 0 0.046069998
0.90399998 0.46000001 0.30700001 6 0 0 0 0.046080001
0.91500002 0.463 0.31 0 0 0 0 0.046089999
0.91799998 0.46200001 0.31099999 0 0 0 0 0.046100002
0.91799998 0.45899999 0.31 0 0 0 0 0.04611
0.93000001 0.463 0.31400001 0 0 0 0 0.046119999
0.94199997 0.46599999 0.317 0 0 0 0 0.046130002
0.94999999 0.46700001 0.31900001 0 0 0 0 0.04614
0.95599997 0.46700001 0.31999999 0 0 0 0 0.046149999
0.95899999 0.46599999 0.32100001 0 0 0 0 0.046160001
0.972 0.46900001 0.324 0 0 0 0 0.04617
0.977 0.46900001 0.32499999 0 0 0 0 0.046179999
0.98500001 0.47 0.32699999 0 0 0 0 0.046190001
0.99000001 0.46900001 0.32800001 0 0 0 0 0.0462
0.99599999 0.46900001 0.329 0 0 0 0 0.046209998
1.0039999 0.47 0.331 0 0 0 0 0.046220001
1.008 0.46900001 0.331 0 0 0 0 0.04623
1.016 0.47 0.333 0 0 0 0 0.046239998
1.026 0.47099999 0.33500001 0 0 0 0 0.046250001
1.0319999 0.47099999 0.336 0 0 0 0 0.046259999
1.04 0.47099999 0.33700001 0 0 0 0 0.046270002
1.05 0.47299999 0.34 0 0 0 0 0.04628
1.057 0.47299999 0.34099999 0 0 0 0 0.046289999
1.066 0.47400001 0.34299999 0 0 0 0 0.046300001
1.0700001 0.472 0.34299999 0 0 0 0 0.04631
1.079 0.47299999 0.34400001 0 0 0 0 0.046319999
1.089 0.47400001 0.34599999 0 0 0 0 0.046330001
1.098 0.47400001 0.34799999 0 0 0 0 0.04634
1.107 0.47499999 0.34999999 0 0 0 0 0.046349999
1.119 0.477 0.352 0 0 0 0 0.046360001
1.126 0.47600001 0.35299999 0 0 0 0 0.04637
1.1390001 0.47799999 0.35600001 0 0 0 0 0.046379998
1.148 0.479 0.35699999 0 0 0 0 0.046390001
1.159 0.47999999 0.359 0 0 0 0 0.046399999
1.163 0.47799999 0.359 0 0 0 0 0.046410002
1.179 0.48100001 0.36199999 0 0 0 0 0.04642
1.187 0.48100001 0.36300001 0 0 0 0 0.046429999
1.2029999 0.48300001 0.366 0 0 0 0 0.046440002
1.227 0.48899999 0.37200001 0 0 0 0 0.04645
1.222 0.484 0.36899999 92 0 0 0 0.046459999
1.258 0.49399999 0.37799999 11 0 0 0 0.046470001
1.283 0.5 0.384 39 0 0 0 0.04648
1.255 0.48500001 0.373 150 0 0 0 0.046489999
1.252 0.47999999 0.37099999 150 0 0 0 0.046500001
1.2539999 0.477 0.36899999 150 0 0 0 0.04651
1.274 0.48100001 0.37400001 150 0 0 0 0.046519998
1.27 0.47600001 0.37099999 150 0 0 0 0.046530001
1.272 0.472 0.36899999 150 0 0 0 0.04654
1.274 0.46900001 0.368 150 0 0 0 0.046549998
1.272 0.465 0.36500001 150 0 0 0 0.046560001
1.273 0.461 0.36399999 150 0 0 0 0.046569999
1.272 0.45699999 0.361 150 0 0 0 0.046580002
1.276 0.45500001 0.36000001 150 0 0 0 0.04659
1.277 0.45100001 0.359 150 0 0 0 0.046599999
1.275 0.447 0.35600001 150 0 0 0 0.046610001
1.284 0.44600001 0.35699999 139 0 0 0 0.04662
1.313 0.45199999 0.36300001 31 0 0 0 0.046629999
1.334 0.45500001 0.366 9 0 0 0 0.046640001
1.353 0.458 0.36899999 8 0 0 0 0.04665
1.364 0.45699999 0.37 8 0 0 0 0.046659999
1.381 0.45899999 0.37200001 8 0 0 0 0.046670001
1.398 0.461 0.375 8 0 0 0 0.04668
1.414 0.46200001 0.37599999 8 0 0 0 0.046689998
1.428 0.46200001 0.37799999 9 0 0 0 0.046700001
1.449 0.46399999 0.38100001 9 0 0 0 0.046709999
1.465 0.465 0.38299999 10 0 0 0 0.046720002
1.48 0.46599999 0.384 10 0 0 0 0.046730001
1.495 0.46599999 0.38499999 0 0 0 0 0.046739999
1.493 0.461 0.382 6 0 0 0 0.046750002
1.499 0.45899999 0.38100001 0 0 0 0 0.04676
4.0149999 1.217 1.0140001 59 0 0 0 0.046769999
4.0180001 1.206 1.007 57 0 0 0 0.046780001
4.013 1.193 0.99900001 54 0 0 0 0.04679
0 0 0 0 0 0 0 0.046799999
0 0 0 0 0 0 0 0.046810001
0 0 0 0 0 0 0 0.04682
2.2360001 0.639 0.54000002 151 0 0 0 0.046829998
2.234 0.63099998 0.53600001 151 0 0 0 0.046840001
2.2360001 0.62599999 0.53200001 151 0 0 0 0.04685
2.2320001 0.61799997 0.52700001 151 0 0 0 0.046859998
2.2349999 0.61299998 0.52399999 151 0 0 0 0.046870001
2.233 0.60600001 0.51899999 151 0 0 0 0.046879999
2.2260001 0.597 0.51300001 151 0 0 0 0.046890002
2.223 0.58999997 0.50800002 151 0 0 0 0.0469
2.2279999 0.58499998 0.505 151 0 0 0 0.046909999
2.2249999 0.57800001 0.5 151 0 0 0 0.046920002
2.227 0.57300001 0.49599999 151 0 0 0 0.04693
2.224 0.56599998 0.49200001 150 0 0 0 0.046939999
2.224 0.55900002 0.48699999 151 0 0 0 0.046950001
2.224 0.55299997 0.48300001 151 0 0 0 0.04696
2.2260001 0.54699999 0.479 150 0 0 0 0.046969999
2.2279999 0.542 0.47499999 150 0 0 0 0.046980001
2.233 0.537 0.472 150 0 0 0 0.04699
2.2550001 0.53600001 0.472 151 0 0 0 0.046999998
2.253 0.52899998 0.46700001 151 0 0 0 0.047010001
2.2550001 0.523 0.463 151 0 0 0 0.047019999
2.2590001 0.51800001 0.45899999 150 0 0 0 0.047029998
2.276 0.51599997 0.45899999 54 0 0 0 0.047040001
2.3429999 0.52399999 0.46700001 14 0 0 0 0.047049999
2.388 0.528 0.472 14 0 0 0 0.047060002
2.428 0.52999997 0.47499999 14 0 0 0 0.04707
2.4760001 0.53399998 0.479 15 0 0 0 0.047079999
2.533 0.53899997 0.48500001 17 0 0 0 0.047090001
2.586 0.54400003 0.49000001 19 0 0 0 0.0471
2.642 0.54799998 0.495 20 0 0 0 0.047109999
2.6960001 0.55199999 0.5 21 0 0 0 0.047120001
2.7590001 0.55800003 0.50599998 22 0 0 0 0.04713
2.8269999 0.56400001 0.51300001 22 0 0 0 0.047139999
2.8840001 0.56800002 0.51700002 22 0 0 0 0.047150001
2.9530001 0.57300001 0.52399999 23 0 0 0 0.04716
3.026 0.57999998 0.52999997 24 0 0 0 0.047169998
3.1029999 0.58600003 0.53799999 24 0 0 0 0.047180001
3.161 0.58899999 0.54100001 24 0 0 0 0.047189999
3.2160001 0.59100002 0.54400003 25 0 0 0 0.047200002
3.266 0.59100002 0.546 30 0 0 0 0.04721
3.2809999 0.58499998 0.54100001 150 0 0 0 0.047219999
3.2869999 0.57800001 0.53500003 150 0 0 0 0.047230002
3.2850001 0.56900001 0.528 150 0 0 0 0.04724
3.2850001 0.56 0.52100003 150 0 0 0 0.047249999
3.286 0.55199999 0.51499999 150 0 0 0 0.047260001
3.2920001 0.54400003 0.509 150 0 0 0 0.04727
3.3150001 0.54000002 0.505 150 0 0 0 0.047279999
3.319 0.53200001 0.49900001 151 0 0 0 0.047290001
3.319 0.523 0.49200001 150 0 0 0 0.0473
