# .PCD v0.7 - Point Cloud Data file format
VERSION 0.7
FIELDS x y z intensity normal_x normal_y normal_z curvature
SIZE 4 4 4 4 4 4 4 4
TYPE F F F F F F F F
COUNT 1 1 1 1 1 1 1 1
WIDTH 1098
HEIGHT 1
VIEWPOINT 0 0 0 1 0 0 0
POINTS 1098
DATA ascii
4.1789999 -1.3839999 1.568 19 0 0 0 0.02499
4.1550002 -1.387 1.567 19 0 0 0 0.025
4.1230001 -1.388 1.563 19 0 0 0 0.025010001
4.0970001 -1.39 1.561 19 0 0 0 0.02502
4.0710001 -1.393 1.559 19 0 0 0 0.02503
4.0339999 -1.391 1.552 19 0 0 0 0.025040001
4.02 -1.397 1.554 19 0 0 0 0.025049999
3.993 -1.399 1.551 19 0 0 0 0.02506
3.964 -1.4 1.5470001 19 0 0 0 0.02507
3.9389999 -1.402 1.544 19 0 0 0 0.025079999
3.9119999 -1.403 1.541 19 0 0 0 0.02509
3.885 -1.404 1.5369999 19 0 0 0 0.0251
3.8599999 -1.405 1.533 19 0 0 0 0.025110001
3.8399999 -1.408 1.5319999 20 0 0 0 0.025119999
3.809 -1.408 1.526 19 0 0 0 0.02513
3.7820001 -1.408 1.522 19 0 0 0 0.025140001
3.7590001 -1.409 1.5190001 19 0 0 0 0.025149999
3.737 -1.411 1.516 19 0 0 0 0.02516
3.7130001 -1.413 1.512 20 0 0 0 0.02517
3.6889999 -1.414 1.508 20 0 0 0 0.025180001
3.665 -1.414 1.5039999 19 0 0 0 0.025189999
3.6429999 -1.416 1.501 19 0 0 0 0.0252
3.6199999 -1.4170001 1.497 20 0 0 0 0.025210001
3.598 -1.419 1.493 20 0 0 0 0.025219999
3.576 -1.419 1.489 20 0 0 0 0.02523
3.559 -1.423 1.487 19 0 0 0 0.02524
3.539 -1.424 1.484 19 0 0 0 0.025250001
3.516 -1.424 1.479 21 0 0 0 0.02526
3.4949999 -1.425 1.475 21 0 0 0 0.02527
3.4809999 -1.429 1.474 21 0 0 0 0.025280001
3.4590001 -1.4299999 1.469 21 0 0 0 0.025289999
3.441 -1.431 1.466 22 0 0 0 0.0253
3.4230001 -1.433 1.4630001 23 0 0 0 0.02531
3.404 -1.434 1.459 23 0 0 0 0.025319999
3.3870001 -1.436 1.456 25 0 0 0 0.02533
3.3710001 -1.438 1.4529999 27 0 0 0 0.02534
3.3510001 -1.439 1.448 27 0 0 0 0.025350001
3.346 -1.4450001 1.45 28 0 0 0 0.025359999
3.3329999 -1.449 1.448 31 0 0 0 0.02537
3.329 -1.456 1.45 31 0 0 0 0.02538
3.326 -1.4630001 1.451 30 0 0 0 0.025389999
3.3150001 -1.467 1.45 28 0 0 0 0.0254
3.3 -1.469 1.447 30 0 0 0 0.02541
3.3069999 -1.48 1.4529999 30 0 0 0 0.025420001
3.29 -1.4809999 1.449 30 0 0 0 0.025429999
3.2869999 -1.488 1.45 30 0 0 0 0.02544
3.283 -1.495 1.451 30 0 0 0 0.025450001
3.276 -1.5 1.451 29 0 0 0 0.025459999
3.266 -1.503 1.449 27 0 0 0 0.02547
3.267 -1.512 1.452 29 0 0 0 0.02548
3.2590001 -1.516 1.451 27 0 0 0 0.025490001
3.2550001 -1.523 1.451 27 0 0 0 0.0255
3.2520001 -1.529 1.452 27 0 0 0 0.02551
3.2490001 -1.536 1.4529999 27 0 0 0 0.025520001
3.2449999 -1.5420001 1.4529999 27 0 0 0 0.025529999
3.2420001 -1.548 1.4529999 26 0 0 0 0.02554
3.2349999 -1.552 1.452 25 0 0 0 0.02555
3.2320001 -1.558 1.452 25 0 0 0 0.025560001
3.233 -1.566 1.454 27 0 0 0 0.02557
3.227 -1.571 1.452 25 0 0 0 0.02558
3.227 -1.5779999 1.454 27 0 0 0 0.025590001
3.2249999 -1.584 1.454 27 0 0 0 0.025599999
3.221 -1.59 1.4529999 26 0 0 0 0.02561
3.22 -1.596 1.4529999 26 0 0 0 0.02562
3.2190001 -1.603 1.454 26 0 0 0 0.025629999
3.2160001 -1.608 1.4529999 27 0 0 0 0.02564
3.214 -1.614 1.4529999 26 0 0 0 0.02565
3.221 -1.625 1.456 27 0 0 0 0.025660001
3.2190001 -1.63 1.455 26 0 0 0 0.025669999
3.2179999 -1.636 1.455 28 0 0 0 0.02568
3.2190001 -1.643 1.456 29 0 0 0 0.025690001
3.217 -1.649 1.454 27 0 0 0 0.025699999
3.217 -1.655 1.454 27 0 0 0 0.02571
3.223 -1.665 1.457 28 0 0 0 0.02572
3.223 -1.67 1.456 27 0 0 0 0.025730001
3.223 -1.676 1.456 27 0 0 0 0.025739999
3.2219999 -1.682 1.455 27 0 0 0 0.02575
3.227 -1.6900001 1.456 26 0 0 0 0.025760001
3.2320001 -1.698 1.457 26 0 0 0 0.025769999
3.2379999 -1.707 1.459 27 0 0 0 0.02578
3.286 -1.738 1.48 56 0 0 0 0.02579
3.336 -1.77 1.5 62 0 0 0 0.025800001
3.3829999 -1.8 1.52 62 0 0 0 0.02581
3.4059999 -1.818 1.529 40 0 0 0 0.02582
3.418 -1.83 1.533 32 0 0 0 0.025830001
3.425 -1.839 1.534 34 0 0 0 0.025839999
3.425 -1.844 1.531 32 0 0 0 0.02585
3.4319999 -1.852 1.5319999 32 0 0 0 0.02586
3.438 -1.86 1.533 34 0 0 0 0.025869999
3.441 -1.867 1.5319999 31 0 0 0 0.02588
3.45 -1.876 1.533 33 0 0 0 0.02589
3.4579999 -1.885 1.534 33 0 0 0 0.025900001
3.4619999 -1.891 1.533 30 0 0 0 0.025909999
3.47 -1.9 1.534 32 0 0 0 0.02592
3.4749999 -1.9069999 1.533 31 0 0 0 0.02593
3.4790001 -1.913 1.531 28 0 0 0 0.025939999
3.4890001 -1.9220001 1.5319999 30 0 0 0 0.02595
3.4960001 -1.929 1.5319999 30 0 0 0 0.02596
3.503 -1.936 1.531 28 0 0 0 0.025970001
3.5139999 -1.946 1.5319999 28 0 0 0 0.025979999
3.523 -1.954 1.5319999 27 0 0 0 0.02599
3.5320001 -1.962 1.5319999 27 0 0 0 0.026000001
3.54 -1.969 1.531 28 0 0 0 0.026009999
3.552 -1.979 1.5319999 28 0 0 0 0.02602
3.563 -1.987 1.5319999 27 0 0 0 0.02603
3.573 -1.995 1.5319999 26 0 0 0 0.026040001
3.5880001 -2.006 1.534 27 0 0 0 0.02605
3.592 -2.01 1.531 26 0 0 0 0.02606
3.609 -2.0209999 1.533 27 0 0 0 0.026070001
3.6259999 -2.033 1.535 27 0 0 0 0.026079999
3.6289999 -2.036 1.531 27 0 0 0 0.02609
3.6470001 -2.0480001 1.533 27 0 0 0 0.0261
3.658 -2.0550001 1.5319999 26 0 0 0 0.026110001
3.6730001 -2.0650001 1.533 26 0 0 0 0.02612
3.6849999 -2.073 1.5319999 27 0 0 0 0.02613
3.698 -2.0810001 1.5319999 26 0 0 0 0.026140001
3.7130001 -2.0899999 1.5319999 25 0 0 0 0.026149999
3.7320001 -2.1010001 1.534 26 0 0 0 0.02616
3.7420001 -2.1070001 1.5319999 25 0 0 0 0.02617
3.7579999 -2.1159999 1.5319999 25 0 0 0 0.026179999
3.773 -2.1240001 1.5319999 26 0 0 0 0.02619
3.7909999 -2.1340001 1.5319999 24 0 0 0 0.0262
3.803 -2.1400001 1.53 26 0 0 0 0.026210001
3.822 -2.151 1.531 25 0 0 0 0.026219999
3.842 -2.161 1.5319999 24 0 0 0 0.02623
3.8599999 -2.1700001 1.5319999 24 0 0 0 0.026240001
3.878 -2.1789999 1.5319999 24 0 0 0 0.026249999
3.8940001 -2.187 1.531 24 0 0 0 0.02626
3.9119999 -2.1960001 1.531 24 0 0 0 0.02627
3.9349999 -2.207 1.5319999 24 0 0 0 0.026280001
3.9579999 -2.2179999 1.534 23 0 0 0 0.026289999
3.977 -2.2260001 1.533 23 0 0 0 0.0263
3.997 -2.2349999 1.533 23 0 0 0 0.026310001
4.013 -2.2420001 1.531 23 0 0 0 0.026319999
4.0359998 -2.2520001 1.5319999 24 0 0 0 0.02633
4.0599999 -2.263 1.5319999 24 0 0 0 0.02634
4.085 -2.2739999 1.533 25 0 0 0 0.026350001
4.0970001 -2.277 1.529 25 0 0 0 0.02636
4.1269999 -2.2909999 1.5319999 25 0 0 0 0.02637
4.1500001 -2.3 1.5319999 25 0 0 0 0.026380001
2.5050001 -1.386 0.91900003 0 0 0 0 0.026389999
4.2020001 -2.3210001 1.533 25 0 0 0 0.0264
2.5009999 -1.3789999 0.90700001 0 0 0 0 0.02641
4.2480001 -2.3380001 1.531 25 0 0 0 0.026419999
4.2789998 -2.3510001 1.533 25 0 0 0 0.02643
4.3119998 -2.3640001 1.536 25 0 0 0 0.02644
4.336 -2.372 1.535 25 0 0 0 0.026450001
4.3699999 -2.3859999 1.5369999 25 0 0 0 0.026459999
4.3990002 -2.3959999 1.538 25 0 0 0 0.02647
4.4229999 -2.404 1.536 25 0 0 0 0.02648
4.4489999 -2.4130001 1.535 25 0 0 0 0.026489999
2.4779999 -1.34 0.84899998 0 0 0 0 0.0265
4.5139999 -2.4349999 1.5369999 25 0 0 0 0.02651
2.4430001 -1.3150001 0.82700002 0 0 0 0 0.026520001
4.573 -2.4549999 1.5369999 26 0 0 0 0.026529999
4.6100001 -2.4679999 1.539 26 0 0 0 0.02654
4.6440001 -2.4790001 1.54 26 0 0 0 0.026550001
4.6799998 -2.4909999 1.541 29 0 0 0 0.026559999
4.704 -2.497 1.538 35 0 0 0 0.02657
4.7179999 -2.497 1.5319999 38 0 0 0 0.02658
4.7199998 -2.49 1.521 38 0 0 0 0.026590001
4.7199998 -2.4820001 1.511 35 0 0 0 0.0266
4.717 -2.473 1.499 33 0 0 0 0.02661
4.717 -2.4649999 1.488 33 0 0 0 0.026620001
4.7189999 -2.4579999 1.478 35 0 0 0 0.026629999
4.7179999 -2.4489999 1.467 29 0 0 0 0.02664
4.7210002 -2.4419999 1.457 30 0 0 0 0.02665
4.7150002 -2.4300001 1.444 30 0 0 0 0.026660001
4.717 -2.4219999 1.434 29 0 0 0 0.02667
4.7179999 -2.414 1.423 30 0 0 0 0.02668
2.464 -1.256 0.73699999 0 0 0 0 0.026690001
2.4530001 -1.2460001 0.72799999 0 0 0 0 0.026699999
4.711 -2.3829999 1.388 30 0 0 0 0.02671
4.711 -2.3740001 1.377 30 0 0 0 0.02672
4.7080002 -2.3629999 1.3660001 31 0 0 0 0.026729999
2.54 -1.27 0.73100001 0 0 0 0 0.02674
4.7090001 -2.3440001 1.344 30 0 0 0 0.02675
4.7030001 -2.3310001 1.331 31 0 0 0 0.026760001
4.7020001 -2.3210001 1.3200001 31 0 0 0 0.026769999
4.7020001 -2.3110001 1.309 33 0 0 0 0.02678
4.6719999 -2.286 1.29 136 0 0 0 0.02679
3.9219999 -1.91 1.074 151 0 0 0 0.026799999
3.688 -1.788 1.002 57 0 0 0 0.02681
3.6819999 -1.777 0.99199998 56 0 0 0 0.02682
3.6860001 -1.771 0.98400003 56 0 0 0 0.026830001
3.687 -1.763 0.97600001 56 0 0 0 0.026839999
3.687 -1.7539999 0.96799999 56 0 0 0 0.02685
3.6860001 -1.745 0.95899999 56 0 0 0 0.026860001
3.6860001 -1.737 0.95099998 56 0 0 0 0.026869999
3.6849999 -1.728 0.94199997 56 0 0 0 0.02688
3.6830001 -1.7180001 0.93400002 56 0 0 0 0.02689
3.6789999 -1.7079999 0.92400002 56 0 0 0 0.026900001
3.6800001 -1.699 0.91600001 55 0 0 0 0.02691
3.6800001 -1.6900001 0.90799999 56 0 0 0 0.02692
3.6819999 -1.682 0.89999998 55 0 0 0 0.026930001
3.675 -1.67 0.89099997 55 0 0 0 0.026939999
3.6789999 -1.663 0.884 55 0 0 0 0.02695
3.6719999 -1.65 0.87400001 57 0 0 0 0.02696
3.677 -1.643 0.86699998 55 0 0 0 0.026969999
3.6800001 -1.636 0.86000001 57 0 0 0 0.02698
3.675 -1.624 0.85000002 58 0 0 0 0.02699
3.6730001 -1.614 0.84200001 56 0 0 0 0.027000001
3.674 -1.605 0.83399999 56 0 0 0 0.027009999
3.674 -1.596 0.82599998 55 0 0 0 0.02702
3.6719999 -1.585 0.81800002 58 0 0 0 0.02703
3.6719999 -1.576 0.81 58 0 0 0 0.027039999
3.668 -1.564 0.801 57 0 0 0 0.02705
3.6689999 -1.5549999 0.79400003 58 0 0 0 0.02706
3.6730001 -1.5470001 0.787 57 0 0 0 0.027070001
3.6689999 -1.536 0.778 58 0 0 0 0.027079999
3.6659999 -1.525 0.76999998 52 0 0 0 0.02709
3.6630001 -1.5140001 0.76200002 52 0 0 0 0.027100001
3.6670001 -1.505 0.755 48 0 0 0 0.027109999
3.665 -1.495 0.74699998 35 0 0 0 0.02712
3.684 -1.492 0.74299997 15 0 0 0 0.02713
3.7290001 -1.501 0.745 9 0 0 0 0.027140001
3.7609999 -1.503 0.74299997 8 0 0 0 0.02715
3.802 -1.5089999 0.74299997 9 0 0 0 0.02716
3.8369999 -1.513 0.74299997 8 0 0 0 0.027170001
3.881 -1.5190001 0.74299997 8 0 0 0 0.027179999
3.9230001 -1.525 0.74400002 9 0 0 0 0.02719
3.96 -1.528 0.74299997 8 0 0 0 0.0272
4.0040002 -1.535 0.74299997 8 0 0 0 0.027210001
4.0440001 -1.539 0.74299997 8 0 0 0 0.02722
4.0890002 -1.544 0.74299997 8 0 0 0 0.02723
4.1360002 -1.55 0.74299997 9 0 0 0 0.027240001
0 0 0 0 0 0 0 0.027249999
4.2290001 -1.562 0.74299997 9 0 0 0 0.02726
4.2750001 -1.567 0.74299997 9 0 0 0 0.02727
0 0 0 0 0 0 0 0.027279999
0 0 0 0 0 0 0 0.02729
0 0 0 0 0 0 0 0.0273
0 0 0 0 0 0 0 0.027310001
0 0 0 0 0 0 0 0.027319999
0 0 0 0 0 0 0 0.02733
0 0 0 0 0 0 0 0.02734
0 0 0 0 0 0 0 0.027349999
0 0 0 0 0 0 0 0.02736
0 0 0 0 0 0 0 0.02737
0 0 0 0 0 0 0 0.027380001
0 0 0 0 0 0 0 0.027389999
0 0 0 0 0 0 0 0.0274
0 0 0 0 0 0 0 0.027410001
0 0 0 0 0 0 0 0.027419999
0 0 0 0 0 0 0 0.02743
0 0 0 0 0 0 0 0.02744
0 0 0 0 0 0 0 0.027450001
0 0 0 0 0 0 0 0.02746
0 0 0 0 0 0 0 0.02747
0 0 0 0 0 0 0 0.027480001
0 0 0 0 0 0 0 0.027489999
0 0 0 0 0 0 0 0.0275
0 0 0 0 0 0 0 0.02751
0 0 0 0 0 0 0 0.027519999
0 0 0 0 0 0 0 0.02753
0 0 0 0 0 0 0 0.02754
0 0 0 0 0 0 0 0.027550001
0 0 0 0 0 0 0 0.027559999
0 0 0 0 0 0 0 0.02757
0 0 0 0 0 0 0 0.02758
0 0 0 0 0 0 0 0.027589999
0 0 0 0 0 0 0 0.0276
0 0 0 0 0 0 0 0.02761
0 0 0 0 0 0 0 0.027620001
2.4349999 -0.63700002 0.26899999 0 0 0 0 0.027629999
2.402 -0.62099999 0.26199999 0 0 0 0 0.02764
2.4070001 -0.61500001 0.25799999 0 0 0 0 0.027650001
2.4100001 -0.60900003 0.255 0 0 0 0 0.027659999
0 0 0 0 0 0 0 0.02767
0 0 0 0 0 0 0 0.02768
0 0 0 0 0 0 0 0.027690001
0 0 0 0 0 0 0 0.0277
0 0 0 0 0 0 0 0.02771
0 0 0 0 0 0 0 0.027720001
0 0 0 0 0 0 0 0.027729999
0 0 0 0 0 0 0 0.02774
0 0 0 0 0 0 0 0.02775
0 0 0 0 0 0 0 0.027760001
0 0 0 0 0 0 0 0.02777
0 0 0 0 0 0 0 0.02778
0 0 0 0 0 0 0 0.027790001
0 0 0 0 0 0 0 0.027799999
0 0 0 0 0 0 0 0.02781
0 0 0 0 0 0 0 0.02782
0 0 0 0 0 0 0 0.027829999
0 0 0 0 0 0 0 0.02784
0 0 0 0 0 0 0 0.02785
0 0 0 0 0 0 0 0.027860001
0 0 0 0 0 0 0 0.027869999
0 0 0 0 0 0 0 0.02788
0 0 0 0 0 0 0 0.02789
0 0 0 0 0 0 0 0.027899999
0 0 0 0 0 0 0 0.02791
0 0 0 0 0 0 0 0.02792
2.4260001 -0.417 0.161 0 0 0 0 0.027930001
2.4230001 -0.40900001 0.15800001 0 0 0 0 0.027939999
2.408 -0.39899999 0.153 0 0 0 0 0.02795
2.4070001 -0.39199999 0.15000001 0 0 0 0 0.027960001
2.3729999 -0.37900001 0.145 0 0 0 0 0.027969999
2.444 -0.38299999 0.146 0 0 0 0 0.02798
2.411 -0.37099999 0.141 0 0 0 0 0.02799
2.4059999 -0.36300001 0.13699999 0 0 0 0 0.028000001
2.381 -0.352 0.133 0 0 0 0 0.02801
2.3740001 -0.34400001 0.12899999 0 0 0 0 0.02802
2.365 -0.33500001 0.126 0 0 0 0 0.028030001
2.3800001 -0.33000001 0.124 1 0 0 0 0.028039999
2.3759999 -0.322 0.12 7 0 0 0 0.02805
2.3829999 -0.31600001 0.118 15 0 0 0 0.02806
2.424 -0.31400001 0.117 15 0 0 0 0.028069999
2.474 -0.31299999 0.116 19 0 0 0 0.02808
2.529 -0.31200001 0.115 21 0 0 0 0.02809
2.5599999 -0.30899999 0.114 18 0 0 0 0.028100001
2.891 -0.34 0.125 150 0 0 0 0.028109999
3.2079999 -0.36700001 0.134 150 0 0 0 0.02812
3.2090001 -0.35800001 0.131 150 0 0 0 0.02813
3.21 -0.34799999 0.127 150 0 0 0 0.028139999
3.21 -0.338 0.123 150 0 0 0 0.02815
3.2090001 -0.329 0.119 150 0 0 0 0.02816
3.2119999 -0.31900001 0.115 150 0 0 0 0.028170001
3.24 -0.31200001 0.112 151 0 0 0 0.028179999
3.2360001 -0.30199999 0.108 150 0 0 0 0.02819
3.237 -0.292 0.104 150 0 0 0 0.028200001
3.2379999 -0.28200001 0.101 150 0 0 0 0.028209999
3.2309999 -0.27200001 0.097000003 150 0 0 0 0.02822
3.2360001 -0.26300001 0.093000002 151 0 0 0 0.02823
3.3199999 -0.259 0.092 34 0 0 0 0.028240001
3.349 -0.25099999 0.088 151 0 0 0 0.02825
3.3410001 -0.241 0.083999999 150 0 0 0 0.02826
3.346 -0.23100001 0.081 151 0 0 0 0.028270001
3.346 -0.221 0.077 151 0 0 0 0.028279999
3.3499999 -0.211 0.072999999 150 0 0 0 0.02829
3.369 -0.20200001 0.07 151 0 0 0 0.0283
3.3699999 -0.192 0.066 151 0 0 0 0.028310001
3.3740001 -0.18099999 0.061999999 150 0 0 0 0.02832
3.4260001 -0.17399999 0.059 153 0 0 0 0.02833
3.437 -0.164 0.056000002 151 0 0 0 0.028340001
3.431 -0.153 0.052000001 150 0 0 0 0.028349999
3.4330001 -0.14300001 0.048 150 0 0 0 0.02836
3.434 -0.132 0.045000002 150 0 0 0 0.02837
3.4319999 -0.122 0.041000001 150 0 0 0 0.028379999
3.4319999 -0.111 0.037 150 0 0 0 0.02839
3.431 -0.101 0.033 150 0 0 0 0.0284
3.4260001 -0.090000004 0.029999999 150 0 0 0 0.028410001
3.4300001 -0.079999998 0.026000001 150 0 0 0 0.028419999
3.427 -0.068999998 0.023 150 0 0 0 0.02843
3.427 -0.059 0.018999999 150 0 0 0 0.02844
3.424 -0.048 0.015 150 0 0 0 0.028449999
3.424 -0.037 0.012 150 0 0 0 0.02846
3.4230001 -0.027000001 0.0080000004 150 0 0 0 0.02847
3.4189999 -0.016000001 0.0049999999 150 0 0 0 0.028480001
3.4189999 -0.0060000001 0.001 150 0 0 0 0.028489999
3.4189999 0.0040000002 -0.001 151 0 0 0 0.0285
3.421 0.014 -0.0049999999 151 0 0 0 0.028510001
3.418 0.025 -0.0080000004 151 0 0 0 0.028519999
3.4159999 0.035 -0.012 151 0 0 0 0.02853
3.4230001 0.046 -0.015 152 0 0 0 0.02854
3.4230001 0.056000002 -0.017999999 152 0 0 0 0.028550001
3.4119999 0.067000002 -0.022 153 0 0 0 0.02856
3.404 0.077 -0.025 153 0 0 0 0.02857
3.4030001 0.086999997 -0.028000001 153 0 0 0 0.028580001
3.398 0.097999997 -0.032000002 153 0 0 0 0.028589999
3.3870001 0.108 -0.035 154 0 0 0 0.0286
3.382 0.118 -0.037999999 155 0 0 0 0.02861
3.3829999 0.12899999 -0.041000001 155 0 0 0 0.028620001
3.3789999 0.139 -0.044 155 0 0 0 0.02863
3.3710001 0.149 -0.048 157 0 0 0 0.02864
3.3640001 0.15899999 -0.050999999 158 0 0 0 0.028650001
3.362 0.169 -0.054000001 158 0 0 0 0.028659999
3.3640001 0.18000001 -0.057 158 0 0 0 0.02867
3.3599999 0.19 -0.059999999 158 0 0 0 0.02868
3.355 0.2 -0.063000001 159 0 0 0 0.028689999
3.3610001 0.211 -0.066 161 0 0 0 0.0287
3.359 0.222 -0.068999998 161 0 0 0 0.02871
3.358 0.23199999 -0.071999997 161 0 0 0 0.028720001
3.358 0.243 -0.075000003 162 0 0 0 0.028729999
3.3540001 0.25299999 -0.078000002 163 0 0 0 0.02874
3.3469999 0.26300001 -0.081 162 0 0 0 0.028750001
3.3510001 0.27399999 -0.083999999 162 0 0 0 0.028759999
3.3540001 0.28400001 -0.086999997 162 0 0 0 0.02877
3.3499999 0.294 -0.090000004 160 0 0 0 0.02878
3.3510001 0.30500001 -0.093000002 159 0 0 0 0.028790001
3.3510001 0.31600001 -0.096000001 160 0 0 0 0.0288
3.352 0.32600001 -0.098999999 158 0 0 0 0.02881
3.355 0.33700001 -0.101 158 0 0 0 0.028820001
3.355 0.34799999 -0.104 157 0 0 0 0.028829999
3.3529999 0.35800001 -0.107 157 0 0 0 0.02884
3.3610001 0.36899999 -0.11 156 0 0 0 0.02885
3.3629999 0.38 -0.113 155 0 0 0 0.028860001
3.3670001 0.391 -0.116 154 0 0 0 0.02887
3.362 0.40099999 -0.118 154 0 0 0 0.02888
3.3800001 0.414 -0.122 153 0 0 0 0.028890001
3.3829999 0.42500001 -0.125 153 0 0 0 0.028899999
3.388 0.43700001 -0.12800001 152 0 0 0 0.02891
3.3870001 0.447 -0.13 152 0 0 0 0.02892
3.3870001 0.458 -0.133 152 0 0 0 0.028929999
3.3870001 0.46900001 -0.13600001 152 0 0 0 0.02894
3.3800001 0.479 -0.138 152 0 0 0 0.02895
3.3800001 0.48899999 -0.141 151 0 0 0 0.028960001
3.385 0.50099999 -0.14300001 151 0 0 0 0.028969999
3.3599999 0.50800002 -0.145 153 0 0 0 0.02898
3.316 0.51200002 -0.145 151 0 0 0 0.02899
3.319 0.523 -0.148 152 0 0 0 0.028999999
3.3050001 0.53100002 -0.15000001 150 0 0 0 0.02901
3.283 0.53899997 -0.15099999 153 0 0 0 0.02902
3.273 0.54799998 -0.153 154 0 0 0 0.029030001
3.279 0.55900002 -0.156 153 0 0 0 0.029039999
3.2820001 0.56999999 -0.15800001 152 0 0 0 0.02905
3.2679999 0.57800001 -0.16 43 0 0 0 0.029060001
3.23 0.58200002 -0.161 24 0 0 0 0.029069999
3.1760001 0.583 -0.16 24 0 0 0 0.02908
3.099 0.57800001 -0.15800001 24 0 0 0 0.02909
3.017 0.57300001 -0.156 24 0 0 0 0.029100001
2.914 0.56300002 -0.153 23 0 0 0 0.02911
2.865 0.56199998 -0.152 24 0 0 0 0.02912
2.7820001 0.55500001 -0.15000001 23 0 0 0 0.029130001
2.678 0.54299998 -0.146 21 0 0 0 0.029139999
2.592 0.53399998 -0.14300001 19 0 0 0 0.02915
2.5280001 0.52899998 -0.141 17 0 0 0 0.02916
2.4690001 0.52499998 -0.139 17 0 0 0 0.029170001
2.4170001 0.52200001 -0.138 16 0 0 0 0.02918
2.358 0.51700002 -0.13600001 14 0 0 0 0.02919
2.2850001 0.50800002 -0.133 24 0 0 0 0.029200001
2.257 0.509 -0.133 151 0 0 0 0.029209999
2.244 0.514 -0.134 151 0 0 0 0.02922
2.243 0.52100003 -0.13500001 151 0 0 0 0.02923
2.2320001 0.52600002 -0.13500001 150 0 0 0 0.029239999
2.2249999 0.53100002 -0.13600001 150 0 0 0 0.02925
2.223 0.53799999 -0.13699999 150 0 0 0 0.02926
2.227 0.546 -0.139 151 0 0 0 0.029270001
2.2249999 0.55299997 -0.14 151 0 0 0 0.029279999
2.224 0.56 -0.141 151 0 0 0 0.02929
2.223 0.56699997 -0.142 151 0 0 0 0.029300001
2.22 0.574 -0.14300001 150 0 0 0 0.029309999
2.221 0.58200002 -0.145 150 0 0 0 0.02932
2.2249999 0.58999997 -0.146 151 0 0 0 0.02933
2.2290001 0.59799999 -0.147 151 0 0 0 0.029340001
2.2320001 0.60699999 -0.149 151 0 0 0 0.02935
2.2309999 0.61400002 -0.15000001 151 0 0 0 0.02936
2.2290001 0.62099999 -0.15099999 151 0 0 0 0.029370001
2.23 0.62800002 -0.152 151 0 0 0 0.029379999
2.2880001 0.653 -0.15700001 150 0 0 0 0.02939
2.473 0.71399999 -0.171 150 0 0 0 0.0294
2.483 0.72500002 -0.17299999 150 0 0 0 0.029410001
2.4779999 0.73199999 -0.17399999 150 0 0 0 0.02942
2.483 0.741 -0.175 150 0 0 0 0.02943
2.411 0.72799999 -0.171 150 0 0 0 0.029440001
2.289 0.699 -0.163 150 0 0 0 0.029449999
0 0 0 0 0 0 0 0.02946
1.477 0.461 -0.106 1 0 0 0 0.02947
1.4630001 0.461 -0.106 1 0 0 0 0.029479999
1.4349999 0.45699999 -0.104 1 0 0 0 0.02949
1.421 0.458 -0.104 1 0 0 0 0.0295
1.37 0.44600001 -0.101 3 0 0 0 0.029510001
1.3660001 0.449 -0.101 3 0 0 0 0.029519999
1.352 0.449 -0.1 3 0 0 0 0.02953
1.339 0.44999999 -0.1 5 0 0 0 0.02954
1.317 0.447 -0.098999999 29 0 0 0 0.029549999
1.298 0.44400001 -0.097999997 125 0 0 0 0.02956
1.29 0.44600001 -0.097000003 150 0 0 0 0.02957
1.2920001 0.45100001 -0.097999997 150 0 0 0 0.029580001
1.289 0.45500001 -0.097999997 150 0 0 0 0.029589999
1.291 0.46000001 -0.098999999 150 0 0 0 0.0296
1.288 0.463 -0.098999999 150 0 0 0 0.029610001
1.289 0.46700001 -0.098999999 150 0 0 0 0.029619999
1.288 0.472 -0.098999999 150 0 0 0 0.02963
1.2869999 0.47600001 -0.1 150 0 0 0 0.02964
1.285 0.479 -0.1 150 0 0 0 0.029650001
1.2869999 0.484 -0.1 150 0 0 0 0.02966
1.293 0.491 -0.101 60 0 0 0 0.02967
1.285 0.49200001 -0.101 9 0 0 0 0.029680001
1.256 0.486 -0.098999999 0 0 0 0 0.029689999
1.2309999 0.47999999 -0.097000003 4 0 0 0 0.0297
3.3340001 1.312 -0.264 3 0 0 0 0.02971
3.3069999 1.313 -0.26199999 5 0 0 0 0.029720001
3.3099999 1.325 -0.26300001 5 0 0 0 0.02973
3.3039999 1.335 -0.26300001 4 0 0 0 0.02974
3.286 1.3380001 -0.26100001 2 0 0 0 0.029750001
3.2650001 1.341 -0.25999999 2 0 0 0 0.029759999
3.2720001 1.355 -0.26100001 3 0 0 0 0.02977
3.2479999 1.3559999 -0.259 3 0 0 0 0.02978
3.243 1.365 -0.259 2 0 0 0 0.029789999
3.2349999 1.373 -0.259 2 0 0 0 0.0298
3.25 1.39 -0.25999999 3 0 0 0 0.02981
3.22 1.388 -0.25799999 3 0 0 0 0.029820001
3.2079999 1.3940001 -0.257 4 0 0 0 0.029829999
3.211 1.4069999 -0.257 3 0 0 0 0.02984
3.181 1.404 -0.255 1 0 0 0 0.029850001
3.1670001 1.409 -0.25299999 0 0 0 0 0.029859999
3.135 1.405 -0.25099999 1 0 0 0 0.02987
3.1040001 1.402 -0.248 2 0 0 0 0.02988
3.1070001 1.414 -0.248 2 0 0 0 0.029890001
3.0999999 1.421 -0.24699999 2 0 0 0 0.029899999
3.1070001 1.4349999 -0.248 2 0 0 0 0.02991
3.1029999 1.443 -0.24699999 2 0 0 0 0.029920001
3.102 1.4529999 -0.24600001 2 0 0 0 0.029929999
3.0869999 1.457 -0.245 2 0 0 0 0.02994
3.079 1.4630001 -0.244 2 0 0 0 0.02995
3.0610001 1.465 -0.242 2 0 0 0 0.029960001
3.0769999 1.483 -0.242 2 0 0 0 0.02997
3.0450001 1.478 -0.23899999 2 0 0 0 0.02998
3.0510001 1.4910001 -0.23899999 2 0 0 0 0.029990001
3.0469999 1.499 -0.23800001 1 0 0 0 0.029999999
3.075 1.523 -0.23999999 1 0 0 0 0.03001
0.91900003 0.458 -0.071000002 0 0 0 0 0.03002
0.91000003 0.456 -0.07 0 0 0 0 0.030029999
0.91799998 0.463 -0.07 5 0 0 0 0.03004
0.91500002 0.465 -0.07 5 0 0 0 0.03005
0.912 0.46700001 -0.07 5 0 0 0 0.030060001
0.91500002 0.47099999 -0.068999998 4 0 0 0 0.030069999
0.90700001 0.47 -0.068999998 0 0 0 0 0.03008
1.451 0.75700003 -0.109 11 0 0 0 0.03009
3.2679999 1.715 -0.24600001 42 0 0 0 0.030099999
0 0 0 0 0 0 0 0.03011
3.2520001 1.728 -0.242 11 0 0 0 0.03012
3.2539999 1.739 -0.241 11 0 0 0 0.030130001
3.2539999 1.75 -0.23899999 12 0 0 0 0.030139999
3.2490001 1.757 -0.23800001 14 0 0 0 0.03015
3.247 1.767 -0.236 12 0 0 0 0.030160001
3.247 1.777 -0.234 10 0 0 0 0.030169999
3.2550001 1.7920001 -0.233 11 0 0 0 0.03018
3.2550001 1.802 -0.23100001 9 0 0 0 0.03019
3.256 1.813 -0.23 6 0 0 0 0.030200001
3.2579999 1.824 -0.228 3 0 0 0 0.03021
0 0 0 0 0 0 0 0.03022
3.247 1.8380001 -0.22400001 1 0 0 0 0.030230001
3.267 1.859 -0.223 4 0 0 0 0.030239999
1.22 0.69800001 -0.082000002 0 0 0 0 0.03025
3.2620001 1.876 -0.219 12 0 0 0 0.03026
3.2639999 1.887 -0.21699999 14 0 0 0 0.030270001
3.257 1.893 -0.214 11 0 0 0 0.03028
3.2509999 1.898 -0.212 7 0 0 0 0.03029
3.2379999 1.901 -0.20900001 3 0 0 0 0.030300001
0 0 0 0 0 0 0 0.030309999
0 0 0 0 0 0 0 0.03032
0 0 0 0 0 0 0 0.03033
1.089 0.65100002 -0.067000002 1 0 0 0 0.030339999
1.097 0.65899998 -0.066 2 0 0 0 0.03035
1.0930001 0.66000003 -0.064999998 3 0 0 0 0.03036
1.0829999 0.65700001 -0.064000003 1 0 0 0 0.030370001
0 0 0 0 0 0 0 0.030379999
3.217 1.97 -0.185 2 0 0 0 0.03039
3.214 1.977 -0.182 6 0 0 0 0.030400001
3.227 1.994 -0.18000001 10 0 0 0 0.030409999
3.2290001 2.0039999 -0.177 12 0 0 0 0.03042
3.2309999 2.013 -0.17399999 12 0 0 0 0.03043
3.2260001 2.0179999 -0.171 12 0 0 0 0.030440001
0 0 0 0 0 0 0 0.030449999
0 0 0 0 0 0 0 0.03046
1.503 0.95099998 -0.075000003 1 0 0 0 0.030470001
1.406 0.89399999 -0.068999998 0 0 0 0 0.030479999
0 0 0 0 0 0 0 0.03049
1.288 0.82499999 -0.059999999 0 0 0 0 0.0305
0 0 0 0 0 0 0 0.030510001
0 0 0 0 0 0 0 0.03052
0 0 0 0 0 0 0 0.03053
1.424 0.92500001 -0.061000001 0 0 0 0 0.030540001
1.564 1.02 -0.064999998 0 0 0 0 0.030549999
1.665 1.089 -0.068000004 1 0 0 0 0.03056
1.484 0.97399998 -0.059 7 0 0 0 0.03057
1.749 1.152 -0.067000002 2 0 0 0 0.030579999
1.524 1.007 -0.057 0 0 0 0 0.03059
0 0 0 0 0 0 0 0.0306
1.324 0.88 -0.046 3 0 0 0 0.030610001
0 0 0 0 0 0 0 0.030619999
0 0 0 0 0 0 0 0.03063
0 0 0 0 0 0 0 0.03064
0 0 0 0 0 0 0 0.030649999
0 0 0 0 0 0 0 0.03066
0 0 0 0 0 0 0 0.03067
0 0 0 0 0 0 0 0.030680001
0 0 0 0 0 0 0 0.030689999
0 0 0 0 0 0 0 0.0307
0 0 0 0 0 0 0 0.030710001
0 0 0 0 0 0 0 0.030719999
0 0 0 0 0 0 0 0.03073
1.441 0.98900002 -0.027000001 10 0 0 0 0.03074
0 0 0 0 0 0 0 0.030750001
1.401 0.96499997 -0.022 0 0 0 0 0.03076
1.421 0.98100001 -0.021 0 0 0 0 0.03077
1.447 1.001 -0.018999999 0 0 0 0 0.030780001
1.434 0.99299997 -0.017000001 0 0 0 0 0.030789999
1.457 1.011 -0.015 0 0 0 0 0.0308
1.418 0.98500001 -0.013 0 0 0 0 0.03081
1.425 0.99199998 -0.011 1 0 0 0 0.030820001
1.421 0.99000001 -0.0089999996 1 0 0 0 0.03083
1.395 0.97299999 -0.0070000002 1 0 0 0 0.03084
1.39 0.97100002 -0.0049999999 1 0 0 0 0.030850001
1.3890001 0.97100002 -0.003 1 0 0 0 0.030859999
1.391 0.97399998 -0.001 2 0 0 0 0.03087
1.3789999 0.96600002 0 9 0 0 0 0.03088
1.375 0.96399999 0.0020000001 10 0 0 0 0.030889999
1.359 0.954 0.003 11 0 0 0 0.0309
1.318 0.926 0.0049999999 12 0 0 0 0.03091
3.0350001 2.1329999 0.017000001 6 0 0 0 0.030920001
3.0320001 2.1329999 0.021 7 0 0 0 0.030929999
1.0599999 0.74599999 0.0089999996 34 0 0 0 0.03094
1.0369999 0.73000002 0.0099999998 116 0 0 0 0.030950001
1.03 0.72500002 0.011 150 0 0 0 0.030959999
1.012 0.713 0.013 150 0 0 0 0.03097
1.013 0.71399999 0.014 150 0 0 0 0.03098
1.045 0.736 0.016000001 150 0 0 0 0.030990001
1.048 0.73799998 0.017999999 150 0 0 0 0.030999999
1.044 0.736 0.018999999 150 0 0 0 0.03101
1.0650001 0.75 0.021 150 0 0 0 0.031020001
1.095 0.77100003 0.023 49 0 0 0 0.031029999
1.096 0.77100003 0.025 35 0 0 0 0.03104
1.097 0.77200001 0.026000001 41 0 0 0 0.03105
3.0929999 2.1760001 0.079000004 58 0 0 0 0.031060001
3.0480001 2.1429999 0.082000002 7 0 0 0 0.03107
1.298 0.912 0.037 11 0 0 0 0.03108
1.341 0.94199997 0.039999999 10 0 0 0 0.031090001
1.3559999 0.95200002 0.041999999 10 0 0 0 0.031099999
1.3660001 0.95700002 0.044 10 0 0 0 0.03111
1.377 0.96499997 0.046999998 9 0 0 0 0.03112
1.378 0.96399999 0.048 9 0 0 0 0.031129999
1.388 0.97000003 0.050999999 8 0 0 0 0.03114
1.391 0.97100002 0.052999999 6 0 0 0 0.03115
1.398 0.97500002 0.055 1 0 0 0 0.031160001
1.401 0.97600001 0.057 1 0 0 0 0.031169999
1.405 0.977 0.059 1 0 0 0 0.03118
1.41 0.97899997 0.061000001 2 0 0 0 0.03119
1.4170001 0.98199999 0.063000001 2 0 0 0 0.031199999
1.413 0.97799999 0.064999998 2 0 0 0 0.03121
1.414 0.977 0.067000002 2 0 0 0 0.03122
1.415 0.97600001 0.068999998 2 0 0 0 0.031230001
1.42 0.97799999 0.071000002 1 0 0 0 0.031239999
1.415 0.972 0.071999997 1 0 0 0 0.03125
1.419 0.97299999 0.074000001 1 0 0 0 0.031259999
1.4220001 0.97299999 0.075999998 1 0 0 0 0.031270001
1.427 0.97399998 0.078000002 1 0 0 0 0.03128
1.446 0.98500001 0.081 0 0 0 0 0.031289998
1.431 0.97299999 0.082000002 0 0 0 0 0.031300001
1.415 0.95999998 0.082999997 0 0 0 0 0.03131
1.479 1.001 0.088 0 0 0 0 0.031319998
1.5089999 1.018 0.092 0 0 0 0 0.031330001
1.511 1.017 0.093999997 0 0 0 0 0.031339999
1.498 1.006 0.094999999 0 0 0 0 0.031350002
1.454 0.97299999 0.093000002 0 0 0 0 0.03136
1.454 0.97100002 0.094999999 1 0 0 0 0.031369999
1.476 0.98299998 0.097999997 2 0 0 0 0.031380001
1.4809999 0.98299998 0.1 4 0 0 0 0.03139
0 0 0 0 0 0 0 0.031399999
0 0 0 0 0 0 0 0.031410001
0 0 0 0 0 0 0 0.03142
0 0 0 0 0 0 0 0.031429999
0 0 0 0 0 0 0 0.031440001
0 0 0 0 0 0 0 0.03145
1.483 0.96200001 0.111 0 0 0 0 0.031459998
1.35 0.87300003 0.102 0 0 0 0 0.031470001
3.6659999 2.362 0.28200001 18 0 0 0 0.031479999
3.6659999 2.3540001 0.28600001 20 0 0 0 0.031490002
3.6670001 2.345 0.289 20 0 0 0 0.031500001
3.668 2.3369999 0.292 21 0 0 0 0.031509999
3.6630001 2.326 0.29499999 21 0 0 0 0.031520002
3.6700001 2.3199999 0.29899999 23 0 0 0 0.03153
3.6700001 2.312 0.30199999 23 0 0 0 0.031539999
3.6700001 2.302 0.30500001 25 0 0 0 0.031550001
3.668 2.2909999 0.308 25 0 0 0 0.03156
3.6700001 2.283 0.31099999 24 0 0 0 0.031569999
3.6689999 2.273 0.31400001 24 0 0 0 0.031580001
3.671 2.2650001 0.317 25 0 0 0 0.03159
3.6700001 2.2539999 0.31900001 23 0 0 0 0.031599998
3.671 2.2449999 0.322 26 0 0 0 0.031610001
3.6670001 2.2320001 0.324 26 0 0 0 0.03162
3.6719999 2.224 0.32699999 27 0 0 0 0.031629998
3.675 2.2160001 0.33000001 26 0 0 0 0.031640001
3.675 2.2060001 0.333 26 0 0 0 0.031649999
3.674 2.1949999 0.33500001 22 0 0 0 0.031660002
3.675 2.1849999 0.33700001 23 0 0 0 0.03167
3.6760001 2.175 0.34 24 0 0 0 0.031679999
3.675 2.164 0.34200001 25 0 0 0 0.031690001
3.668 2.1489999 0.34299999 28 0 0 0 0.0317
3.675 2.142 0.34599999 27 0 0 0 0.031709999
3.674 2.1300001 0.34799999 30 0 0 0 0.031720001
3.6730001 2.119 0.34999999 30 0 0 0 0.03173
3.675 2.109 0.352 30 0 0 0 0.031739999
3.675 2.098 0.354 32 0 0 0 0.031750001
3.6760001 2.0869999 0.35600001 31 0 0 0 0.03176
3.678 2.0769999 0.35699999 32 0 0 0 0.031769998
3.6789999 2.066 0.359 29 0 0 0 0.031780001
3.681 2.056 0.361 30 0 0 0 0.031789999
3.678 2.043 0.36199999 27 0 0 0 0.031800002
3.6760001 2.03 0.36300001 27 0 0 0 0.031810001
3.677 2.0190001 0.36500001 27 0 0 0 0.031819999
3.681 2.01 0.366 26 0 0 0 0.031830002
3.681 1.998 0.368 28 0 0 0 0.03184
3.6789999 1.985 0.36899999 27 0 0 0 0.031849999
3.684 1.976 0.37 24 0 0 0 0.031860001
3.6849999 1.965 0.37099999 22 0 0 0 0.03187
3.6889999 1.955 0.373 21 0 0 0 0.031879999
3.684 1.9400001 0.373 14 0 0 0 0.031890001
3.688 1.931 0.37400001 7 0 0 0 0.0319
0.91000003 0.47299999 0.092 0 0 0 0 0.031909999
0.912 0.47099999 0.093000002 0 0 0 0 0.031920001
0.912 0.46799999 0.093000002 5 0 0 0 0.03193
0.91600001 0.46700001 0.093000002 5 0 0 0 0.031939998
0.90799999 0.46000001 0.093000002 5 0 0 0 0.031950001
0.90700001 0.45699999 0.093000002 0 0 0 0 0.031959999
0.91600001 0.458 0.093999997 0 0 0 0 0.031970002
3.0969999 1.54 0.31799999 1 0 0 0 0.03198
3.0780001 1.52 0.317 2 0 0 0 0.031989999
3.0929999 1.517 0.31900001 2 0 0 0 0.032000002
3.0899999 1.506 0.31799999 3 0 0 0 0.03201
3.0799999 1.49 0.31799999 2 0 0 0 0.032019999
3.076 1.478 0.317 2 0 0 0 0.032030001
3.0780001 1.469 0.31799999 2 0 0 0 0.03204
0.97600001 0.46200001 0.1 0 0 0 0 0.032049999
3.1199999 1.4680001 0.322 2 0 0 0 0.032060001
0.98500001 0.46000001 0.101 0 0 0 0 0.03207
3.122 1.448 0.322 3 0 0 0 0.032079998
3.1140001 1.433 0.32100001 3 0 0 0 0.032090001
3.1110001 1.421 0.31999999 2 0 0 0 0.032099999
1.026 0.465 0.105 0 0 0 0 0.032109998
3.1489999 1.418 0.324 1 0 0 0 0.032120001
3.184 1.4220001 0.32699999 0 0 0 0 0.032129999
1.053 0.46700001 0.108 0 0 0 0 0.032140002
1.062 0.46700001 0.109 0 0 0 0 0.03215
1.0700001 0.46700001 0.109 0 0 0 0 0.032159999
3.244 1.405 0.33199999 3 0 0 0 0.032170001
1.102 0.47299999 0.112 0 0 0 0 0.03218
1.1109999 0.47400001 0.113 0 0 0 0 0.032189999
1.1210001 0.47400001 0.114 0 0 0 0 0.032200001
1.1289999 0.47299999 0.114 0 0 0 0 0.03221
1.141 0.47499999 0.115 3 0 0 0 0.032219999
1.149 0.47400001 0.116 0 0 0 0 0.032230001
1.165 0.477 0.117 0 0 0 0 0.03224
1.181 0.479 0.118 0 0 0 0 0.032249998
1.1849999 0.477 0.118 4 0 0 0 0.032260001
1.201 0.479 0.12 4 0 0 0 0.032269999
1.212 0.47999999 0.12 4 0 0 0 0.032280002
1.24 0.486 0.123 0 0 0 0 0.03229
1.257 0.48899999 0.124 6 0 0 0 0.032299999
1.285 0.495 0.126 21 0 0 0 0.032310002
1.284 0.491 0.126 119 0 0 0 0.03232
1.281 0.48500001 0.125 150 0 0 0 0.032329999
1.281 0.48100001 0.125 150 0 0 0 0.032340001
1.281 0.47600001 0.124 150 0 0 0 0.03235
1.274 0.46900001 0.123 150 0 0 0 0.032359999
1.275 0.46599999 0.123 150 0 0 0 0.032370001
1.277 0.46200001 0.122 150 0 0 0 0.03238
1.277 0.458 0.122 150 0 0 0 0.032389998
1.277 0.45300001 0.121 150 0 0 0 0.032400001
1.276 0.449 0.12 150 0 0 0 0.03241
1.28 0.44600001 0.12 150 0 0 0 0.032419998
1.29 0.44499999 0.121 131 0 0 0 0.032430001
1.311 0.447 0.122 21 0 0 0 0.032439999
1.342 0.454 0.124 6 0 0 0 0.032450002
1.357 0.454 0.125 6 0 0 0 0.03246
1.373 0.45500001 0.126 6 0 0 0 0.032469999
1.399 0.45899999 0.127 7 0 0 0 0.032480001
1.395 0.45300001 0.126 8 0 0 0 0.03249
1.408 0.45199999 0.127 8 0 0 0 0.032499999
1.4349999 0.456 0.12800001 8 0 0 0 0.032510001
1.446 0.45500001 0.12899999 9 0 0 0 0.03252
1.5779999 0.491 0.139 104 0 0 0 0.032529999
1.712 0.52700001 0.15000001 150 0 0 0 0.032540001
2.1849999 0.66500002 0.191 150 0 0 0 0.03255
2.4790001 0.74699998 0.215 150 0 0 0 0.032559998
2.4860001 0.74000001 0.214 150 0 0 0 0.032570001
2.487 0.73299998 0.213 150 0 0 0 0.032579999
2.484 0.72299999 0.211 150 0 0 0 0.032590002
2.3139999 0.66600001 0.19499999 150 0 0 0 0.032600001
2.2320001 0.63499999 0.18700001 150 0 0 0 0.032609999
2.2279999 0.62599999 0.185 151 0 0 0 0.032620002
2.2349999 0.62099999 0.184 150 0 0 0 0.03263
2.25 0.61799997 0.184 150 0 0 0 0.032639999
2.28 0.61900002 0.185 150 0 0 0 0.032650001
2.2509999 0.60299999 0.18099999 150 0 0 0 0.03266
2.2219999 0.588 0.177 151 0 0 0 0.032669999
2.224 0.58099997 0.176 151 0 0 0 0.032680001
2.2260001 0.57499999 0.17399999 151 0 0 0 0.03269
2.2279999 0.56800002 0.17299999 151 0 0 0 0.032699998
2.2290001 0.56099999 0.171 151 0 0 0 0.032710001
2.2260001 0.55299997 0.17 151 0 0 0 0.03272
2.224 0.54500002 0.168 151 0 0 0 0.032729998
2.2260001 0.53799999 0.16599999 151 0 0 0 0.032740001
2.23 0.53200001 0.16500001 150 0 0 0 0.032749999
2.25 0.52899998 0.16500001 151 0 0 0 0.032760002
2.247 0.52100003 0.163 151 0 0 0 0.03277
2.2539999 0.51499999 0.162 151 0 0 0 0.032779999
2.2609999 0.50999999 0.16 150 0 0 0 0.032790001
2.3440001 0.52100003 0.16500001 20 0 0 0 0.0328
2.3989999 0.52499998 0.167 20 0 0 0 0.032809999
2.46 0.53100002 0.169 22 0 0 0 0.032820001
2.539 0.54000002 0.17200001 25 0 0 0 0.03283
2.6210001 0.54900002 0.176 27 0 0 0 0.032839999
2.72 0.56099999 0.18000001 30 0 0 0 0.032850001
2.8280001 0.574 0.185 34 0 0 0 0.03286
2.9100001 0.58099997 0.18799999 33 0 0 0 0.032869998
2.9430001 0.57800001 0.18799999 29 0 0 0 0.032880001
3.017 0.583 0.19 28 0 0 0 0.032889999
3.069 0.583 0.191 26 0 0 0 0.032900002
3.141 0.58700001 0.193 25 0 0 0 0.032910001
3.2090001 0.58899999 0.19400001 25 0 0 0 0.032919999
3.257 0.588 0.19400001 25 0 0 0 0.032930002
3.2780001 0.58099997 0.193 150 0 0 0 0.03294
3.2850001 0.57200003 0.19 151 0 0 0 0.032949999
3.2809999 0.56099999 0.18700001 151 0 0 0 0.032960001
3.2839999 0.551 0.184 151 0 0 0 0.03297
3.29 0.54100001 0.182 151 0 0 0 0.032979999
3.313 0.53500003 0.18000001 150 0 0 0 0.032990001
3.3169999 0.52499998 0.177 151 0 0 0 0.033
3.322 0.51499999 0.175 150 0 0 0 0.033009999
3.381 0.514 0.175 152 0 0 0 0.033020001
3.369 0.50099999 0.171 113 0 0 0 0.03303
3.372 0.491 0.168 6 0 0 0 0.033039998
3.3699999 0.47999999 0.16500001 28 0 0 0 0.033050001
3.3800001 0.47099999 0.162 108 0 0 0 0.033059999
3.388 0.461 0.15899999 152 0 0 0 0.033070002
3.385 0.44999999 0.156 151 0 0 0 0.03308
3.3870001 0.44 0.153 151 0 0 0 0.033089999
3.391 0.43000001 0.15000001 151 0 0 0 0.033100002
3.3870001 0.419 0.146 151 0 0 0 0.03311
3.3940001 0.40900001 0.14300001 152 0 0 0 0.033119999
3.3970001 0.39899999 0.14 152 0 0 0 0.033130001
3.3940001 0.38800001 0.13699999 152 0 0 0 0.03314
3.3940001 0.377 0.133 152 0 0 0 0.033149999
3.395 0.36700001 0.13 152 0 0 0 0.033160001
3.385 0.35499999 0.126 153 0 0 0 0.03317
3.388 0.345 0.123 153 0 0 0 0.033179998
3.3889999 0.33500001 0.12 153 0 0 0 0.033190001
3.3870001 0.324 0.116 153 0 0 0 0.033199999
3.375 0.31200001 0.112 154 0 0 0 0.033209998
3.3699999 0.301 0.109 154 0 0 0 0.033220001
3.3710001 0.29100001 0.105 154 0 0 0 0.033229999
3.3699999 0.28099999 0.102 154 0 0 0 0.033240002
3.3710001 0.27000001 0.097999997 154 0 0 0 0.03325
3.372 0.25999999 0.094999999 154 0 0 0 0.033259999
3.3740001 0.25 0.090999998 154 0 0 0 0.033270001
3.375 0.23899999 0.088 155 0 0 0 0.03328
3.3770001 0.229 0.083999999 155 0 0 0 0.033289999
3.372 0.219 0.081 155 0 0 0 0.033300001
3.3740001 0.208 0.077 156 0 0 0 0.03331
3.3740001 0.198 0.072999999 156 0 0 0 0.033319999
3.3670001 0.18700001 0.07 156 0 0 0 0.033330001
3.375 0.177 0.066 156 0 0 0 0.03334
3.381 0.167 0.063000001 155 0 0 0 0.033349998
3.381 0.15700001 0.059 155 0 0 0 0.033360001
3.3800001 0.147 0.055 155 0 0 0 0.033369999
3.382 0.13600001 0.050999999 154 0 0 0 0.033380002
3.3870001 0.126 0.048 154 0 0 0 0.03339
3.3859999 0.116 0.044 154 0 0 0 0.033399999
3.398 0.106 0.039999999 154 0 0 0 0.033410002
3.4059999 0.096000001 0.037 153 0 0 0 0.03342
3.4030001 0.085000001 0.033 153 0 0 0 0.033429999
3.404 0.075000003 0.028999999 153 0 0 0 0.033440001
3.415 0.064999998 0.025 153 0 0 0 0.03345
3.418 0.055 0.021 152 0 0 0 0.033459999
3.4170001 0.044 0.017000001 152 0 0 0 0.033470001
3.4230001 0.034000002 0.013 152 0 0 0 0.03348
3.418 0.024 0.0089999996 151 0 0 0 0.033489998
3.418 0.013 0.0049999999 151 0 0 0 0.033500001
3.4200001 0.003 0.001 151 0 0 0 0.03351
3.4200001 -0.0060000001 -0.0020000001 151 0 0 0 0.033519998
3.418 -0.017000001 -0.0060000001 151 0 0 0 0.033530001
3.418 -0.027000001 -0.0099999998 151 0 0 0 0.033539999
3.4230001 -0.037 -0.014 151 0 0 0 0.033550002
3.424 -0.048 -0.017999999 151 0 0 0 0.03356
3.424 -0.057999998 -0.022 151 0 0 0 0.033569999
3.427 -0.068000004 -0.026000001 151 0 0 0 0.033580001
3.4230001 -0.078000002 -0.029999999 150 0 0 0 0.03359
3.431 -0.089000002 -0.035 151 0 0 0 0.033599999
3.4319999 -0.098999999 -0.039000001 151 0 0 0 0.033610001
3.431 -0.109 -0.043000001 151 0 0 0 0.03362
3.4300001 -0.12 -0.046999998 151 0 0 0 0.033629999
3.431 -0.13 -0.050999999 151 0 0 0 0.033640001
3.4330001 -0.14 -0.056000002 151 0 0 0 0.03365
3.4330001 -0.15099999 -0.059999999 151 0 0 0 0.033659998
3.4319999 -0.161 -0.064000003 151 0 0 0 0.033670001
3.411 -0.17 -0.068000004 154 0 0 0 0.033679999
3.401 -0.18000001 -0.071999997 151 0 0 0 0.033690002
3.369 -0.18799999 -0.075999998 151 0 0 0 0.0337
3.3699999 -0.198 -0.079999998 152 0 0 0 0.033709999
3.369 -0.208 -0.083999999 152 0 0 0 0.033720002
3.3410001 -0.21699999 -0.088 151 0 0 0 0.03373
3.348 -0.227 -0.092 152 0 0 0 0.033739999
3.3440001 -0.237 -0.097000003 152 0 0 0 0.033750001
3.3429999 -0.24600001 -0.101 152 0 0 0 0.03376
3.346 -0.257 -0.106 151 0 0 0 0.033769999
3.2639999 -0.25999999 -0.107 150 0 0 0 0.033780001
3.2360001 -0.26699999 -0.111 152 0 0 0 0.03379
3.233 -0.27700001 -0.115 151 0 0 0 0.033799998
3.2360001 -0.287 -0.119 151 0 0 0 0.033810001
3.2349999 -0.296 -0.123 151 0 0 0 0.03382
3.2349999 -0.30599999 -0.12800001 151 0 0 0 0.033829998
3.2390001 -0.31600001 -0.132 152 0 0 0 0.033840001
3.2130001 -0.32300001 -0.13600001 150 0 0 0 0.033849999
3.2090001 -0.33199999 -0.14 151 0 0 0 0.033860002
3.21 -0.34200001 -0.14399999 151 0 0 0 0.03387
3.2090001 -0.35100001 -0.149 150 0 0 0 0.033879999
3.2090001 -0.36000001 -0.153 150 0 0 0 0.033890001
3.207 -0.37 -0.15700001 150 0 0 0 0.0339
2.971 -0.35100001 -0.15000001 150 0 0 0 0.033909999
2.7650001 -0.33500001 -0.14300001 52 0 0 0 0.033920001
2.5369999 -0.315 -0.13500001 20 0 0 0 0.03393
2.5079999 -0.31900001 -0.13699999 24 0 0 0 0.033939999
2.457 -0.31900001 -0.138 23 0 0 0 0.033950001
2.415 -0.32100001 -0.139 18 0 0 0 0.03396
2.372 -0.322 -0.14 19 0 0 0 0.033969998
2.3559999 -0.32699999 -0.142 21 0 0 0 0.033980001
2.359 -0.33500001 -0.146 17 0 0 0 0.033989999
2.3629999 -0.34200001 -0.149 18 0 0 0 0.034000002
2.365 -0.34900001 -0.153 15 0 0 0 0.034010001
2.3629999 -0.35600001 -0.156 15 0 0 0 0.034019999
2.3640001 -0.36300001 -0.16 18 0 0 0 0.034030002
2.358 -0.36899999 -0.163 17 0 0 0 0.03404
2.362 -0.377 -0.167 18 0 0 0 0.034049999
2.3629999 -0.384 -0.17 20 0 0 0 0.034060001
2.3599999 -0.38999999 -0.17399999 22 0 0 0 0.03407
2.3670001 -0.398 -0.178 21 0 0 0 0.034079999
2.3610001 -0.40400001 -0.18099999 20 0 0 0 0.034090001
2.375 -0.414 -0.186 16 0 0 0 0.0341
2.3800001 -0.42199999 -0.19 13 0 0 0 0.034109998
2.3859999 -0.43000001 -0.19400001 13 0 0 0 0.034120001
2.3840001 -0.43599999 -0.197 15 0 0 0 0.03413
2.3699999 -0.44100001 -0.2 18 0 0 0 0.034139998
2.3740001 -0.44800001 -0.204 21 0 0 0 0.034150001
2.3670001 -0.454 -0.207 19 0 0 0 0.034159999
2.368 -0.461 -0.211 18 0 0 0 0.034170002
2.368 -0.46799999 -0.214 17 0 0 0 0.03418
2.3699999 -0.47499999 -0.21799999 17 0 0 0 0.034189999
2.3740001 -0.48300001 -0.222 19 0 0 0 0.034200002
2.3670001 -0.48800001 -0.226 22 0 0 0 0.03421
2.372 -0.49599999 -0.23 18 0 0 0 0.034219999
2.375 -0.50400001 -0.234 14 0 0 0 0.034230001
2.372 -0.50999999 -0.23800001 14 0 0 0 0.03424
2.375 -0.51800001 -0.242 16 0 0 0 0.034249999
2.369 -0.523 -0.245 15 0 0 0 0.034260001
2.375 -0.53200001 -0.25 14 0 0 0 0.03427
2.372 -0.53799999 -0.25299999 20 0 0 0 0.034279998
2.372 -0.54500002 -0.257 23 0 0 0 0.034290001
2.3729999 -0.55199999 -0.26100001 25 0 0 0 0.034299999
2.369 -0.55800003 -0.26499999 27 0 0 0 0.034309998
2.372 -0.565 -0.26899999 29 0 0 0 0.034320001
2.368 -0.57099998 -0.273 25 0 0 0 0.034329999
2.3759999 -0.57999998 -0.278 21 0 0 0 0.034340002
2.3759999 -0.58700001 -0.28200001 19 0 0 0 0.03435
2.3759999 -0.59399998 -0.28600001 21 0 0 0 0.034359999
2.3759999 -0.60100001 -0.28999999 21 0 0 0 0.034370001
2.372 -0.60699999 -0.294 16 0 0 0 0.03438
2.3789999 -0.61500001 -0.29899999 17 0 0 0 0.034389999
2.3800001 -0.62199998 -0.303 20 0 0 0 0.034400001
2.372 -0.62699997 -0.30599999 19 0 0 0 0.03441
2.378 -0.63599998 -0.31099999 22 0 0 0 0.034419999
2.381 -0.64300001 -0.31600001 23 0 0 0 0.034430001
2.381 -0.64999998 -0.31999999 23 0 0 0 0.03444
2.3759999 -0.65600002 -0.324 21 0 0 0 0.034449998
2.378 -0.66299999 -0.32800001 20 0 0 0 0.034460001
2.3800001 -0.67000002 -0.333 21 0 0 0 0.034469999
2.378 -0.67699999 -0.33700001 23 0 0 0 0.034480002
2.382 -0.68400002 -0.34200001 25 0 0 0 0.03449
2.3789999 -0.69 -0.34599999 24 0 0 0 0.034499999
2.3770001 -0.69599998 -0.34999999 22 0 0 0 0.034510002
2.3859999 -0.70599997 -0.35499999 19 0 0 0 0.03452
2.3800001 -0.71100003 -0.359 20 0 0 0 0.034529999
2.382 -0.71799999 -0.36399999 23 0 0 0 0.034540001
2.3859999 -0.72600001 -0.36899999 22 0 0 0 0.03455
2.3859999 -0.73299998 -0.373 21 0 0 0 0.034559999
2.3840001 -0.73900002 -0.37799999 19 0 0 0 0.034570001
2.388 -0.74699998 -0.38299999 16 0 0 0 0.03458
2.3840001 -0.75199997 -0.38699999 16 0 0 0 0.034589998
2.391 -0.76200002 -0.39300001 17 0 0 0 0.034600001
2.3889999 -0.76700002 -0.39700001 18 0 0 0 0.03461
2.3870001 -0.77399999 -0.40099999 20 0 0 0 0.034619998
2.388 -0.78100002 -0.40599999 20 0 0 0 0.034630001
2.3870001 -0.787 -0.41100001 24 0 0 0 0.034639999
2.3840001 -0.79299998 -0.41499999 24 0 0 0 0.034650002
2.391 -0.801 -0.421 21 0 0 0 0.03466
2.3870001 -0.80699998 -0.42500001 22 0 0 0 0.034669999
2.391 -0.815 -0.43000001 22 0 0 0 0.034680001
2.3900001 -0.82099998 -0.435 23 0 0 0 0.03469
2.388 -0.82700002 -0.44 23 0 0 0 0.034699999
2.392 -0.83499998 -0.44499999 23 0 0 0 0.034710001
2.3889999 -0.83999997 -0.449 23 0 0 0 0.03472
2.3889999 -0.847 -0.454 22 0 0 0 0.034729999
2.391 -0.85399997 -0.46000001 21 0 0 0 0.034740001
2.398 -0.86299998 -0.46599999 19 0 0 0 0.03475
2.392 -0.86699998 -0.47 17 0 0 0 0.034759998
2.3940001 -0.87400001 -0.47499999 17 0 0 0 0.034770001
2.3940001 -0.88099998 -0.47999999 18 0 0 0 0.034779999
2.392 -0.88599998 -0.48500001 23 0 0 0 0.034790002
2.3970001 -0.89499998 -0.491 23 0 0 0 0.0348
2.401 -0.903 -0.49700001 17 0 0 0 0.034809999
2.405 -0.91100001 -0.50300002 12 0 0 0 0.034820002
2.408 -0.91799998 -0.50800002 10 0 0 0 0.03483
2.3989999 -0.921 -0.51200002 16 0 0 0 0.034839999
2.4000001 -0.92799997 -0.51700002 17 0 0 0 0.034850001
2.3970001 -0.93300003 -0.52200001 19 0 0 0 0.03486
2.4000001 -0.94 -0.528 17 0 0 0 0.034869999
2.401 -0.94700003 -0.53299999 18 0 0 0 0.034880001
2.398 -0.95200002 -0.53799999 20 0 0 0 0.03489
2.3959999 -0.95700002 -0.54299998 24 0 0 0 0.034899998
2.402 -0.96600002 -0.54900002 24 0 0 0 0.034910001
2.3989999 -0.97100002 -0.55400002 24 0 0 0 0.03492
2.3970001 -0.97600001 -0.55900002 26 0 0 0 0.034929998
2.401 -0.98400003 -0.565 26 0 0 0 0.034940001
2.401 -0.99000001 -0.57099998 23 0 0 0 0.034949999
2.404 -0.99699998 -0.57700002 21 0 0 0 0.034960002
2.398 -1.001 -0.58099997 25 0 0 0 0.03497
2.3989999 -1.007 -0.58600003 27 0 0 0 0.034979999
2.401 -1.0140001 -0.59200001 26 0 0 0 0.034990001
2.4000001 -1.0190001 -0.597 23 0 0 0 0.035
2.401 -1.026 -0.60299999 23 0 0 0 0.035009999
2.401 -1.0319999 -0.60900003 27 0 0 0 0.035020001
2.405 -1.039 -0.61500001 26 0 0 0 0.03503
2.4059999 -1.045 -0.62099999 23 0 0 0 0.035039999
2.404 -1.05 -0.62599999 23 0 0 0 0.035050001
2.401 -1.054 -0.63099998 23 0 0 0 0.03506
2.402 -1.0599999 -0.63700002 23 0 0 0 0.035069998
2.4030001 -1.066 -0.64300001 20 0 0 0 0.035080001
2.4059999 -1.073 -0.64899999 20 0 0 0 0.035089999
2.4030001 -1.0779999 -0.65399998 22 0 0 0 0.035100002
2.4030001 -1.0829999 -0.66000003 24 0 0 0 0.035110001
2.401 -1.0880001 -0.66500002 25 0 0 0 0.035119999
2.404 -1.094 -0.671 24 0 0 0 0.035130002
2.404 -1.1 -0.67699999 21 0 0 0 0.03514
2.4000001 -1.103 -0.68199998 17 0 0 0 0.035149999
2.4059999 -1.1109999 -0.68900001 21 0 0 0 0.035160001
2.4070001 -1.117 -0.69499999 25 0 0 0 0.03517
2.3859999 -1.113 -0.69499999 4 0 0 0 0.035179999
2.339 -1.095 -0.68599999 140 0 0 0 0.035190001
2.3169999 -1.09 -0.685 150 0 0 0 0.0352
2.3199999 -1.097 -0.69199997 150 0 0 0 0.035209998
1.1160001 -0.52999997 -0.33500001 33 0 0 0 0.035220001
1.117 -0.53200001 -0.338 4 0 0 0 0.03523
1.109 -0.53100002 -0.33899999 5 0 0 0 0.035239998
1.108 -0.53200001 -0.34099999 5 0 0 0 0.035250001
1.1109999 -0.53600001 -0.345 5 0 0 0 0.035259999
1.1109999 -0.53799999 -0.347 4 0 0 0 0.035270002
1.11 -0.54000002 -0.34999999 2 0 0 0 0.03528
1.1109999 -0.542 -0.352 2 0 0 0 0.035289999
1.115 -0.54699999 -0.35699999 2 0 0 0 0.035300002
1.108 -0.54500002 -0.35699999 3 0 0 0 0.03531
1.11 -0.54799998 -0.36000001 5 0 0 0 0.035319999
1.109 -0.55000001 -0.36300001 6 0 0 0 0.035330001
1.107 -0.551 -0.36500001 6 0 0 0 0.03534
1.1059999 -0.55199999 -0.36700001 6 0 0 0 0.035349999
1.108 -0.55500001 -0.37 6 0 0 0 0.035360001
1.105 -0.55500001 -0.37200001 5 0 0 0 0.03537
1.107 -0.55800003 -0.375 5 0 0 0 0.035379998
1.105 -0.55900002 -0.377 4 0 0 0 0.035390001
1.103 -0.55900002 -0.37900001 3 0 0 0 0.035399999
1.095 -0.55699998 -0.37900001 3 0 0 0 0.035409998
1.096 -0.55900002 -0.382 3 0 0 0 0.035420001
1.1 -0.56300002 -0.38600001 2 0 0 0 0.035429999
1.092 -0.56099999 -0.38600001 2 0 0 0 0.035440002
1.094 -0.56300002 -0.389 2 0 0 0 0.03545
1.091 -0.56300002 -0.391 1 0 0 0 0.035459999
1.087 -0.56300002 -0.39199999 1 0 0 0 0.035470001
1.087 -0.56400001 -0.39399999 1 0 0 0 0.03548
1.0880001 -0.56599998 -0.39700001 1 0 0 0 0.035489999
1.084 -0.565 -0.398 1 0 0 0 0.035500001
1.0829999 -0.56599998 -0.40000001 1 0 0 0 0.03551
1.082 -0.56699997 -0.403 1 0 0 0 0.035519999
1.085 -0.56999999 -0.40599999 1 0 0 0 0.035530001
1.082 -0.56999999 -0.40799999 1 0 0 0 0.03554
1.086 -0.57300001 -0.412 1 0 0 0 0.035549998
1.084 -0.57300001 -0.41299999 1 0 0 0 0.035560001
1.077 -0.56999999 -0.41299999 1 0 0 0 0.035569999
1.077 -0.57099998 -0.41499999 1 0 0 0 0.035580002
1.825 -0.97000003 -0.708 22 0 0 0 0.03559
2.059 -1.096 -0.80400002 150 0 0 0 0.035599999
2.0550001 -1.095 -0.80599999 150 0 0 0 0.035610002
2.0439999 -1.091 -0.80599999 150 0 0 0 0.03562
2.0439999 -1.0930001 -0.81099999 150 0 0 0 0.035629999
2 -1.071 -0.79799998 34 0 0 0 0.035640001
2.0139999 -1.08 -0.80699998 27 0 0 0 0.03565
2.01 -1.079 -0.81 28 0 0 0 0.035659999
2 -1.075 -0.81099999 28 0 0 0 0.035670001
1.9910001 -1.071 -0.81099999 28 0 0 0 0.03568
1.9809999 -1.067 -0.81099999 28 0 0 0 0.035689998
1.967 -1.0599999 -0.80900002 29 0 0 0 0.035700001
1.957 -1.056 -0.80900002 30 0 0 0 0.03571
1.949 -1.052 -0.80900002 30 0 0 0 0.035719998
1.939 -1.048 -0.80900002 30 0 0 0 0.035730001
1.931 -1.044 -0.80900002 31 0 0 0 0.035739999
1.9220001 -1.039 -0.80900002 30 0 0 0 0.035750002
1.9119999 -1.034 -0.80900002 30 0 0 0 0.03576
1.904 -1.031 -0.80900002 30 0 0 0 0.035769999
1.892 -1.024 -0.80800003 31 0 0 0 0.035780001
1.883 -1.02 -0.80699998 32 0 0 0 0.03579
1.8789999 -1.017 -0.80800003 32 0 0 0 0.035799999
1.8710001 -1.013 -0.80900002 31 0 0 0 0.035810001
1.862 -1.008 -0.80800003 31 0 0 0 0.03582
1.855 -1.005 -0.80800003 31 0 0 0 0.035829999
1.852 -1.003 -0.81 30 0 0 0 0.035840001
1.8430001 -0.99699998 -0.80900002 31 0 0 0 0.03585
1.834 -0.99199998 -0.80800003 31 0 0 0 0.035859998
1.83 -0.99000001 -0.80900002 31 0 0 0 0.035870001
1.825 -0.98699999 -0.81 31 0 0 0 0.035879999
1.819 -0.98199999 -0.81 31 0 0 0 0.035890002
1.812 -0.97799999 -0.81 32 0 0 0 0.0359
1.806 -0.97399998 -0.81 32 0 0 0 0.035909999
1.801 -0.97000003 -0.81 32 0 0 0 0.035920002
1.793 -0.96499997 -0.80900002 31 0 0 0 0.03593
1.784 -0.95999998 -0.80800003 31 0 0 0 0.035939999
1.7819999 -0.95700002 -0.80900002 31 0 0 0 0.035950001
1.777 -0.954 -0.80900002 32 0 0 0 0.03596
