# .PCD v0.7 - Point Cloud Data file format
VERSION 0.7
FIELDS x y z intensity normal_x normal_y normal_z curvature
SIZE 4 4 4 4 4 4 4 4
TYPE F F F F F F F F
COUNT 1 1 1 1 1 1 1 1
WIDTH 1035
HEIGHT 1
VIEWPOINT 0 0 0 1 0 0 0
POINTS 1035
DATA ascii
3.109 0.43000001 1.594 93 0 0 0 0.063770004
3.0940001 0.428 1.597 93 0 0 0 0.063780002
3.069 0.42500001 1.5930001 95 0 0 0 0.063790001
3.0569999 0.42300001 1.597 96 0 0 0 0.0638
3.0339999 0.419 1.595 97 0 0 0 0.063809998
3.0190001 0.417 1.597 99 0 0 0 0.063819997
2.9960001 0.414 1.594 95 0 0 0 0.063830003
2.9860001 0.412 1.598 101 0 0 0 0.063840002
2.9649999 0.40900001 1.597 94 0 0 0 0.063850001
2.948 0.40599999 1.597 99 0 0 0 0.063859999
2.9300001 0.403 1.596 96 0 0 0 0.063869998
2.9100001 0.40000001 1.595 100 0 0 0 0.063879997
2.895 0.39700001 1.595 113 0 0 0 0.063890003
2.8770001 0.39399999 1.595 106 0 0 0 0.063900001
2.8659999 0.39199999 1.597 113 0 0 0 0.06391
2.8499999 0.389 1.597 111 0 0 0 0.063919999
2.832 0.38600001 1.596 108 0 0 0 0.063929997
2.816 0.38299999 1.595 105 0 0 0 0.063940004
2.8039999 0.38100001 1.597 109 0 0 0 0.063950002
2.789 0.37799999 1.597 105 0 0 0 0.063960001
2.773 0.375 1.596 114 0 0 0 0.06397
2.757 0.37099999 1.595 111 0 0 0 0.063979998
2.7420001 0.368 1.594 114 0 0 0 0.063989997
2.7320001 0.366 1.597 113 0 0 0 0.064000003
2.7130001 0.36199999 1.594 122 0 0 0 0.064010002
2.7019999 0.359 1.595 117 0 0 0 0.06402
2.687 0.35600001 1.594 115 0 0 0 0.064029999
2.677 0.354 1.595 119 0 0 0 0.064039998
2.664 0.35100001 1.595 128 0 0 0 0.064049996
2.654 0.34799999 1.596 130 0 0 0 0.064060003
2.642 0.345 1.597 124 0 0 0 0.064070001
2.6340001 0.34200001 1.599 134 0 0 0 0.06408
2.615 0.338 1.595 133 0 0 0 0.064089999
2.6040001 0.336 1.595 131 0 0 0 0.064099997
2.5999999 0.333 1.6 131 0 0 0 0.064110003
2.582 0.33000001 1.596 125 0 0 0 0.064120002
2.576 0.32699999 1.598 129 0 0 0 0.064130001
2.5650001 0.324 1.598 136 0 0 0 0.064139999
2.556 0.32100001 1.599 142 0 0 0 0.064149998
2.539 0.317 1.595 130 0 0 0 0.064159997
2.533 0.315 1.597 128 0 0 0 0.064170003
2.52 0.31099999 1.596 145 0 0 0 0.064180002
2.5120001 0.308 1.596 146 0 0 0 0.06419
2.5039999 0.30500001 1.597 148 0 0 0 0.064199999
2.494 0.30199999 1.597 150 0 0 0 0.064209998
2.484 0.29899999 1.596 150 0 0 0 0.064219996
2.4779999 0.296 1.598 150 0 0 0 0.064230002
2.467 0.29300001 1.597 150 0 0 0 0.064240001
2.461 0.28999999 1.598 150 0 0 0 0.06425
2.4549999 0.287 1.6 145 0 0 0 0.064259999
2.4449999 0.28400001 1.599 148 0 0 0 0.064269997
2.437 0.28099999 1.599 148 0 0 0 0.064280003
2.434 0.278 1.601 150 0 0 0 0.064290002
2.425 0.27500001 1.6 140 0 0 0 0.064300001
2.414 0.271 1.598 146 0 0 0 0.064309999
2.4119999 0.26800001 1.601 150 0 0 0 0.064319998
2.401 0.26499999 1.598 150 0 0 0 0.064329997
2.3940001 0.26199999 1.598 150 0 0 0 0.064340003
2.3900001 0.259 1.6 137 0 0 0 0.064350002
2.3840001 0.255 1.6 148 0 0 0 0.06436
2.3729999 0.252 1.597 147 0 0 0 0.064369999
2.369 0.249 1.598 150 0 0 0 0.064379998
2.362 0.245 1.597 146 0 0 0 0.064390004
2.3570001 0.242 1.598 146 0 0 0 0.064400002
2.3529999 0.23899999 1.599 150 0 0 0 0.064410001
2.3469999 0.236 1.598 142 0 0 0 0.06442
2.3440001 0.233 1.599 148 0 0 0 0.064429998
2.342 0.23 1.601 145 0 0 0 0.064439997
2.335 0.226 1.6 150 0 0 0 0.064450003
2.3299999 0.223 1.599 145 0 0 0 0.064460002
2.325 0.22 1.599 144 0 0 0 0.064470001
2.3239999 0.21699999 1.601 142 0 0 0 0.064479999
2.3199999 0.214 1.601 150 0 0 0 0.064489998
2.316 0.20999999 1.601 150 0 0 0 0.064499997
2.3099999 0.207 1.599 150 0 0 0 0.064510003
2.309 0.204 1.601 150 0 0 0 0.064520001
2.3039999 0.2 1.599 148 0 0 0 0.06453
2.303 0.197 1.6 141 0 0 0 0.064539999
2.3010001 0.19400001 1.601 145 0 0 0 0.064549997
2.3010001 0.191 1.603 150 0 0 0 0.064560004
2.299 0.18799999 1.603 145 0 0 0 0.064570002
2.296 0.184 1.603 150 0 0 0 0.064580001
2.2950001 0.18099999 1.603 150 0 0 0 0.06459
2.2939999 0.178 1.604 150 0 0 0 0.064599998
2.2939999 0.175 1.605 150 0 0 0 0.064609997
2.2939999 0.17200001 1.6059999 150 0 0 0 0.064620003
2.2939999 0.169 1.607 150 0 0 0 0.064630002
2.293 0.16500001 1.607 150 0 0 0 0.06464
2.2909999 0.162 1.6059999 150 0 0 0 0.064649999
2.293 0.15899999 1.608 150 0 0 0 0.064659998
2.2909999 0.155 1.607 150 0 0 0 0.064669997
2.2869999 0.152 1.605 145 0 0 0 0.064680003
2.2869999 0.148 1.605 150 0 0 0 0.064690001
2.2869999 0.145 1.605 150 0 0 0 0.0647
2.2880001 0.142 1.605 147 0 0 0 0.064709999
2.289 0.139 1.6059999 150 0 0 0 0.064719997
2.2869999 0.13500001 1.604 146 0 0 0 0.064730003
2.289 0.132 1.605 150 0 0 0 0.064740002
2.2950001 0.12899999 1.608 146 0 0 0 0.064750001
2.2950001 0.126 1.608 150 0 0 0 0.06476
2.2939999 0.122 1.6059999 146 0 0 0 0.064769998
2.296 0.119 1.607 150 0 0 0 0.064779997
2.2969999 0.116 1.6059999 150 0 0 0 0.064790003
2.2980001 0.113 1.6059999 146 0 0 0 0.064800002
2.2980001 0.109 1.605 148 0 0 0 0.06481
2.3 0.106 1.604 135 0 0 0 0.064819999
2.303 0.103 1.604 140 0 0 0 0.064829998
2.3039999 0.1 1.604 148 0 0 0 0.064839996
2.3050001 0.096000001 1.603 144 0 0 0 0.064850003
2.306 0.093000002 1.601 140 0 0 0 0.064860001
2.3110001 0.090000004 1.603 145 0 0 0 0.06487
2.3110001 0.086999997 1.6 143 0 0 0 0.064879999
2.312 0.082999997 1.599 144 0 0 0 0.064889997
2.3180001 0.079999998 1.601 146 0 0 0 0.064900003
2.325 0.077 1.603 150 0 0 0 0.064910002
2.329 0.074000001 1.603 147 0 0 0 0.064920001
2.3310001 0.071000002 1.601 146 0 0 0 0.064929999
2.3340001 0.068000004 1.601 141 0 0 0 0.064939998
2.342 0.064999998 1.602 148 0 0 0 0.064949997
2.345 0.061000001 1.601 141 0 0 0 0.064960003
2.352 0.057999998 1.603 144 0 0 0 0.064970002
2.3529999 0.055 1.6 142 0 0 0 0.06498
2.3599999 0.052000001 1.601 140 0 0 0 0.064989999
2.3640001 0.048999999 1.6 143 0 0 0 0.064999998
2.372 0.046 1.602 136 0 0 0 0.065009996
2.3789999 0.043000001 1.602 146 0 0 0 0.065020002
2.3759999 0.039000001 1.597 134 0 0 0 0.065030001
2.388 0.035999998 1.601 144 0 0 0 0.06504
2.3959999 0.033 1.602 135 0 0 0 0.065049998
2.402 0.029999999 1.602 131 0 0 0 0.065059997
2.4119999 0.027000001 1.603 140 0 0 0 0.065070003
2.4159999 0.024 1.602 140 0 0 0 0.065080002
2.425 0.021 1.603 150 0 0 0 0.065090001
2.4319999 0.017999999 1.602 124 0 0 0 0.065099999
2.4389999 0.015 1.602 130 0 0 0 0.065109998
2.441 0.012 1.599 131 0 0 0 0.065119997
2.4549999 0.0089999996 1.602 128 0 0 0 0.065130003
2.4619999 0.0060000001 1.602 131 0 0 0 0.065140001
2.4679999 0.003 1.6 127 0 0 0 0.06515
2.48 0 1.602 137 0 0 0 0.065159999
2.4849999 -0.0020000001 1.6 139 0 0 0 0.065169998
2.494 -0.0049999999 1.6 139 0 0 0 0.065180004
2.5039999 -0.0080000004 1.6 125 0 0 0 0.065190002
2.513 -0.011 1.6 137 0 0 0 0.065200001
2.5209999 -0.014 1.599 122 0 0 0 0.06521
2.53 -0.017000001 1.599 117 0 0 0 0.065219998
2.5380001 -0.02 1.598 125 0 0 0 0.065229997
2.55 -0.023 1.599 115 0 0 0 0.065240003
2.5639999 -0.026000001 1.602 114 0 0 0 0.065250002
2.575 -0.028000001 1.602 108 0 0 0 0.065260001
2.5840001 -0.030999999 1.6 108 0 0 0 0.065269999
2.595 -0.034000002 1.601 104 0 0 0 0.065279998
2.6040001 -0.037 1.599 100 0 0 0 0.065289997
2.6159999 -0.039999999 1.6 104 0 0 0 0.065300003
2.6289999 -0.043000001 1.601 100 0 0 0 0.065310001
2.642 -0.046 1.601 108 0 0 0 0.06532
2.6489999 -0.048 1.598 94 0 0 0 0.065329999
2.6689999 -0.050999999 1.603 93 0 0 0 0.065339997
2.678 -0.054000001 1.601 95 0 0 0 0.065350004
2.6889999 -0.057 1.6 91 0 0 0 0.065360002
2.7030001 -0.059999999 1.601 85 0 0 0 0.065370001
2.72 -0.061999999 1.603 96 0 0 0 0.06538
2.7320001 -0.064999998 1.602 87 0 0 0 0.065389998
2.743 -0.068000004 1.6 94 0 0 0 0.065399997
2.7579999 -0.071000002 1.601 87 0 0 0 0.065410003
2.7720001 -0.072999999 1.601 82 0 0 0 0.065420002
2.79 -0.075999998 1.603 90 0 0 0 0.06543
2.8039999 -0.079000004 1.603 84 0 0 0 0.065439999
2.819 -0.082000002 1.603 88 0 0 0 0.065449998
2.8340001 -0.083999999 1.603 86 0 0 0 0.065459996
2.852 -0.086999997 1.604 86 0 0 0 0.065470003
2.8629999 -0.089000002 1.602 86 0 0 0 0.065480001
2.878 -0.092 1.601 85 0 0 0 0.06549
2.8959999 -0.094999999 1.602 88 0 0 0 0.065499999
2.911 -0.097000003 1.602 86 0 0 0 0.065509997
2.9300001 -0.1 1.603 88 0 0 0 0.065520003
2.9489999 -0.103 1.604 84 0 0 0 0.065530002
2.9679999 -0.106 1.605 86 0 0 0 0.065540001
2.9849999 -0.108 1.604 81 0 0 0 0.065549999
3.0039999 -0.111 1.605 83 0 0 0 0.065559998
3.017 -0.113 1.603 82 0 0 0 0.065569997
3.0380001 -0.116 1.604 80 0 0 0 0.065580003
3.056 -0.118 1.604 86 0 0 0 0.065590002
3.0769999 -0.121 1.605 85 0 0 0 0.0656
3.095 -0.123 1.604 85 0 0 0 0.065609999
3.1129999 -0.126 1.603 86 0 0 0 0.065619998
3.1370001 -0.12800001 1.605 84 0 0 0 0.065629996
3.1489999 -0.13 1.601 85 0 0 0 0.065640002
3.174 -0.133 1.604 83 0 0 0 0.065650001
3.1930001 -0.13500001 1.603 84 0 0 0 0.06566
3.21 -0.138 1.6 80 0 0 0 0.065669999
3.2320001 -0.14 1.601 79 0 0 0 0.065679997
3.2509999 -0.142 1.6 82 0 0 0 0.065690003
3.277 -0.145 1.601 82 0 0 0 0.065700002
3.299 -0.147 1.601 83 0 0 0 0.065710001
3.322 -0.15000001 1.601 80 0 0 0 0.065719999
3.345 -0.152 1.601 147 0 0 0 0.065729998
3.3570001 -0.154 1.596 150 0 0 0 0.065739997
3.359 -0.155 1.585 150 0 0 0 0.065750003
3.359 -0.156 1.574 150 0 0 0 0.065760002
3.359 -0.15800001 1.563 150 0 0 0 0.06577
3.359 -0.15899999 1.551 150 0 0 0 0.065779999
3.3529999 -0.15899999 1.5369999 150 0 0 0 0.065789998
3.3570001 -0.161 1.528 150 0 0 0 0.065800004
3.359 -0.162 1.517 150 0 0 0 0.065810002
3.359 -0.163 1.506 150 0 0 0 0.065820001
3.358 -0.164 1.494 150 0 0 0 0.06583
3.355 -0.164 1.482 150 0 0 0 0.065839998
3.358 -0.16500001 1.472 150 0 0 0 0.065849997
3.358 -0.16599999 1.46 150 0 0 0 0.065860003
3.3529999 -0.16599999 1.446 150 0 0 0 0.065870002
3.3559999 -0.167 1.436 150 0 0 0 0.065880001
3.3529999 -0.168 1.424 150 0 0 0 0.065889999
3.3559999 -0.168 1.414 150 0 0 0 0.065899998
3.3540001 -0.169 1.401 150 0 0 0 0.065909997
3.358 -0.17 1.391 150 0 0 0 0.065920003
3.3559999 -0.17 1.3789999 150 0 0 0 0.065930001
3.355 -0.17 1.367 150 0 0 0 0.06594
3.358 -0.171 1.357 150 0 0 0 0.065949999
3.3540001 -0.171 1.344 150 0 0 0 0.065959997
3.355 -0.171 1.3329999 150 0 0 0 0.065970004
3.358 -0.17200001 1.323 150 0 0 0 0.065980002
3.3559999 -0.17200001 1.311 150 0 0 0 0.065990001
3.3529999 -0.17200001 1.298 150 0 0 0 0.066
3.382 -0.17299999 1.2970001 150 0 0 0 0.066009998
3.3840001 -0.17399999 1.2869999 150 0 0 0 0.066019997
3.3829999 -0.17399999 1.275 150 0 0 0 0.066030003
3.385 -0.17399999 1.2640001 150 0 0 0 0.066040002
3.3859999 -0.17399999 1.253 150 0 0 0 0.06605
3.3829999 -0.17399999 1.24 150 0 0 0 0.066059999
3.3840001 -0.17399999 1.229 150 0 0 0 0.066069998
3.381 -0.17299999 1.216 150 0 0 0 0.066079997
3.385 -0.17299999 1.206 150 0 0 0 0.066090003
3.3840001 -0.17299999 1.194 150 0 0 0 0.066100001
3.382 -0.17299999 1.182 150 0 0 0 0.06611
3.382 -0.17299999 1.171 150 0 0 0 0.066119999
3.382 -0.17200001 1.159 150 0 0 0 0.066129997
3.382 -0.17200001 1.147 150 0 0 0 0.066140004
3.388 -0.17200001 1.138 150 0 0 0 0.066150002
3.3859999 -0.171 1.126 150 0 0 0 0.066160001
3.3870001 -0.171 1.115 150 0 0 0 0.06617
3.3829999 -0.17 1.102 150 0 0 0 0.066179998
3.385 -0.17 1.091 150 0 0 0 0.066189997
3.381 -0.169 1.0779999 150 0 0 0 0.066200003
3.3859999 -0.169 1.068 150 0 0 0 0.066210002
3.381 -0.168 1.0549999 150 0 0 0 0.06622
3.3829999 -0.168 1.044 150 0 0 0 0.066229999
3.3829999 -0.167 1.033 150 0 0 0 0.066239998
3.381 -0.16599999 1.021 150 0 0 0 0.066249996
3.3800001 -0.16599999 1.0089999 150 0 0 0 0.066260003
3.3829999 -0.16500001 0.99900001 150 0 0 0 0.066270001
3.381 -0.164 0.98699999 150 0 0 0 0.06628
3.381 -0.163 0.97500002 150 0 0 0 0.066289999
3.3829999 -0.163 0.96499997 150 0 0 0 0.066299997
3.3840001 -0.162 0.954 150 0 0 0 0.066310003
3.3870001 -0.161 0.94300002 150 0 0 0 0.066320002
3.391 -0.16 0.93300003 128 0 0 0 0.066330001
3.402 -0.16 0.92500001 114 0 0 0 0.066339999
3.4070001 -0.15899999 0.91399997 131 0 0 0 0.066349998
3.4219999 -0.15899999 0.90700001 150 0 0 0 0.066359997
3.4260001 -0.15800001 0.89600003 150 0 0 0 0.066370003
3.4319999 -0.15700001 0.88700002 150 0 0 0 0.066380002
3.4400001 -0.15700001 0.87699997 150 0 0 0 0.06639
3.4460001 -0.156 0.86699998 150 0 0 0 0.066399999
3.441 -0.154 0.85500002 150 0 0 0 0.066409998
3.441 -0.153 0.84299999 150 0 0 0 0.066419996
3.4400001 -0.152 0.83099997 150 0 0 0 0.066430002
3.4430001 -0.15099999 0.82099998 150 0 0 0 0.066440001
3.4389999 -0.15000001 0.80800003 150 0 0 0 0.06645
3.4430001 -0.148 0.79799998 150 0 0 0 0.066459998
3.441 -0.147 0.78600001 150 0 0 0 0.066469997
3.4400001 -0.146 0.77499998 150 0 0 0 0.066480003
3.4400001 -0.14399999 0.76300001 150 0 0 0 0.066490002
3.4389999 -0.14300001 0.75099999 150 0 0 0 0.066500001
3.4400001 -0.142 0.74000001 150 0 0 0 0.066509999
3.441 -0.14 0.72899997 150 0 0 0 0.066519998
3.444 -0.139 0.71799999 150 0 0 0 0.066529997
3.441 -0.13699999 0.70599997 150 0 0 0 0.066540003
3.4430001 -0.13600001 0.69599998 150 0 0 0 0.066550002
3.438 -0.134 0.68300003 150 0 0 0 0.06656
3.437 -0.133 0.67199999 150 0 0 0 0.066569999
3.4389999 -0.131 0.66100001 150 0 0 0 0.066579998
3.4389999 -0.13 0.64999998 150 0 0 0 0.066590004
3.4400001 -0.12800001 0.639 150 0 0 0 0.066600002
3.4389999 -0.126 0.62699997 150 0 0 0 0.066610001
3.4360001 -0.124 0.61500001 150 0 0 0 0.06662
3.4389999 -0.123 0.60500002 150 0 0 0 0.066629998
3.437 -0.121 0.59299999 150 0 0 0 0.066639997
3.438 -0.12 0.58200002 150 0 0 0 0.066650003
3.437 -0.118 0.57099998 150 0 0 0 0.066660002
3.4330001 -0.116 0.55900002 150 0 0 0 0.066670001
3.438 -0.114 0.54799998 150 0 0 0 0.066679999
3.4400001 -0.112 0.53799999 150 0 0 0 0.066689998
3.4360001 -0.111 0.52600002 150 0 0 0 0.066699997
3.437 -0.109 0.51499999 150 0 0 0 0.066710003
3.437 -0.107 0.50400001 150 0 0 0 0.066720001
3.4349999 -0.105 0.49200001 150 0 0 0 0.06673
3.434 -0.103 0.48100001 150 0 0 0 0.066739999
3.438 -0.101 0.47099999 150 0 0 0 0.066749997
3.4349999 -0.098999999 0.45899999 150 0 0 0 0.066760004
3.434 -0.097000003 0.44800001 150 0 0 0 0.066770002
3.4360001 -0.094999999 0.43700001 150 0 0 0 0.066780001
3.4360001 -0.093000002 0.426 150 0 0 0 0.06679
3.4319999 -0.090999998 0.41499999 150 0 0 0 0.066799998
3.434 -0.089000002 0.40400001 150 0 0 0 0.066809997
3.4330001 -0.086999997 0.39300001 150 0 0 0 0.066820003
3.431 -0.085000001 0.38100001 150 0 0 0 0.066830002
3.4349999 -0.082999997 0.37099999 150 0 0 0 0.06684
3.434 -0.081 0.36000001 150 0 0 0 0.066849999
3.4330001 -0.079000004 0.34900001 150 0 0 0 0.066859998
3.434 -0.075999998 0.338 150 0 0 0 0.066869996
3.4289999 -0.074000001 0.32600001 150 0 0 0 0.066880003
3.425 -0.071999997 0.315 150 0 0 0 0.066890001
3.4260001 -0.07 0.30399999 150 0 0 0 0.0669
3.425 -0.067000002 0.29300001 150 0 0 0 0.066909999
3.428 -0.064999998 0.28200001 150 0 0 0 0.066919997
3.4289999 -0.063000001 0.27200001 150 0 0 0 0.066930003
3.428 -0.061000001 0.26100001 150 0 0 0 0.066940002
3.428 -0.057999998 0.25 150 0 0 0 0.066950001
3.4300001 -0.056000002 0.23899999 150 0 0 0 0.06696
3.427 -0.054000001 0.228 150 0 0 0 0.066969998
3.4219999 -0.050999999 0.21699999 150 0 0 0 0.066979997
3.427 -0.048999999 0.206 150 0 0 0 0.066990003
3.428 -0.046999998 0.19499999 150 0 0 0 0.067000002
3.4219999 -0.044 0.184 151 0 0 0 0.06701
3.424 -0.041999999 0.17299999 150 0 0 0 0.067019999
3.4230001 -0.039000001 0.162 150 0 0 0 0.067029998
3.424 -0.037 0.152 150 0 0 0 0.067039996
3.425 -0.034000002 0.141 150 0 0 0 0.067050003
3.425 -0.032000002 0.13 151 0 0 0 0.067060001
3.4189999 -0.028999999 0.119 151 0 0 0 0.06707
3.427 -0.027000001 0.108 151 0 0 0 0.067079999
3.4170001 -0.024 0.097000003 151 0 0 0 0.067089997
3.421 -0.022 0.086999997 151 0 0 0 0.067100003
3.418 -0.018999999 0.075999998 151 0 0 0 0.067110002
3.418 -0.016000001 0.064999998 151 0 0 0 0.067120001
3.427 -0.014 0.054000001 151 0 0 0 0.067129999
3.418 -0.011 0.044 151 0 0 0 0.067139998
3.421 -0.0080000004 0.033 151 0 0 0 0.067149997
3.418 -0.0060000001 0.022 151 0 0 0 0.067160003
3.4200001 -0.003 0.012 151 0 0 0 0.067170002
3.418 0 0.001 151 0 0 0 0.06718
3.418 0.001 -0.0089999996 151 0 0 0 0.067189999
3.418 0.0040000002 -0.02 151 0 0 0 0.067199998
3.418 0.0070000002 -0.029999999 151 0 0 0 0.067209996
3.418 0.0099999998 -0.041000001 151 0 0 0 0.067220002
3.4159999 0.013 -0.052000001 151 0 0 0 0.067230001
3.418 0.015 -0.061999999 151 0 0 0 0.06724
3.4159999 0.017999999 -0.072999999 151 0 0 0 0.067249998
3.4170001 0.021 -0.083999999 151 0 0 0 0.067259997
3.4200001 0.024 -0.094999999 151 0 0 0 0.067270003
3.415 0.027000001 -0.105 151 0 0 0 0.067280002
3.4189999 0.029999999 -0.116 151 0 0 0 0.067290001
3.4170001 0.033 -0.126 151 0 0 0 0.067299999
3.4200001 0.035999998 -0.13699999 151 0 0 0 0.067309998
3.4189999 0.039000001 -0.148 151 0 0 0 0.067319997
3.4130001 0.041999999 -0.15800001 151 0 0 0 0.067330003
3.4170001 0.045000002 -0.169 151 0 0 0 0.067340001
3.4189999 0.048 -0.18000001 151 0 0 0 0.06735
3.415 0.050999999 -0.19 151 0 0 0 0.067359999
3.4119999 0.054000001 -0.20100001 151 0 0 0 0.067369998
3.411 0.057 -0.211 151 0 0 0 0.067380004
3.415 0.059999999 -0.222 151 0 0 0 0.067390002
3.414 0.063000001 -0.233 151 0 0 0 0.067400001
3.4089999 0.066 -0.243 151 0 0 0 0.06741
3.408 0.068999998 -0.25400001 151 0 0 0 0.067419998
3.4119999 0.072999999 -0.26499999 151 0 0 0 0.067429997
3.4130001 0.075999998 -0.27500001 151 0 0 0 0.067440003
3.4119999 0.079000004 -0.28600001 150 0 0 0 0.067450002
3.411 0.082000002 -0.296 151 0 0 0 0.067460001
3.4100001 0.086000003 -0.30700001 150 0 0 0 0.067469999
3.4170001 0.089000002 -0.31799999 150 0 0 0 0.067479998
3.415 0.092 -0.329 150 0 0 0 0.067489997
3.411 0.096000001 -0.33899999 150 0 0 0 0.067500003
3.4100001 0.098999999 -0.34900001 150 0 0 0 0.067510001
3.4089999 0.102 -0.36000001 150 0 0 0 0.06752
3.408 0.106 -0.37 150 0 0 0 0.067529999
3.4119999 0.109 -0.382 150 0 0 0 0.067539997
3.408 0.112 -0.39199999 150 0 0 0 0.067550004
3.4070001 0.116 -0.40200001 150 0 0 0 0.067560002
3.4100001 0.119 -0.41299999 150 0 0 0 0.067570001
3.4089999 0.123 -0.42300001 150 0 0 0 0.06758
3.405 0.126 -0.433 150 0 0 0 0.067589998
3.404 0.13 -0.44400001 150 0 0 0 0.067599997
3.405 0.133 -0.45500001 150 0 0 0 0.067610003
3.4059999 0.13699999 -0.465 150 0 0 0 0.067620002
3.404 0.14 -0.47600001 150 0 0 0 0.06763
3.4089999 0.14399999 -0.48699999 150 0 0 0 0.067639999
3.4070001 0.148 -0.49700001 150 0 0 0 0.067649998
3.4000001 0.15099999 -0.50700003 150 0 0 0 0.067659996
3.404 0.155 -0.51800001 150 0 0 0 0.067670003
3.402 0.15899999 -0.528 150 0 0 0 0.067680001
3.405 0.163 -0.53899997 150 0 0 0 0.06769
3.4070001 0.16599999 -0.55000001 150 0 0 0 0.067699999
3.4000001 0.17 -0.55900002 150 0 0 0 0.067709997
3.4059999 0.17399999 -0.57099998 150 0 0 0 0.067720003
3.4030001 0.177 -0.58099997 150 0 0 0 0.067730002
3.404 0.18099999 -0.59200001 150 0 0 0 0.067740001
3.405 0.185 -0.602 150 0 0 0 0.067749999
3.405 0.189 -0.61299998 150 0 0 0 0.067759998
3.4030001 0.193 -0.62300003 150 0 0 0 0.067769997
3.4000001 0.197 -0.63300002 150 0 0 0 0.067780003
3.402 0.20100001 -0.64399999 150 0 0 0 0.067790002
3.3959999 0.205 -0.653 150 0 0 0 0.0678
3.4000001 0.20900001 -0.66500002 150 0 0 0 0.067809999
3.4000001 0.213 -0.67500001 150 0 0 0 0.067819998
3.3970001 0.21699999 -0.685 150 0 0 0 0.067829996
3.3959999 0.221 -0.69499999 150 0 0 0 0.067840002
3.3970001 0.22499999 -0.70599997 150 0 0 0 0.067850001
3.395 0.229 -0.71600002 150 0 0 0 0.06786
3.3959999 0.233 -0.727 150 0 0 0 0.067869999
3.3929999 0.237 -0.73699999 150 0 0 0 0.067879997
3.3929999 0.242 -0.74699998 150 0 0 0 0.067890003
3.3940001 0.24600001 -0.75800002 150 0 0 0 0.067900002
3.395 0.25 -0.76899999 150 0 0 0 0.067910001
3.392 0.25400001 -0.77899998 150 0 0 0 0.067919999
3.3900001 0.25799999 -0.78899997 150 0 0 0 0.067929998
3.391 0.26300001 -0.79900002 150 0 0 0 0.067939997
3.391 0.26699999 -0.81 150 0 0 0 0.067950003
3.3940001 0.27200001 -0.82099998 150 0 0 0 0.067960002
3.391 0.27599999 -0.83099997 150 0 0 0 0.06797
3.3889999 0.28 -0.84100002 150 0 0 0 0.067979999
3.3900001 0.285 -0.85100001 40 0 0 0 0.067989998
3.3640001 0.287 -0.85500002 28 0 0 0 0.068000004
3.326 0.289 -0.85600001 27 0 0 0 0.068010002
3.29 0.28999999 -0.85699999 27 0 0 0 0.068020001
3.2590001 0.29100001 -0.85799998 27 0 0 0 0.06803
3.2090001 0.29100001 -0.85500002 26 0 0 0 0.068039998
3.1689999 0.292 -0.85399997 28 0 0 0 0.068049997
3.138 0.294 -0.85600001 28 0 0 0 0.068060003
3.1140001 0.296 -0.85900003 29 0 0 0 0.068070002
3.0769999 0.29699999 -0.85799998 29 0 0 0 0.068080001
3.0439999 0.29800001 -0.85799998 29 0 0 0 0.068089999
3.0090001 0.29899999 -0.85799998 28 0 0 0 0.068099998
2.9760001 0.29899999 -0.85699999 29 0 0 0 0.068109997
2.937 0.30000001 -0.85500002 28 0 0 0 0.068120003
2.8959999 0.30000001 -0.852 26 0 0 0 0.068130001
2.865 0.301 -0.852 26 0 0 0 0.06814
2.829 0.301 -0.85000002 28 0 0 0 0.068149999
2.803 0.30199999 -0.85000002 27 0 0 0 0.068159997
2.776 0.30399999 -0.85000002 25 0 0 0 0.068170004
2.7509999 0.30500001 -0.85100001 26 0 0 0 0.068180002
2.723 0.30599999 -0.85100001 26 0 0 0 0.068190001
2.698 0.30700001 -0.85100001 27 0 0 0 0.0682
2.6700001 0.308 -0.85100001 27 0 0 0 0.068209998
2.642 0.30899999 -0.85000002 26 0 0 0 0.068219997
2.618 0.31 -0.85000002 26 0 0 0 0.068230003
2.5899999 0.31099999 -0.84899998 26 0 0 0 0.068240002
2.5669999 0.31200001 -0.84899998 26 0 0 0 0.06825
2.539 0.31299999 -0.847 25 0 0 0 0.068259999
2.513 0.31400001 -0.84600002 25 0 0 0 0.068269998
2.4849999 0.31400001 -0.84399998 26 0 0 0 0.068279997
2.467 0.31600001 -0.84600002 26 0 0 0 0.068290003
2.441 0.31600001 -0.84399998 25 0 0 0 0.068300001
2.425 0.31799999 -0.84500003 26 0 0 0 0.06831
2.4030001 0.31900001 -0.84500003 25 0 0 0 0.068319999
2.3800001 0.31999999 -0.84399998 25 0 0 0 0.068329997
2.3599999 0.32100001 -0.84399998 25 0 0 0 0.068340003
2.342 0.32300001 -0.84500003 26 0 0 0 0.068350002
2.323 0.324 -0.84500003 25 0 0 0 0.068360001
2.302 0.32499999 -0.84399998 26 0 0 0 0.06837
2.2809999 0.32600001 -0.84299999 25 0 0 0 0.068379998
2.2679999 0.32800001 -0.84500003 25 0 0 0 0.068389997
2.2490001 0.329 -0.84399998 25 0 0 0 0.068400003
2.2279999 0.33000001 -0.84299999 26 0 0 0 0.068410002
2.2119999 0.331 -0.84399998 25 0 0 0 0.06842
2.194 0.33199999 -0.84299999 26 0 0 0 0.068429999
2.178 0.333 -0.84299999 26 0 0 0 0.068439998
2.155 0.33399999 -0.84100002 25 0 0 0 0.068449996
2.148 0.336 -0.84399998 27 0 0 0 0.068460003
2.125 0.33700001 -0.84200001 26 0 0 0 0.068470001
2.1129999 0.33899999 -0.84299999 27 0 0 0 0.06848
2.0929999 0.33899999 -0.84100002 25 0 0 0 0.068489999
2.0799999 0.34099999 -0.84200001 27 0 0 0 0.068499997
2.0650001 0.34200001 -0.84200001 27 0 0 0 0.068510003
2.053 0.34400001 -0.84299999 28 0 0 0 0.068520002
2.0350001 0.345 -0.84100002 27 0 0 0 0.068530001
2.023 0.34599999 -0.84200001 27 0 0 0 0.068539999
2.0090001 0.34799999 -0.84200001 28 0 0 0 0.068549998
1.998 0.34900001 -0.84299999 27 0 0 0 0.068559997
1.984 0.35100001 -0.84299999 28 0 0 0 0.068570003
1.967 0.35100001 -0.84100002 28 0 0 0 0.068580002
1.957 0.35299999 -0.84200001 29 0 0 0 0.06859
1.938 0.354 -0.83899999 28 0 0 0 0.068599999
1.928 0.35499999 -0.84100002 29 0 0 0 0.068609998
1.919 0.35800001 -0.84200001 29 0 0 0 0.068619996
1.9069999 0.359 -0.84200001 29 0 0 0 0.068630002
1.896 0.36000001 -0.84200001 30 0 0 0 0.068640001
1.883 0.36199999 -0.84200001 29 0 0 0 0.06865
1.8710001 0.36300001 -0.84100002 28 0 0 0 0.068659998
1.864 0.36500001 -0.84299999 29 0 0 0 0.068669997
1.849 0.366 -0.84100002 30 0 0 0 0.068680003
1.834 0.36700001 -0.83999997 30 0 0 0 0.068690002
1.827 0.36899999 -0.84100002 31 0 0 0 0.068700001
1.819 0.37099999 -0.84200001 30 0 0 0 0.068709999
1.808 0.37200001 -0.84200001 29 0 0 0 0.068719998
1.795 0.373 -0.84100002 29 0 0 0 0.068729997
1.788 0.375 -0.84200001 28 0 0 0 0.068740003
1.774 0.37599999 -0.83999997 25 0 0 0 0.068750001
1.763 0.377 -0.83899999 26 0 0 0 0.06876
1.753 0.37900001 -0.83899999 32 0 0 0 0.068769999
1.7460001 0.38100001 -0.83999997 39 0 0 0 0.068779998
1.737 0.38299999 -0.83999997 43 0 0 0 0.068790004
1.729 0.384 -0.84100002 41 0 0 0 0.068800002
1.7180001 0.38600001 -0.83999997 39 0 0 0 0.068810001
1.71 0.38699999 -0.83999997 39 0 0 0 0.06882
1.702 0.389 -0.83999997 42 0 0 0 0.068829998
1.6950001 0.391 -0.84100002 42 0 0 0 0.068839997
1.687 0.39300001 -0.84100002 41 0 0 0 0.068850003
1.676 0.39399999 -0.83999997 41 0 0 0 0.068860002
1.669 0.396 -0.83999997 42 0 0 0 0.068870001
1.661 0.39700001 -0.83999997 45 0 0 0 0.068879999
1.654 0.39899999 -0.83999997 46 0 0 0 0.068889998
1.6440001 0.40000001 -0.83899999 44 0 0 0 0.068899997
1.642 0.403 -0.84200001 13 0 0 0 0.068910003
1.628 0.403 -0.838 45 0 0 0 0.068920001
1.6339999 0.40799999 -0.84500003 13 0 0 0 0.06893
1.623 0.40900001 -0.84299999 13 0 0 0 0.068939999
1.6160001 0.41100001 -0.84299999 13 0 0 0 0.068949997
1.608 0.412 -0.84200001 13 0 0 0 0.068960004
1.599 0.414 -0.84100002 13 0 0 0 0.068970002
1.596 0.41600001 -0.84299999 13 0 0 0 0.068980001
1.591 0.41800001 -0.84299999 13 0 0 0 0.06899
1.587 0.421 -0.84399998 13 0 0 0 0.068999998
1.58 0.42199999 -0.84399998 13 0 0 0 0.069009997
1.569 0.42300001 -0.84100002 13 0 0 0 0.069020003
1.566 0.42500001 -0.84299999 13 0 0 0 0.069030002
1.5599999 0.42699999 -0.84200001 13 0 0 0 0.06904
1.559 0.43000001 -0.84500003 13 0 0 0 0.069049999
1.551 0.43099999 -0.84299999 13 0 0 0 0.069059998
1.549 0.43399999 -0.84500003 13 0 0 0 0.069069996
1.541 0.435 -0.84399998 13 0 0 0 0.069080003
1.534 0.43700001 -0.84299999 12 0 0 0 0.069090001
1.524 0.43700001 -0.83999997 12 0 0 0 0.0691
1.521 0.44 -0.84100002 12 0 0 0 0.069109999
1.5190001 0.442 -0.84200001 12 0 0 0 0.069119997
1.5140001 0.44400001 -0.84200001 12 0 0 0 0.069130003
1.512 0.447 -0.84399998 12 0 0 0 0.069140002
1.505 0.44800001 -0.84200001 12 0 0 0 0.069150001
1.493 0.44800001 -0.838 11 0 0 0 0.069159999
1.497 0.45199999 -0.84200001 10 0 0 0 0.069169998
1.489 0.45300001 -0.83999997 5 0 0 0 0.069179997
1.4809999 0.454 -0.838 10 0 0 0 0.069190003
1.473 0.454 -0.83499998 7 0 0 0 0.069200002
1.47 0.456 -0.83499998 3 0 0 0 0.06921
1.443 0.45100001 -0.82200003 3 0 0 0 0.069219999
1.418 0.44600001 -0.80900002 3 0 0 0 0.069229998
1.402 0.44400001 -0.80199999 2 0 0 0 0.069239996
1.386 0.442 -0.79500002 3 0 0 0 0.069250003
1.382 0.44400001 -0.79400003 6 0 0 0 0.069260001
1.36 0.43900001 -0.78299999 12 0 0 0 0.06927
1.345 0.43700001 -0.77600002 12 0 0 0 0.069279999
1.339 0.43799999 -0.77399999 13 0 0 0 0.069289997
1.322 0.435 -0.76499999 14 0 0 0 0.069300003
1.309 0.43399999 -0.759 17 0 0 0 0.069310002
1.2970001 0.43200001 -0.75400001 61 0 0 0 0.069320001
1.29 0.433 -0.75099999 150 0 0 0 0.069329999
1.285 0.43399999 -0.74900001 150 0 0 0 0.069339998
1.278 0.43399999 -0.74599999 150 0 0 0 0.069349997
1.273 0.435 -0.74400002 150 0 0 0 0.069360003
1.271 0.43599999 -0.74400002 150 0 0 0 0.069370002
1.275 0.44 -0.74699998 150 0 0 0 0.06938
1.274 0.44299999 -0.74699998 150 0 0 0 0.069389999
1.276 0.44499999 -0.74900001 150 0 0 0 0.069399998
1.273 0.447 -0.74800003 150 0 0 0 0.069410004
1.272 0.449 -0.74800003 150 0 0 0 0.069420002
1.271 0.45100001 -0.74800003 150 0 0 0 0.069430001
1.27 0.45300001 -0.74800003 150 0 0 0 0.06944
1.272 0.456 -0.74900001 150 0 0 0 0.069449998
1.274 0.45899999 -0.75099999 150 0 0 0 0.069459997
1.273 0.461 -0.75099999 150 0 0 0 0.069470003
1.272 0.463 -0.75099999 150 0 0 0 0.069480002
1.272 0.465 -0.75099999 150 0 0 0 0.069490001
1.271 0.46700001 -0.75 150 0 0 0 0.069499999
1.277 0.47099999 -0.75400001 150 0 0 0 0.069509998
1.277 0.47299999 -0.75400001 150 0 0 0 0.069519997
1.276 0.47499999 -0.75300002 150 0 0 0 0.069530003
1.276 0.477 -0.75300002 150 0 0 0 0.069540001
1.2690001 0.47600001 -0.74900001 150 0 0 0 0.06955
1.275 0.47999999 -0.75199997 150 0 0 0 0.069559999
1.274 0.48199999 -0.75199997 150 0 0 0 0.069569997
1.274 0.484 -0.75099999 150 0 0 0 0.069580004
1.274 0.486 -0.75099999 150 0 0 0 0.069590002
1.274 0.48800001 -0.75 150 0 0 0 0.069600001
1.279 0.49200001 -0.75300002 150 0 0 0 0.06961
1.273 0.491 -0.74900001 150 0 0 0 0.069619998
1.273 0.493 -0.74800003 150 0 0 0 0.069629997
1.273 0.49399999 -0.74699998 150 0 0 0 0.069640003
1.273 0.49599999 -0.74699998 150 0 0 0 0.069650002
1.272 0.498 -0.745 150 0 0 0 0.069660001
1.28 0.50199997 -0.74900001 150 0 0 0 0.069669999
1.273 0.50099999 -0.74400002 150 0 0 0 0.069679998
1.273 0.50199997 -0.74299997 150 0 0 0 0.069689997
1.281 0.50700003 -0.74699998 150 0 0 0 0.069700003
1.278 0.50700003 -0.74400002 150 0 0 0 0.069710001
1.274 0.50700003 -0.74000001 150 0 0 0 0.06972
1.263 0.50400001 -0.73199999 150 0 0 0 0.069729999
1.2539999 0.50199997 -0.72600001 150 0 0 0 0.069739997
1.2539999 0.50300002 -0.72500002 150 0 0 0 0.069750004
1.2410001 0.49900001 -0.71600002 99 0 0 0 0.069760002
1.209 0.48699999 -0.69599998 72 0 0 0 0.069770001
1.16 0.46900001 -0.667 49 0 0 0 0.06978
1.131 0.458 -0.64899999 44 0 0 0 0.069789998
1.1210001 0.45500001 -0.64099997 55 0 0 0 0.069799997
1.122 0.456 -0.63999999 54 0 0 0 0.069810003
1.122 0.45699999 -0.639 62 0 0 0 0.069820002
1.122 0.458 -0.63700002 59 0 0 0 0.06983
1.131 0.46200001 -0.64099997 55 0 0 0 0.069839999
1.138 0.46599999 -0.64300001 46 0 0 0 0.069849998
1.142 0.46799999 -0.64399999 41 0 0 0 0.069859996
1.1440001 0.47 -0.64300001 37 0 0 0 0.069870003
1.1440001 0.47 -0.64099997 32 0 0 0 0.069880001
1.149 0.47299999 -0.64200002 32 0 0 0 0.06989
1.145 0.472 -0.63800001 35 0 0 0 0.069899999
1.149 0.47400001 -0.63800001 41 0 0 0 0.069909997
1.149 0.47400001 -0.63599998 42 0 0 0 0.069920003
1.147 0.47400001 -0.63300002 42 0 0 0 0.069930002
1.1440001 0.47299999 -0.63 45 0 0 0 0.069940001
1.147 0.47499999 -0.62900001 46 0 0 0 0.069949999
1.146 0.47499999 -0.62599999 48 0 0 0 0.069959998
1.145 0.47499999 -0.62300003 49 0 0 0 0.069969997
1.146 0.47499999 -0.62099999 50 0 0 0 0.069980003
1.142 0.47400001 -0.61699998 52 0 0 0 0.069990002
1.1440001 0.47499999 -0.616 49 0 0 0 0.07
1.146 0.47600001 -0.61500001 54 0 0 0 0.070009999
1.145 0.47499999 -0.61199999 51 0 0 0 0.070019998
1.146 0.47600001 -0.61000001 50 0 0 0 0.070029996
1.146 0.47600001 -0.60799998 49 0 0 0 0.070040002
1.141 0.47400001 -0.602 50 0 0 0 0.070050001
1.146 0.47600001 -0.602 57 0 0 0 0.07006
1.1440001 0.47499999 -0.59899998 56 0 0 0 0.070069999
1.149 0.477 -0.59899998 57 0 0 0 0.070079997
1.146 0.47499999 -0.59399998 57 0 0 0 0.070090003
1.147 0.47499999 -0.59299999 52 0 0 0 0.070100002
1.148 0.47499999 -0.58999997 59 0 0 0 0.070110001
1.148 0.47499999 -0.588 53 0 0 0 0.070119999
1.151 0.47600001 -0.58600003 64 0 0 0 0.070129998
1.151 0.47499999 -0.58399999 60 0 0 0 0.070139997
1.153 0.47600001 -0.58200002 44 0 0 0 0.070150003
1.152 0.47499999 -0.579 66 0 0 0 0.070160002
1.153 0.47499999 -0.57599998 71 0 0 0 0.07017
1.16 0.477 -0.57700002 55 0 0 0 0.070179999
1.1569999 0.47600001 -0.57300001 40 0 0 0 0.070189998
1.1569999 0.47499999 -0.56999999 72 0 0 0 0.070200004
1.1619999 0.47600001 -0.56900001 59 0 0 0 0.070210002
1.1569999 0.47299999 -0.56400001 55 0 0 0 0.070220001
1.164 0.47499999 -0.56400001 60 0 0 0 0.07023
1.169 0.477 -0.56300002 55 0 0 0 0.070239998
1.169 0.47600001 -0.56 55 0 0 0 0.070249997
1.173 0.477 -0.55900002 59 0 0 0 0.070260003
1.174 0.47600001 -0.55699998 89 0 0 0 0.070270002
1.176 0.47600001 -0.55400002 93 0 0 0 0.070280001
1.177 0.47499999 -0.55199999 76 0 0 0 0.070289999
1.182 0.47600001 -0.551 78 0 0 0 0.070299998
1.187 0.477 -0.55000001 80 0 0 0 0.070309997
1.188 0.477 -0.54699999 80 0 0 0 0.070320003
1.189 0.47600001 -0.54500002 91 0 0 0 0.070330001
1.193 0.47600001 -0.54299998 23 0 0 0 0.07034
1.194 0.47600001 -0.54000002 21 0 0 0 0.070349999
1.198 0.47600001 -0.53899997 23 0 0 0 0.070359997
1.201 0.47600001 -0.537 24 0 0 0 0.070370004
1.2029999 0.47499999 -0.53399998 25 0 0 0 0.070380002
1.211 0.477 -0.53500003 26 0 0 0 0.070390001
1.2130001 0.47600001 -0.53200001 26 0 0 0 0.0704
1.217 0.477 -0.52999997 26 0 0 0 0.070409998
1.219 0.47600001 -0.528 27 0 0 0 0.070419997
1.225 0.477 -0.52700001 27 0 0 0 0.070430003
1.226 0.47600001 -0.52399999 25 0 0 0 0.070440002
1.232 0.47600001 -0.523 25 0 0 0 0.07045
1.232 0.47499999 -0.51999998 20 0 0 0 0.070459999
1.2410001 0.477 -0.51999998 15 0 0 0 0.070469998
1.251 0.479 -0.51999998 13 0 0 0 0.070479997
1.2690001 0.484 -0.52399999 12 0 0 0 0.070490003
1.284 0.48800001 -0.52700001 13 0 0 0 0.070500001
1.283 0.486 -0.523 18 0 0 0 0.07051
1.281 0.484 -0.51800001 61 0 0 0 0.070519999
1.279 0.48100001 -0.514 150 0 0 0 0.070529997
1.279 0.479 -0.50999999 150 0 0 0 0.070540003
1.277 0.477 -0.50599998 150 0 0 0 0.070550002
1.279 0.47499999 -0.50300002 150 0 0 0 0.070560001
1.278 0.47299999 -0.49900001 150 0 0 0 0.07057
1.281 0.472 -0.49599999 150 0 0 0 0.070579998
1.278 0.46900001 -0.491 150 0 0 0 0.070589997
1.28 0.46799999 -0.48800001 150 0 0 0 0.070600003
1.28 0.46599999 -0.48500001 150 0 0 0 0.070610002
1.279 0.463 -0.48100001 150 0 0 0 0.07062
1.279 0.461 -0.477 150 0 0 0 0.070629999
1.277 0.45899999 -0.47299999 150 0 0 0 0.070639998
1.283 0.458 -0.47099999 150 0 0 0 0.070649996
1.284 0.45699999 -0.46799999 150 0 0 0 0.070660003
1.281 0.454 -0.46399999 150 0 0 0 0.070670001
1.283 0.45199999 -0.46000001 150 0 0 0 0.07068
1.283 0.44999999 -0.45699999 150 0 0 0 0.070689999
1.278 0.44600001 -0.45199999 150 0 0 0 0.070699997
1.28 0.44400001 -0.44800001 150 0 0 0 0.070710003
1.2819999 0.442 -0.44499999 150 0 0 0 0.070720002
1.2819999 0.44 -0.442 150 0 0 0 0.070730001
1.2869999 0.43900001 -0.44 150 0 0 0 0.070739999
1.298 0.44100001 -0.44 58 0 0 0 0.070749998
1.3150001 0.44400001 -0.442 11 0 0 0 0.070759997
1.327 0.44600001 -0.442 5 0 0 0 0.070770003
1.341 0.44800001 -0.44299999 1 0 0 0 0.070780002
1.357 0.45100001 -0.44499999 1 0 0 0 0.07079
1.3660001 0.45100001 -0.44400001 1 0 0 0 0.070799999
1.372 0.45100001 -0.442 1 0 0 0 0.070809998
1.376 0.449 -0.43900001 1 0 0 0 0.070819996
1.39 0.45100001 -0.44 1 0 0 0 0.070830002
1.4 0.45199999 -0.43900001 1 0 0 0 0.070840001
1.4170001 0.454 -0.44100001 1 0 0 0 0.07085
1.427 0.45500001 -0.44 1 0 0 0 0.070859998
1.436 0.45500001 -0.43900001 1 0 0 0 0.070869997
1.455 0.458 -0.44 1 0 0 0 0.070880003
1.459 0.456 -0.43799999 1 0 0 0 0.070890002
1.477 0.45899999 -0.43900001 1 0 0 0 0.070900001
1.4910001 0.46000001 -0.43900001 7 0 0 0 0.070909999
2.4779999 0.75999999 -0.72299999 150 0 0 0 0.070919998
2.302 0.70099998 -0.66500002 150 0 0 0 0.070929997
2.3670001 0.71600002 -0.67799997 150 0 0 0 0.070940003
2.471 0.74299997 -0.70099998 150 0 0 0 0.070950001
2.4820001 0.741 -0.69700003 150 0 0 0 0.07096
2.4849999 0.736 -0.69099998 150 0 0 0 0.070969999
2.4849999 0.73100001 -0.685 150 0 0 0 0.070979998
2.48 0.72500002 -0.67699999 150 0 0 0 0.070990004
2.4790001 0.71899998 -0.67000002 150 0 0 0 0.071000002
2.48 0.71399999 -0.66299999 150 0 0 0 0.071010001
2.375 0.67900002 -0.62900001 150 0 0 0 0.07102
2.2709999 0.64399999 -0.59500003 150 0 0 0 0.071029998
2.2249999 0.62599999 -0.57700002 151 0 0 0 0.071039997
2.2260001 0.62199998 -0.57200003 151 0 0 0 0.071050003
2.224 0.616 -0.56599998 151 0 0 0 0.071060002
2.221 0.611 -0.55900002 151 0 0 0 0.071070001
2.221 0.60600001 -0.55299997 151 0 0 0 0.071079999
2.22 0.60100001 -0.54699999 151 0 0 0 0.071089998
2.22 0.59600002 -0.54100001 151 0 0 0 0.071099997
2.2219999 0.59100002 -0.53600001 151 0 0 0 0.071110003
2.214 0.58399999 -0.528 151 0 0 0 0.071120001
2.2160001 0.57999998 -0.523 151 0 0 0 0.07113
2.2149999 0.57499999 -0.51700002 151 0 0 0 0.071139999
2.2179999 0.56999999 -0.51200002 151 0 0 0 0.071149997
2.217 0.565 -0.50599998 151 0 0 0 0.071160004
2.2190001 0.56099999 -0.50099999 151 0 0 0 0.071170002
2.217 0.55500001 -0.495 151 0 0 0 0.071180001
2.2190001 0.551 -0.49000001 151 0 0 0 0.07119
2.2179999 0.546 -0.484 151 0 0 0 0.071199998
2.221 0.54100001 -0.479 151 0 0 0 0.071209997
2.217 0.53500003 -0.47299999 151 0 0 0 0.071220003
2.2190001 0.53100002 -0.46700001 151 0 0 0 0.071230002
2.2260001 0.52700001 -0.463 151 0 0 0 0.07124
2.2279999 0.523 -0.458 150 0 0 0 0.071249999
2.2460001 0.52200001 -0.456 151 0 0 0 0.071259998
2.2449999 0.51599997 -0.44999999 152 0 0 0 0.071269996
2.244 0.51099998 -0.44499999 151 0 0 0 0.071280003
2.2479999 0.50700003 -0.44 151 0 0 0 0.071290001
2.2609999 0.50400001 -0.43700001 150 0 0 0 0.0713
2.3150001 0.51099998 -0.442 28 0 0 0 0.071309999
2.3759999 0.51899999 -0.44800001 28 0 0 0 0.071319997
2.4130001 0.52100003 -0.449 27 0 0 0 0.071330003
2.451 0.52399999 -0.44999999 27 0 0 0 0.071340002
2.4909999 0.52600002 -0.45100001 26 0 0 0 0.071350001
2.5369999 0.52999997 -0.45300001 26 0 0 0 0.071359999
2.5710001 0.53100002 -0.45300001 25 0 0 0 0.071369998
2.6159999 0.53399998 -0.45500001 25 0 0 0 0.071379997
2.674 0.54000002 -0.45899999 28 0 0 0 0.071390003
2.7579999 0.55000001 -0.46700001 31 0 0 0 0.071400002
2.848 0.56099999 -0.47499999 33 0 0 0 0.07141
2.9089999 0.56699997 -0.479 33 0 0 0 0.071419999
2.9449999 0.56599998 -0.477 32 0 0 0 0.071429998
3.0050001 0.57099998 -0.47999999 32 0 0 0 0.071439996
3.04 0.56999999 -0.479 31 0 0 0 0.071450002
3.0780001 0.56999999 -0.477 30 0 0 0 0.071460001
3.1500001 0.57599998 -0.48100001 30 0 0 0 0.07147
3.207 0.579 -0.48300001 30 0 0 0 0.071479999
3.234 0.57599998 -0.479 30 0 0 0 0.071489997
3.263 0.57300001 -0.47600001 107 0 0 0 0.071500003
3.2809999 0.56900001 -0.47099999 151 0 0 0 0.071510002
3.28 0.56 -0.463 152 0 0 0 0.071520001
3.2809999 0.55299997 -0.456 152 0 0 0 0.071529999
3.2850001 0.54500002 -0.449 152 0 0 0 0.071539998
3.2820001 0.537 -0.44100001 151 0 0 0 0.071549997
3.3010001 0.53200001 -0.43599999 151 0 0 0 0.071560003
3.3139999 0.52600002 -0.43099999 152 0 0 0 0.071570002
3.3139999 0.51800001 -0.42300001 151 0 0 0 0.07158
3.316 0.50999999 -0.41600001 151 0 0 0 0.071589999
3.352 0.50800002 -0.41299999 151 0 0 0 0.071599998
3.378 0.50300002 -0.40900001 152 0 0 0 0.071610004
3.385 0.49599999 -0.40200001 151 0 0 0 0.071620002
3.3840001 0.48699999 -0.39399999 151 0 0 0 0.071630001
3.3859999 0.479 -0.38699999 151 0 0 0 0.07164
3.388 0.47099999 -0.38 151 0 0 0 0.071649998
3.385 0.463 -0.37200001 151 0 0 0 0.071659997
3.392 0.45500001 -0.36500001 151 0 0 0 0.071670003
3.3900001 0.447 -0.35800001 151 0 0 0 0.071680002
3.382 0.43700001 -0.34999999 151 0 0 0 0.071690001
3.3940001 0.43000001 -0.34299999 151 0 0 0 0.071699999
3.3859999 0.421 -0.33500001 151 0 0 0 0.071709998
3.3859999 0.41299999 -0.32800001 151 0 0 0 0.071719997
3.3870001 0.40400001 -0.32100001 151 0 0 0 0.071730003
3.3840001 0.396 -0.31299999 151 0 0 0 0.071740001
3.3859999 0.38699999 -0.30599999 151 0 0 0 0.07175
3.392 0.38 -0.29899999 151 0 0 0 0.071759999
3.388 0.37099999 -0.292 151 0 0 0 0.071769997
3.3900001 0.36300001 -0.285 151 0 0 0 0.071780004
3.3940001 0.354 -0.278 152 0 0 0 0.071790002
3.3929999 0.34599999 -0.271 152 0 0 0 0.071800001
3.395 0.338 -0.264 152 0 0 0 0.07181
3.3970001 0.329 -0.257 152 0 0 0 0.071819998
3.3989999 0.32100001 -0.25 152 0 0 0 0.071829997
3.4000001 0.31299999 -0.243 152 0 0 0 0.071840003
3.391 0.303 -0.235 153 0 0 0 0.071850002
3.392 0.29499999 -0.228 153 0 0 0 0.07186
3.388 0.28600001 -0.221 154 0 0 0 0.071869999
3.3840001 0.27700001 -0.213 154 0 0 0 0.071879998
3.375 0.26800001 -0.206 154 0 0 0 0.071889997
3.3740001 0.259 -0.199 154 0 0 0 0.071900003
3.375 0.25099999 -0.192 154 0 0 0 0.071910001
3.372 0.242 -0.185 156 0 0 0 0.07192
3.3729999 0.233 -0.178 156 0 0 0 0.071929999
3.3740001 0.22499999 -0.171 156 0 0 0 0.071939997
3.3699999 0.21600001 -0.164 156 0 0 0 0.071950004
3.3699999 0.208 -0.15700001 156 0 0 0 0.071960002
3.372 0.199 -0.15099999 157 0 0 0 0.071970001
3.375 0.191 -0.14399999 156 0 0 0 0.07198
3.3729999 0.182 -0.13699999 157 0 0 0 0.071989998
3.3729999 0.17299999 -0.13 157 0 0 0 0.071999997
3.375 0.16500001 -0.124 157 0 0 0 0.072010003
3.368 0.156 -0.117 158 0 0 0 0.072020002
3.378 0.148 -0.11 157 0 0 0 0.07203
3.3800001 0.139 -0.104 155 0 0 0 0.072039999
3.382 0.131 -0.097000003 156 0 0 0 0.072049998
3.3800001 0.122 -0.090000004 156 0 0 0 0.072059996
3.381 0.113 -0.083999999 155 0 0 0 0.072070003
3.3870001 0.105 -0.077 154 0 0 0 0.072080001
3.3970001 0.096000001 -0.071000002 154 0 0 0 0.07209
3.398 0.086999997 -0.064000003 154 0 0 0 0.072099999
3.395 0.079000004 -0.057999998 154 0 0 0 0.072109997
3.398 0.07 -0.050999999 154 0 0 0 0.072120003
3.4070001 0.061000001 -0.044 153 0 0 0 0.072130002
3.4070001 0.052000001 -0.037999999 153 0 0 0 0.072140001
3.418 0.044 -0.030999999 153 0 0 0 0.072149999
3.418 0.035 -0.025 153 0 0 0 0.072159998
3.4219999 0.026000001 -0.017999999 152 0 0 0 0.072169997
3.4230001 0.017000001 -0.012 152 0 0 0 0.072180003
3.4159999 0.0080000004 -0.0049999999 151 0 0 0 0.072190002
3.4200001 0 0 151 0 0 0 0.0722
3.421 -0.0089999996 0.0070000002 151 0 0 0 0.072209999
3.421 -0.017999999 0.013 151 0 0 0 0.072219998
3.421 -0.027000001 0.02 151 0 0 0 0.072229996
3.4200001 -0.035999998 0.026000001 151 0 0 0 0.072240002
3.4189999 -0.045000002 0.033 151 0 0 0 0.072250001
3.4260001 -0.054000001 0.039000001 151 0 0 0 0.07226
3.428 -0.063000001 0.046 151 0 0 0 0.072269998
3.427 -0.071999997 0.052000001 151 0 0 0 0.072279997
3.427 -0.081 0.059 151 0 0 0 0.072290003
3.437 -0.090000004 0.064999998 151 0 0 0 0.072300002
3.4360001 -0.1 0.071999997 151 0 0 0 0.072310001
3.4360001 -0.109 0.078000002 151 0 0 0 0.072319999
3.4349999 -0.118 0.083999999 151 0 0 0 0.072329998
3.438 -0.127 0.090999998 151 0 0 0 0.072339997
3.4389999 -0.13600001 0.097000003 151 0 0 0 0.072350003
3.437 -0.145 0.104 151 0 0 0 0.072360002
3.4360001 -0.155 0.11 151 0 0 0 0.07237
3.437 -0.164 0.116 152 0 0 0 0.072379999
3.4289999 -0.17299999 0.122 152 0 0 0 0.072389998
3.3740001 -0.17900001 0.126 150 0 0 0 0.072400004
3.3759999 -0.18799999 0.133 151 0 0 0 0.072410002
3.372 -0.197 0.138 152 0 0 0 0.072420001
3.3599999 -0.205 0.14399999 150 0 0 0 0.07243
3.345 -0.213 0.15000001 151 0 0 0 0.072439998
3.3429999 -0.222 0.155 151 0 0 0 0.072449997
3.3469999 -0.23199999 0.162 151 0 0 0 0.072460003
3.3440001 -0.241 0.167 151 0 0 0 0.072470002
3.3499999 -0.25 0.17399999 152 0 0 0 0.072480001
3.3239999 -0.257 0.178 41 0 0 0 0.072489999
3.2360001 -0.259 0.17900001 150 0 0 0 0.072499998
3.237 -0.26800001 0.185 151 0 0 0 0.072509997
3.2379999 -0.27700001 0.191 151 0 0 0 0.072520003
3.24 -0.28600001 0.197 151 0 0 0 0.072530001
3.2409999 -0.29499999 0.20299999 151 0 0 0 0.07254
3.24 -0.30399999 0.208 151 0 0 0 0.072549999
3.2320001 -0.31200001 0.213 151 0 0 0 0.072559997
3.2060001 -0.31799999 0.21699999 151 0 0 0 0.072570004
3.211 -0.32800001 0.223 151 0 0 0 0.072580002
3.207 -0.336 0.229 151 0 0 0 0.072590001
3.21 -0.345 0.234 151 0 0 0 0.0726
3.211 -0.354 0.23999999 151 0 0 0 0.072609998
3.2130001 -0.36300001 0.24600001 151 0 0 0 0.072619997
2.921 -0.33899999 0.228 150 0 0 0 0.072630003
2.645 -0.31400001 0.211 36 0 0 0 0.072640002
2.5539999 -0.31 0.208 30 0 0 0 0.07265
2.4979999 -0.31 0.208 26 0 0 0 0.072659999
2.4489999 -0.31099999 0.208 21 0 0 0 0.072669998
2.3970001 -0.31099999 0.208 24 0 0 0 0.072679996
2.382 -0.31600001 0.211 20 0 0 0 0.072690003
2.378 -0.322 0.214 3 0 0 0 0.072700001
2.385 -0.33000001 0.219 3 0 0 0 0.07271
2.3829999 -0.336 0.223 3 0 0 0 0.072719999
2.385 -0.34299999 0.227 1 0 0 0 0.072729997
2.3970001 -0.352 0.23199999 1 0 0 0 0.072740003
2.3699999 -0.35499999 0.233 1 0 0 0 0.072750002
2.368 -0.361 0.237 0 0 0 0 0.072760001
2.3770001 -0.36899999 0.242 0 0 0 0 0.07277
2.4230001 -0.384 0.25099999 0 0 0 0 0.072779998
2.3970001 -0.38600001 0.252 0 0 0 0 0.072789997
0 0 0 0 0 0 0 0.072800003
0 0 0 0 0 0 0 0.072810002
0 0 0 0 0 0 0 0.07282
0 0 0 0 0 0 0 0.072829999
0 0 0 0 0 0 0 0.072839998
0 0 0 0 0 0 0 0.072849996
0 0 0 0 0 0 0 0.072860003
0 0 0 0 0 0 0 0.072870001
0 0 0 0 0 0 0 0.07288
0 0 0 0 0 0 0 0.072889999
0 0 0 0 0 0 0 0.072899997
0 0 0 0 0 0 0 0.072910003
0 0 0 0 0 0 0 0.072920002
0 0 0 0 0 0 0 0.072930001
0 0 0 0 0 0 0 0.072939999
0 0 0 0 0 0 0 0.072949998
0 0 0 0 0 0 0 0.072959997
0 0 0 0 0 0 0 0.072970003
0 0 0 0 0 0 0 0.072980002
0 0 0 0 0 0 0 0.07299
2.4489999 -0.54500002 0.33899999 0 0 0 0 0.072999999
0 0 0 0 0 0 0 0.073009998
0 0 0 0 0 0 0 0.073019996
0 0 0 0 0 0 0 0.073030002
0 0 0 0 0 0 0 0.073040001
0 0 0 0 0 0 0 0.07305
0 0 0 0 0 0 0 0.073059998
0 0 0 0 0 0 0 0.073069997
0 0 0 0 0 0 0 0.073080003
0 0 0 0 0 0 0 0.073090002
0 0 0 0 0 0 0 0.073100001
0 0 0 0 0 0 0 0.073109999
0 0 0 0 0 0 0 0.073119998
0 0 0 0 0 0 0 0.073129997
0 0 0 0 0 0 0 0.073140003
0 0 0 0 0 0 0 0.073150001
0 0 0 0 0 0 0 0.07316
0 0 0 0 0 0 0 0.073169999
0 0 0 0 0 0 0 0.073179998
0 0 0 0 0 0 0 0.073190004
0 0 0 0 0 0 0 0.073200002
0 0 0 0 0 0 0 0.073210001
0 0 0 0 0 0 0 0.07322
0 0 0 0 0 0 0 0.073229998
0 0 0 0 0 0 0 0.073239997
0 0 0 0 0 0 0 0.073250003
0 0 0 0 0 0 0 0.073260002
0 0 0 0 0 0 0 0.073270001
0 0 0 0 0 0 0 0.073279999
0 0 0 0 0 0 0 0.073289998
0 0 0 0 0 0 0 0.073299997
0 0 0 0 0 0 0 0.073310003
0 0 0 0 0 0 0 0.073320001
0 0 0 0 0 0 0 0.07333
0 0 0 0 0 0 0 0.073339999
0 0 0 0 0 0 0 0.073349997
0 0 0 0 0 0 0 0.073360004
0 0 0 0 0 0 0 0.073370002
0 0 0 0 0 0 0 0.073380001
0 0 0 0 0 0 0 0.07339
4.1609998 -1.442 0.80699998 12 0 0 0 0.073399998
4.1290002 -1.444 0.80599999 12 0 0 0 0.073409997
4.1030002 -1.448 0.80599999 13 0 0 0 0.073420003
4.0669999 -1.448 0.80299997 13 0 0 0 0.073430002
4.0289998 -1.448 0.80000001 18 0 0 0 0.07344
3.9949999 -1.448 0.79799998 52 0 0 0 0.073449999
4.0219998 -1.471 0.80800003 44 0 0 0 0.073459998
4.0170002 -1.482 0.81199998 25 0 0 0 0.073469996
3.96 -1.474 0.80500001 12 0 0 0 0.073480003
3.839 -1.441 0.78500003 13 0 0 0 0.073490001
3.819 -1.446 0.78500003 23 0 0 0 0.0735
3.8169999 -1.4579999 0.78799999 19 0 0 0 0.073509999
3.823 -1.472 0.79400003 19 0 0 0 0.073519997
3.8210001 -1.484 0.79699999 18 0 0 0 0.073530003
3.8050001 -1.49 0.79799998 30 0 0 0 0.073540002
3.6719999 -1.45 0.77399999 42 0 0 0 0.073550001
3.658 -1.456 0.77399999 69 0 0 0 0.073559999
3.6619999 -1.47 0.77899998 69 0 0 0 0.073569998
3.661 -1.4809999 0.78299999 70 0 0 0 0.073579997
3.6630001 -1.494 0.78600001 68 0 0 0 0.073590003
3.664 -1.506 0.79000002 68 0 0 0 0.073600002
3.665 -1.518 0.79400003 68 0 0 0 0.07361
3.6600001 -1.528 0.796 66 0 0 0 0.073619999
3.665 -1.5420001 0.801 67 0 0 0 0.073629998
3.6689999 -1.556 0.80500001 66 0 0 0 0.073639996
3.6700001 -1.568 0.80900002 67 0 0 0 0.073650002
3.674 -1.582 0.81199998 66 0 0 0 0.073660001
3.671 -1.5930001 0.815 66 0 0 0 0.07367
3.6730001 -1.605 0.81900001 66 0 0 0 0.073679999
3.675 -1.618 0.82200003 67 0 0 0 0.073689997
3.674 -1.63 0.82499999 69 0 0 0 0.073700003
3.6760001 -1.642 0.82800001 65 0 0 0 0.073710002
3.675 -1.654 0.83099997 66 0 0 0 0.073720001
3.675 -1.666 0.83399999 65 0 0 0 0.073729999
3.6730001 -1.677 0.83600003 63 0 0 0 0.073739998
3.681 -1.692 0.84100002 63 0 0 0 0.073749997
3.6789999 -1.7029999 0.84299999 63 0 0 0 0.073760003
3.6819999 -1.716 0.84600002 68 0 0 0 0.073770002
3.6800001 -1.727 0.84799999 68 0 0 0 0.07378
3.6819999 -1.74 0.85100001 67 0 0 0 0.073789999
3.6819999 -1.752 0.85299999 67 0 0 0 0.073799998
3.6849999 -1.765 0.85600001 65 0 0 0 0.073810004
3.6860001 -1.777 0.85900003 64 0 0 0 0.073820002
3.6849999 -1.788 0.861 64 0 0 0 0.073830001
3.7279999 -1.822 0.87300003 150 0 0 0 0.07384
4.289 -2.109 1.006 151 0 0 0 0.073849998
2.4330001 -1.204 0.57200003 0 0 0 0 0.073859997
2.418 -1.205 0.56999999 0 0 0 0 0.073870003
0 0 0 0 0 0 0 0.073880002
2.378 -1.2 0.56300002 0 0 0 0 0.073890001
2.4200001 -1.229 0.574 0 0 0 0 0.073899999
2.464 -1.2589999 0.58499998 0 0 0 0 0.073909998
2.427 -1.247 0.57700002 0 0 0 0 0.073919997
2.4419999 -1.262 0.58200002 0 0 0 0 0.073930003
2.48 -1.29 0.59200001 0 0 0 0 0.073940001
2.427 -1.27 0.57999998 0 0 0 0 0.07395
2.4619999 -1.295 0.58899999 0 0 0 0 0.073959999
2.5369999 -1.3430001 0.60799998 0 0 0 0 0.073969997
4.7129998 -2.5090001 1.131 38 0 0 0 0.073980004
2.529 -1.354 0.60699999 0 0 0 0 0.073990002
2.4860001 -1.3380001 0.59799999 0 0 0 0 0.074000001
4.7189999 -2.5550001 1.136 37 0 0 0 0.07401
2.4779999 -1.348 0.597 0 0 0 0 0.074019998
2.5050001 -1.3710001 0.60399997 0 0 0 0 0.074029997
2.5139999 -1.383 0.60600001 0 0 0 0 0.074040003
2.4749999 -1.369 0.597 0 0 0 0 0.074050002
4.7210002 -2.625 1.14 40 0 0 0 0.07406
4.7220001 -2.6389999 1.141 36 0 0 0 0.074069999
4.7189999 -2.652 1.141 37 0 0 0 0.074079998
4.7210002 -2.6659999 1.141 37 0 0 0 0.074089997
2.4849999 -1.411 0.60100001 0 0 0 0 0.074100003
2.461 -1.404 0.59500003 0 0 0 0 0.074110001
