# .PCD v0.7 - Point Cloud Data file format
VERSION 0.7
FIELDS x y z intensity normal_x normal_y normal_z curvature
SIZE 4 4 4 4 4 4 4 4
TYPE F F F F F F F F
COUNT 1 1 1 1 1 1 1 1
WIDTH 1115
HEIGHT 1
VIEWPOINT 0 0 0 1 0 0 0
POINTS 1115
DATA ascii
1.4859999 0.44499999 -0.84100002 11 0 0 0 0.01127
1.479 0.44600001 -0.83999997 9 0 0 0 0.01128
1.478 0.449 -0.84100002 15 0 0 0 0.01129
1.471 0.44999999 -0.83899999 13 0 0 0 0.0113
1.469 0.45199999 -0.83999997 12 0 0 0 0.01131
1.461 0.45300001 -0.838 10 0 0 0 0.01132
1.451 0.45300001 -0.833 5 0 0 0 0.01133
1.451 0.456 -0.83499998 2 0 0 0 0.01134
1.414 0.447 -0.81599998 2 0 0 0 0.01135
1.398 0.44499999 -0.80800003 2 0 0 0 0.01136
1.375 0.44 -0.79699999 2 0 0 0 0.01137
1.365 0.44 -0.792 10 0 0 0 0.01138
1.364 0.442 -0.79299998 8 0 0 0 0.01139
1.342 0.43799999 -0.78100002 12 0 0 0 0.0114
1.321 0.43399999 -0.76999998 13 0 0 0 0.01141
1.314 0.43399999 -0.76800001 14 0 0 0 0.01142
1.301 0.433 -0.76099998 34 0 0 0 0.01143
1.291 0.43200001 -0.75599998 98 0 0 0 0.01144
1.2869999 0.433 -0.755 150 0 0 0 0.01145
1.281 0.433 -0.75199997 150 0 0 0 0.01146
1.276 0.43399999 -0.75 150 0 0 0 0.01147
1.275 0.43599999 -0.75099999 150 0 0 0 0.01148
1.274 0.43799999 -0.75099999 150 0 0 0 0.01149
1.273 0.44 -0.75099999 150 0 0 0 0.0115
1.272 0.44299999 -0.75099999 150 0 0 0 0.01151
1.276 0.44600001 -0.75400001 150 0 0 0 0.01152
1.275 0.44800001 -0.75400001 150 0 0 0 0.01153
1.275 0.45100001 -0.75400001 150 0 0 0 0.01154
1.274 0.45300001 -0.75400001 150 0 0 0 0.01155
1.273 0.45500001 -0.75400001 150 0 0 0 0.01156
1.273 0.45699999 -0.75400001 150 0 0 0 0.01157
1.272 0.45899999 -0.75400001 150 0 0 0 0.01158
1.271 0.46000001 -0.75400001 150 0 0 0 0.01159
1.271 0.46200001 -0.75400001 150 0 0 0 0.0116
1.27 0.46399999 -0.75400001 150 0 0 0 0.01161
1.276 0.46900001 -0.75700003 150 0 0 0 0.01162
1.276 0.47 -0.75700003 150 0 0 0 0.01163
1.275 0.472 -0.75599998 150 0 0 0 0.01164
1.276 0.47499999 -0.75700003 150 0 0 0 0.01165
1.28 0.47799999 -0.759 150 0 0 0 0.01166
1.274 0.47799999 -0.755 150 0 0 0 0.01167
1.275 0.47999999 -0.755 150 0 0 0 0.01168
1.274 0.48199999 -0.75400001 150 0 0 0 0.01169
1.274 0.48300001 -0.75400001 150 0 0 0 0.0117
1.274 0.48500001 -0.75300002 150 0 0 0 0.01171
1.273 0.486 -0.75199997 150 0 0 0 0.01172
1.273 0.48800001 -0.75099999 150 0 0 0 0.01173
1.272 0.49000001 -0.75 150 0 0 0 0.01174
1.28 0.49399999 -0.75400001 150 0 0 0 0.01175
1.272 0.493 -0.74900001 150 0 0 0 0.01176
1.272 0.49399999 -0.74800003 150 0 0 0 0.01177
1.279 0.49900001 -0.75 150 0 0 0 0.01178
1.28 0.50099999 -0.75 150 0 0 0 0.01179
1.272 0.49900001 -0.745 150 0 0 0 0.0118
1.273 0.50099999 -0.74400002 150 0 0 0 0.01181
1.278 0.50400001 -0.74599999 150 0 0 0 0.01182
1.272 0.50300002 -0.741 150 0 0 0 0.01183
1.273 0.505 -0.74000001 150 0 0 0 0.01184
1.275 0.50700003 -0.74000001 150 0 0 0 0.01185
1.265 0.50400001 -0.73299998 150 0 0 0 0.01186
1.256 0.50199997 -0.72600001 150 0 0 0 0.01187
1.2539999 0.50199997 -0.72299999 150 0 0 0 0.01188
1.242 0.498 -0.71499997 107 0 0 0 0.01189
1.219 0.49000001 -0.69999999 71 0 0 0 0.0119
1.177 0.47400001 -0.67400002 49 0 0 0 0.01191
1.1390001 0.46000001 -0.65100002 43 0 0 0 0.01192
1.126 0.45500001 -0.64200002 53 0 0 0 0.01193
1.125 0.456 -0.63999999 59 0 0 0 0.01194
1.124 0.456 -0.63700002 59 0 0 0 0.01195
1.132 0.46000001 -0.63999999 59 0 0 0 0.01196
1.136 0.46200001 -0.64099997 51 0 0 0 0.01197
1.14 0.46399999 -0.64099997 49 0 0 0 0.01198
1.15 0.46900001 -0.64499998 43 0 0 0 0.01199
1.15 0.46900001 -0.64300001 38 0 0 0 0.012
1.151 0.47 -0.64099997 32 0 0 0 0.01201
1.1569999 0.47299999 -0.64300001 34 0 0 0 0.01202
1.1569999 0.47400001 -0.64099997 36 0 0 0 0.01203
1.159 0.47499999 -0.639 40 0 0 0 0.01204
1.1569999 0.47400001 -0.63599998 39 0 0 0 0.01205
1.154 0.47299999 -0.63200003 45 0 0 0 0.01206
1.154 0.47400001 -0.63 48 0 0 0 0.01207
1.154 0.47400001 -0.62800002 49 0 0 0 0.01208
1.156 0.47499999 -0.62699997 44 0 0 0 0.01209
1.156 0.47499999 -0.62400001 49 0 0 0 0.0121
1.158 0.47600001 -0.62300003 43 0 0 0 0.01211
1.155 0.47499999 -0.61900002 43 0 0 0 0.01212
1.158 0.47600001 -0.61799997 54 0 0 0 0.01213
1.158 0.47600001 -0.616 50 0 0 0 0.01214
1.153 0.47400001 -0.61000001 50 0 0 0 0.01215
1.1569999 0.47600001 -0.61000001 59 0 0 0 0.01216
1.161 0.477 -0.60900003 54 0 0 0 0.01217
1.1619999 0.477 -0.60699999 52 0 0 0 0.01218
1.16 0.47600001 -0.60299999 51 0 0 0 0.01219
1.1619999 0.477 -0.602 60 0 0 0 0.0122
1.165 0.47799999 -0.60100001 57 0 0 0 0.01221
1.165 0.477 -0.59799999 71 0 0 0 0.01222
1.166 0.477 -0.59500003 58 0 0 0 0.01223
1.1670001 0.477 -0.59299999 60 0 0 0 0.01224
1.168 0.477 -0.59100002 68 0 0 0 0.01225
1.1720001 0.47799999 -0.58999997 47 0 0 0 0.01226
1.1720001 0.47799999 -0.58700001 76 0 0 0 0.01227
1.1720001 0.477 -0.58399999 76 0 0 0 0.01228
1.175 0.47799999 -0.583 63 0 0 0 0.01229
1.174 0.477 -0.579 56 0 0 0 0.0123
1.171 0.47499999 -0.57499999 49 0 0 0 0.01231
1.177 0.47600001 -0.574 53 0 0 0 0.01232
1.178 0.47600001 -0.57200003 53 0 0 0 0.01233
1.1799999 0.47600001 -0.56999999 48 0 0 0 0.01234
1.183 0.47600001 -0.56800002 78 0 0 0 0.01235
1.183 0.47499999 -0.565 83 0 0 0 0.01236
1.187 0.47600001 -0.56400001 87 0 0 0 0.01237
1.1950001 0.47799999 -0.56400001 87 0 0 0 0.01238
1.193 0.477 -0.56 72 0 0 0 0.01239
1.198 0.47799999 -0.56 77 0 0 0 0.0124
1.196 0.47600001 -0.55500001 75 0 0 0 0.01241
1.202 0.477 -0.55500001 17 0 0 0 0.01242
1.2079999 0.47799999 -0.55400002 19 0 0 0 0.01243
1.211 0.47799999 -0.55199999 18 0 0 0 0.01244
1.214 0.47799999 -0.55000001 20 0 0 0 0.01245
1.216 0.47799999 -0.54799998 23 0 0 0 0.01246
1.217 0.477 -0.54500002 22 0 0 0 0.01247
1.221 0.477 -0.54299998 24 0 0 0 0.01248
1.225 0.477 -0.542 24 0 0 0 0.01249
1.234 0.479 -0.542 26 0 0 0 0.0125
1.235 0.479 -0.53899997 25 0 0 0 0.01251
1.235 0.477 -0.53600001 24 0 0 0 0.01252
1.2410001 0.47799999 -0.53500003 18 0 0 0 0.01253
1.248 0.479 -0.53399998 14 0 0 0 0.01254
1.2539999 0.47999999 -0.53299999 12 0 0 0 0.01255
1.277 0.48699999 -0.53899997 13 0 0 0 0.01256
1.285 0.48800001 -0.53899997 14 0 0 0 0.01257
1.285 0.486 -0.53500003 23 0 0 0 0.01258
1.284 0.484 -0.53100002 69 0 0 0 0.01259
1.277 0.47999999 -0.52499998 150 0 0 0 0.0126
1.28 0.479 -0.52200001 150 0 0 0 0.01261
1.28 0.47799999 -0.51899999 150 0 0 0 0.01262
1.275 0.47400001 -0.51300001 150 0 0 0 0.01263
1.281 0.47400001 -0.51099998 150 0 0 0 0.01264
1.279 0.472 -0.50700003 150 0 0 0 0.01265
1.276 0.46900001 -0.50199997 150 0 0 0 0.01266
1.276 0.46700001 -0.49900001 150 0 0 0 0.01267
1.276 0.465 -0.495 150 0 0 0 0.01268
1.279 0.46399999 -0.493 150 0 0 0 0.01269
1.281 0.463 -0.49000001 150 0 0 0 0.0127
1.28 0.46000001 -0.486 150 0 0 0 0.01271
1.275 0.456 -0.47999999 150 0 0 0 0.01272
1.279 0.456 -0.47799999 150 0 0 0 0.01273
1.281 0.454 -0.47499999 150 0 0 0 0.01274
1.28 0.45199999 -0.47099999 150 0 0 0 0.01275
1.286 0.45199999 -0.46900001 150 0 0 0 0.01276
1.284 0.449 -0.465 150 0 0 0 0.01277
1.281 0.44600001 -0.46000001 150 0 0 0 0.01278
1.28 0.44299999 -0.456 150 0 0 0 0.01279
1.2819999 0.44100001 -0.45300001 150 0 0 0 0.0128
1.286 0.44100001 -0.45100001 150 0 0 0 0.01281
1.29 0.44 -0.449 150 0 0 0 0.01282
1.3 0.44100001 -0.449 36 0 0 0 0.01283
1.317 0.44400001 -0.45100001 10 0 0 0 0.01284
1.327 0.44499999 -0.44999999 3 0 0 0 0.01285
1.337 0.44600001 -0.44999999 1 0 0 0 0.01286
1.3559999 0.44999999 -0.45199999 1 0 0 0 0.01287
1.364 0.44999999 -0.45100001 1 0 0 0 0.01288
1.367 0.449 -0.44800001 1 0 0 0 0.01289
1.386 0.45199999 -0.45100001 1 0 0 0 0.0129
1.396 0.45300001 -0.44999999 1 0 0 0 0.01291
1.406 0.45300001 -0.449 1 0 0 0 0.01292
1.414 0.45300001 -0.44800001 1 0 0 0 0.01293
1.427 0.45500001 -0.44800001 1 0 0 0 0.01294
1.439 0.456 -0.44800001 1 0 0 0 0.01295
1.454 0.458 -0.44800001 1 0 0 0 0.01296
1.46 0.456 -0.44600001 1 0 0 0 0.01297
1.473 0.45699999 -0.44600001 1 0 0 0 0.01298
1.4859999 0.45899999 -0.44600001 2 0 0 0 0.01299
2.487 0.76300001 -0.74000001 150 0 0 0 0.013
2.3039999 0.70200002 -0.67900002 150 0 0 0 0.01301
2.3570001 0.71399999 -0.68800002 150 0 0 0 0.01302
2.46 0.74000001 -0.71100003 150 0 0 0 0.01303
2.4779999 0.74000001 -0.70999998 150 0 0 0 0.01304
2.4809999 0.736 -0.704 150 0 0 0 0.01305
2.4820001 0.73100001 -0.69700003 150 0 0 0 0.01306
2.4790001 0.72500002 -0.69 150 0 0 0 0.01307
2.4820001 0.72100002 -0.68400002 150 0 0 0 0.01308
2.4849999 0.71600002 -0.67799997 150 0 0 0 0.01309
2.4219999 0.69300002 -0.65499997 150 0 0 0 0.0131
2.289 0.64999998 -0.61199999 150 0 0 0 0.01311
2.2409999 0.63200003 -0.59399998 151 0 0 0 0.01312
2.223 0.62199998 -0.583 151 0 0 0 0.01313
2.221 0.61699998 -0.57599998 151 0 0 0 0.01314
2.2179999 0.611 -0.56999999 151 0 0 0 0.01315
2.221 0.60699999 -0.56400001 151 0 0 0 0.01316
2.22 0.602 -0.55900002 151 0 0 0 0.01317
2.223 0.59799999 -0.55299997 151 0 0 0 0.01318
2.2249999 0.59399998 -0.54799998 151 0 0 0 0.01319
2.2219999 0.588 -0.54100001 151 0 0 0 0.0132
2.214 0.58099997 -0.53399998 151 0 0 0 0.01321
2.2149999 0.57599998 -0.528 151 0 0 0 0.01322
2.2160001 0.57200003 -0.523 151 0 0 0 0.01323
2.2179999 0.56699997 -0.51800001 151 0 0 0 0.01324
2.217 0.56199998 -0.51099998 151 0 0 0 0.01325
2.214 0.55599999 -0.505 151 0 0 0 0.01326
2.217 0.55199999 -0.5 151 0 0 0 0.01327
2.2190001 0.54799998 -0.495 151 0 0 0 0.01328
2.221 0.54299998 -0.49000001 151 0 0 0 0.01329
2.22 0.53799999 -0.484 151 0 0 0 0.0133
2.217 0.53200001 -0.47799999 151 0 0 0 0.01331
2.2190001 0.528 -0.472 151 0 0 0 0.01332
2.2219999 0.523 -0.46799999 151 0 0 0 0.01333
2.2390001 0.52200001 -0.465 151 0 0 0 0.01334
2.24 0.51700002 -0.46000001 151 0 0 0 0.01335
2.2420001 0.51300001 -0.45500001 151 0 0 0 0.01336
2.244 0.50800002 -0.44999999 151 0 0 0 0.01337
2.253 0.505 -0.44600001 151 0 0 0 0.01338
2.273 0.50400001 -0.44400001 123 0 0 0 0.01339
2.346 0.51499999 -0.45300001 25 0 0 0 0.0134
2.382 0.51700002 -0.454 25 0 0 0 0.01341
2.428 0.52200001 -0.45699999 26 0 0 0 0.01342
2.4719999 0.52499998 -0.45899999 28 0 0 0 0.01343
2.51 0.528 -0.46000001 28 0 0 0 0.01344
2.55 0.52999997 -0.461 26 0 0 0 0.01345
2.5880001 0.53200001 -0.46200001 25 0 0 0 0.01346
2.632 0.53500003 -0.463 26 0 0 0 0.01347
2.697 0.542 -0.46799999 28 0 0 0 0.01348
2.7839999 0.55299997 -0.47600001 32 0 0 0 0.01349
2.8740001 0.56400001 -0.48500001 33 0 0 0 0.0135
2.925 0.56699997 -0.48699999 34 0 0 0 0.01351
2.9719999 0.56900001 -0.48800001 33 0 0 0 0.01352
3.0239999 0.57200003 -0.48899999 32 0 0 0 0.01353
3.0550001 0.57099998 -0.48699999 31 0 0 0 0.01354
3.096 0.57099998 -0.486 30 0 0 0 0.01355
3.1659999 0.57599998 -0.48899999 30 0 0 0 0.01356
3.2119999 0.57700002 -0.48899999 30 0 0 0 0.01357
3.2420001 0.57499999 -0.486 30 0 0 0 0.01358
3.2709999 0.57200003 -0.48300001 150 0 0 0 0.01359
3.2809999 0.56599998 -0.477 152 0 0 0 0.0136
3.2820001 0.55800003 -0.46900001 152 0 0 0 0.01361
3.283 0.55000001 -0.46200001 152 0 0 0 0.01362
3.2809999 0.542 -0.454 151 0 0 0 0.01363
3.2809999 0.53399998 -0.447 151 0 0 0 0.01364
3.302 0.52999997 -0.442 151 0 0 0 0.01365
3.313 0.52399999 -0.43599999 152 0 0 0 0.01366
3.3150001 0.51599997 -0.42899999 152 0 0 0 0.01367
3.319 0.509 -0.42199999 151 0 0 0 0.01368
3.362 0.50700003 -0.419 152 0 0 0 0.01369
3.382 0.50199997 -0.414 152 0 0 0 0.0137
3.3829999 0.49399999 -0.40700001 151 0 0 0 0.01371
3.3829999 0.486 -0.39899999 151 0 0 0 0.01372
3.385 0.47799999 -0.39199999 151 0 0 0 0.01373
3.3829999 0.46900001 -0.384 151 0 0 0 0.01374
3.388 0.461 -0.377 151 0 0 0 0.01375
3.3889999 0.45300001 -0.37 151 0 0 0 0.01376
3.3800001 0.44400001 -0.361 151 0 0 0 0.01377
3.3870001 0.43599999 -0.354 151 0 0 0 0.01378
3.3840001 0.428 -0.347 151 0 0 0 0.01379
3.3859999 0.41999999 -0.34 151 0 0 0 0.0138
3.381 0.41100001 -0.33199999 151 0 0 0 0.01381
3.3840001 0.403 -0.32499999 151 0 0 0 0.01382
3.391 0.39500001 -0.31799999 151 0 0 0 0.01383
3.392 0.38699999 -0.31099999 151 0 0 0 0.01384
3.3859999 0.37799999 -0.303 151 0 0 0 0.01385
3.3929999 0.37 -0.296 151 0 0 0 0.01386
3.3889999 0.36199999 -0.289 151 0 0 0 0.01387
3.3959999 0.354 -0.28200001 152 0 0 0 0.01388
3.3929999 0.345 -0.27399999 152 0 0 0 0.01389
3.3959999 0.33700001 -0.26699999 152 0 0 0 0.0139
3.3970001 0.329 -0.25999999 152 0 0 0 0.01391
3.3959999 0.31999999 -0.25299999 152 0 0 0 0.01392
3.4000001 0.31200001 -0.24600001 152 0 0 0 0.01393
3.3970001 0.303 -0.23899999 153 0 0 0 0.01394
3.392 0.294 -0.23100001 153 0 0 0 0.01395
3.388 0.28600001 -0.22400001 153 0 0 0 0.01396
3.3859999 0.27700001 -0.21699999 154 0 0 0 0.01397
3.382 0.26800001 -0.20999999 154 0 0 0 0.01398
3.3729999 0.259 -0.20200001 154 0 0 0 0.01399
3.375 0.25099999 -0.19499999 154 0 0 0 0.014
3.3710001 0.242 -0.18799999 156 0 0 0 0.01401
3.3729999 0.233 -0.18099999 156 0 0 0 0.01402
3.372 0.22499999 -0.17399999 156 0 0 0 0.01403
3.3740001 0.21699999 -0.167 156 0 0 0 0.01404
3.372 0.208 -0.16 156 0 0 0 0.01405
3.375 0.199 -0.153 157 0 0 0 0.01406
3.375 0.191 -0.147 156 0 0 0 0.01407
3.378 0.183 -0.14 156 0 0 0 0.01408
3.3729999 0.17399999 -0.133 156 0 0 0 0.01409
3.3740001 0.16500001 -0.126 156 0 0 0 0.0141
3.3759999 0.15700001 -0.119 157 0 0 0 0.01411
3.378 0.148 -0.113 157 0 0 0 0.01412
3.3800001 0.14 -0.106 155 0 0 0 0.01413
3.3800001 0.131 -0.098999999 156 0 0 0 0.01414
3.382 0.123 -0.093000002 156 0 0 0 0.01415
3.381 0.114 -0.086000003 155 0 0 0 0.01416
3.3870001 0.105 -0.079000004 154 0 0 0 0.01417
3.3970001 0.097000003 -0.072999999 154 0 0 0 0.01418
3.398 0.088 -0.066 154 0 0 0 0.01419
3.398 0.079999998 -0.059 154 0 0 0 0.0142
3.401 0.071000002 -0.052999999 154 0 0 0 0.01421
3.4070001 0.061999999 -0.046 154 0 0 0 0.01422
3.4130001 0.052999999 -0.039000001 153 0 0 0 0.01423
3.418 0.045000002 -0.033 153 0 0 0 0.01424
3.418 0.035999998 -0.026000001 153 0 0 0 0.01425
3.4260001 0.027000001 -0.018999999 152 0 0 0 0.01426
3.424 0.017999999 -0.013 152 0 0 0 0.01427
3.4230001 0.0089999996 -0.0060000001 152 0 0 0 0.01428
3.4200001 0 0 151 0 0 0 0.01429
3.4200001 -0.0080000004 0.0060000001 151 0 0 0 0.0143
3.421 -0.016000001 0.013 151 0 0 0 0.01431
3.4260001 -0.025 0.018999999 151 0 0 0 0.01432
3.4260001 -0.034000002 0.026000001 151 0 0 0 0.01433
3.4260001 -0.043000001 0.032000002 151 0 0 0 0.01434
3.428 -0.052000001 0.039000001 151 0 0 0 0.01435
3.428 -0.061000001 0.045000002 151 0 0 0 0.01436
3.427 -0.07 0.052000001 151 0 0 0 0.01437
3.427 -0.079000004 0.057999998 151 0 0 0 0.01438
3.427 -0.088 0.064999998 151 0 0 0 0.01439
3.431 -0.097000003 0.071000002 151 0 0 0 0.0144
3.4260001 -0.106 0.078000002 151 0 0 0 0.01441
3.4300001 -0.115 0.083999999 151 0 0 0 0.01442
3.4400001 -0.125 0.090999998 151 0 0 0 0.01443
3.434 -0.134 0.097000003 151 0 0 0 0.01444
3.437 -0.14300001 0.104 151 0 0 0 0.01445
3.438 -0.152 0.11 151 0 0 0 0.01446
3.434 -0.161 0.116 151 0 0 0 0.01447
3.4319999 -0.17 0.123 153 0 0 0 0.01448
3.3840001 -0.177 0.127 150 0 0 0 0.01449
3.372 -0.185 0.133 152 0 0 0 0.0145
3.3699999 -0.19400001 0.139 152 0 0 0 0.01451
3.3710001 -0.20299999 0.145 151 0 0 0 0.01452
3.342 -0.211 0.15000001 150 0 0 0 0.01453
3.3440001 -0.22 0.156 152 0 0 0 0.01454
3.3469999 -0.229 0.162 151 0 0 0 0.01455
3.346 -0.23800001 0.168 151 0 0 0 0.01456
3.349 -0.24699999 0.175 152 0 0 0 0.01457
3.335 -0.255 0.18000001 109 0 0 0 0.01458
3.2490001 -0.257 0.18099999 150 0 0 0 0.01459
3.2349999 -0.26499999 0.186 151 0 0 0 0.0146
3.2360001 -0.27399999 0.192 151 0 0 0 0.01461
3.2349999 -0.28299999 0.198 151 0 0 0 0.01462
3.2379999 -0.292 0.204 151 0 0 0 0.01463
3.233 -0.30000001 0.20900001 151 0 0 0 0.01464
3.2409999 -0.31 0.215 151 0 0 0 0.01465
3.22 -0.317 0.22 150 0 0 0 0.01466
3.2079999 -0.324 0.22499999 151 0 0 0 0.01467
3.21 -0.333 0.23 151 0 0 0 0.01468
3.21 -0.34200001 0.236 151 0 0 0 0.01469
3.204 -0.34999999 0.241 151 0 0 0 0.0147
3.2160001 -0.36000001 0.248 151 0 0 0 0.01471
3.04 -0.34900001 0.23999999 151 0 0 0 0.01472
2.8329999 -0.333 0.228 150 0 0 0 0.01473
2.579 -0.31 0.212 30 0 0 0 0.01474
2.5190001 -0.31 0.212 27 0 0 0 0.01475
2.467 -0.31099999 0.211 22 0 0 0 0.01476
2.4159999 -0.31099999 0.211 19 0 0 0 0.01477
2.3829999 -0.31299999 0.213 28 0 0 0 0.01478
2.3800001 -0.31999999 0.21600001 12 0 0 0 0.01479
2.3800001 -0.32600001 0.22 3 0 0 0 0.0148
2.391 -0.33500001 0.22499999 3 0 0 0 0.01481
2.3789999 -0.34 0.228 2 0 0 0 0.01482
2.3640001 -0.34400001 0.23100001 1 0 0 0 0.01483
2.392 -0.35499999 0.23800001 1 0 0 0 0.01484
2.3829999 -0.36000001 0.241 1 0 0 0 0.01485
2.385 -0.36700001 0.245 0 0 0 0 0.01486
2.388 -0.375 0.249 0 0 0 0 0.01487
2.4070001 -0.38499999 0.25600001 0 0 0 0 0.01488
0 0 0 0 0 0 0 0.01489
0 0 0 0 0 0 0 0.0149
0 0 0 0 0 0 0 0.01491
0 0 0 0 0 0 0 0.01492
0 0 0 0 0 0 0 0.01493
0 0 0 0 0 0 0 0.01494
0 0 0 0 0 0 0 0.01495
0 0 0 0 0 0 0 0.01496
0 0 0 0 0 0 0 0.01497
0 0 0 0 0 0 0 0.01498
0 0 0 0 0 0 0 0.01499
0 0 0 0 0 0 0 0.015
0 0 0 0 0 0 0 0.01501
0 0 0 0 0 0 0 0.01502
0 0 0 0 0 0 0 0.01503
0 0 0 0 0 0 0 0.01504
0 0 0 0 0 0 0 0.01505
0 0 0 0 0 0 0 0.01506
0 0 0 0 0 0 0 0.01507
0 0 0 0 0 0 0 0.01508
2.4449999 -0.54000002 0.34200001 0 0 0 0 0.01509
0 0 0 0 0 0 0 0.0151
0 0 0 0 0 0 0 0.01511
0 0 0 0 0 0 0 0.01512
0 0 0 0 0 0 0 0.01513
0 0 0 0 0 0 0 0.01514
0 0 0 0 0 0 0 0.01515
0 0 0 0 0 0 0 0.01516
0 0 0 0 0 0 0 0.01517
0 0 0 0 0 0 0 0.01518
0 0 0 0 0 0 0 0.01519
0 0 0 0 0 0 0 0.0152
0 0 0 0 0 0 0 0.01521
0 0 0 0 0 0 0 0.01522
0 0 0 0 0 0 0 0.01523
0 0 0 0 0 0 0 0.01524
0 0 0 0 0 0 0 0.01525
0 0 0 0 0 0 0 0.01526
0 0 0 0 0 0 0 0.01527
0 0 0 0 0 0 0 0.01528
0 0 0 0 0 0 0 0.01529
0 0 0 0 0 0 0 0.0153
0 0 0 0 0 0 0 0.01531
0 0 0 0 0 0 0 0.01532
0 0 0 0 0 0 0 0.01533
0 0 0 0 0 0 0 0.01534
0 0 0 0 0 0 0 0.01535
0 0 0 0 0 0 0 0.01536
0 0 0 0 0 0 0 0.01537
0 0 0 0 0 0 0 0.01538
0 0 0 0 0 0 0 0.01539
0 0 0 0 0 0 0 0.0154
0 0 0 0 0 0 0 0.01541
0 0 0 0 0 0 0 0.01542
0 0 0 0 0 0 0 0.01543
0 0 0 0 0 0 0 0.01544
0 0 0 0 0 0 0 0.01545
0 0 0 0 0 0 0 0.01546
0 0 0 0 0 0 0 0.01547
0 0 0 0 0 0 0 0.01548
2.404 -0.82800001 0.472 0 0 0 0 0.01549
4.1570001 -1.4450001 0.82200003 7 0 0 0 0.0155
4.119 -1.4450001 0.81900001 8 0 0 0 0.01551
4.092 -1.448 0.81900001 8 0 0 0 0.01552
4.0599999 -1.45 0.81699997 9 0 0 0 0.01553
4.0170002 -1.447 0.81300002 21 0 0 0 0.01554
3.9920001 -1.451 0.81300002 60 0 0 0 0.01555
4.0320001 -1.479 0.82599998 28 0 0 0 0.01556
4.013 -1.485 0.82599998 20 0 0 0 0.01557
3.8670001 -1.443 0.801 9 0 0 0 0.01558
3.8299999 -1.442 0.79699999 13 0 0 0 0.01559
3.8180001 -1.45 0.79900002 22 0 0 0 0.0156
3.8210001 -1.4630001 0.80400002 16 0 0 0 0.01561
3.819 -1.475 0.80800003 15 0 0 0 0.01562
3.825 -1.489 0.81300002 20 0 0 0 0.015629999
3.7720001 -1.4809999 0.80599999 42 0 0 0 0.01564
3.6589999 -1.449 0.78600001 51 0 0 0 0.01565
3.6570001 -1.46 0.78899997 70 0 0 0 0.015659999
3.6630001 -1.474 0.79400003 70 0 0 0 0.01567
3.6619999 -1.485 0.79699999 69 0 0 0 0.01568
3.6619999 -1.497 0.801 67 0 0 0 0.015690001
3.664 -1.51 0.80500001 67 0 0 0 0.015699999
3.661 -1.52 0.80800003 68 0 0 0 0.01571
3.6659999 -1.534 0.81199998 67 0 0 0 0.01572
3.6689999 -1.548 0.81699997 68 0 0 0 0.015729999
3.6730001 -1.561 0.82099998 67 0 0 0 0.01574
3.671 -1.572 0.824 68 0 0 0 0.01575
3.6700001 -1.584 0.82700002 65 0 0 0 0.015760001
3.6719999 -1.596 0.82999998 67 0 0 0 0.015769999
3.6719999 -1.608 0.833 67 0 0 0 0.01578
3.671 -1.62 0.83600003 67 0 0 0 0.015790001
3.668 -1.631 0.83899999 65 0 0 0 0.015799999
3.674 -1.645 0.84299999 66 0 0 0 0.01581
3.6760001 -1.658 0.84600002 66 0 0 0 0.01582
3.6760001 -1.669 0.84899998 67 0 0 0 0.015830001
3.678 -1.682 0.85299999 64 0 0 0 0.01584
3.6819999 -1.696 0.85600001 69 0 0 0 0.01585
3.677 -1.706 0.85799998 68 0 0 0 0.015860001
3.6789999 -1.7180001 0.861 68 0 0 0 0.015869999
3.6819999 -1.7309999 0.86400002 68 0 0 0 0.01588
3.6819999 -1.743 0.86699998 67 0 0 0 0.01589
3.6849999 -1.756 0.86900002 66 0 0 0 0.015900001
3.6830001 -1.767 0.87099999 65 0 0 0 0.01591
3.6830001 -1.779 0.87400001 63 0 0 0 0.01592
3.688 -1.793 0.87699997 64 0 0 0 0.015930001
3.8959999 -1.9069999 0.92900002 151 0 0 0 0.015939999
4.6919999 -2.3110001 1.1210001 65 0 0 0 0.01595
0 0 0 0 0 0 0 0.01596
2.421 -1.2079999 0.58099997 0 0 0 0 0.015969999
0 0 0 0 0 0 0 0.01598
2.4059999 -1.215 0.57999998 0 0 0 0 0.01599
2.447 -1.244 0.59100002 0 0 0 0 0.016000001
2.454 -1.255 0.59299999 0 0 0 0 0.016009999
2.4590001 -1.265 0.59600002 0 0 0 0 0.01602
2.4579999 -1.272 0.59600002 0 0 0 0 0.016030001
2.4920001 -1.298 0.60600001 0 0 0 0 0.016039999
2.464 -1.29 0.60000002 0 0 0 0 0.01605
2.418 -1.273 0.58899999 0 0 0 0 0.01606
2.4089999 -1.276 0.588 0 0 0 0 0.016070001
2.5179999 -1.342 0.61500001 0 0 0 0 0.01608
2.464 -1.321 0.60299999 0 0 0 0 0.01609
2.448 -1.319 0.59899998 0 0 0 0 0.016100001
2.5350001 -1.374 0.62099999 0 0 0 0 0.016109999
4.7189999 -2.5710001 1.158 39 0 0 0 0.01612
2.4749999 -1.3559999 0.60699999 0 0 0 0 0.01613
4.7160001 -2.5969999 1.159 37 0 0 0 0.016140001
4.724 -2.6159999 1.161 38 0 0 0 0.01615
4.723 -2.6289999 1.1619999 36 0 0 0 0.01616
4.7199998 -2.641 1.161 37 0 0 0 0.016170001
2.4779999 -1.393 0.61000001 0 0 0 0 0.016179999
4.7220001 -2.6689999 1.163 36 0 0 0 0.01619
4.7199998 -2.681 1.1619999 34 0 0 0 0.0162
4.71 -2.6889999 1.16 12 0 0 0 0.016209999
4.5040002 -2.5829999 1.109 1 0 0 0 0.01622
4.4489999 -2.5639999 1.095 2 0 0 0 0.01623
4.4289999 -2.5650001 1.09 8 0 0 0 0.016240001
4.4029999 -2.562 1.0829999 8 0 0 0 0.016249999
4.3559999 -2.546 1.071 6 0 0 0 0.01626
4.3260002 -2.54 1.063 16 0 0 0 0.01627
2.474 -1.459 0.60699999 0 0 0 0 0.016279999
3.102 -1.8380001 0.76099998 0 0 0 0 0.01629
2.543 -1.513 0.62300003 0 0 0 0 0.0163
4.2680001 -2.55 1.045 21 0 0 0 0.016310001
2.4749999 -1.485 0.60500002 0 0 0 0 0.016319999
4.2389998 -2.5539999 1.036 23 0 0 0 0.01633
4.2160001 -2.5510001 1.029 22 0 0 0 0.016340001
4.1960001 -2.549 1.022 21 0 0 0 0.016349999
2.448 -1.493 0.59500003 0 0 0 0 0.01636
4.1989999 -2.5710001 1.0190001 13 0 0 0 0.01637
4.2030001 -2.5829999 1.0190001 19 0 0 0 0.016380001
2.467 -1.522 0.59600002 0 0 0 0 0.01639
4.2059999 -2.6040001 1.015 22 0 0 0 0.0164
2.425 -1.507 0.58399999 0 0 0 0 0.016410001
4.2210002 -2.632 1.015 23 0 0 0 0.016419999
4.2140002 -2.6370001 1.01 19 0 0 0 0.01643
4.223 -2.651 1.01 11 0 0 0 0.01644
4.1599998 -2.6210001 0.99299997 8 0 0 0 0.016450001
4.171 -2.6359999 0.99299997 13 0 0 0 0.01646
4.1750002 -2.6470001 0.991 13 0 0 0 0.01647
4.0440001 -2.572 0.95700002 8 0 0 0 0.016480001
4.0339999 -2.5739999 0.95200002 7 0 0 0 0.016489999
4.0240002 -2.575 0.94700003 7 0 0 0 0.0165
4.0539999 -2.6010001 0.95099998 7 0 0 0 0.01651
4.0100002 -2.5799999 0.93800002 6 0 0 0 0.016519999
3.9960001 -2.5780001 0.93099999 7 0 0 0 0.01653
3.9979999 -2.586 0.92799997 6 0 0 0 0.01654
3.9909999 -2.5880001 0.92299998 6 0 0 0 0.016550001
3.9990001 -2.5999999 0.92199999 7 0 0 0 0.016559999
4.0040002 -2.6099999 0.91900003 7 0 0 0 0.01657
4.013 -2.622 0.91799998 7 0 0 0 0.016580001
4.0050001 -2.6229999 0.912 7 0 0 0 0.016589999
3.9860001 -2.6159999 0.90399998 7 0 0 0 0.0166
3.9849999 -2.6210001 0.89999998 7 0 0 0 0.01661
4.0170002 -2.648 0.903 13 0 0 0 0.016620001
4.0159998 -2.652 0.89899999 22 0 0 0 0.01663
4.0079999 -2.652 0.89300001 32 0 0 0 0.01664
4.0110002 -2.658 0.889 42 0 0 0 0.016650001
4.0110002 -2.6630001 0.88499999 38 0 0 0 0.016659999
4.0100002 -2.6670001 0.88 29 0 0 0 0.01667
4.0170002 -2.6760001 0.87699997 23 0 0 0 0.01668
4.0149999 -2.6789999 0.87199998 16 0 0 0 0.016690001
4.0180001 -2.6849999 0.86799997 13 0 0 0 0.0167
4.0089998 -2.6830001 0.861 14 0 0 0 0.01671
4.0079999 -2.6849999 0.85600001 14 0 0 0 0.016720001
4.0110002 -2.6900001 0.852 14 0 0 0 0.016729999
4.0110002 -2.6930001 0.847 13 0 0 0 0.01674
3.9619999 -2.6630001 0.83099997 7 0 0 0 0.01675
3.9949999 -2.688 0.833 7 0 0 0 0.016759999
4.0029998 -2.6949999 0.82999998 7 0 0 0 0.01677
3.9419999 -2.6570001 0.81199998 6 0 0 0 0.01678
2.9579999 -1.995 0.60500002 0 0 0 0 0.016790001
3.9460001 -2.6630001 0.80199999 6 0 0 0 0.016799999
2.487 -1.679 0.50199997 0 0 0 0 0.01681
3.9489999 -2.668 0.79100001 6 0 0 0 0.01682
3.9400001 -2.6630001 0.78399998 6 0 0 0 0.016829999
3.9519999 -2.6719999 0.78100002 6 0 0 0 0.01684
3.948 -2.6700001 0.77399999 7 0 0 0 0.01685
3.98 -2.6919999 0.77499998 7 0 0 0 0.016860001
4.0019999 -2.707 0.773 7 0 0 0 0.016869999
3.9949999 -2.7019999 0.76599997 7 0 0 0 0.01688
3.9860001 -2.6960001 0.75800002 7 0 0 0 0.016890001
3.931 -2.6589999 0.74199998 7 0 0 0 0.016899999
3.9489999 -2.6700001 0.73900002 6 0 0 0 0.01691
3.882 -2.6240001 0.72100002 6 0 0 0 0.01692
3.8789999 -2.6210001 0.71499997 6 0 0 0 0.016930001
3.8959999 -2.631 0.71200001 6 0 0 0 0.01694
2.9130001 -1.966 0.528 0 0 0 0 0.01695
3.875 -2.6140001 0.69599998 6 0 0 0 0.016960001
3.0339999 -2.0450001 0.54000002 0 0 0 0 0.016969999
3.7650001 -2.536 0.66399997 6 0 0 0 0.01698
3.0150001 -2.029 0.52700001 0 0 0 0 0.01699
3.003 -2.0190001 0.51999998 0 0 0 0 0.017000001
4.0079999 -2.6919999 0.68800002 16 0 0 0 0.01701
4.0120001 -2.6919999 0.68199998 22 0 0 0 0.01702
4.006 -2.6849999 0.67500001 28 0 0 0 0.017030001
4.0079999 -2.6830001 0.66900003 36 0 0 0 0.017039999
4.0089998 -2.6800001 0.662 44 0 0 0 0.01705
4.0079999 -2.675 0.65499997 44 0 0 0 0.01706
4.0120001 -2.674 0.64999998 39 0 0 0 0.017069999
2.9719999 -1.978 0.47600001 0 0 0 0 0.01708
4.0089998 -2.664 0.63599998 20 0 0 0 0.01709
2.9519999 -1.9579999 0.463 0 0 0 0 0.017100001
3.868 -2.5610001 0.60100001 5 0 0 0 0.017109999
3.9849999 -2.6329999 0.61199999 5 0 0 0 0.01712
3.9400001 -2.599 0.59899998 6 0 0 0 0.017130001
3.7850001 -2.4920001 0.56900001 7 0 0 0 0.017139999
3.681 -2.418 0.54699999 6 0 0 0 0.01715
3.7019999 -2.4260001 0.54500002 5 0 0 0 0.01716
3.6960001 -2.4170001 0.53799999 6 0 0 0 0.017170001
3.721 -2.428 0.53500003 6 0 0 0 0.01718
4.0029998 -2.6059999 0.56900001 9 0 0 0 0.01719
4.0079999 -2.6029999 0.56300002 10 0 0 0 0.017200001
3.779 -2.448 0.52399999 7 0 0 0 0.017209999
3.7880001 -2.447 0.51999998 6 0 0 0 0.01722
3.8559999 -2.4849999 0.523 6 0 0 0 0.01723
3.8870001 -2.4979999 0.51999998 6 0 0 0 0.017240001
3.9349999 -2.5209999 0.51999998 6 0 0 0 0.01725
3.921 -2.5050001 0.51200002 6 0 0 0 0.01726
3.938 -2.5090001 0.50800002 6 0 0 0 0.017270001
3.9890001 -2.5339999 0.50800002 6 0 0 0 0.017279999
3.9879999 -2.5250001 0.50099999 6 0 0 0 0.01729
3.977 -2.5109999 0.493 6 0 0 0 0.0173
3.9400001 -2.4790001 0.48300001 6 0 0 0 0.017309999
3.9820001 -2.497 0.48100001 6 0 0 0 0.01732
4.0050001 -2.503 0.47799999 10 0 0 0 0.01733
3.9749999 -2.4760001 0.46799999 6 0 0 0 0.017340001
3.8729999 -2.404 0.44999999 4 0 0 0 0.017349999
3.7820001 -2.339 0.433 4 0 0 0 0.01736
3.8759999 -2.3889999 0.43799999 6 0 0 0 0.01737
4.0009999 -2.457 0.44600001 12 0 0 0 0.017379999
3.865 -2.3640001 0.42399999 6 0 0 0 0.01739
3.8729999 -2.3599999 0.419 6 0 0 0 0.0174
2.9820001 -1.8099999 0.31799999 0 0 0 0 0.017410001
3.9319999 -2.3770001 0.414 6 0 0 0 0.017419999
2.8989999 -1.7460001 0.30000001 0 0 0 0 0.01743
2.997 -1.7970001 0.30599999 0 0 0 0 0.017440001
3.862 -2.3069999 0.389 5 0 0 0 0.017449999
4.053 -2.4100001 0.40200001 4 0 0 0 0.01746
2.5090001 -1.4859999 0.245 0 0 0 0 0.01747
4.1479998 -2.4449999 0.39899999 3 0 0 0 0.017480001
3.9879999 -2.3410001 0.37799999 3 0 0 0 0.01749
2.4619999 -1.438 0.229 0 0 0 0 0.0175
4.1820002 -2.4330001 0.384 14 0 0 0 0.017510001
4.1830001 -2.4219999 0.37799999 18 0 0 0 0.017519999
2.4909999 -1.436 0.221 0 0 0 0 0.01753
2.464 -1.414 0.215 0 0 0 0 0.01754
3.01 -1.7180001 0.259 0 0 0 0 0.017550001
2.4349999 -1.3839999 0.206 0 0 0 0 0.01756
2.4749999 -1.399 0.206 0 0 0 0 0.01757
2.4319999 -1.368 0.199 0 0 0 0 0.017580001
3.0220001 -1.691 0.243 0 0 0 0 0.017589999
2.4960001 -1.39 0.198 0 0 0 0 0.0176
2.474 -1.3710001 0.193 0 0 0 0 0.01761
2.47 -1.3609999 0.189 0 0 0 0 0.017619999
2.497 -1.369 0.18799999 0 0 0 0 0.01763
2.385 -1.301 0.176 0 0 0 0 0.01764
2.3929999 -1.298 0.17399999 0 0 0 0 0.017650001
2.434 -1.313 0.17399999 0 0 0 0 0.017659999
2.471 -1.326 0.17299999 0 0 0 0 0.01767
2.408 -1.285 0.16599999 0 0 0 0 0.017680001
2.425 -1.2869999 0.164 0 0 0 0 0.017689999
2.4119999 -1.272 0.16 0 0 0 0 0.0177
2.4619999 -1.291 0.16 0 0 0 0 0.01771
2.4219999 -1.263 0.155 0 0 0 0 0.017720001
0 0 0 0 0 0 0 0.017729999
0 0 0 0 0 0 0 0.01774
4.7010002 -2.408 0.28400001 18 0 0 0 0.017750001
4.6830001 -2.3840001 0.27700001 8 0 0 0 0.017759999
0 0 0 0 0 0 0 0.01777
0 0 0 0 0 0 0 0.01778
0 0 0 0 0 0 0 0.017790001
0 0 0 0 0 0 0 0.0178
0 0 0 0 0 0 0 0.01781
0 0 0 0 0 0 0 0.017820001
1.248 -0.60799998 0.064000003 1 0 0 0 0.017829999
1.242 -0.60100001 0.061999999 1 0 0 0 0.01784
1.24 -0.59600002 0.061000001 1 0 0 0 0.01785
1.2410001 -0.59200001 0.059999999 1 0 0 0 0.017859999
1.24 -0.588 0.057999998 1 0 0 0 0.01787
1.237 -0.583 0.057 1 0 0 0 0.01788
1.239 -0.57999998 0.056000002 1 0 0 0 0.017890001
1.234 -0.57300001 0.054000001 1 0 0 0 0.017899999
1.232 -0.56900001 0.052999999 1 0 0 0 0.01791
1.226 -0.56099999 0.052000001 1 0 0 0 0.01792
1.227 -0.55800003 0.050000001 1 0 0 0 0.017929999
1.23 -0.55500001 0.048999999 1 0 0 0 0.01794
1.227 -0.55000001 0.048 1 0 0 0 0.01795
1.217 -0.542 0.046999998 1 0 0 0 0.017960001
1.205 -0.53200001 0.045000002 0 0 0 0 0.017969999
1.193 -0.523 0.044 1 0 0 0 0.01798
1.2130001 -0.528 0.043000001 1 0 0 0 0.017990001
1.209 -0.52200001 0.041999999 1 0 0 0 0.017999999
1.212 -0.51899999 0.041000001 19 0 0 0 0.01801
2.415 -1.027 0.079999998 150 0 0 0 0.01802
2.4189999 -1.021 0.078000002 44 0 0 0 0.018030001
2.411 -1.01 0.075999998 19 0 0 0 0.01804
2.411 -1.001 0.074000001 23 0 0 0 0.01805
2.4089999 -0.99299997 0.071999997 22 0 0 0 0.018060001
2.4119999 -0.986 0.07 22 0 0 0 0.018069999
2.4089999 -0.977 0.068999998 23 0 0 0 0.01808
2.4070001 -0.96799999 0.067000002 21 0 0 0 0.01809
2.4030001 -0.958 0.064999998 19 0 0 0 0.018100001
2.4059999 -0.95200002 0.063000001 20 0 0 0 0.01811
2.4059999 -0.94300002 0.061000001 19 0 0 0 0.01812
2.4030001 -0.93400002 0.059 18 0 0 0 0.018130001
2.401 -0.92500001 0.057999998 20 0 0 0 0.018139999
2.3989999 -0.91600001 0.056000002 20 0 0 0 0.01815
2.401 -0.90899998 0.054000001 21 0 0 0 0.01816
2.401 -0.90100002 0.052999999 22 0 0 0 0.018169999
2.4030001 -0.89399999 0.050999999 25 0 0 0 0.01818
2.402 -0.88499999 0.050000001 24 0 0 0 0.01819
2.4000001 -0.87699997 0.048 21 0 0 0 0.018200001
2.401 -0.86900002 0.046999998 19 0 0 0 0.018209999
2.398 -0.86000001 0.045000002 19 0 0 0 0.01822
2.398 -0.852 0.044 21 0 0 0 0.018230001
2.3970001 -0.84299999 0.041999999 22 0 0 0 0.018239999
2.398 -0.83600003 0.041000001 22 0 0 0 0.01825
2.3940001 -0.82700002 0.039000001 23 0 0 0 0.01826
2.3900001 -0.81699997 0.037999999 23 0 0 0 0.018270001
2.395 -0.81099999 0.037 21 0 0 0 0.018279999
2.3940001 -0.80199999 0.035 22 0 0 0 0.01829
2.395 -0.79500002 0.034000002 23 0 0 0 0.018300001
2.3929999 -0.78600001 0.033 23 0 0 0 0.018309999
2.395 -0.778 0.030999999 22 0 0 0 0.01832
2.3929999 -0.76999998 0.029999999 20 0 0 0 0.01833
2.392 -0.76099998 0.028999999 18 0 0 0 0.018340001
2.3900001 -0.75300002 0.028000001 17 0 0 0 0.01835
2.3900001 -0.745 0.027000001 18 0 0 0 0.01836
2.388 -0.736 0.025 19 0 0 0 0.018370001
2.391 -0.72899997 0.024 20 0 0 0 0.018379999
2.3840001 -0.71899998 0.023 22 0 0 0 0.01839
2.3859999 -0.71200001 0.022 20 0 0 0 0.0184
2.385 -0.70300001 0.021 22 0 0 0 0.018409999
2.3840001 -0.69499999 0.02 23 0 0 0 0.01842
2.3859999 -0.68800002 0.018999999 24 0 0 0 0.01843
2.3870001 -0.68000001 0.017999999 21 0 0 0 0.018440001
2.385 -0.671 0.017000001 20 0 0 0 0.018449999
2.3829999 -0.66299999 0.016000001 18 0 0 0 0.01846
2.3789999 -0.65399998 0.015 16 0 0 0 0.01847
2.385 -0.64700001 0.015 21 0 0 0 0.018479999
2.3840001 -0.639 0.014 21 0 0 0 0.01849
2.381 -0.63 0.013 23 0 0 0 0.0185
2.3829999 -0.62300003 0.012 23 0 0 0 0.018510001
2.3859999 -0.616 0.011 19 0 0 0 0.018519999
2.3800001 -0.60600001 0.0099999998 20 0 0 0 0.01853
2.381 -0.59899998 0.0099999998 18 0 0 0 0.018540001
2.385 -0.59200001 0.0089999996 20 0 0 0 0.018549999
2.381 -0.583 0.0080000004 20 0 0 0 0.01856
2.3800001 -0.57499999 0.0070000002 16 0 0 0 0.01857
2.378 -0.56599998 0.0070000002 21 0 0 0 0.018580001
2.3789999 -0.55800003 0.0060000001 23 0 0 0 0.01859
2.3770001 -0.55000001 0.0049999999 23 0 0 0 0.0186
2.3829999 -0.54400003 0.0049999999 20 0 0 0 0.018610001
2.381 -0.53500003 0.0040000002 16 0 0 0 0.018619999
2.378 -0.52700001 0.003 10 0 0 0 0.01863
2.375 -0.51800001 0.003 17 0 0 0 0.01864
2.378 -0.51099998 0.0020000001 23 0 0 0 0.018650001
2.375 -0.50199997 0.0020000001 25 0 0 0 0.01866
2.3740001 -0.49399999 0.001 24 0 0 0 0.01867
2.3729999 -0.486 0.001 23 0 0 0 0.018680001
2.3740001 -0.479 0 20 0 0 0 0.018689999
2.3770001 -0.47099999 0 17 0 0 0 0.0187
2.375 -0.463 0 14 0 0 0 0.01871
2.3710001 -0.45500001 0 14 0 0 0 0.018719999
2.3789999 -0.44800001 -0.001 18 0 0 0 0.01873
2.375 -0.44 -0.001 18 0 0 0 0.01874
2.375 -0.43200001 -0.001 17 0 0 0 0.018750001
2.3699999 -0.42300001 -0.0020000001 21 0 0 0 0.018759999
2.3699999 -0.41499999 -0.0020000001 24 0 0 0 0.01877
2.372 -0.40799999 -0.0020000001 23 0 0 0 0.018780001
2.369 -0.39899999 -0.003 20 0 0 0 0.018789999
2.3699999 -0.39199999 -0.003 21 0 0 0 0.0188
2.3710001 -0.384 -0.003 21 0 0 0 0.01881
2.368 -0.37599999 -0.0040000002 18 0 0 0 0.018820001
2.3710001 -0.36899999 -0.0040000002 15 0 0 0 0.018829999
2.368 -0.36000001 -0.0040000002 16 0 0 0 0.01884
2.3659999 -0.352 -0.0040000002 17 0 0 0 0.018850001
2.3659999 -0.345 -0.0049999999 19 0 0 0 0.018859999
2.3659999 -0.33700001 -0.0049999999 18 0 0 0 0.01887
2.3629999 -0.329 -0.0049999999 20 0 0 0 0.01888
2.3740001 -0.322 -0.0049999999 24 0 0 0 0.018890001
2.4119999 -0.31999999 -0.0049999999 23 0 0 0 0.0189
2.464 -0.31900001 -0.0060000001 27 0 0 0 0.01891
2.5380001 -0.31999999 -0.0060000001 31 0 0 0 0.018920001
2.579 -0.317 -0.0060000001 28 0 0 0 0.018929999
2.8729999 -0.34299999 -0.0070000002 150 0 0 0 0.01894
3.187 -0.37 -0.0080000004 150 0 0 0 0.01895
3.211 -0.36300001 -0.0080000004 150 0 0 0 0.018959999
3.2060001 -0.352 -0.0080000004 150 0 0 0 0.01897
3.207 -0.34099999 -0.0080000004 150 0 0 0 0.01898
3.2019999 -0.331 -0.0080000004 150 0 0 0 0.018990001
3.207 -0.32100001 -0.0080000004 150 0 0 0 0.018999999
3.2409999 -0.31299999 -0.0089999996 152 0 0 0 0.01901
3.2349999 -0.30199999 -0.0080000004 151 0 0 0 0.01902
3.2379999 -0.292 -0.0080000004 151 0 0 0 0.019029999
3.2390001 -0.28200001 -0.0080000004 152 0 0 0 0.01904
3.237 -0.271 -0.0080000004 152 0 0 0 0.01905
3.243 -0.26100001 -0.0080000004 150 0 0 0 0.019060001
3.3429999 -0.25799999 -0.0080000004 150 0 0 0 0.019069999
3.3440001 -0.24699999 -0.0080000004 152 0 0 0 0.01908
3.3499999 -0.237 -0.0080000004 152 0 0 0 0.019090001
3.3469999 -0.226 -0.0080000004 152 0 0 0 0.019099999
3.345 -0.215 -0.0080000004 151 0 0 0 0.01911
3.3710001 -0.206 -0.0080000004 152 0 0 0 0.01912
3.3699999 -0.19400001 -0.0070000002 151 0 0 0 0.019130001
3.3699999 -0.184 -0.0070000002 150 0 0 0 0.01914
3.4159999 -0.175 -0.0070000002 154 0 0 0 0.01915
3.4400001 -0.16500001 -0.0070000002 151 0 0 0 0.019160001
3.4330001 -0.154 -0.0060000001 150 0 0 0 0.019169999
3.4319999 -0.142 -0.0060000001 150 0 0 0 0.01918
3.434 -0.131 -0.0060000001 150 0 0 0 0.01919
3.4319999 -0.12 -0.0049999999 150 0 0 0 0.019200001
3.4360001 -0.109 -0.0049999999 150 0 0 0 0.01921
3.4260001 -0.097999997 -0.0040000002 150 0 0 0 0.01922
3.4230001 -0.086999997 -0.0040000002 150 0 0 0 0.019230001
3.431 -0.075999998 -0.0040000002 150 0 0 0 0.019239999
3.424 -0.064000003 -0.003 150 0 0 0 0.01925
3.424 -0.052999999 -0.003 150 0 0 0 0.01926
3.424 -0.041999999 -0.0020000001 150 0 0 0 0.019269999
3.4289999 -0.030999999 -0.0020000001 150 0 0 0 0.01928
3.4189999 -0.02 -0.001 150 0 0 0 0.01929
3.4189999 -0.0089999996 0 150 0 0 0 0.019300001
3.414 0.001 0 151 0 0 0 0.019309999
3.418 0.012 0 151 0 0 0 0.01932
3.418 0.023 0 151 0 0 0 0.019330001
3.421 0.034000002 0.001 151 0 0 0 0.019339999
3.418 0.045000002 0.0020000001 152 0 0 0 0.01935
3.4170001 0.056000002 0.0020000001 152 0 0 0 0.01936
3.4119999 0.067000002 0.003 153 0 0 0 0.019370001
3.4070001 0.078000002 0.0040000002 153 0 0 0 0.019379999
3.4030001 0.089000002 0.0040000002 153 0 0 0 0.01939
3.401 0.1 0.0049999999 154 0 0 0 0.019400001
3.385 0.11 0.0060000001 154 0 0 0 0.019409999
3.381 0.121 0.0070000002 155 0 0 0 0.01942
3.3829999 0.132 0.0070000002 155 0 0 0 0.01943
3.3770001 0.14300001 0.0080000004 156 0 0 0 0.019440001
3.3699999 0.153 0.0089999996 157 0 0 0 0.01945
3.369 0.164 0.0099999998 157 0 0 0 0.01946
3.365 0.175 0.011 157 0 0 0 0.019470001
3.3599999 0.186 0.012 158 0 0 0 0.019479999
3.3629999 0.197 0.013 158 0 0 0 0.01949
3.3629999 0.208 0.014 159 0 0 0 0.0195
3.358 0.21799999 0.014 159 0 0 0 0.019509999
3.358 0.229 0.015 159 0 0 0 0.01952
3.359 0.23999999 0.016000001 159 0 0 0 0.01953
3.3540001 0.25 0.017000001 160 0 0 0 0.019540001
3.358 0.26100001 0.017999999 160 0 0 0 0.019549999
3.352 0.27200001 0.018999999 160 0 0 0 0.01956
3.355 0.28299999 0.021 159 0 0 0 0.01957
3.355 0.294 0.022 159 0 0 0 0.019579999
3.352 0.30399999 0.023 158 0 0 0 0.01959
3.359 0.31600001 0.024 157 0 0 0 0.0196
3.369 0.32800001 0.025 156 0 0 0 0.019610001
3.3629999 0.338 0.026000001 156 0 0 0 0.019619999
3.3570001 0.34799999 0.027000001 158 0 0 0 0.01963
3.3540001 0.359 0.028000001 157 0 0 0 0.019640001
3.365 0.37099999 0.029999999 156 0 0 0 0.019649999
3.3659999 0.382 0.030999999 155 0 0 0 0.01966
3.3759999 0.39399999 0.032000002 154 0 0 0 0.01967
3.375 0.405 0.034000002 154 0 0 0 0.019680001
3.382 0.417 0.035 153 0 0 0 0.01969
3.392 0.42899999 0.037 152 0 0 0 0.0197
3.3929999 0.44 0.037999999 152 0 0 0 0.019710001
3.3900001 0.45100001 0.039000001 151 0 0 0 0.019719999
3.3889999 0.46200001 0.041000001 151 0 0 0 0.01973
3.3870001 0.47299999 0.041999999 151 0 0 0 0.01974
3.3900001 0.484 0.044 151 0 0 0 0.019750001
3.3840001 0.49399999 0.045000002 151 0 0 0 0.01976
3.3789999 0.50400001 0.046 152 0 0 0 0.01977
3.362 0.51300001 0.048 153 0 0 0 0.019780001
3.3199999 0.51700002 0.048999999 151 0 0 0 0.019789999
3.3239999 0.528 0.050000001 152 0 0 0 0.0198
3.3039999 0.53600001 0.050999999 151 0 0 0 0.01981
3.2880001 0.54400003 0.052999999 153 0 0 0 0.019819999
3.2869999 0.55500001 0.054000001 153 0 0 0 0.01983
3.2850001 0.565 0.056000002 153 0 0 0 0.01984
3.2909999 0.57700002 0.057999998 152 0 0 0 0.019850001
3.2720001 0.58399999 0.059 45 0 0 0 0.019859999
3.221 0.58600003 0.059999999 24 0 0 0 0.01987
3.151 0.583 0.059999999 24 0 0 0 0.019880001
3.0799999 0.57999998 0.059999999 24 0 0 0 0.019889999
3.003 0.57499999 0.059999999 25 0 0 0 0.0199
2.9360001 0.57200003 0.059999999 25 0 0 0 0.01991
2.888 0.57200003 0.061000001 26 0 0 0 0.019920001
2.819 0.56800002 0.061000001 27 0 0 0 0.019929999
2.7030001 0.55299997 0.059999999 26 0 0 0 0.01994
2.6199999 0.54500002 0.059999999 23 0 0 0 0.019950001
2.5409999 0.53600001 0.059 20 0 0 0 0.019959999
2.484 0.53299999 0.059 20 0 0 0 0.01997
2.424 0.528 0.059 19 0 0 0 0.01998
2.365 0.52200001 0.059 18 0 0 0 0.019990001
2.28 0.51099998 0.059 109 0 0 0 0.02
2.2590001 0.514 0.059 151 0 0 0 0.02001
2.247 0.51800001 0.059999999 151 0 0 0 0.020020001
2.2449999 0.52499998 0.061999999 151 0 0 0 0.020029999
2.233 0.52999997 0.063000001 150 0 0 0 0.02004
2.227 0.53600001 0.064000003 151 0 0 0 0.02005
2.2309999 0.54400003 0.066 150 0 0 0 0.020059999
2.2290001 0.551 0.067000002 151 0 0 0 0.02007
2.2290001 0.55800003 0.068999998 151 0 0 0 0.02008
2.227 0.565 0.07 151 0 0 0 0.020090001
2.2249999 0.57200003 0.071999997 151 0 0 0 0.020099999
2.223 0.579 0.072999999 150 0 0 0 0.02011
2.2249999 0.58600003 0.075000003 151 0 0 0 0.02012
2.224 0.59299999 0.075999998 151 0 0 0 0.020129999
2.2360001 0.60399997 0.078000002 151 0 0 0 0.02014
2.234 0.611 0.079999998 151 0 0 0 0.02015
2.2320001 0.61799997 0.081 151 0 0 0 0.020160001
2.233 0.625 0.082999997 151 0 0 0 0.020169999
2.2320001 0.63200003 0.085000001 151 0 0 0 0.02018
2.27 0.65100002 0.088 150 0 0 0 0.020190001
2.4219999 0.70200002 0.096000001 150 0 0 0 0.020199999
2.484 0.72799999 0.1 150 0 0 0 0.02021
2.4860001 0.73699999 0.102 150 0 0 0 0.02022
2.4860001 0.745 0.104 150 0 0 0 0.020230001
2.4820001 0.75199997 0.106 150 0 0 0 0.02024
2.3599999 0.72299999 0.103 150 0 0 0 0.02025
2.516 0.77899998 0.112 148 0 0 0 0.020260001
1.526 0.477 0.068999998 1 0 0 0 0.020269999
1.46 0.461 0.067000002 1 0 0 0 0.02028
1.429 0.456 0.067000002 1 0 0 0 0.02029
1.425 0.46000001 0.068000004 1 0 0 0 0.020300001
1.413 0.46000001 0.068999998 1 0 0 0 0.02031
1.37 0.45100001 0.068000004 1 0 0 0 0.02032
1.369 0.45500001 0.068999998 1 0 0 0 0.020330001
1.344 0.45100001 0.068999998 0 0 0 0 0.020339999
1.3279999 0.44999999 0.068999998 5 0 0 0 0.02035
1.321 0.45199999 0.07 28 0 0 0 0.02036
1.304 0.44999999 0.07 107 0 0 0 0.020369999
1.293 0.45100001 0.071000002 150 0 0 0 0.02038
1.2970001 0.45699999 0.071999997 138 0 0 0 0.02039
1.294 0.46000001 0.072999999 150 0 0 0 0.020400001
1.2970001 0.465 0.075000003 150 0 0 0 0.020409999
1.295 0.46900001 0.075999998 150 0 0 0 0.02042
1.295 0.47299999 0.077 132 0 0 0 0.02043
1.293 0.47600001 0.079000004 150 0 0 0 0.020439999
1.294 0.48100001 0.079999998 139 0 0 0 0.02045
1.2920001 0.484 0.081 145 0 0 0 0.02046
1.296 0.49000001 0.082999997 139 0 0 0 0.020470001
1.301 0.49599999 0.083999999 69 0 0 0 0.020479999
1.295 0.498 0.085000001 17 0 0 0 0.02049
1.283 0.498 0.086000003 6 0 0 0 0.020500001
1.2589999 0.49200001 0.086000003 0 0 0 0 0.020509999
3.3139999 1.308 0.23 1 0 0 0 0.02052
3.332 1.325 0.235 3 0 0 0 0.02053
3.3180001 1.33 0.237 5 0 0 0 0.020540001
3.312 1.339 0.241 5 0 0 0 0.02055
3.3210001 1.353 0.245 3 0 0 0 0.02056
3.302 1.3559999 0.248 2 0 0 0 0.020570001
3.2709999 1.354 0.249 2 0 0 0 0.020579999
3.263 1.3609999 0.252 3 0 0 0 0.02059
3.2490001 1.365 0.255 4 0 0 0 0.0206
3.2609999 1.381 0.25999999 3 0 0 0 0.020609999
3.263 1.392 0.264 3 0 0 0 0.02062
3.2320001 1.3890001 0.26499999 3 0 0 0 0.02063
3.243 1.404 0.27000001 3 0 0 0 0.020640001
3.24 1.413 0.27399999 3 0 0 0 0.020649999
3.2249999 1.4170001 0.27700001 3 0 0 0 0.02066
3.221 1.425 0.28 2 0 0 0 0.02067
3.2049999 1.428 0.28299999 1 0 0 0 0.020679999
3.1530001 1.415 0.28200001 0 0 0 0 0.02069
3.1359999 1.4170001 0.285 1 0 0 0 0.0207
3.109 1.415 0.287 2 0 0 0 0.020710001
3.095 1.418 0.289 2 0 0 0 0.020719999
3.112 1.436 0.29499999 3 0 0 0 0.02073
3.1140001 1.446 0.30000001 3 0 0 0 0.020740001
3.108 1.4529999 0.303 2 0 0 0 0.020749999
3.089 1.4529999 0.30599999 2 0 0 0 0.02076
3.089 1.4630001 0.31 2 0 0 0 0.02077
3.066 1.462 0.31200001 2 0 0 0 0.020780001
3.0710001 1.473 0.317 2 0 0 0 0.02079
3.069 1.482 0.32100001 2 0 0 0 0.0208
3.069 1.4910001 0.32499999 2 0 0 0 0.020810001
3.0599999 1.4960001 0.32800001 2 0 0 0 0.020819999
3.069 1.5089999 0.33399999 2 0 0 0 0.02083
3.0580001 1.513 0.33700001 2 0 0 0 0.02084
3.0650001 1.525 0.34200001 1 0 0 0 0.020850001
3.0969999 1.551 0.34999999 0 0 0 0 0.02086
0.91100001 0.45899999 0.104 0 0 0 0 0.02087
0.90899998 0.46000001 0.105 3 0 0 0 0.020880001
0.90899998 0.463 0.107 3 0 0 0 0.020889999
0.92000002 0.47099999 0.109 4 0 0 0 0.0209
0.91000003 0.46900001 0.109 4 0 0 0 0.02091
0.92000002 0.477 0.112 4 0 0 0 0.020919999
0.91000003 0.47400001 0.112 0 0 0 0 0.02093
3.6700001 1.923 0.46000001 3 0 0 0 0.02094
3.675 1.936 0.46700001 5 0 0 0 0.020950001
3.6489999 1.933 0.46900001 7 0 0 0 0.020959999
3.6229999 1.929 0.47099999 6 0 0 0 0.02097
3.5910001 1.9220001 0.47299999 4 0 0 0 0.02098
3.5120001 1.8890001 0.46799999 3 0 0 0 0.020989999
3.434 1.857 0.463 3 0 0 0 0.021
3.398 1.847 0.46399999 2 0 0 0 0.02101
3.352 1.831 0.463 2 0 0 0 0.021020001
3.299 1.8099999 0.461 2 0 0 0 0.021029999
3.3770001 1.862 0.47799999 3 0 0 0 0.02104
3.474 1.925 0.49700001 4 0 0 0 0.021050001
3.569 1.987 0.51700002 5 0 0 0 0.021059999
3.5580001 1.99 0.52100003 5 0 0 0 0.02107
3.55 1.995 0.52600002 6 0 0 0 0.02108
3.5599999 2.0090001 0.53399998 5 0 0 0 0.021090001
3.569 2.023 0.54100001 5 0 0 0 0.0211
3.5650001 2.03 0.54699999 6 0 0 0 0.02111
3.573 2.043 0.55400002 6 0 0 0 0.021120001
3.5699999 2.0510001 0.56 5 0 0 0 0.021129999
3.5350001 2.039 0.56099999 3 0 0 0 0.02114
3.506 2.03 0.56199998 2 0 0 0 0.02115
3.4679999 2.017 0.56199998 2 0 0 0 0.021159999
3.4119999 1.992 0.55900002 1 0 0 0 0.02117
3.4820001 2.0409999 0.57599998 2 0 0 0 0.02118
3.4679999 2.04 0.57999998 2 0 0 0 0.021190001
3.368 1.99 0.56999999 1 0 0 0 0.021199999
3.309 1.962 0.565 1 0 0 0 0.02121
3.2490001 1.933 0.56099999 1 0 0 0 0.02122
3.2379999 1.934 0.565 1 0 0 0 0.021229999
3.2320001 1.937 0.56999999 1 0 0 0 0.02124
3.2309999 1.943 0.57499999 1 0 0 0 0.02125
3.2179999 1.942 0.579 1 0 0 0 0.021260001
3.2279999 1.954 0.58600003 1 0 0 0 0.021269999
3.2160001 1.9529999 0.58999997 1 0 0 0 0.02128
3.2609999 1.987 0.60399997 1 0 0 0 0.021290001
3.349 2.0469999 0.62599999 1 0 0 0 0.021299999
3.51 2.152 0.66299999 2 0 0 0 0.02131
3.5929999 2.21 0.68599999 4 0 0 0 0.02132
3.6110001 2.227 0.69499999 5 0 0 0 0.021330001
3.6170001 2.237 0.70300001 5 0 0 0 0.02134
3.618 2.244 0.70999998 5 0 0 0 0.02135
3.609 2.2449999 0.71499997 4 0 0 0 0.021360001
3.628 2.2620001 0.72500002 4 0 0 0 0.021369999
3.632 2.2709999 0.73199999 4 0 0 0 0.02138
3.632 2.277 0.73900002 4 0 0 0 0.02139
3.6370001 2.2850001 0.74699998 4 0 0 0 0.021400001
3.6329999 2.2880001 0.75300002 4 0 0 0 0.02141
3.635 2.2939999 0.759 3 0 0 0 0.02142
3.6470001 2.3069999 0.76899999 3 0 0 0 0.021430001
3.6400001 2.3069999 0.77399999 3 0 0 0 0.021439999
3.638 2.3110001 0.77999997 2 0 0 0 0.02145
3.615 2.3010001 0.78100002 2 0 0 0 0.02146
3.622 2.3099999 0.78899997 2 0 0 0 0.021469999
3.697 2.362 0.81199998 2 0 0 0 0.02148
3.6489999 2.336 0.80800003 1 0 0 0 0.02149
0 0 0 0 0 0 0 0.021500001
0 0 0 0 0 0 0 0.021509999
0 0 0 0 0 0 0 0.02152
0 0 0 0 0 0 0 0.02153
0 0 0 0 0 0 0 0.021539999
0 0 0 0 0 0 0 0.02155
0 0 0 0 0 0 0 0.02156
0 0 0 0 0 0 0 0.021570001
0 0 0 0 0 0 0 0.021579999
0 0 0 0 0 0 0 0.02159
1.317 0.85500002 0.31600001 0 0 0 0 0.021600001
1.295 0.84200001 0.31299999 4 0 0 0 0.021609999
1.296 0.84299999 0.31600001 8 0 0 0 0.02162
1.303 0.84799999 0.31999999 8 0 0 0 0.02163
1.316 0.85699999 0.32499999 3 0 0 0 0.021640001
1.302 0.84799999 0.324 11 0 0 0 0.02165
1.303 0.84899998 0.32600001 12 0 0 0 0.02166
1.301 0.84799999 0.32800001 14 0 0 0 0.021670001
0 0 0 0 0 0 0 0.021679999
1.3099999 0.85399997 0.33399999 13 0 0 0 0.02169
1.4119999 0.921 0.36199999 2 0 0 0 0.0217
1.382 0.90200001 0.35699999 0 0 0 0 0.021709999
1.403 0.91500002 0.36399999 0 0 0 0 0.02172
0 0 0 0 0 0 0 0.02173
0 0 0 0 0 0 0 0.021740001
0 0 0 0 0 0 0 0.021749999
0 0 0 0 0 0 0 0.02176
0 0 0 0 0 0 0 0.02177
0 0 0 0 0 0 0 0.021779999
0 0 0 0 0 0 0 0.02179
0 0 0 0 0 0 0 0.0218
0 0 0 0 0 0 0 0.021810001
0 0 0 0 0 0 0 0.021819999
0 0 0 0 0 0 0 0.02183
0 0 0 0 0 0 0 0.021840001
0 0 0 0 0 0 0 0.021849999
0 0 0 0 0 0 0 0.02186
0 0 0 0 0 0 0 0.02187
0 0 0 0 0 0 0 0.021880001
0 0 0 0 0 0 0 0.02189
0 0 0 0 0 0 0 0.0219
0 0 0 0 0 0 0 0.021910001
0 0 0 0 0 0 0 0.021919999
0 0 0 0 0 0 0 0.02193
0 0 0 0 0 0 0 0.02194
0 0 0 0 0 0 0 0.021950001
0 0 0 0 0 0 0 0.02196
0 0 0 0 0 0 0 0.02197
0 0 0 0 0 0 0 0.021980001
0 0 0 0 0 0 0 0.021989999
0 0 0 0 0 0 0 0.022
0 0 0 0 0 0 0 0.02201
0 0 0 0 0 0 0 0.022019999
0 0 0 0 0 0 0 0.02203
1.511 0.94400001 0.44800001 0 0 0 0 0.02204
1.518 0.94599998 0.45100001 0 0 0 0 0.022050001
1.502 0.93400002 0.44800001 0 0 0 0 0.022059999
1.472 0.91299999 0.44 0 0 0 0 0.02207
1.342 0.82999998 0.40200001 0 0 0 0 0.02208
0 0 0 0 0 0 0 0.022089999
0 0 0 0 0 0 0 0.0221
0 0 0 0 0 0 0 0.02211
0 0 0 0 0 0 0 0.022120001
0 0 0 0 0 0 0 0.022129999
0 0 0 0 0 0 0 0.02214
1.4809999 0.89600003 0.449 0 0 0 0 0.022150001
1.506 0.90700001 0.45699999 0 0 0 0 0.022159999
1.5470001 0.92900002 0.47 0 0 0 0 0.02217
1.554 0.93000001 0.47299999 0 0 0 0 0.02218
1.5089999 0.89999998 0.46000001 0 0 0 0 0.022190001
1.516 0.89999998 0.46200001 0 0 0 0 0.0222
1.494 0.884 0.456 0 0 0 0 0.02221
1.521 0.89700001 0.465 0 0 0 0 0.022220001
1.5039999 0.88300002 0.46000001 0 0 0 0 0.022229999
1.503 0.87800002 0.46000001 0 0 0 0 0.02224
1.498 0.87199998 0.45899999 0 0 0 0 0.02225
1.459 0.84600002 0.447 0 0 0 0 0.022260001
1.455 0.83999997 0.44600001 0 0 0 0 0.02227
1.268 0.72899997 0.38800001 0 0 0 0 0.02228
0 0 0 0 0 0 0 0.022290001
0 0 0 0 0 0 0 0.022299999
0 0 0 0 0 0 0 0.02231
0 0 0 0 0 0 0 0.02232
0 0 0 0 0 0 0 0.022329999
0 0 0 0 0 0 0 0.02234
0 0 0 0 0 0 0 0.02235
0 0 0 0 0 0 0 0.022360001
0 0 0 0 0 0 0 0.022369999
0 0 0 0 0 0 0 0.02238
1.076 0.588 0.329 0 0 0 0 0.022390001
0 0 0 0 0 0 0 0.022399999
0 0 0 0 0 0 0 0.02241
