# .PCD v0.7 - Point Cloud Data file format
VERSION 0.7
FIELDS x y z intensity normal_x normal_y normal_z curvature
SIZE 4 4 4 4 4 4 4 4
TYPE F F F F F F F F
COUNT 1 1 1 1 1 1 1 1
WIDTH 1010
HEIGHT 1
VIEWPOINT 0 0 0 1 0 0 0
POINTS 1010
DATA ascii
3.3640001 0.15099999 -0.014 160 0 0 0 0.040690001
3.372 0.14 -0.013 158 0 0 0 0.0407
3.378 0.13 -0.011 157 0 0 0 0.040709998
3.3829999 0.119 -0.0099999998 157 0 0 0 0.040720001
3.3829999 0.108 -0.0089999996 156 0 0 0 0.04073
3.3870001 0.097000003 -0.0080000004 154 0 0 0 0.040739998
3.3870001 0.086000003 -0.0070000002 154 0 0 0 0.040750001
3.402 0.075999998 -0.0060000001 154 0 0 0 0.040759999
3.4070001 0.064999998 -0.0049999999 153 0 0 0 0.040770002
3.4119999 0.054000001 -0.0040000002 153 0 0 0 0.04078
3.4230001 0.043000001 -0.003 152 0 0 0 0.040789999
3.4200001 0.032000002 -0.0020000001 152 0 0 0 0.040800001
3.418 0.021 -0.001 152 0 0 0 0.04081
3.421 0.0099999998 0 152 0 0 0 0.040819999
3.4200001 0 0 151 0 0 0 0.040830001
3.418 -0.011 0.001 151 0 0 0 0.04084
3.4200001 -0.022 0.0020000001 151 0 0 0 0.040849999
3.4219999 -0.033 0.003 151 0 0 0 0.040860001
3.427 -0.045000002 0.0040000002 151 0 0 0 0.04087
3.424 -0.056000002 0.0049999999 151 0 0 0 0.040879998
3.424 -0.067000002 0.0049999999 151 0 0 0 0.040890001
3.427 -0.078000002 0.0060000001 151 0 0 0 0.040899999
3.431 -0.089000002 0.0070000002 151 0 0 0 0.040910002
3.4260001 -0.1 0.0080000004 151 0 0 0 0.040920001
3.4349999 -0.111 0.0089999996 151 0 0 0 0.040929999
3.431 -0.122 0.0089999996 151 0 0 0 0.040940002
3.4300001 -0.133 0.0099999998 151 0 0 0 0.04095
3.4330001 -0.14399999 0.011 151 0 0 0 0.040959999
3.4330001 -0.156 0.011 151 0 0 0 0.040970001
3.4260001 -0.16599999 0.012 153 0 0 0 0.04098
3.414 -0.177 0.013 153 0 0 0 0.040989999
3.3670001 -0.185 0.013 151 0 0 0 0.041000001
3.3740001 -0.197 0.014 152 0 0 0 0.04101
3.369 -0.207 0.014 151 0 0 0 0.041019998
3.3469999 -0.21699999 0.015 152 0 0 0 0.041030001
3.3469999 -0.228 0.015 151 0 0 0 0.04104
3.349 -0.23899999 0.016000001 151 0 0 0 0.041049998
3.342 -0.249 0.016000001 153 0 0 0 0.041060001
3.3310001 -0.259 0.017000001 62 0 0 0 0.041069999
3.2390001 -0.26199999 0.017000001 152 0 0 0 0.041080002
3.2260001 -0.27200001 0.017000001 153 0 0 0 0.04109
3.2360001 -0.28299999 0.017999999 152 0 0 0 0.041099999
3.233 -0.29300001 0.017999999 151 0 0 0 0.041110002
3.2349999 -0.30399999 0.017999999 152 0 0 0 0.04112
3.2219999 -0.31299999 0.018999999 153 0 0 0 0.041129999
3.2079999 -0.322 0.018999999 151 0 0 0 0.041140001
3.207 -0.333 0.018999999 151 0 0 0 0.04115
3.211 -0.34299999 0.018999999 151 0 0 0 0.041159999
3.2130001 -0.354 0.02 151 0 0 0 0.041170001
3.211 -0.36399999 0.02 151 0 0 0 0.04118
3.026 -0.35299999 0.018999999 150 0 0 0 0.041189998
2.8039999 -0.336 0.017999999 78 0 0 0 0.041200001
2.5780001 -0.31799999 0.016000001 33 0 0 0 0.041209999
2.5039999 -0.317 0.016000001 29 0 0 0 0.041219998
2.434 -0.31600001 0.016000001 22 0 0 0 0.041230001
2.391 -0.31799999 0.016000001 33 0 0 0 0.041239999
2.3640001 -0.322 0.015 24 0 0 0 0.041250002
2.365 -0.33000001 0.016000001 22 0 0 0 0.04126
2.3640001 -0.338 0.016000001 19 0 0 0 0.041269999
2.3610001 -0.345 0.016000001 20 0 0 0 0.041280001
2.3659999 -0.354 0.016000001 18 0 0 0 0.04129
2.365 -0.361 0.016000001 16 0 0 0 0.041299999
2.3640001 -0.36899999 0.016000001 16 0 0 0 0.041310001
2.3659999 -0.377 0.016000001 20 0 0 0 0.04132
2.3670001 -0.38499999 0.016000001 23 0 0 0 0.041329999
2.368 -0.39300001 0.016000001 23 0 0 0 0.041340001
2.369 -0.40099999 0.016000001 23 0 0 0 0.04135
2.3670001 -0.40799999 0.015 25 0 0 0 0.041359998
2.3640001 -0.41600001 0.015 27 0 0 0 0.041370001
2.3699999 -0.42399999 0.015 22 0 0 0 0.041379999
2.3729999 -0.433 0.015 20 0 0 0 0.041390002
2.3740001 -0.44100001 0.015 22 0 0 0 0.0414
2.375 -0.449 0.015 20 0 0 0 0.041409999
2.3710001 -0.456 0.015 17 0 0 0 0.041420002
2.375 -0.465 0.015 17 0 0 0 0.04143
2.375 -0.472 0.014 19 0 0 0 0.041439999
2.3740001 -0.47999999 0.014 21 0 0 0 0.041450001
2.3729999 -0.48800001 0.014 25 0 0 0 0.04146
2.3729999 -0.49599999 0.014 28 0 0 0 0.041469999
2.3729999 -0.50300002 0.013 28 0 0 0 0.041480001
2.3729999 -0.51099998 0.013 23 0 0 0 0.04149
2.378 -0.51999998 0.013 15 0 0 0 0.041499998
2.378 -0.528 0.012 15 0 0 0 0.041510001
2.375 -0.53500003 0.012 21 0 0 0 0.04152
2.3770001 -0.54400003 0.012 23 0 0 0 0.041529998
2.3759999 -0.55199999 0.011 25 0 0 0 0.041540001
2.381 -0.56099999 0.011 24 0 0 0 0.041549999
2.3789999 -0.56800002 0.0099999998 20 0 0 0 0.041560002
2.3829999 -0.57700002 0.0099999998 18 0 0 0 0.04157
2.3800001 -0.58399999 0.0099999998 23 0 0 0 0.041579999
2.3829999 -0.59299999 0.0089999996 21 0 0 0 0.041590001
2.3789999 -0.60000002 0.0089999996 20 0 0 0 0.0416
2.3800001 -0.60799998 0.0080000004 21 0 0 0 0.041609999
2.382 -0.616 0.0080000004 23 0 0 0 0.041620001
2.3840001 -0.625 0.0070000002 27 0 0 0 0.04163
2.3800001 -0.63200003 0.0060000001 25 0 0 0 0.041639999
2.3829999 -0.64099997 0.0060000001 24 0 0 0 0.041650001
2.385 -0.64899999 0.0049999999 21 0 0 0 0.04166
2.3829999 -0.65700001 0.0049999999 18 0 0 0 0.041669998
2.385 -0.66500002 0.0040000002 20 0 0 0 0.041680001
2.3870001 -0.67400002 0.003 24 0 0 0 0.041689999
2.385 -0.68099999 0.003 24 0 0 0 0.041700002
2.388 -0.69 0.0020000001 27 0 0 0 0.04171
2.3859999 -0.69800001 0.001 27 0 0 0 0.041719999
2.3889999 -0.70700002 0 25 0 0 0 0.041730002
2.3900001 -0.71499997 0 24 0 0 0 0.04174
2.388 -0.72299999 0 24 0 0 0 0.041749999
2.381 -0.72799999 -0.001 20 0 0 0 0.041760001
2.3900001 -0.73900002 -0.0020000001 22 0 0 0 0.04177
2.388 -0.74599999 -0.003 18 0 0 0 0.041779999
2.385 -0.75300002 -0.0040000002 18 0 0 0 0.041790001
2.3889999 -0.76300001 -0.0049999999 20 0 0 0 0.0418
2.3900001 -0.77100003 -0.0060000001 23 0 0 0 0.041809998
2.3870001 -0.778 -0.0070000002 25 0 0 0 0.041820001
2.391 -0.787 -0.0080000004 26 0 0 0 0.04183
2.3900001 -0.79500002 -0.0089999996 26 0 0 0 0.041839998
2.388 -0.80299997 -0.0099999998 24 0 0 0 0.041850001
2.391 -0.81199998 -0.011 27 0 0 0 0.041859999
2.395 -0.82099998 -0.012 28 0 0 0 0.041870002
2.3929999 -0.82800001 -0.013 28 0 0 0 0.04188
2.395 -0.83700001 -0.014 26 0 0 0 0.041889999
2.3959999 -0.84600002 -0.015 27 0 0 0 0.041900001
2.3940001 -0.85299999 -0.016000001 25 0 0 0 0.04191
2.3970001 -0.86199999 -0.017999999 25 0 0 0 0.041919999
2.398 -0.87099999 -0.018999999 25 0 0 0 0.041930001
2.3959999 -0.87800002 -0.02 28 0 0 0 0.04194
2.3970001 -0.88599998 -0.021 29 0 0 0 0.041949999
2.3970001 -0.89499998 -0.023 29 0 0 0 0.041960001
2.401 -0.90399998 -0.024 26 0 0 0 0.04197
2.4030001 -0.91299999 -0.025 24 0 0 0 0.041979998
2.398 -0.91900003 -0.027000001 21 0 0 0 0.041990001
2.405 -0.93000001 -0.028000001 19 0 0 0 0.041999999
2.402 -0.93699998 -0.029999999 19 0 0 0 0.042010002
2.404 -0.94599998 -0.030999999 21 0 0 0 0.042020001
2.402 -0.95300001 -0.033 23 0 0 0 0.042029999
2.405 -0.96200001 -0.034000002 21 0 0 0 0.042040002
2.4089999 -0.972 -0.035999998 27 0 0 0 0.04205
2.4059999 -0.97899997 -0.037 30 0 0 0 0.042059999
2.4059999 -0.98699999 -0.039000001 22 0 0 0 0.042070001
2.405 -0.99400002 -0.041000001 26 0 0 0 0.04208
2.4070001 -1.0039999 -0.041999999 31 0 0 0 0.042089999
2.4059999 -1.011 -0.044 26 0 0 0 0.042100001
2.4119999 -1.021 -0.046 23 0 0 0 0.04211
2.4089999 -1.028 -0.046999998 27 0 0 0 0.042119998
2.4070001 -1.036 -0.048999999 26 0 0 0 0.042130001
2.4000001 -1.041 -0.050999999 23 0 0 0 0.04214
2.418 -1.056 -0.052999999 150 0 0 0 0.042149998
2.425 -1.068 -0.055 150 0 0 0 0.042160001
1.182 -0.52399999 -0.028000001 31 0 0 0 0.042169999
1.182 -0.528 -0.028000001 3 0 0 0 0.042180002
1.176 -0.52899998 -0.028999999 2 0 0 0 0.04219
1.1799999 -0.53500003 -0.029999999 1 0 0 0 0.042199999
1.182 -0.53899997 -0.030999999 1 0 0 0 0.042210001
1.1900001 -0.54699999 -0.033 1 0 0 0 0.04222
1.193 -0.55299997 -0.034000002 2 0 0 0 0.042229999
1.191 -0.55500001 -0.035 2 0 0 0 0.042240001
1.191 -0.55900002 -0.035999998 2 0 0 0 0.04225
1.189 -0.56300002 -0.037 1 0 0 0 0.042259999
1.192 -0.56699997 -0.037999999 1 0 0 0 0.042270001
1.1950001 -0.57300001 -0.039000001 1 0 0 0 0.04228
1.196 -0.57700002 -0.039999999 1 0 0 0 0.042289998
1.193 -0.57999998 -0.041000001 1 0 0 0 0.042300001
1.181 -0.57800001 -0.041999999 1 0 0 0 0.042309999
1.1569999 -0.56999999 -0.041999999 1 0 0 0 0.042319998
1.147 -0.56900001 -0.043000001 1 0 0 0 0.042330001
1.154 -0.57499999 -0.045000002 0 0 0 0 0.042339999
1.165 -0.58499998 -0.046 0 0 0 0 0.042350002
1.177 -0.59399998 -0.048 0 0 0 0 0.04236
1.149 -0.58399999 -0.048 0 0 0 0 0.042369999
1.103 -0.56400001 -0.046999998 0 0 0 0 0.042380001
1.022 -0.52600002 -0.045000002 0 0 0 0 0.04239
0.96700001 -0.5 -0.043000001 0 0 0 0 0.042399999
0.87599999 -0.456 -0.039999999 0 0 0 0 0.042410001
0.83899999 -0.44 -0.039000001 0 0 0 0 0.04242
0.829 -0.43599999 -0.039999999 0 0 0 0 0.042429999
0.80299997 -0.42500001 -0.039000001 0 0 0 0 0.042440001
0.81300002 -0.433 -0.041000001 0 0 0 0 0.04245
0.79400003 -0.42500001 -0.041000001 0 0 0 0 0.042459998
0.79299998 -0.42699999 -0.041999999 0 0 0 0 0.042470001
0.78299999 -0.42399999 -0.041999999 0 0 0 0 0.042479999
0.79000002 -0.43099999 -0.043000001 0 0 0 0 0.042490002
0.78399998 -0.43000001 -0.044 0 0 0 0 0.0425
0.778 -0.42899999 -0.045000002 0 0 0 0 0.042509999
0.77700001 -0.43000001 -0.045000002 0 0 0 0 0.042520002
0.77600002 -0.43200001 -0.046 0 0 0 0 0.04253
0.764 -0.42699999 -0.046999998 0 0 0 0 0.042539999
0.76999998 -0.433 -0.048 0 0 0 0 0.042550001
0.76899999 -0.435 -0.048999999 0 0 0 0 0.04256
0.76899999 -0.43700001 -0.050000001 0 0 0 0 0.042569999
0.74800003 -0.42699999 -0.048999999 0 0 0 0 0.042580001
0.764 -0.43799999 -0.052000001 0 0 0 0 0.04259
0.74800003 -0.43099999 -0.050999999 0 0 0 0 0.042599998
0.75199997 -0.435 -0.052999999 0 0 0 0 0.042610001
0.75599998 -0.44 -0.054000001 0 0 0 0 0.042619999
0.75300002 -0.44 -0.055 0 0 0 0 0.042629998
0.74000001 -0.435 -0.055 0 0 0 0 0.042640001
0.75099999 -0.44299999 -0.057 0 0 0 0 0.042649999
0.74699998 -0.44299999 -0.057 0 0 0 0 0.042660002
0.741 -0.44100001 -0.057999998 0 0 0 0 0.04267
0.74299997 -0.44499999 -0.059 0 0 0 0 0.042679999
0.73500001 -0.44100001 -0.059999999 0 0 0 0 0.042690001
0.72799999 -0.43900001 -0.059999999 0 0 0 0 0.0427
0.741 -0.449 -0.061999999 0 0 0 0 0.042709999
0.72899997 -0.44299999 -0.061999999 0 0 0 0 0.042720001
0.73299998 -0.44800001 -0.064000003 0 0 0 0 0.04273
0.745 -0.45699999 -0.066 0 0 0 0 0.042739999
0.73000002 -0.449 -0.066 0 0 0 0 0.042750001
0.72500002 -0.44800001 -0.066 0 0 0 0 0.04276
0.72799999 -0.45100001 -0.068000004 0 0 0 0 0.042769998
0.72899997 -0.454 -0.068999998 0 0 0 0 0.042780001
0.741 -0.463 -0.071000002 0 0 0 0 0.042789999
0.73000002 -0.45699999 -0.071000002 0 0 0 0 0.042800002
0.71799999 -0.45199999 -0.071000002 0 0 0 0 0.04281
0.72100002 -0.45500001 -0.071999997 0 0 0 0 0.042819999
0.72000003 -0.456 -0.072999999 0 0 0 0 0.042830002
0.72399998 -0.46000001 -0.075000003 0 0 0 0 0.04284
0.74599999 -0.47499999 -0.078000002 0 0 0 0 0.042849999
0.78799999 -0.50400001 -0.083999999 0 0 0 0 0.042860001
0.81599998 -0.523 -0.088 0 0 0 0 0.04287
0.958 -0.616 -0.105 1 0 0 0 0.042879999
1.143 -0.73699999 -0.12800001 5 0 0 0 0.042890001
1.187 -0.76800001 -0.134 8 0 0 0 0.0429
1.177 -0.76300001 -0.13500001 8 0 0 0 0.042909998
1.158 -0.75300002 -0.13500001 8 0 0 0 0.042920001
1.174 -0.76599997 -0.138 7 0 0 0 0.04293
1.169 -0.764 -0.14 6 0 0 0 0.042939998
1.153 -0.75599998 -0.14 3 0 0 0 0.042950001
1.174 -0.77100003 -0.14399999 5 0 0 0 0.042959999
1.177 -0.77499998 -0.146 7 0 0 0 0.042970002
1.1799999 -0.77899998 -0.149 6 0 0 0 0.04298
1.182 -0.78200001 -0.15099999 6 0 0 0 0.042989999
1.1849999 -0.78600001 -0.153 4 0 0 0 0.043000001
1.184 -0.787 -0.155 4 0 0 0 0.04301
1.187 -0.79000002 -0.15700001 5 0 0 0 0.043019999
1.186 -0.79100001 -0.15899999 4 0 0 0 0.043030001
1.184 -0.79100001 -0.161 4 0 0 0 0.04304
1.183 -0.792 -0.162 4 0 0 0 0.043049999
1.183 -0.79299998 -0.164 4 0 0 0 0.043060001
1.186 -0.796 -0.167 4 0 0 0 0.04307
1.181 -0.79400003 -0.168 4 0 0 0 0.043079998
1.181 -0.796 -0.17 4 0 0 0 0.043090001
1.181 -0.79699999 -0.17200001 4 0 0 0 0.043099999
1.1799999 -0.79699999 -0.17299999 4 0 0 0 0.043110002
1.181 -0.79799998 -0.175 4 0 0 0 0.043120001
1.182 -0.80000001 -0.177 4 0 0 0 0.043129999
1.183 -0.80199999 -0.17900001 4 0 0 0 0.043140002
1.177 -0.79799998 -0.18000001 4 0 0 0 0.04315
1.182 -0.80199999 -0.183 4 0 0 0 0.043159999
1.176 -0.79900002 -0.184 3 0 0 0 0.043170001
1.179 -0.80199999 -0.186 4 0 0 0 0.04318
1.179 -0.80199999 -0.18799999 4 0 0 0 0.043189999
1.177 -0.801 -0.189 4 0 0 0 0.043200001
1.178 -0.80299997 -0.191 3 0 0 0 0.04321
1.176 -0.80199999 -0.193 4 0 0 0 0.043219998
1.176 -0.80199999 -0.19499999 4 0 0 0 0.043230001
1.179 -0.80400002 -0.197 4 0 0 0 0.04324
1.175 -0.80199999 -0.198 4 0 0 0 0.043249998
1.177 -0.80299997 -0.2 4 0 0 0 0.043260001
1.175 -0.801 -0.20100001 4 0 0 0 0.043269999
1.175 -0.801 -0.20299999 3 0 0 0 0.043280002
1.173 -0.80000001 -0.204 4 0 0 0 0.04329
1.178 -0.80299997 -0.207 4 0 0 0 0.043299999
1.174 -0.801 -0.208 4 0 0 0 0.043310001
1.1720001 -0.79900002 -0.20900001 4 0 0 0 0.04332
1.1720001 -0.79900002 -0.211 4 0 0 0 0.043329999
1.174 -0.79900002 -0.213 4 0 0 0 0.043340001
1.1720001 -0.79799998 -0.214 4 0 0 0 0.04335
1.1720001 -0.79699999 -0.21600001 4 0 0 0 0.043359999
1.169 -0.79500002 -0.21699999 4 0 0 0 0.043370001
1.1720001 -0.796 -0.219 4 0 0 0 0.04338
1.1720001 -0.79500002 -0.22 4 0 0 0 0.043389998
1.174 -0.79500002 -0.222 4 0 0 0 0.043400001
1.168 -0.79100001 -0.223 5 0 0 0 0.043409999
1.1720001 -0.792 -0.22499999 4 0 0 0 0.043419998
1.1720001 -0.792 -0.226 4 0 0 0 0.043430001
1.171 -0.79000002 -0.227 4 0 0 0 0.043439999
1.169 -0.78799999 -0.229 5 0 0 0 0.043450002
1.171 -0.78799999 -0.23 4 0 0 0 0.04346
1.171 -0.78600001 -0.23199999 4 0 0 0 0.043469999
1.169 -0.78399998 -0.233 5 0 0 0 0.043480001
1.171 -0.78399998 -0.234 5 0 0 0 0.04349
1.169 -0.78100002 -0.235 4 0 0 0 0.043499999
1.168 -0.77899998 -0.236 4 0 0 0 0.043510001
1.171 -0.77999997 -0.23800001 4 0 0 0 0.04352
1.17 -0.77700001 -0.23899999 4 0 0 0 0.043529999
1.169 -0.77499998 -0.23999999 5 0 0 0 0.043540001
1.168 -0.773 -0.241 4 0 0 0 0.04355
1.165 -0.76899999 -0.242 5 0 0 0 0.043559998
1.168 -0.76899999 -0.243 4 0 0 0 0.043570001
1.166 -0.76599997 -0.244 4 0 0 0 0.043579999
1.163 -0.76200002 -0.244 4 0 0 0 0.043590002
1.163 -0.75999999 -0.24600001 5 0 0 0 0.0436
1.165 -0.759 -0.24699999 5 0 0 0 0.043609999
1.165 -0.75700003 -0.248 4 0 0 0 0.043620002
1.161 -0.75300002 -0.248 5 0 0 0 0.04363
1.161 -0.75099999 -0.249 5 0 0 0 0.043639999
1.1619999 -0.74900001 -0.25 5 0 0 0 0.043650001
1.16 -0.745 -0.25099999 5 0 0 0 0.04366
1.161 -0.74400002 -0.252 4 0 0 0 0.043669999
1.156 -0.73799998 -0.25099999 4 0 0 0 0.043680001
1.158 -0.73799998 -0.25299999 4 0 0 0 0.04369
1.158 -0.73500001 -0.25299999 4 0 0 0 0.043699998
1.159 -0.73299998 -0.25400001 4 0 0 0 0.043710001
1.1569999 -0.72899997 -0.255 4 0 0 0 0.043719999
1.159 -0.72799999 -0.25600001 4 0 0 0 0.043729998
1.159 -0.72500002 -0.25600001 4 0 0 0 0.043740001
1.158 -0.72299999 -0.257 4 0 0 0 0.043749999
1.161 -0.722 -0.25799999 4 0 0 0 0.043760002
1.1569999 -0.71600002 -0.25799999 4 0 0 0 0.04377
1.156 -0.713 -0.25799999 4 0 0 0 0.043779999
1.156 -0.70999998 -0.259 4 0 0 0 0.043790001
1.158 -0.70899999 -0.259 4 0 0 0 0.0438
1.153 -0.70200002 -0.259 4 0 0 0 0.043809999
1.1569999 -0.70200002 -0.25999999 5 0 0 0 0.043820001
1.158 -0.69999999 -0.26100001 4 0 0 0 0.04383
1.156 -0.69599998 -0.26100001 4 0 0 0 0.043839999
1.1569999 -0.69300002 -0.26100001 4 0 0 0 0.043850001
1.159 -0.69099998 -0.26199999 4 0 0 0 0.04386
1.154 -0.685 -0.26100001 4 0 0 0 0.043869998
1.153 -0.68199998 -0.26100001 4 0 0 0 0.043880001
1.154 -0.67900002 -0.26199999 4 0 0 0 0.043889999
1.155 -0.67699999 -0.26199999 4 0 0 0 0.043900002
1.154 -0.67299998 -0.26199999 4 0 0 0 0.04391
1.153 -0.66900003 -0.26199999 3 0 0 0 0.043919999
1.153 -0.66600001 -0.26199999 4 0 0 0 0.043930002
1.153 -0.66299999 -0.26199999 4 0 0 0 0.04394
1.153 -0.66000003 -0.26199999 4 0 0 0 0.043949999
1.154 -0.65700001 -0.26300001 4 0 0 0 0.043960001
1.153 -0.653 -0.26300001 4 0 0 0 0.04397
1.155 -0.65100002 -0.26300001 4 0 0 0 0.043979999
1.15 -0.64499998 -0.26199999 4 0 0 0 0.043990001
1.152 -0.64200002 -0.26199999 5 0 0 0 0.044
1.148 -0.63700002 -0.26100001 3 0 0 0 0.044009998
1.147 -0.63300002 -0.26100001 4 0 0 0 0.044020001
1.149 -0.63 -0.26100001 4 0 0 0 0.04403
1.147 -0.62599999 -0.25999999 4 0 0 0 0.044039998
1.149 -0.62400001 -0.26100001 4 0 0 0 0.044050001
1.147 -0.61900002 -0.25999999 3 0 0 0 0.044059999
1.145 -0.61400002 -0.259 3 0 0 0 0.044070002
1.145 -0.611 -0.259 3 0 0 0 0.04408
1.145 -0.60699999 -0.259 3 0 0 0 0.044089999
1.1440001 -0.60399997 -0.25799999 3 0 0 0 0.044100001
1.141 -0.59799999 -0.257 3 0 0 0 0.04411
1.137 -0.59200001 -0.25600001 3 0 0 0 0.044119999
1.137 -0.58899999 -0.25600001 4 0 0 0 0.044130001
1.141 -0.588 -0.25600001 4 0 0 0 0.04414
1.137 -0.58200002 -0.255 4 0 0 0 0.044149999
1.137 -0.57800001 -0.25400001 4 0 0 0 0.044160001
1.136 -0.574 -0.25400001 4 0 0 0 0.04417
1.1390001 -0.57200003 -0.25400001 4 0 0 0 0.044179998
1.137 -0.56699997 -0.25299999 2 0 0 0 0.044190001
1.135 -0.56300002 -0.252 1 0 0 0 0.044199999
1.126 -0.55500001 -0.25 1 0 0 0 0.044210002
1.124 -0.55000001 -0.249 2 0 0 0 0.044220001
1.122 -0.546 -0.248 3 0 0 0 0.044229999
1.125 -0.54299998 -0.248 4 0 0 0 0.044240002
1.119 -0.537 -0.24600001 5 0 0 0 0.04425
1.118 -0.53299999 -0.245 6 0 0 0 0.044259999
1.124 -0.53200001 -0.245 21 0 0 0 0.044270001
1.126 -0.52899998 -0.245 124 0 0 0 0.04428
2.28 -1.0650001 -0.495 150 0 0 0 0.044289999
2.3959999 -1.112 -0.51899999 34 0 0 0 0.044300001
2.4059999 -1.108 -0.51999998 21 0 0 0 0.04431
2.4100001 -1.102 -0.51899999 22 0 0 0 0.044319998
2.408 -1.0930001 -0.51700002 21 0 0 0 0.044330001
2.405 -1.084 -0.51499999 18 0 0 0 0.04434
2.404 -1.076 -0.51300001 17 0 0 0 0.044349998
2.405 -1.069 -0.51099998 17 0 0 0 0.044360001
2.4089999 -1.062 -0.50999999 17 0 0 0 0.044369999
2.4119999 -1.056 -0.509 18 0 0 0 0.044380002
2.4119999 -1.048 -0.50700003 16 0 0 0 0.04439
2.4159999 -1.0420001 -0.50599998 14 0 0 0 0.044399999
2.415 -1.033 -0.50400001 15 0 0 0 0.044410001
2.4130001 -1.025 -0.50099999 16 0 0 0 0.04442
2.4100001 -1.015 -0.49900001 18 0 0 0 0.044429999
2.408 -1.007 -0.49599999 20 0 0 0 0.044440001
2.408 -0.99900001 -0.49399999 20 0 0 0 0.04445
2.402 -0.98900002 -0.491 21 0 0 0 0.044459999
2.3989999 -0.97899997 -0.48800001 21 0 0 0 0.044470001
2.3989999 -0.972 -0.486 21 0 0 0 0.04448
2.3970001 -0.963 -0.48300001 20 0 0 0 0.044489998
2.4000001 -0.95599997 -0.48100001 22 0 0 0 0.044500001
2.398 -0.94800001 -0.479 20 0 0 0 0.044509999
2.3940001 -0.93800002 -0.47600001 17 0 0 0 0.044520002
2.3959999 -0.93099999 -0.47400001 22 0 0 0 0.044530001
2.3970001 -0.92400002 -0.47099999 24 0 0 0 0.044539999
2.3970001 -0.91600001 -0.46900001 24 0 0 0 0.044550002
2.3929999 -0.90700001 -0.46599999 19 0 0 0 0.04456
2.395 -0.89999998 -0.46399999 24 0 0 0 0.044569999
2.3929999 -0.89099997 -0.461 25 0 0 0 0.044580001
2.3940001 -0.884 -0.458 19 0 0 0 0.04459
2.3940001 -0.87599999 -0.456 17 0 0 0 0.044599999
2.3940001 -0.86799997 -0.45300001 17 0 0 0 0.044610001
2.3929999 -0.86000001 -0.44999999 21 0 0 0 0.04462
2.3959999 -0.85299999 -0.44800001 24 0 0 0 0.044629999
2.3889999 -0.84299999 -0.44400001 24 0 0 0 0.044640001
2.3900001 -0.83600003 -0.442 24 0 0 0 0.04465
2.391 -0.829 -0.43900001 24 0 0 0 0.044659998
2.388 -0.81999999 -0.43599999 23 0 0 0 0.044670001
2.3859999 -0.81099999 -0.433 23 0 0 0 0.044679999
2.388 -0.80400002 -0.43000001 22 0 0 0 0.044690002
2.381 -0.79400003 -0.426 25 0 0 0 0.0447
2.3840001 -0.78799999 -0.42399999 24 0 0 0 0.044709999
2.3900001 -0.78200001 -0.42199999 21 0 0 0 0.044720002
2.3900001 -0.77499998 -0.419 20 0 0 0 0.04473
2.3870001 -0.76599997 -0.41600001 19 0 0 0 0.044739999
2.3900001 -0.759 -0.414 17 0 0 0 0.044750001
2.3800001 -0.74800003 -0.40900001 17 0 0 0 0.04476
2.381 -0.741 -0.40599999 22 0 0 0 0.044769999
2.385 -0.73500001 -0.40400001 24 0 0 0 0.044780001
2.381 -0.72600001 -0.40000001 24 0 0 0 0.04479
2.3840001 -0.71899998 -0.398 23 0 0 0 0.044799998
2.378 -0.70999998 -0.39399999 20 0 0 0 0.044810001
2.3840001 -0.70499998 -0.39199999 21 0 0 0 0.044819999
2.381 -0.69599998 -0.38800001 23 0 0 0 0.044829998
2.378 -0.68800002 -0.384 24 0 0 0 0.044840001
2.3770001 -0.68000001 -0.38100001 23 0 0 0 0.044849999
2.3789999 -0.67299998 -0.37799999 22 0 0 0 0.044860002
2.3759999 -0.66500002 -0.375 22 0 0 0 0.04487
2.382 -0.65899998 -0.37200001 22 0 0 0 0.044879999
2.3800001 -0.65100002 -0.36899999 21 0 0 0 0.044890001
2.3800001 -0.64399999 -0.366 24 0 0 0 0.0449
2.378 -0.63599998 -0.36199999 25 0 0 0 0.044909999
2.3770001 -0.62800002 -0.359 22 0 0 0 0.044920001
2.375 -0.62099999 -0.35499999 22 0 0 0 0.04493
2.375 -0.61299998 -0.352 16 0 0 0 0.044939999
2.375 -0.60600001 -0.34799999 18 0 0 0 0.044950001
2.378 -0.59899998 -0.34599999 25 0 0 0 0.04496
2.3740001 -0.59100002 -0.34200001 27 0 0 0 0.044969998
2.3740001 -0.58399999 -0.338 23 0 0 0 0.044980001
2.372 -0.57599998 -0.33500001 25 0 0 0 0.044989999
2.3729999 -0.56900001 -0.331 29 0 0 0 0.045000002
2.372 -0.56199998 -0.32800001 28 0 0 0 0.04501
2.3759999 -0.55500001 -0.32499999 26 0 0 0 0.045019999
2.3699999 -0.54699999 -0.32100001 23 0 0 0 0.045030002
2.3789999 -0.542 -0.31900001 20 0 0 0 0.04504
2.3740001 -0.53299999 -0.31400001 19 0 0 0 0.045049999
2.3770001 -0.52700001 -0.31099999 16 0 0 0 0.045060001
2.3740001 -0.51899999 -0.30700001 17 0 0 0 0.04507
2.3729999 -0.51200002 -0.30399999 16 0 0 0 0.045079999
2.369 -0.50400001 -0.30000001 17 0 0 0 0.045090001
2.372 -0.49700001 -0.29699999 20 0 0 0 0.0451
2.372 -0.49000001 -0.29300001 21 0 0 0 0.045109998
2.375 -0.484 -0.28999999 19 0 0 0 0.045120001
2.3710001 -0.47600001 -0.28600001 17 0 0 0 0.04513
2.372 -0.46900001 -0.28200001 19 0 0 0 0.045139998
2.3729999 -0.46200001 -0.27900001 21 0 0 0 0.045150001
2.3670001 -0.454 -0.27500001 19 0 0 0 0.045159999
2.365 -0.447 -0.271 20 0 0 0 0.045170002
2.3670001 -0.44 -0.26699999 23 0 0 0 0.04518
2.369 -0.433 -0.264 24 0 0 0 0.045189999
2.368 -0.426 -0.25999999 22 0 0 0 0.045200001
2.3710001 -0.41999999 -0.257 19 0 0 0 0.04521
2.3710001 -0.41299999 -0.25299999 18 0 0 0 0.045219999
2.3699999 -0.40599999 -0.249 19 0 0 0 0.045230001
2.3640001 -0.398 -0.245 20 0 0 0 0.04524
2.3670001 -0.391 -0.242 21 0 0 0 0.045249999
2.3629999 -0.384 -0.237 25 0 0 0 0.045260001
2.3659999 -0.377 -0.234 24 0 0 0 0.04527
2.3640001 -0.37 -0.23 24 0 0 0 0.045279998
2.368 -0.36399999 -0.227 22 0 0 0 0.045290001
2.3599999 -0.35600001 -0.222 21 0 0 0 0.045299999
2.362 -0.34900001 -0.21799999 20 0 0 0 0.045310002
2.358 -0.34200001 -0.214 19 0 0 0 0.04532
2.3610001 -0.336 -0.211 22 0 0 0 0.045329999
2.3670001 -0.33000001 -0.208 26 0 0 0 0.045340002
2.3759999 -0.324 -0.205 21 0 0 0 0.04535
2.408 -0.322 -0.20299999 16 0 0 0 0.045359999
2.4519999 -0.32100001 -0.20299999 22 0 0 0 0.045370001
2.5 -0.31999999 -0.20299999 24 0 0 0 0.04538
2.533 -0.317 -0.20200001 20 0 0 0 0.045389999
2.609 -0.31900001 -0.20299999 28 0 0 0 0.045400001
2.925 -0.34900001 -0.223 150 0 0 0 0.04541
3.2079999 -0.37400001 -0.23899999 150 0 0 0 0.045419998
3.2090001 -0.36500001 -0.234 150 0 0 0 0.045430001
3.2060001 -0.35600001 -0.229 150 0 0 0 0.04544
3.21 -0.347 -0.22400001 150 0 0 0 0.045449998
3.2119999 -0.338 -0.21799999 150 0 0 0 0.045460001
3.2090001 -0.329 -0.213 150 0 0 0 0.045469999
3.2279999 -0.322 -0.20900001 151 0 0 0 0.045480002
3.2379999 -0.31400001 -0.204 151 0 0 0 0.04549
3.233 -0.30399999 -0.198 151 0 0 0 0.045499999
3.234 -0.296 -0.193 151 0 0 0 0.045510001
3.2349999 -0.287 -0.18700001 151 0 0 0 0.04552
3.2360001 -0.278 -0.182 151 0 0 0 0.045529999
3.234 -0.26899999 -0.176 151 0 0 0 0.045540001
3.27 -0.26300001 -0.17200001 107 0 0 0 0.04555
3.3399999 -0.259 -0.17 151 0 0 0 0.045559999
3.346 -0.25 -0.16500001 152 0 0 0 0.045570001
3.3440001 -0.241 -0.15899999 151 0 0 0 0.04558
3.3399999 -0.23100001 -0.153 152 0 0 0 0.045589998
3.342 -0.222 -0.147 152 0 0 0 0.045600001
3.355 -0.214 -0.142 151 0 0 0 0.045609999
3.3670001 -0.205 -0.13699999 151 0 0 0 0.045620002
3.372 -0.197 -0.131 151 0 0 0 0.045630001
3.3699999 -0.18700001 -0.125 151 0 0 0 0.045639999
3.4170001 -0.18000001 -0.121 152 0 0 0 0.045650002
3.4189999 -0.171 -0.115 154 0 0 0 0.04566
3.4349999 -0.163 -0.11 150 0 0 0 0.045669999
3.4330001 -0.153 -0.103 150 0 0 0 0.045680001
3.434 -0.14399999 -0.097000003 150 0 0 0 0.04569
3.4319999 -0.13500001 -0.090999998 150 0 0 0 0.045699999
3.4319999 -0.125 -0.085000001 150 0 0 0 0.045710001
3.4330001 -0.116 -0.079000004 150 0 0 0 0.04572
3.4330001 -0.107 -0.072999999 150 0 0 0 0.045729998
3.4330001 -0.097000003 -0.067000002 151 0 0 0 0.045740001
3.428 -0.088 -0.059999999 150 0 0 0 0.04575
3.428 -0.079000004 -0.054000001 151 0 0 0 0.045759998
3.427 -0.068999998 -0.048 150 0 0 0 0.045770001
3.424 -0.059999999 -0.041999999 151 0 0 0 0.045779999
3.424 -0.050999999 -0.035 151 0 0 0 0.045790002
3.424 -0.041999999 -0.028999999 151 0 0 0 0.0458
3.427 -0.033 -0.023 151 0 0 0 0.045809999
3.424 -0.024 -0.017000001 151 0 0 0 0.045820002
3.424 -0.014 -0.0099999998 151 0 0 0 0.04583
3.418 -0.0049999999 -0.0040000002 151 0 0 0 0.045839999
3.4200001 0.003 0.001 151 0 0 0 0.045850001
3.424 0.012 0.0080000004 151 0 0 0 0.04586
3.421 0.021 0.014 151 0 0 0 0.045869999
3.4219999 0.029999999 0.02 152 0 0 0 0.045880001
3.421 0.039000001 0.027000001 152 0 0 0 0.04589
3.418 0.048 0.033 152 0 0 0 0.045899998
3.4230001 0.057 0.039000001 152 0 0 0 0.045910001
3.4230001 0.066 0.046 152 0 0 0 0.045919999
3.4170001 0.075000003 0.052000001 153 0 0 0 0.045929998
3.4170001 0.083999999 0.059 153 0 0 0 0.045940001
3.411 0.093000002 0.064999998 153 0 0 0 0.045949999
3.4100001 0.102 0.071000002 153 0 0 0 0.045960002
3.405 0.111 0.078000002 153 0 0 0 0.04597
3.404 0.12 0.083999999 154 0 0 0 0.045979999
3.404 0.12800001 0.090999998 153 0 0 0 0.045990001
3.4030001 0.13699999 0.097000003 153 0 0 0 0.046
3.4030001 0.146 0.104 153 0 0 0 0.046009999
3.4070001 0.155 0.11 153 0 0 0 0.046020001
3.4100001 0.164 0.117 153 0 0 0 0.04603
3.4119999 0.17299999 0.124 153 0 0 0 0.046039999
3.408 0.182 0.13 153 0 0 0 0.046050001
3.4100001 0.191 0.13699999 153 0 0 0 0.04606
3.404 0.199 0.14300001 153 0 0 0 0.046069998
3.4059999 0.208 0.15000001 153 0 0 0 0.046080001
3.408 0.21699999 0.15700001 152 0 0 0 0.046089999
3.4100001 0.226 0.164 152 0 0 0 0.046100002
3.4089999 0.235 0.17 152 0 0 0 0.04611
3.408 0.244 0.177 151 0 0 0 0.046119999
3.408 0.25299999 0.184 152 0 0 0 0.046130002
3.408 0.26100001 0.19 151 0 0 0 0.04614
3.402 0.27000001 0.197 151 0 0 0 0.046149999
3.3989999 0.278 0.20299999 151 0 0 0 0.046160001
3.402 0.287 0.20999999 151 0 0 0 0.04617
3.402 0.296 0.21699999 151 0 0 0 0.046179999
3.4000001 0.30500001 0.22400001 151 0 0 0 0.046190001
3.401 0.31299999 0.23100001 151 0 0 0 0.0462
3.4000001 0.322 0.23800001 151 0 0 0 0.046209998
3.4030001 0.331 0.245 151 0 0 0 0.046220001
3.401 0.34 0.252 151 0 0 0 0.04623
3.401 0.34799999 0.259 151 0 0 0 0.046239998
3.398 0.35699999 0.26499999 151 0 0 0 0.046250001
3.398 0.36500001 0.27200001 151 0 0 0 0.046259999
3.401 0.37400001 0.28 151 0 0 0 0.046270002
3.4000001 0.38299999 0.287 151 0 0 0 0.04628
3.4000001 0.39199999 0.294 151 0 0 0 0.046289999
3.3929999 0.39899999 0.30000001 151 0 0 0 0.046300001
3.3970001 0.40799999 0.30700001 151 0 0 0 0.04631
3.3959999 0.417 0.31400001 151 0 0 0 0.046319999
3.3970001 0.42500001 0.322 150 0 0 0 0.046330001
3.395 0.43399999 0.329 150 0 0 0 0.04634
3.395 0.442 0.336 150 0 0 0 0.046349999
3.391 0.45100001 0.34299999 150 0 0 0 0.046360001
3.392 0.45899999 0.34999999 150 0 0 0 0.04637
3.3900001 0.46700001 0.35699999 151 0 0 0 0.046379998
3.3989999 0.477 0.36500001 150 0 0 0 0.046390001
3.392 0.48500001 0.37099999 150 0 0 0 0.046399999
3.3900001 0.493 0.37799999 150 0 0 0 0.046410002
3.3929999 0.50199997 0.38600001 150 0 0 0 0.04642
3.3959999 0.51099998 0.39399999 151 0 0 0 0.046429999
3.3929999 0.51899999 0.40099999 151 0 0 0 0.046440002
3.3599999 0.52200001 0.40400001 150 0 0 0 0.04645
3.323 0.52399999 0.40700001 150 0 0 0 0.046459999
3.3239999 0.53299999 0.414 151 0 0 0 0.046470001
3.323 0.54100001 0.42199999 151 0 0 0 0.04648
3.3010001 0.546 0.426 150 0 0 0 0.046489999
3.2939999 0.55299997 0.43200001 151 0 0 0 0.046500001
3.2920001 0.56099999 0.43900001 151 0 0 0 0.04651
3.29 0.56800002 0.44600001 151 0 0 0 0.046519998
3.286 0.57599998 0.45300001 151 0 0 0 0.046530001
3.2850001 0.58399999 0.46000001 151 0 0 0 0.04654
3.28 0.59100002 0.46700001 150 0 0 0 0.046549998
3.2550001 0.59399998 0.47099999 30 0 0 0 0.046560001
3.223 0.59600002 0.47299999 30 0 0 0 0.046569999
3.174 0.59500003 0.47299999 29 0 0 0 0.046580002
3.122 0.59299999 0.47299999 30 0 0 0 0.04659
3.0580001 0.588 0.47 30 0 0 0 0.046599999
2.9860001 0.58200002 0.46599999 29 0 0 0 0.046610001
2.918 0.57599998 0.46200001 28 0 0 0 0.04662
2.8510001 0.56999999 0.458 28 0 0 0 0.046629999
2.789 0.56400001 0.454 26 0 0 0 0.046640001
2.7320001 0.55900002 0.45100001 25 0 0 0 0.04665
2.684 0.55599999 0.44999999 25 0 0 0 0.046659999
2.6259999 0.55000001 0.44600001 24 0 0 0 0.046670001
2.5769999 0.546 0.44400001 22 0 0 0 0.04668
2.529 0.542 0.44100001 20 0 0 0 0.046689998
2.484 0.53799999 0.43900001 19 0 0 0 0.046700001
2.4419999 0.53500003 0.43799999 18 0 0 0 0.046709999
2.4089999 0.53399998 0.43799999 17 0 0 0 0.046720002
2.3629999 0.52899998 0.435 17 0 0 0 0.046730001
2.3199999 0.52499998 0.43200001 17 0 0 0 0.046739999
2.267 0.51800001 0.428 150 0 0 0 0.046750002
2.2620001 0.52200001 0.43200001 151 0 0 0 0.04676
2.263 0.528 0.43799999 151 0 0 0 0.046769999
2.2579999 0.53200001 0.442 151 0 0 0 0.046780001
2.263 0.53899997 0.449 151 0 0 0 0.04679
2.25 0.54100001 0.45199999 150 0 0 0 0.046799999
2.2320001 0.542 0.454 150 0 0 0 0.046810001
2.23 0.54699999 0.45899999 151 0 0 0 0.04682
2.2279999 0.551 0.46399999 151 0 0 0 0.046829998
2.2309999 0.55800003 0.47 151 0 0 0 0.046840001
2.2309999 0.56300002 0.47499999 151 0 0 0 0.04685
2.2290001 0.56699997 0.47999999 151 0 0 0 0.046859998
2.2290001 0.57300001 0.486 151 0 0 0 0.046870001
2.2260001 0.57700002 0.491 151 0 0 0 0.046879999
2.2249999 0.58200002 0.49599999 151 0 0 0 0.046890002
2.2279999 0.588 0.50199997 151 0 0 0 0.0469
2.2260001 0.59200001 0.50800002 151 0 0 0 0.046909999
2.23 0.59799999 0.514 151 0 0 0 0.046920002
2.23 0.60399997 0.51999998 151 0 0 0 0.04693
2.237 0.611 0.52700001 151 0 0 0 0.046939999
2.2390001 0.616 0.53299999 151 0 0 0 0.046950001
2.2379999 0.62099999 0.53899997 151 0 0 0 0.04696
2.2360001 0.625 0.54400003 151 0 0 0 0.046969999
2.2360001 0.63 0.55000001 151 0 0 0 0.046980001
2.237 0.63599998 0.55599999 151 0 0 0 0.04699
2.2390001 0.64099997 0.56199998 151 0 0 0 0.046999998
2.2409999 0.64700001 0.56800002 151 0 0 0 0.047010001
0 0 0 0 0 0 0 0.047019999
0 0 0 0 0 0 0 0.047029998
0 0 0 0 0 0 0 0.047040001
4.0209999 1.196 1.062 60 0 0 0 0.047049999
4.0180001 1.204 1.072 61 0 0 0 0.047060002
4.02 1.2130001 1.0829999 57 0 0 0 0.04707
4.02 1.222 1.094 57 0 0 0 0.047079999
4.0149999 1.229 1.103 62 0 0 0 0.047090001
4.007 1.235 1.1109999 57 0 0 0 0.0471
4 1.242 1.12 20 0 0 0 0.047109999
3.9920001 1.248 1.1289999 6 0 0 0 0.047120001
4.0380001 1.271 1.152 9 0 0 0 0.04713
1.49 0.472 0.42899999 3 0 0 0 0.047139999
1.477 0.47099999 0.42899999 3 0 0 0 0.047150001
1.469 0.47099999 0.43099999 2 0 0 0 0.04716
1.439 0.465 0.426 9 0 0 0 0.047169998
1.428 0.46399999 0.42699999 9 0 0 0 0.047180001
1.4170001 0.463 0.42699999 9 0 0 0 0.047189999
1.405 0.46200001 0.42699999 9 0 0 0 0.047200002
1.395 0.46200001 0.428 9 0 0 0 0.04721
1.386 0.46200001 0.42899999 9 0 0 0 0.047219999
1.375 0.461 0.42899999 9 0 0 0 0.047230002
1.364 0.46000001 0.43000001 9 0 0 0 0.04724
1.3559999 0.46000001 0.43099999 9 0 0 0 0.047249999
1.3559999 0.46200001 0.435 9 0 0 0 0.047260001
1.35 0.463 0.43700001 9 0 0 0 0.04727
1.334 0.46000001 0.435 10 0 0 0 0.047279999
1.326 0.46000001 0.43599999 27 0 0 0 0.047290001
1.308 0.456 0.43399999 71 0 0 0 0.0473
1.296 0.454 0.43399999 137 0 0 0 0.047309998
1.2920001 0.45500001 0.43599999 150 0 0 0 0.047320001
1.291 0.45699999 0.43900001 150 0 0 0 0.04733
1.2869999 0.458 0.44100001 150 0 0 0 0.047339998
1.285 0.46000001 0.44400001 150 0 0 0 0.047350001
1.286 0.463 0.44800001 150 0 0 0 0.047359999
1.2869999 0.465 0.45199999 150 0 0 0 0.047370002
1.288 0.46799999 0.456 150 0 0 0 0.04738
1.29 0.47099999 0.46000001 150 0 0 0 0.047389999
1.288 0.47299999 0.463 150 0 0 0 0.047400001
1.289 0.47499999 0.46700001 150 0 0 0 0.04741
1.286 0.47600001 0.47 150 0 0 0 0.047419999
1.284 0.47799999 0.47299999 150 0 0 0 0.047430001
1.286 0.48100001 0.477 150 0 0 0 0.04744
1.284 0.48199999 0.47999999 150 0 0 0 0.047449999
1.285 0.48500001 0.484 150 0 0 0 0.047460001
1.283 0.486 0.48699999 150 0 0 0 0.04747
1.283 0.48800001 0.49000001 150 0 0 0 0.047479998
1.284 0.49000001 0.495 150 0 0 0 0.047490001
1.2819999 0.491 0.49700001 150 0 0 0 0.047499999
1.28 0.493 0.5 150 0 0 0 0.047510002
1.2819999 0.495 0.505 150 0 0 0 0.04752
1.28 0.49700001 0.50800002 150 0 0 0 0.047529999
1.263 0.49200001 0.50400001 150 0 0 0 0.047540002
1.261 0.493 0.50700003 150 0 0 0 0.04755
1.262 0.495 0.51099998 150 0 0 0 0.047559999
1.258 0.495 0.51300001 150 0 0 0 0.047570001
1.262 0.498 0.51800001 150 0 0 0 0.04758
1.26 0.5 0.52100003 150 0 0 0 0.047589999
1.266 0.50300002 0.52600002 150 0 0 0 0.047600001
1.257 0.50199997 0.52600002 150 0 0 0 0.04761
1.262 0.505 0.53200001 150 0 0 0 0.047619998
1.263 0.50700003 0.53600001 150 0 0 0 0.047630001
1.2589999 0.50700003 0.53799999 150 0 0 0 0.04764
1.26 0.509 0.542 150 0 0 0 0.047649998
1.2589999 0.50999999 0.54500002 150 0 0 0 0.047660001
1.262 0.51300001 0.55000001 150 0 0 0 0.047669999
1.263 0.51499999 0.55400002 150 0 0 0 0.047680002
1.262 0.51599997 0.55599999 150 0 0 0 0.04769
1.26 0.51599997 0.55900002 150 0 0 0 0.047699999
1.2589999 0.51700002 0.56199998 150 0 0 0 0.047710001
1.257 0.51800001 0.565 150 0 0 0 0.04772
1.256 0.51800001 0.56699997 150 0 0 0 0.047729999
1.2640001 0.523 0.57499999 150 0 0 0 0.047740001
1.263 0.52399999 0.57700002 150 0 0 0 0.04775
1.261 0.52399999 0.57999998 150 0 0 0 0.047759999
1.26 0.52499998 0.583 150 0 0 0 0.047770001
1.2589999 0.52499998 0.58499998 150 0 0 0 0.04778
1.261 0.528 0.58999997 150 0 0 0 0.047789998
1.263 0.52899998 0.59399998 150 0 0 0 0.047800001
1.261 0.52899998 0.597 150 0 0 0 0.047809999
1.26 0.52999997 0.59899998 150 0 0 0 0.047820002
1.261 0.53100002 0.60299999 150 0 0 0 0.047830001
1.265 0.53399998 0.60799998 150 0 0 0 0.047839999
1.258 0.53200001 0.60799998 150 0 0 0 0.047850002
1.262 0.53399998 0.61299998 150 0 0 0 0.04786
1.283 0.54400003 0.62599999 150 0 0 0 0.047869999
1.2819999 0.54400003 0.62900001 150 0 0 0 0.047880001
1.281 0.54400003 0.63200003 150 0 0 0 0.04789
1.285 0.546 0.63700002 150 0 0 0 0.047899999
1.285 0.54699999 0.63999999 150 0 0 0 0.047910001
1.283 0.54699999 0.64200002 150 0 0 0 0.04792
1.2819999 0.54699999 0.64399999 150 0 0 0 0.047929998
1.284 0.54799998 0.648 150 0 0 0 0.047940001
1.283 0.54799998 0.65100002 150 0 0 0 0.04795
1.2819999 0.54799998 0.653 150 0 0 0 0.047959998
1.281 0.54799998 0.65499997 150 0 0 0 0.047970001
1.279 0.54699999 0.65799999 150 0 0 0 0.047979999
1.284 0.55000001 0.66299999 150 0 0 0 0.047990002
1.28 0.54799998 0.66399997 150 0 0 0 0.048
1.2819999 0.54900002 0.66799998 150 0 0 0 0.048009999
1.2819999 0.54900002 0.67000002 150 0 0 0 0.048020002
1.28 0.54799998 0.67199999 150 0 0 0 0.04803
1.2869999 0.551 0.67799997 150 0 0 0 0.048039999
1.279 0.54799998 0.67699999 150 0 0 0 0.048050001
1.284 0.55000001 0.68199998 150 0 0 0 0.04806
1.266 0.542 0.67500001 150 0 0 0 0.048069999
1.265 0.54100001 0.67699999 150 0 0 0 0.048080001
1.286 0.55000001 0.69099998 150 0 0 0 0.04809
1.285 0.54900002 0.69199997 150 0 0 0 0.048099998
1.285 0.54900002 0.69499999 150 0 0 0 0.048110001
1.284 0.54799998 0.69700003 150 0 0 0 0.048119999
1.288 0.54900002 0.70099998 150 0 0 0 0.048129998
1.288 0.54900002 0.70300001 150 0 0 0 0.048140001
1.2869999 0.54799998 0.70499998 150 0 0 0 0.048149999
1.286 0.54699999 0.70700002 150 0 0 0 0.048160002
1.266 0.537 0.69800001 150 0 0 0 0.04817
1.285 0.54500002 0.70999998 150 0 0 0 0.048179999
1.2690001 0.537 0.70300001 150 0 0 0 0.048190001
1.2690001 0.53600001 0.70499998 150 0 0 0 0.0482
1.268 0.53500003 0.70599997 150 0 0 0 0.048209999
1.268 0.53399998 0.708 150 0 0 0 0.048220001
1.267 0.53299999 0.70999998 150 0 0 0 0.04823
1.268 0.53299999 0.71100003 150 0 0 0 0.048239999
1.267 0.53100002 0.713 150 0 0 0 0.048250001
1.266 0.52999997 0.71399999 150 0 0 0 0.04826
1.266 0.52899998 0.71499997 150 0 0 0 0.048269998
1.266 0.52700001 0.71700001 150 0 0 0 0.048280001
1.265 0.52600002 0.71799999 150 0 0 0 0.048289999
1.266 0.52499998 0.72000003 150 0 0 0 0.048300002
1.272 0.52700001 0.72500002 150 0 0 0 0.04831
1.272 0.52499998 0.72600001 150 0 0 0 0.048319999
1.272 0.52399999 0.727 150 0 0 0 0.048330002
1.272 0.523 0.72799999 150 0 0 0 0.04834
1.272 0.52100003 0.72899997 150 0 0 0 0.048349999
1.272 0.51999998 0.73000002 150 0 0 0 0.048360001
1.272 0.51800001 0.73100001 150 0 0 0 0.04837
1.272 0.51599997 0.73199999 150 0 0 0 0.048379999
1.272 0.51499999 0.73299998 150 0 0 0 0.048390001
1.272 0.51300001 0.73400003 150 0 0 0 0.0484
1.273 0.51200002 0.73500001 150 0 0 0 0.048409998
1.273 0.50999999 0.736 150 0 0 0 0.048420001
1.273 0.509 0.73699999 150 0 0 0 0.04843
1.273 0.50700003 0.73699999 150 0 0 0 0.048439998
1.274 0.505 0.73799998 150 0 0 0 0.048450001
1.274 0.50300002 0.73900002 150 0 0 0 0.048459999
1.274 0.50199997 0.73900002 150 0 0 0 0.048470002
1.275 0.5 0.74000001 150 0 0 0 0.04848
1.275 0.498 0.74000001 150 0 0 0 0.048489999
1.2690001 0.49399999 0.73699999 150 0 0 0 0.048500001
1.276 0.49399999 0.741 150 0 0 0 0.04851
1.276 0.49200001 0.74199998 150 0 0 0 0.048519999
1.27 0.48800001 0.73799998 150 0 0 0 0.048530001
1.277 0.48899999 0.74199998 150 0 0 0 0.04854
1.271 0.484 0.73900002 150 0 0 0 0.048549999
1.279 0.48500001 0.74299997 150 0 0 0 0.048560001
1.272 0.47999999 0.73900002 150 0 0 0 0.04857
1.28 0.48100001 0.74299997 150 0 0 0 0.048579998
1.273 0.47600001 0.73900002 150 0 0 0 0.048590001
1.275 0.47400001 0.73900002 150 0 0 0 0.048599999
1.276 0.472 0.74000001 150 0 0 0 0.048610002
1.274 0.46900001 0.73799998 150 0 0 0 0.04862
1.272 0.46599999 0.73699999 150 0 0 0 0.048629999
1.273 0.46399999 0.736 150 0 0 0 0.048640002
1.276 0.463 0.73799998 150 0 0 0 0.04865
1.275 0.46000001 0.736 150 0 0 0 0.048659999
1.276 0.458 0.736 150 0 0 0 0.048670001
1.277 0.45500001 0.736 150 0 0 0 0.04868
1.278 0.45300001 0.73500001 150 0 0 0 0.048689999
1.284 0.45300001 0.73799998 150 0 0 0 0.048700001
1.294 0.454 0.74199998 150 0 0 0 0.04871
1.299 0.45300001 0.74400002 66 0 0 0 0.048719998
1.319 0.45699999 0.755 19 0 0 0 0.048730001
1.34 0.46200001 0.76599997 12 0 0 0 0.04874
1.348 0.46200001 0.76899999 12 0 0 0 0.048749998
1.3559999 0.46200001 0.77200001 12 0 0 0 0.048760001
1.369 0.463 0.778 13 0 0 0 0.048769999
1.382 0.465 0.78399998 13 0 0 0 0.048780002
1.396 0.46599999 0.79000002 13 0 0 0 0.04879
1.404 0.46599999 0.79400003 14 0 0 0 0.048799999
1.416 0.46700001 0.79799998 14 0 0 0 0.048810001
1.4299999 0.46900001 0.80400002 15 0 0 0 0.04882
1.4450001 0.47 0.81099999 10 0 0 0 0.048829999
1.45 0.46900001 0.81199998 10 0 0 0 0.048840001
1.464 0.47 0.81800002 10 0 0 0 0.04885
1.478 0.472 0.824 10 0 0 0 0.048859999
0.046 0.014 0.025 0 0 0 0 0.048870001
0.044 0.014 0.024 0 0 0 0 0.04888
0 0 0 0 0 0 0 0.048889998
0 0 0 0 0 0 0 0.048900001
2.842 0.87599999 1.563 80 0 0 0 0.048909999
2.849 0.87199998 1.562 77 0 0 0 0.048920002
2.858 0.86799997 1.562 78 0 0 0 0.048930001
2.8640001 0.86400002 1.561 77 0 0 0 0.048939999
2.8640001 0.85799998 1.556 83 0 0 0 0.048950002
2.461 0.73100001 1.3329999 151 0 0 0 0.04896
2.3380001 0.69 1.262 151 0 0 0 0.048969999
2.263 0.662 1.217 150 0 0 0 0.048980001
2.24 0.65100002 1.201 150 0 0 0 0.04899
2.244 0.64700001 1.199 150 0 0 0 0.048999999
2.2379999 0.63999999 1.192 150 0 0 0 0.049010001
2.244 0.63700002 1.191 150 0 0 0 0.04902
2.2420001 0.63099998 1.1849999 150 0 0 0 0.049029998
2.243 0.62699997 1.181 150 0 0 0 0.049040001
2.2390001 0.62099999 1.175 150 0 0 0 0.04905
2.237 0.61500001 1.169 150 0 0 0 0.049059998
2.2349999 0.61000001 1.163 150 0 0 0 0.049070001
2.234 0.60399997 1.158 150 0 0 0 0.049079999
2.234 0.60000002 1.154 150 0 0 0 0.049090002
2.237 0.59500003 1.151 150 0 0 0 0.0491
2.24 0.59100002 1.147 150 0 0 0 0.049109999
2.2390001 0.58600003 1.142 150 0 0 0 0.049120001
2.233 0.579 1.1339999 150 0 0 0 0.04913
2.2390001 0.57599998 1.132 150 0 0 0 0.049139999
2.237 0.57099998 1.126 150 0 0 0 0.049150001
2.237 0.56599998 1.1210001 150 0 0 0 0.04916
2.237 0.56099999 1.1160001 150 0 0 0 0.049169999
2.2379999 0.55599999 1.1109999 150 0 0 0 0.049180001
2.244 0.55299997 1.109 150 0 0 0 0.04919
2.2609999 0.55199999 1.112 150 0 0 0 0.049199998
2.27 0.54900002 1.1109999 150 0 0 0 0.049210001
2.2690001 0.54400003 1.105 150 0 0 0 0.049219999
2.2679999 0.53899997 1.099 150 0 0 0 0.049229998
2.2750001 0.53600001 1.097 150 0 0 0 0.049240001
2.2709999 0.52999997 1.089 150 0 0 0 0.049249999
2.2939999 0.52999997 1.094 35 0 0 0 0.049260002
2.3499999 0.53799999 1.115 25 0 0 0 0.04927
2.3840001 0.54100001 1.126 23 0 0 0 0.049279999
2.4200001 0.54400003 1.136 24 0 0 0 0.049290001
2.4660001 0.54900002 1.152 25 0 0 0 0.0493
2.507 0.55299997 1.165 26 0 0 0 0.049309999
2.55 0.55699998 1.178 27 0 0 0 0.049320001
2.6029999 0.56400001 1.196 27 0 0 0 0.04933
2.6570001 0.56999999 1.214 28 0 0 0 0.049339999
2.7179999 0.57700002 1.234 29 0 0 0 0.049350001
2.763 0.58099997 1.248 29 0 0 0 0.04936
2.809 0.58499998 1.261 30 0 0 0 0.049369998
2.8740001 0.59299999 1.283 31 0 0 0 0.049380001
2.934 0.59899998 1.302 33 0 0 0 0.049389999
2.983 0.60299999 1.3150001 33 0 0 0 0.049400002
3.026 0.60600001 1.326 32 0 0 0 0.04941
3.0780001 0.61000001 1.341 33 0 0 0 0.049419999
3.1240001 0.61299998 1.352 33 0 0 0 0.049430002
3.171 0.616 1.364 30 0 0 0 0.04944
3.197 0.61400002 1.3660001 24 0 0 0 0.049449999
3.224 0.61299998 1.369 23 0 0 0 0.049460001
3.2609999 0.61400002 1.376 23 0 0 0 0.04947
3.2880001 0.61299998 1.378 36 0 0 0 0.049479999
3.29 0.60699999 1.37 96 0 0 0 0.049490001
3.293 0.60100001 1.362 150 0 0 0 0.0495
3.299 0.59600002 1.355 150 0 0 0 0.049509998
3.293 0.588 1.344 150 0 0 0 0.049520001
3.2909999 0.58200002 1.3329999 150 0 0 0 0.049529999
3.2950001 0.57599998 1.326 150 0 0 0 0.049539998
3.2980001 0.56999999 1.318 150 0 0 0 0.049550001
3.2920001 0.56300002 1.306 150 0 0 0 0.049559999
3.296 0.55800003 1.298 150 0 0 0 0.049570002
3.293 0.551 1.2869999 150 0 0 0 0.04958
3.3069999 0.54699999 1.283 150 0 0 0 0.049589999
3.325 0.54400003 1.28 150 0 0 0 0.049600001
3.332 0.53899997 1.273 150 0 0 0 0.04961
3.329 0.53299999 1.263 150 0 0 0 0.049619999
3.3380001 0.528 1.256 149 0 0 0 0.049630001
3.355 0.52499998 1.253 68 0 0 0 0.04964
3.388 0.52399999 1.256 145 0 0 0 0.049649999
3.3989999 0.51899999 1.25 150 0 0 0 0.049660001
3.395 0.51300001 1.238 150 0 0 0 0.04967
3.3970001 0.50700003 1.229 150 0 0 0 0.049679998
3.398 0.50199997 1.22 150 0 0 0 0.049690001
3.398 0.495 1.209 150 0 0 0 0.049699999
3.398 0.49000001 1.199 150 0 0 0 0.049710002
3.401 0.484 1.191 150 0 0 0 0.04972
3.4000001 0.47799999 1.1799999 150 0 0 0 0.049729999
3.402 0.47299999 1.171 150 0 0 0 0.049740002
3.3989999 0.46700001 1.16 150 0 0 0 0.04975
3.398 0.461 1.149 150 0 0 0 0.049759999
3.4000001 0.45500001 1.14 150 0 0 0 0.049770001
3.402 0.44999999 1.13 150 0 0 0 0.04978
3.3970001 0.44400001 1.119 150 0 0 0 0.049789999
3.402 0.43900001 1.11 150 0 0 0 0.049800001
3.3989999 0.433 1.099 150 0 0 0 0.04981
3.402 0.428 1.09 150 0 0 0 0.049819998
3.398 0.42199999 1.0779999 150 0 0 0 0.049830001
3.402 0.417 1.069 150 0 0 0 0.04984
3.401 0.41100001 1.059 150 0 0 0 0.049849998
3.402 0.40599999 1.049 150 0 0 0 0.049860001
3.4030001 0.40099999 1.039 150 0 0 0 0.049869999
3.402 0.396 1.028 150 0 0 0 0.049880002
3.405 0.38999999 1.0190001 150 0 0 0 0.04989
3.4030001 0.38499999 1.008 150 0 0 0 0.049899999
3.4059999 0.38 0.99900001 150 0 0 0 0.049910001
3.408 0.375 0.98900002 150 0 0 0 0.04992
3.404 0.36899999 0.977 150 0 0 0 0.049929999
3.404 0.36399999 0.96700001 150 0 0 0 0.049940001
3.408 0.36000001 0.958 150 0 0 0 0.04995
3.4070001 0.35499999 0.94800001 150 0 0 0 0.049959999
3.4059999 0.34900001 0.93699998 150 0 0 0 0.049970001
3.4030001 0.34400001 0.926 150 0 0 0 0.04998
3.4059999 0.33899999 0.91600001 150 0 0 0 0.049989998
3.408 0.33500001 0.90700001 150 0 0 0 0.050000001
3.408 0.33000001 0.89600003 150 0 0 0 0.050009999
3.405 0.324 0.88499999 150 0 0 0 0.050020002
3.4059999 0.31999999 0.875 150 0 0 0 0.050030001
3.405 0.315 0.86400002 150 0 0 0 0.050039999
3.405 0.31 0.85399997 150 0 0 0 0.050050002
3.404 0.30500001 0.84299999 150 0 0 0 0.05006
3.405 0.30000001 0.833 150 0 0 0 0.050069999
3.405 0.296 0.82300001 150 0 0 0 0.050080001
3.408 0.29100001 0.81300002 150 0 0 0 0.05009
3.4100001 0.287 0.80299997 150 0 0 0 0.050099999
3.4119999 0.28200001 0.79299998 150 0 0 0 0.050110001
3.4100001 0.27700001 0.78200001 150 0 0 0 0.05012
3.4119999 0.273 0.77200001 150 0 0 0 0.050129998
3.414 0.26899999 0.76200002 150 0 0 0 0.050140001
3.4170001 0.264 0.75199997 150 0 0 0 0.05015
3.408 0.259 0.74000001 150 0 0 0 0.050159998
3.4100001 0.255 0.73000002 150 0 0 0 0.050170001
3.411 0.25 0.72000003 150 0 0 0 0.050179999
3.411 0.24600001 0.70899999 150 0 0 0 0.050190002
3.414 0.242 0.69999999 150 0 0 0 0.0502
3.411 0.237 0.68800002 150 0 0 0 0.050209999
3.4100001 0.233 0.67799997 150 0 0 0 0.050220001
3.411 0.228 0.66799998 150 0 0 0 0.05023
3.411 0.22400001 0.65700001 150 0 0 0 0.050239999
3.4130001 0.22 0.64700001 150 0 0 0 0.050250001
3.4119999 0.21600001 0.63599998 150 0 0 0 0.05026
3.414 0.211 0.62599999 150 0 0 0 0.050269999
3.414 0.207 0.616 150 0 0 0 0.050280001
3.4119999 0.20299999 0.60500002 150 0 0 0 0.05029
3.4100001 0.199 0.59399998 150 0 0 0 0.050299998
3.4159999 0.19499999 0.58499998 150 0 0 0 0.050310001
3.4100001 0.19 0.57300001 150 0 0 0 0.050319999
3.415 0.18700001 0.56300002 150 0 0 0 0.050330002
3.4100001 0.182 0.55199999 150 0 0 0 0.050340001
3.4130001 0.178 0.542 150 0 0 0 0.050349999
3.414 0.17399999 0.53200001 150 0 0 0 0.050360002
3.414 0.17 0.52100003 150 0 0 0 0.05037
3.4170001 0.167 0.51099998 150 0 0 0 0.050379999
3.4130001 0.162 0.5 150 0 0 0 0.050390001
3.418 0.15899999 0.49000001 150 0 0 0 0.0504
3.4159999 0.155 0.47999999 150 0 0 0 0.050409999
3.4159999 0.15099999 0.46900001 150 0 0 0 0.050420001
3.418 0.147 0.45899999 150 0 0 0 0.05043
3.421 0.14300001 0.449 150 0 0 0 0.050439999
3.415 0.139 0.43700001 150 0 0 0 0.050450001
3.411 0.13500001 0.426 150 0 0 0 0.05046
3.4130001 0.132 0.41600001 150 0 0 0 0.050469998
3.4189999 0.12800001 0.40599999 150 0 0 0 0.050480001
3.418 0.124 0.396 150 0 0 0 0.050489999
3.4200001 0.121 0.38499999 151 0 0 0 0.050500002
3.414 0.117 0.37400001 151 0 0 0 0.05051
3.4119999 0.113 0.36300001 151 0 0 0 0.050519999
3.418 0.11 0.354 151 0 0 0 0.050530002
3.415 0.106 0.34299999 151 0 0 0 0.05054
3.4159999 0.102 0.33199999 150 0 0 0 0.050549999
3.4119999 0.098999999 0.322 150 0 0 0 0.050560001
3.4130001 0.094999999 0.31099999 151 0 0 0 0.05057
3.414 0.092 0.301 150 0 0 0 0.050579999
3.4200001 0.088 0.29100001 151 0 0 0 0.050590001
3.414 0.085000001 0.28 151 0 0 0 0.0506
3.4219999 0.081 0.27000001 151 0 0 0 0.050609998
3.4130001 0.078000002 0.25799999 151 0 0 0 0.050620001
3.4119999 0.074000001 0.248 151 0 0 0 0.050629999
3.414 0.071000002 0.237 151 0 0 0 0.050639998
3.4130001 0.067000002 0.227 151 0 0 0 0.050650001
3.414 0.064000003 0.21600001 151 0 0 0 0.050659999
3.414 0.061000001 0.206 151 0 0 0 0.050670002
3.4100001 0.057 0.19499999 151 0 0 0 0.05068
3.4159999 0.054000001 0.185 151 0 0 0 0.050689999
3.4159999 0.050999999 0.17399999 151 0 0 0 0.050700001
3.414 0.046999998 0.163 151 0 0 0 0.05071
3.415 0.044 0.153 151 0 0 0 0.050719999
3.4130001 0.041000001 0.142 151 0 0 0 0.050730001
3.4189999 0.037999999 0.132 151 0 0 0 0.05074
3.411 0.034000002 0.121 151 0 0 0 0.050749999
3.4200001 0.030999999 0.111 151 0 0 0 0.050760001
3.421 0.028000001 0.1 151 0 0 0 0.05077
3.4200001 0.025 0.089000002 151 0 0 0 0.050779998
