# .PCD v0.7 - Point Cloud Data file format
VERSION 0.7
FIELDS x y z intensity normal_x normal_y normal_z curvature
SIZE 4 4 4 4 4 4 4 4
TYPE F F F F F F F F
COUNT 1 1 1 1 1 1 1 1
WIDTH 1073
HEIGHT 1
VIEWPOINT 0 0 0 1 0 0 0
POINTS 1073
DATA ascii
3.675 -1.5039999 1.426 58 0 0 0 0.02554
3.6760001 -1.499 1.4170001 58 0 0 0 0.02555
3.674 -1.492 1.406 58 0 0 0 0.025560001
3.674 -1.4859999 1.395 58 0 0 0 0.02557
3.6730001 -1.48 1.385 58 0 0 0 0.02558
3.6730001 -1.474 1.375 58 0 0 0 0.025590001
3.6760001 -1.469 1.3660001 58 0 0 0 0.025599999
3.675 -1.462 1.3559999 58 0 0 0 0.02561
3.6719999 -1.455 1.344 57 0 0 0 0.02562
3.671 -1.448 1.334 57 0 0 0 0.025629999
3.6689999 -1.441 1.323 57 0 0 0 0.02564
3.6700001 -1.4349999 1.313 57 0 0 0 0.02565
3.6659999 -1.427 1.302 57 0 0 0 0.025660001
3.6730001 -1.423 1.294 42 0 0 0 0.025669999
3.7019999 -1.427 1.294 24 0 0 0 0.02568
3.8010001 -1.459 1.318 21 0 0 0 0.025690001
3.8469999 -1.469 1.324 23 0 0 0 0.025699999
3.859 -1.467 1.317 30 0 0 0 0.02571
3.852 -1.457 1.3049999 52 0 0 0 0.02572
3.8510001 -1.449 1.294 51 0 0 0 0.025730001
3.8640001 -1.447 1.2869999 19 0 0 0 0.025739999
3.8900001 -1.449 1.285 12 0 0 0 0.02575
3.8269999 -1.418 1.2539999 5 0 0 0 0.025760001
3.8559999 -1.421 1.253 4 0 0 0 0.025769999
3.8940001 -1.427 1.255 4 0 0 0 0.02578
3.878 -1.414 1.24 4 0 0 0 0.02579
3.835 -1.39 1.215 3 0 0 0 0.025800001
4.0159998 -1.448 1.262 3 0 0 0 0.02581
3.8180001 -1.369 1.1900001 3 0 0 0 0.02582
4.046 -1.442 1.249 10 0 0 0 0.025830001
4.0609999 -1.439 1.243 14 0 0 0 0.025839999
4.0679998 -1.433 1.234 32 0 0 0 0.02585
4.0749998 -1.427 1.226 38 0 0 0 0.02586
4.1300001 -1.438 1.2309999 17 0 0 0 0.025869999
4.1849999 -1.448 1.237 16 0 0 0 0.02588
4.2119999 -1.448 1.233 18 0 0 0 0.02589
4.237 -1.448 1.229 20 0 0 0 0.025900001
4.2179999 -1.432 1.2130001 39 0 0 0 0.025909999
4.2080002 -1.42 1.199 51 0 0 0 0.02592
4.2290001 -1.418 1.194 15 0 0 0 0.02593
0 0 0 0 0 0 0 0.025939999
0 0 0 0 0 0 0 0.02595
2.8840001 -0.94800001 0.792 0 0 0 0 0.02596
0 0 0 0 0 0 0 0.025970001
0 0 0 0 0 0 0 0.025979999
3.0009999 -0.96600002 0.80000001 0 0 0 0 0.02599
2.832 -0.90600002 0.74800003 0 0 0 0 0.026000001
2.823 -0.89600003 0.73799998 0 0 0 0 0.026009999
0 0 0 0 0 0 0 0.02602
2.47 -0.773 0.63300002 0 0 0 0 0.02603
2.503 -0.778 0.63599998 0 0 0 0 0.026040001
0 0 0 0 0 0 0 0.02605
2.5250001 -0.773 0.62800002 0 0 0 0 0.02606
0 0 0 0 0 0 0 0.026070001
0 0 0 0 0 0 0 0.026079999
0 0 0 0 0 0 0 0.02609
0 0 0 0 0 0 0 0.0261
0 0 0 0 0 0 0 0.026110001
0 0 0 0 0 0 0 0.02612
0 0 0 0 0 0 0 0.02613
0 0 0 0 0 0 0 0.026140001
0 0 0 0 0 0 0 0.026149999
0 0 0 0 0 0 0 0.02616
0 0 0 0 0 0 0 0.02617
0 0 0 0 0 0 0 0.026179999
0 0 0 0 0 0 0 0.02619
0 0 0 0 0 0 0 0.0262
0 0 0 0 0 0 0 0.026210001
0 0 0 0 0 0 0 0.026219999
0 0 0 0 0 0 0 0.02623
0 0 0 0 0 0 0 0.026240001
0 0 0 0 0 0 0 0.026249999
0 0 0 0 0 0 0 0.02626
0 0 0 0 0 0 0 0.02627
0 0 0 0 0 0 0 0.026280001
0 0 0 0 0 0 0 0.026289999
0 0 0 0 0 0 0 0.0263
0 0 0 0 0 0 0 0.026310001
0 0 0 0 0 0 0 0.026319999
0 0 0 0 0 0 0 0.02633
0 0 0 0 0 0 0 0.02634
0 0 0 0 0 0 0 0.026350001
0 0 0 0 0 0 0 0.02636
0 0 0 0 0 0 0 0.02637
0 0 0 0 0 0 0 0.026380001
0 0 0 0 0 0 0 0.026389999
0 0 0 0 0 0 0 0.0264
0 0 0 0 0 0 0 0.02641
0 0 0 0 0 0 0 0.026419999
0 0 0 0 0 0 0 0.02643
0 0 0 0 0 0 0 0.02644
0 0 0 0 0 0 0 0.026450001
0 0 0 0 0 0 0 0.026459999
0 0 0 0 0 0 0 0.02647
0 0 0 0 0 0 0 0.02648
0 0 0 0 0 0 0 0.026489999
0 0 0 0 0 0 0 0.0265
0 0 0 0 0 0 0 0.02651
0 0 0 0 0 0 0 0.026520001
0 0 0 0 0 0 0 0.026529999
0 0 0 0 0 0 0 0.02654
0 0 0 0 0 0 0 0.026550001
0 0 0 0 0 0 0 0.026559999
0 0 0 0 0 0 0 0.02657
0 0 0 0 0 0 0 0.02658
0 0 0 0 0 0 0 0.026590001
0 0 0 0 0 0 0 0.0266
0 0 0 0 0 0 0 0.02661
0 0 0 0 0 0 0 0.026620001
0 0 0 0 0 0 0 0.026629999
0 0 0 0 0 0 0 0.02664
0 0 0 0 0 0 0 0.02665
2.4000001 -0.37799999 0.26800001 0 0 0 0 0.026660001
0 0 0 0 0 0 0 0.02667
2.3940001 -0.36500001 0.257 0 0 0 0 0.02668
2.3900001 -0.35800001 0.252 0 0 0 0 0.026690001
2.3889999 -0.352 0.24699999 0 0 0 0 0.026699999
2.381 -0.34400001 0.241 0 0 0 0 0.02671
2.3770001 -0.338 0.236 0 0 0 0 0.02672
2.3870001 -0.333 0.23199999 0 0 0 0 0.026729999
2.382 -0.32600001 0.227 1 0 0 0 0.02674
2.3859999 -0.31999999 0.222 10 0 0 0 0.02675
2.3789999 -0.31299999 0.21699999 21 0 0 0 0.026760001
2.4130001 -0.31200001 0.215 14 0 0 0 0.026769999
2.46 -0.31099999 0.215 17 0 0 0 0.02678
2.5039999 -0.31 0.214 20 0 0 0 0.02679
2.552 -0.30899999 0.213 23 0 0 0 0.026799999
2.6919999 -0.31900001 0.219 32 0 0 0 0.02681
2.9619999 -0.34400001 0.235 150 0 0 0 0.02682
3.214 -0.36500001 0.249 150 0 0 0 0.026830001
3.2130001 -0.35600001 0.243 150 0 0 0 0.026839999
3.2130001 -0.34799999 0.236 150 0 0 0 0.02685
3.211 -0.33899999 0.23 150 0 0 0 0.026860001
3.21 -0.33000001 0.22400001 150 0 0 0 0.026869999
3.211 -0.322 0.21799999 150 0 0 0 0.02688
3.223 -0.315 0.212 150 0 0 0 0.02689
3.237 -0.30700001 0.207 150 0 0 0 0.026900001
3.2360001 -0.29899999 0.20100001 150 0 0 0 0.02691
3.2349999 -0.28999999 0.19499999 150 0 0 0 0.02692
3.233 -0.28099999 0.18799999 150 0 0 0 0.026930001
3.233 -0.273 0.182 150 0 0 0 0.026939999
3.234 -0.264 0.176 150 0 0 0 0.02695
3.2609999 -0.25799999 0.171 53 0 0 0 0.02696
3.3380001 -0.255 0.169 130 0 0 0 0.026969999
3.346 -0.24699999 0.163 151 0 0 0 0.02698
3.3399999 -0.237 0.15700001 150 0 0 0 0.02699
3.3399999 -0.228 0.15099999 150 0 0 0 0.027000001
3.342 -0.22 0.145 150 0 0 0 0.027009999
3.3440001 -0.211 0.138 150 0 0 0 0.02702
3.3729999 -0.20299999 0.133 150 0 0 0 0.02703
3.3740001 -0.19499999 0.127 151 0 0 0 0.027039999
3.372 -0.185 0.121 150 0 0 0 0.02705
3.3900001 -0.177 0.115 150 0 0 0 0.02706
3.4319999 -0.17 0.111 152 0 0 0 0.027070001
3.4349999 -0.161 0.105 150 0 0 0 0.027079999
3.441 -0.152 0.097999997 150 0 0 0 0.02709
3.4319999 -0.14300001 0.092 150 0 0 0 0.027100001
3.4330001 -0.133 0.086000003 150 0 0 0 0.027109999
3.4330001 -0.124 0.079999998 150 0 0 0 0.02712
3.425 -0.115 0.072999999 150 0 0 0 0.02713
3.4349999 -0.106 0.067000002 150 0 0 0 0.027140001
3.4330001 -0.096000001 0.061000001 150 0 0 0 0.02715
3.4319999 -0.086999997 0.055 150 0 0 0 0.02716
3.4260001 -0.077 0.048999999 150 0 0 0 0.027170001
3.424 -0.068000004 0.043000001 150 0 0 0 0.027179999
3.424 -0.059 0.037 150 0 0 0 0.02719
3.4300001 -0.050000001 0.030999999 150 0 0 0 0.0272
3.424 -0.039999999 0.025 150 0 0 0 0.027210001
3.4189999 -0.030999999 0.018999999 150 0 0 0 0.02722
3.4189999 -0.022 0.013 150 0 0 0 0.02723
3.4289999 -0.012 0.0070000002 150 0 0 0 0.027240001
3.4189999 -0.003 0.001 150 0 0 0 0.027249999
3.424 0.0060000001 -0.0040000002 151 0 0 0 0.02726
3.4189999 0.015 -0.0099999998 150 0 0 0 0.02727
3.4159999 0.024 -0.016000001 151 0 0 0 0.027279999
3.4219999 0.034000002 -0.022 152 0 0 0 0.02729
3.4200001 0.043000001 -0.027000001 152 0 0 0 0.0273
3.4230001 0.052999999 -0.033 152 0 0 0 0.027310001
3.418 0.061999999 -0.039000001 152 0 0 0 0.027319999
3.4059999 0.071000002 -0.045000002 153 0 0 0 0.02733
3.401 0.081 -0.050000001 153 0 0 0 0.02734
3.4030001 0.090000004 -0.056000002 153 0 0 0 0.027349999
3.402 0.098999999 -0.061999999 153 0 0 0 0.02736
3.3840001 0.108 -0.067000002 154 0 0 0 0.02737
3.382 0.118 -0.072999999 154 0 0 0 0.027380001
3.381 0.127 -0.079000004 154 0 0 0 0.027389999
3.381 0.13600001 -0.083999999 154 0 0 0 0.0274
3.3800001 0.146 -0.090000004 155 0 0 0 0.027410001
3.369 0.155 -0.094999999 156 0 0 0 0.027419999
3.3759999 0.164 -0.101 156 0 0 0 0.02743
3.3740001 0.17399999 -0.106 156 0 0 0 0.02744
3.368 0.183 -0.112 156 0 0 0 0.027450001
3.3659999 0.192 -0.117 157 0 0 0 0.02746
3.365 0.20100001 -0.122 156 0 0 0 0.02747
3.3629999 0.211 -0.12800001 156 0 0 0 0.027480001
3.3640001 0.22 -0.133 156 0 0 0 0.027489999
3.3629999 0.23 -0.139 156 0 0 0 0.0275
3.3610001 0.23899999 -0.14399999 156 0 0 0 0.02751
3.368 0.249 -0.15000001 156 0 0 0 0.027519999
3.3710001 0.259 -0.155 155 0 0 0 0.02753
3.3699999 0.26800001 -0.161 155 0 0 0 0.02754
3.3710001 0.278 -0.16599999 154 0 0 0 0.027550001
3.3670001 0.287 -0.171 154 0 0 0 0.027559999
3.3710001 0.29699999 -0.177 154 0 0 0 0.02757
3.381 0.30700001 -0.183 154 0 0 0 0.02758
3.3840001 0.31799999 -0.18799999 153 0 0 0 0.027589999
3.3859999 0.32699999 -0.19400001 153 0 0 0 0.0276
3.3900001 0.338 -0.199 153 0 0 0 0.02761
3.3940001 0.347 -0.205 152 0 0 0 0.027620001
3.392 0.35699999 -0.20999999 152 0 0 0 0.027629999
3.3970001 0.36700001 -0.21600001 152 0 0 0 0.02764
3.3940001 0.377 -0.221 152 0 0 0 0.027650001
3.3889999 0.38600001 -0.226 151 0 0 0 0.027659999
3.3859999 0.39500001 -0.23100001 151 0 0 0 0.02767
3.3859999 0.405 -0.236 151 0 0 0 0.02768
3.388 0.41499999 -0.241 151 0 0 0 0.027690001
3.3789999 0.42399999 -0.24600001 151 0 0 0 0.0277
3.392 0.43599999 -0.252 150 0 0 0 0.02771
3.3859999 0.44499999 -0.257 150 0 0 0 0.027720001
3.3840001 0.454 -0.26199999 150 0 0 0 0.027729999
3.382 0.46399999 -0.266 150 0 0 0 0.02774
3.381 0.47400001 -0.271 150 0 0 0 0.02775
3.382 0.484 -0.27700001 150 0 0 0 0.027760001
3.3800001 0.493 -0.28200001 150 0 0 0 0.02777
3.372 0.50199997 -0.28600001 151 0 0 0 0.02778
3.332 0.50599998 -0.287 150 0 0 0 0.027790001
3.312 0.51300001 -0.29100001 150 0 0 0 0.027799999
3.3180001 0.523 -0.296 151 0 0 0 0.02781
3.2950001 0.52899998 -0.29899999 150 0 0 0 0.02782
3.283 0.537 -0.303 151 0 0 0 0.027829999
3.2780001 0.546 -0.30700001 151 0 0 0 0.02784
3.2820001 0.55699998 -0.31200001 151 0 0 0 0.02785
3.2780001 0.56599998 -0.31600001 151 0 0 0 0.027860001
3.2639999 0.57300001 -0.31999999 47 0 0 0 0.027869999
3.22 0.57499999 -0.31999999 24 0 0 0 0.02788
3.171 0.57599998 -0.31999999 23 0 0 0 0.02789
3.0910001 0.56999999 -0.31600001 23 0 0 0 0.027899999
3.0239999 0.56699997 -0.31299999 23 0 0 0 0.02791
2.9300001 0.55800003 -0.308 22 0 0 0 0.02792
2.8570001 0.55299997 -0.30399999 22 0 0 0 0.027930001
2.767 0.54400003 -0.29800001 20 0 0 0 0.027939999
2.6860001 0.53600001 -0.29300001 18 0 0 0 0.02795
2.6210001 0.53100002 -0.28999999 17 0 0 0 0.027960001
2.5680001 0.528 -0.28799999 16 0 0 0 0.027969999
2.513 0.52399999 -0.285 16 0 0 0 0.02798
2.4590001 0.52100003 -0.28200001 15 0 0 0 0.02799
2.4100001 0.51700002 -0.28 16 0 0 0 0.028000001
2.3570001 0.51300001 -0.27700001 16 0 0 0 0.02801
2.283 0.50400001 -0.271 20 0 0 0 0.02802
2.256 0.505 -0.271 150 0 0 0 0.028030001
2.2550001 0.51200002 -0.27399999 151 0 0 0 0.028039999
2.2509999 0.51800001 -0.27700001 151 0 0 0 0.02805
2.237 0.52100003 -0.278 150 0 0 0 0.02806
2.22 0.52399999 -0.27900001 150 0 0 0 0.028069999
2.2219999 0.53200001 -0.28200001 150 0 0 0 0.02808
2.221 0.53899997 -0.285 150 0 0 0 0.02809
2.2190001 0.54500002 -0.287 151 0 0 0 0.028100001
2.22 0.55199999 -0.28999999 150 0 0 0 0.028109999
2.2179999 0.55800003 -0.29300001 151 0 0 0 0.02812
2.221 0.56599998 -0.296 151 0 0 0 0.02813
2.2190001 0.57300001 -0.29899999 151 0 0 0 0.028139999
2.221 0.57999998 -0.30199999 150 0 0 0 0.02815
2.224 0.588 -0.30500001 151 0 0 0 0.02816
2.227 0.59500003 -0.308 151 0 0 0 0.028170001
2.2260001 0.602 -0.31099999 151 0 0 0 0.028179999
2.227 0.60900003 -0.31400001 151 0 0 0 0.02819
2.2249999 0.616 -0.31600001 151 0 0 0 0.028200001
2.2290001 0.62400001 -0.31900001 151 0 0 0 0.028209999
2.28 0.64600003 -0.329 150 0 0 0 0.02822
2.438 0.69800001 -0.35499999 150 0 0 0 0.02823
2.4809999 0.71799999 -0.36399999 150 0 0 0 0.028240001
2.4779999 0.72500002 -0.36700001 150 0 0 0 0.02825
2.4779999 0.73299998 -0.37 150 0 0 0 0.02826
2.4719999 0.73900002 -0.37200001 150 0 0 0 0.028270001
2.352 0.71100003 -0.35699999 150 0 0 0 0.028279999
2.507 0.76599997 -0.38299999 150 0 0 0 0.02829
1.485 0.458 -0.228 5 0 0 0 0.0283
1.467 0.45699999 -0.227 6 0 0 0 0.028310001
1.449 0.45699999 -0.226 6 0 0 0 0.02832
1.429 0.45500001 -0.22499999 6 0 0 0 0.02833
1.415 0.45500001 -0.22400001 5 0 0 0 0.028340001
1.396 0.45300001 -0.222 4 0 0 0 0.028349999
1.374 0.44999999 -0.22 2 0 0 0 0.02836
1.353 0.44800001 -0.219 3 0 0 0 0.02837
1.336 0.447 -0.21699999 6 0 0 0 0.028379999
1.311 0.44299999 -0.215 29 0 0 0 0.02839
1.294 0.44100001 -0.213 148 0 0 0 0.0284
1.2869999 0.44299999 -0.213 150 0 0 0 0.028410001
1.283 0.44600001 -0.214 150 0 0 0 0.028419999
1.286 0.45100001 -0.21600001 150 0 0 0 0.02843
1.284 0.454 -0.21699999 150 0 0 0 0.02844
1.284 0.45899999 -0.21799999 150 0 0 0 0.028449999
1.283 0.46200001 -0.219 150 0 0 0 0.02846
1.2819999 0.46599999 -0.22 150 0 0 0 0.02847
1.281 0.47 -0.221 150 0 0 0 0.028480001
1.279 0.47400001 -0.222 150 0 0 0 0.028489999
1.28 0.47799999 -0.22400001 150 0 0 0 0.0285
1.284 0.484 -0.22499999 119 0 0 0 0.028510001
1.291 0.491 -0.228 26 0 0 0 0.028519999
1.262 0.484 -0.22400001 0 0 0 0 0.02853
1.23 0.47600001 -0.219 5 0 0 0 0.02854
1.212 0.47299999 -0.21699999 3 0 0 0 0.028550001
1.2 0.472 -0.21600001 4 0 0 0 0.02856
1.1900001 0.472 -0.215 0 0 0 0 0.02857
1.182 0.47299999 -0.215 0 0 0 0 0.028580001
1.1670001 0.47099999 -0.213 0 0 0 0 0.028589999
1.152 0.46799999 -0.211 0 0 0 0 0.0286
1.141 0.46799999 -0.20999999 3 0 0 0 0.02861
1.1390001 0.47099999 -0.211 3 0 0 0 0.028620001
1.1289999 0.47 -0.20999999 0 0 0 0 0.02863
1.122 0.47099999 -0.20900001 0 0 0 0 0.02864
1.108 0.46900001 -0.208 0 0 0 0 0.028650001
1.094 0.46700001 -0.206 0 0 0 0 0.028659999
1.086 0.46599999 -0.205 0 0 0 0 0.02867
1.075 0.46599999 -0.204 0 0 0 0 0.02868
1.0650001 0.46399999 -0.20200001 0 0 0 0 0.028689999
1.064 0.46799999 -0.20299999 0 0 0 0 0.0287
1.05 0.465 -0.20100001 0 0 0 0 0.02871
1.025 0.45699999 -0.197 0 0 0 0 0.028720001
1.023 0.46000001 -0.197 0 0 0 0 0.028729999
1.013 0.45899999 -0.19599999 0 0 0 0 0.02874
1.003 0.45699999 -0.19499999 2 0 0 0 0.028750001
0.99699998 0.458 -0.19400001 0 0 0 0 0.028759999
0.99000001 0.458 -0.193 0 0 0 0 0.02877
0.98400003 0.458 -0.193 0 0 0 0 0.02878
0.97500002 0.458 -0.191 0 0 0 0 0.028790001
0.96700001 0.45699999 -0.19 0 0 0 0 0.0288
0.95999998 0.45699999 -0.189 0 0 0 0 0.02881
0.954 0.45699999 -0.189 0 0 0 0 0.028820001
0.94999999 0.458 -0.18799999 0 0 0 0 0.028829999
0.93699998 0.45500001 -0.186 0 0 0 0 0.02884
0.93400002 0.45699999 -0.186 0 0 0 0 0.02885
0.91799998 0.45199999 -0.183 0 0 0 0 0.028860001
0.91600001 0.454 -0.183 0 0 0 0 0.02887
0.91600001 0.456 -0.183 0 0 0 0 0.02888
0.90899998 0.456 -0.182 6 0 0 0 0.028890001
0.91299999 0.461 -0.183 10 0 0 0 0.028899999
0.91500002 0.465 -0.184 10 0 0 0 0.02891
0.912 0.46599999 -0.184 10 0 0 0 0.02892
0.91299999 0.47 -0.184 8 0 0 0 0.028929999
0.90600002 0.46900001 -0.183 7 0 0 0 0.02894
0.912 0.47499999 -0.185 6 0 0 0 0.02895
0.91100001 0.477 -0.185 6 0 0 0 0.028960001
0.91799998 0.484 -0.186 6 0 0 0 0.028969999
0.90499997 0.47999999 -0.184 4 0 0 0 0.02898
0.91600001 0.48800001 -0.186 0 0 0 0 0.02899
0.92299998 0.495 -0.18799999 0 0 0 0 0.028999999
0 0 0 0 0 0 0 0.02901
0 0 0 0 0 0 0 0.02902
0 0 0 0 0 0 0 0.029030001
0 0 0 0 0 0 0 0.029039999
0 0 0 0 0 0 0 0.02905
1.031 0.57200003 -0.20999999 0 0 0 0 0.029060001
1.043 0.58200002 -0.213 1 0 0 0 0.029069999
1.045 0.58600003 -0.213 2 0 0 0 0.02908
1.049 0.59100002 -0.214 6 0 0 0 0.02909
1.043 0.59100002 -0.212 7 0 0 0 0.029100001
1.039 0.59200001 -0.212 7 0 0 0 0.02911
1.036 0.59299999 -0.211 7 0 0 0 0.02912
1.031 0.59299999 -0.20999999 6 0 0 0 0.029130001
1.022 0.59100002 -0.208 6 0 0 0 0.029139999
1.0190001 0.59200001 -0.207 6 0 0 0 0.02915
1.011 0.58999997 -0.205 6 0 0 0 0.02916
1.0089999 0.59200001 -0.205 6 0 0 0 0.029170001
1.007 0.59299999 -0.204 6 0 0 0 0.02918
0.995 0.58999997 -0.20100001 6 0 0 0 0.02919
0.98799998 0.588 -0.2 6 0 0 0 0.029200001
0.98500001 0.58899999 -0.199 6 0 0 0 0.029209999
0.98299998 0.58999997 -0.198 6 0 0 0 0.02922
0.97899997 0.58999997 -0.197 6 0 0 0 0.02923
0.97000003 0.58700001 -0.19499999 6 0 0 0 0.029239999
0.96799999 0.58899999 -0.19400001 5 0 0 0 0.02925
0.96100003 0.58700001 -0.192 5 0 0 0 0.02926
0.95499998 0.58600003 -0.19 5 0 0 0 0.029270001
0.95599997 0.588 -0.19 5 0 0 0 0.029279999
0.94999999 0.588 -0.189 5 0 0 0 0.02929
0.94499999 0.58700001 -0.18700001 5 0 0 0 0.029300001
0.94599998 0.58999997 -0.18700001 5 0 0 0 0.029309999
0.93900001 0.588 -0.185 5 0 0 0 0.02932
0.93199998 0.58499998 -0.183 5 0 0 0 0.02933
0.921 0.57999998 -0.18000001 5 0 0 0 0.029340001
0.917 0.57999998 -0.17900001 5 0 0 0 0.02935
0.912 0.579 -0.177 5 0 0 0 0.02936
0.90899998 0.579 -0.176 6 0 0 0 0.029370001
0.90799999 0.58099997 -0.175 6 0 0 0 0.029379999
0.90700001 0.58099997 -0.175 6 0 0 0 0.02939
0.90499997 0.58200002 -0.17399999 7 0 0 0 0.0294
0.90399998 0.58399999 -0.17299999 6 0 0 0 0.029410001
0.90200001 0.58399999 -0.17200001 7 0 0 0 0.02942
0.90100002 0.58499998 -0.171 7 0 0 0 0.02943
0.90200001 0.58700001 -0.17 7 0 0 0 0.029440001
0.89999998 0.588 -0.169 7 0 0 0 0.029449999
0.89899999 0.58899999 -0.168 7 0 0 0 0.02946
0.89999998 0.59100002 -0.167 7 0 0 0 0.02947
0.89899999 0.59200001 -0.16599999 7 0 0 0 0.029479999
0.898 0.59299999 -0.16500001 7 0 0 0 0.02949
0.898 0.59399998 -0.16500001 7 0 0 0 0.0295
0.89700001 0.59500003 -0.164 7 0 0 0 0.029510001
0.89700001 0.59600002 -0.163 7 0 0 0 0.029519999
0.89700001 0.59799999 -0.162 7 0 0 0 0.02953
0.89600003 0.59799999 -0.161 7 0 0 0 0.02954
0.89499998 0.59899998 -0.15899999 8 0 0 0 0.029549999
0.89200002 0.59899998 -0.15800001 9 0 0 0 0.02956
0.89600003 0.602 -0.15800001 9 0 0 0 0.02957
0.89399999 0.602 -0.156 9 0 0 0 0.029580001
0.89300001 0.602 -0.155 10 0 0 0 0.029589999
0.89200002 0.60299999 -0.154 9 0 0 0 0.0296
0.89300001 0.60500002 -0.153 10 0 0 0 0.029610001
0.89300001 0.60500002 -0.152 9 0 0 0 0.029619999
0.89200002 0.60600001 -0.15099999 9 0 0 0 0.02963
0.89399999 0.60799998 -0.15000001 10 0 0 0 0.02964
0.89300001 0.60900003 -0.149 9 0 0 0 0.029650001
0.89300001 0.60900003 -0.148 9 0 0 0 0.02966
0.89499998 0.611 -0.147 8 0 0 0 0.02967
0.89899999 0.61500001 -0.147 7 0 0 0 0.029680001
0.90200001 0.61799997 -0.146 4 0 0 0 0.029689999
0.898 0.61500001 -0.14399999 4 0 0 0 0.0297
1.025 0.70300001 -0.163 2 0 0 0 0.02971
1.036 0.71100003 -0.164 2 0 0 0 0.029720001
1.005 0.69 -0.15700001 1 0 0 0 0.02973
1.003 0.68900001 -0.156 1 0 0 0 0.02974
1.035 0.71200001 -0.15899999 1 0 0 0 0.029750001
1.0599999 0.73000002 -0.162 1 0 0 0 0.029759999
1.056 0.727 -0.16 1 0 0 0 0.02977
0 0 0 0 0 0 0 0.02978
0 0 0 0 0 0 0 0.029789999
0 0 0 0 0 0 0 0.0298
0 0 0 0 0 0 0 0.02981
0 0 0 0 0 0 0 0.029820001
2.6500001 1.826 -0.37799999 4 0 0 0 0.029829999
2.6329999 1.814 -0.37200001 5 0 0 0 0.02984
2.652 1.826 -0.37099999 11 0 0 0 0.029850001
2.6619999 1.8329999 -0.368 10 0 0 0 0.029859999
2.6559999 1.8279999 -0.36300001 10 0 0 0 0.02987
2.7030001 1.86 -0.366 13 0 0 0 0.02988
1.204 0.82800001 -0.161 9 0 0 0 0.029890001
1.2079999 0.82999998 -0.16 19 0 0 0 0.029899999
1.204 0.82700002 -0.15700001 49 0 0 0 0.02991
1.206 0.82800001 -0.156 52 0 0 0 0.029920001
1.206 0.82700002 -0.154 58 0 0 0 0.029929999
1.202 0.824 -0.15099999 71 0 0 0 0.02994
1.207 0.82599998 -0.15000001 58 0 0 0 0.02995
1.212 0.82800001 -0.149 40 0 0 0 0.029960001
1.211 0.82700002 -0.147 36 0 0 0 0.02997
1.214 0.82800001 -0.145 32 0 0 0 0.02998
1.212 0.82499999 -0.14300001 30 0 0 0 0.029990001
1.211 0.82300001 -0.141 29 0 0 0 0.029999999
1.212 0.82300001 -0.139 30 0 0 0 0.03001
1.209 0.81999999 -0.13699999 30 0 0 0 0.03002
1.212 0.82099998 -0.13600001 30 0 0 0 0.030029999
1.212 0.81900001 -0.134 32 0 0 0 0.03004
1.212 0.81800002 -0.132 35 0 0 0 0.03005
1.212 0.81599998 -0.13 33 0 0 0 0.030060001
1.212 0.815 -0.12800001 25 0 0 0 0.030069999
1.217 0.81599998 -0.127 17 0 0 0 0.03008
1.238 0.829 -0.127 16 0 0 0 0.03009
1.281 0.85500002 -0.12899999 16 0 0 0 0.030099999
1.652 1.101 -0.16500001 24 0 0 0 0.03011
1.9220001 1.278 -0.189 49 0 0 0 0.03012
1.466 0.97299999 -0.142 15 0 0 0 0.030130001
1.475 0.97600001 -0.14 14 0 0 0 0.030139999
1.488 0.98199999 -0.139 13 0 0 0 0.03015
1.493 0.98299998 -0.13699999 13 0 0 0 0.030160001
1.4960001 0.98199999 -0.13500001 12 0 0 0 0.030169999
1.502 0.98299998 -0.133 12 0 0 0 0.03018
1.501 0.98000002 -0.131 11 0 0 0 0.03019
0 0 0 0 0 0 0 0.030200001
0 0 0 0 0 0 0 0.03021
3.1800001 2.059 -0.264 2 0 0 0 0.03022
3.1670001 2.0439999 -0.25799999 1 0 0 0 0.030230001
0 0 0 0 0 0 0 0.030239999
3.1259999 2.0039999 -0.24600001 1 0 0 0 0.03025
3.1760001 2.03 -0.245 1 0 0 0 0.03026
0 0 0 0 0 0 0 0.030270001
0 0 0 0 0 0 0 0.03028
0 0 0 0 0 0 0 0.03029
0 0 0 0 0 0 0 0.030300001
0 0 0 0 0 0 0 0.030309999
3.2190001 2.0150001 -0.221 12 0 0 0 0.03032
3.2190001 2.007 -0.21600001 12 0 0 0 0.03033
3.223 2.0020001 -0.212 12 0 0 0 0.030339999
3.224 1.995 -0.207 12 0 0 0 0.03035
3.223 1.9859999 -0.20299999 11 0 0 0 0.03036
3.2249999 1.979 -0.198 7 0 0 0 0.030370001
3.1960001 1.9529999 -0.193 3 0 0 0 0.030379999
3.079 1.874 -0.18099999 39 0 0 0 0.03039
1.105 0.67000002 -0.063000001 2 0 0 0 0.030400001
1.096 0.66100001 -0.061000001 2 0 0 0 0.030409999
1.084 0.65100002 -0.059 1 0 0 0 0.03042
0 0 0 0 0 0 0 0.03043
1.105 0.65799999 -0.057999998 1 0 0 0 0.030440001
1.1 0.65200001 -0.056000002 1 0 0 0 0.030449999
1.127 0.66500002 -0.056000002 1 0 0 0 0.03046
1.2 0.70499998 -0.057999998 1 0 0 0 0.030470001
3.217 1.881 -0.152 3 0 0 0 0.030479999
0 0 0 0 0 0 0 0.03049
3.26 1.888 -0.146 11 0 0 0 0.0305
3.263 1.881 -0.14300001 7 0 0 0 0.030510001
3.2479999 1.863 -0.138 4 0 0 0 0.03052
3.2620001 1.862 -0.13500001 1 0 0 0 0.03053
0 0 0 0 0 0 0 0.030540001
1.1210001 0.63300002 -0.043000001 0 0 0 0 0.030549999
1.1569999 0.64999998 -0.043000001 0 0 0 0 0.03056
1.126 0.62900001 -0.041000001 0 0 0 0 0.03057
0 0 0 0 0 0 0 0.030579999
0 0 0 0 0 0 0 0.03059
3.3 1.8150001 -0.11 0 0 0 0 0.0306
3.313 1.812 -0.107 1 0 0 0 0.030610001
3.2909999 1.79 -0.103 1 0 0 0 0.030619999
3.3099999 1.79 -0.1 1 0 0 0 0.03063
0 0 0 0 0 0 0 0.03064
0 0 0 0 0 0 0 0.030649999
0 0 0 0 0 0 0 0.03066
1.258 0.66500002 -0.033 0 0 0 0 0.03067
1.008 0.52999997 -0.025 0 0 0 0 0.030680001
0.949 0.49599999 -0.023 0 0 0 0 0.030689999
0.90600002 0.47 -0.021 2 0 0 0 0.0307
0.90100002 0.465 -0.02 3 0 0 0 0.030710001
0.91500002 0.46900001 -0.018999999 4 0 0 0 0.030719999
0.91600001 0.46700001 -0.017999999 4 0 0 0 0.03073
0.92000002 0.46599999 -0.017999999 4 0 0 0 0.03074
0.91299999 0.45899999 -0.017000001 0 0 0 0 0.030750001
0.91100001 0.45500001 -0.016000001 0 0 0 0 0.03076
3.076 1.528 -0.052000001 1 0 0 0 0.03077
3.0780001 1.5190001 -0.048999999 2 0 0 0 0.030780001
3.085 1.513 -0.046999998 2 0 0 0 0.030789999
3.063 1.492 -0.044 2 0 0 0 0.0308
3.0810001 1.49 -0.041999999 2 0 0 0 0.03081
3.085 1.483 -0.039000001 2 0 0 0 0.030820001
3.0699999 1.465 -0.037 2 0 0 0 0.03083
3.098 1.4680001 -0.035 2 0 0 0 0.03084
3.096 1.457 -0.032000002 5 0 0 0 0.030850001
3.1029999 1.45 -0.029999999 4 0 0 0 0.030859999
3.115 1.446 -0.028000001 2 0 0 0 0.03087
3.1210001 1.438 -0.026000001 3 0 0 0 0.03088
3.1259999 1.4299999 -0.024 3 0 0 0 0.030889999
3.1159999 1.415 -0.021 2 0 0 0 0.0309
3.095 1.395 -0.018999999 1 0 0 0 0.03091
3.1589999 1.414 -0.017000001 1 0 0 0 0.030920001
3.1860001 1.415 -0.015 1 0 0 0 0.030929999
3.2260001 1.4220001 -0.014 3 0 0 0 0.03094
3.2149999 1.406 -0.012 5 0 0 0 0.030950001
3.2160001 1.396 -0.0099999998 5 0 0 0 0.030959999
3.22 1.387 -0.0080000004 4 0 0 0 0.03097
3.2379999 1.3839999 -0.0060000001 3 0 0 0 0.03098
3.2409999 1.374 -0.0040000002 3 0 0 0 0.030990001
3.2449999 1.365 -0.0020000001 5 0 0 0 0.030999999
3.253 1.358 0 5 0 0 0 0.03101
3.273 1.355 0.001 3 0 0 0 0.031020001
3.306 1.357 0.003 3 0 0 0 0.031029999
3.306 1.346 0.0040000002 6 0 0 0 0.03104
3.323 1.342 0.0060000001 9 0 0 0 0.03105
3.3150001 1.327 0.0080000004 7 0 0 0 0.031060001
3.3099999 1.314 0.0089999996 5 0 0 0 0.03107
1.219 0.47999999 0.0040000002 1 0 0 0 0.03108
1.243 0.48500001 0.0040000002 0 0 0 0 0.031090001
1.265 0.48899999 0.0049999999 5 0 0 0 0.031099999
1.289 0.49399999 0.0060000001 12 0 0 0 0.03111
1.288 0.48899999 0.0060000001 90 0 0 0 0.03112
1.288 0.48500001 0.0070000002 150 0 0 0 0.031129999
1.284 0.479 0.0070000002 150 0 0 0 0.03114
1.2869999 0.47600001 0.0080000004 150 0 0 0 0.03115
1.289 0.472 0.0080000004 150 0 0 0 0.031160001
1.288 0.46799999 0.0089999996 150 0 0 0 0.031169999
1.289 0.463 0.0089999996 150 0 0 0 0.03118
1.29 0.45899999 0.0099999998 150 0 0 0 0.03119
1.286 0.454 0.0099999998 150 0 0 0 0.031199999
1.2869999 0.44999999 0.011 150 0 0 0 0.03121
1.288 0.44600001 0.011 150 0 0 0 0.03122
1.299 0.44499999 0.012 54 0 0 0 0.031230001
1.321 0.44800001 0.012 7 0 0 0 0.031239999
1.353 0.454 0.013 1 0 0 0 0.03125
1.367 0.454 0.013 1 0 0 0 0.031259999
1.387 0.456 0.014 2 0 0 0 0.031270001
1.401 0.456 0.015 3 0 0 0 0.03128
1.419 0.45699999 0.015 2 0 0 0 0.031289998
1.438 0.45899999 0.016000001 2 0 0 0 0.031300001
1.46 0.461 0.016000001 2 0 0 0 0.03131
1.476 0.461 0.017000001 3 0 0 0 0.031319998
2.5209999 0.77899998 0.029999999 150 0 0 0 0.031330001
2.306 0.70499998 0.028000001 150 0 0 0 0.031339999
2.48 0.74900001 0.029999999 150 0 0 0 0.031350002
2.484 0.74199998 0.030999999 150 0 0 0 0.03136
2.4860001 0.73400003 0.030999999 150 0 0 0 0.031369999
2.4860001 0.72600001 0.032000002 150 0 0 0 0.031380001
2.398 0.69199997 0.030999999 150 0 0 0 0.03139
2.2590001 0.64499998 0.029999999 150 0 0 0 0.031399999
2.227 0.62800002 0.028999999 151 0 0 0 0.031410001
2.2260001 0.62 0.029999999 151 0 0 0 0.03142
2.2279999 0.61299998 0.029999999 151 0 0 0 0.031429999
2.2249999 0.60500002 0.029999999 151 0 0 0 0.031440001
2.227 0.59799999 0.030999999 151 0 0 0 0.03145
2.2279999 0.59100002 0.030999999 151 0 0 0 0.031459998
2.2219999 0.58200002 0.030999999 151 0 0 0 0.031470001
2.224 0.57499999 0.030999999 151 0 0 0 0.031479999
2.2260001 0.56800002 0.030999999 151 0 0 0 0.031490002
2.2219999 0.55900002 0.032000002 151 0 0 0 0.031500001
2.223 0.55199999 0.032000002 151 0 0 0 0.031509999
2.2309999 0.54699999 0.032000002 151 0 0 0 0.031520002
2.221 0.537 0.032000002 151 0 0 0 0.03153
2.2290001 0.53100002 0.032000002 151 0 0 0 0.031539999
2.2449999 0.528 0.033 151 0 0 0 0.031550001
2.2290001 0.51599997 0.032000002 152 0 0 0 0.03156
2.24 0.51200002 0.033 152 0 0 0 0.031569999
2.266 0.50999999 0.033 150 0 0 0 0.031580001
2.346 0.51999998 0.034000002 24 0 0 0 0.03159
2.401 0.52399999 0.035 24 0 0 0 0.031599998
2.4660001 0.52999997 0.035999998 25 0 0 0 0.031610001
2.523 0.53399998 0.037 24 0 0 0 0.03162
2.5969999 0.54100001 0.037999999 26 0 0 0 0.031629998
2.6949999 0.55299997 0.039000001 29 0 0 0 0.031640001
2.799 0.565 0.041000001 28 0 0 0 0.031649999
2.8970001 0.57499999 0.041999999 29 0 0 0 0.031660002
2.928 0.57200003 0.041999999 26 0 0 0 0.03167
2.9849999 0.57300001 0.043000001 25 0 0 0 0.031679999
3.082 0.58099997 0.044 26 0 0 0 0.031690001
3.1530001 0.58399999 0.045000002 25 0 0 0 0.0317
3.2149999 0.58499998 0.045000002 25 0 0 0 0.031709999
3.263 0.583 0.046 38 0 0 0 0.031720001
3.28 0.57499999 0.046 153 0 0 0 0.03173
3.266 0.56199998 0.045000002 154 0 0 0 0.031739999
3.2679999 0.55199999 0.045000002 153 0 0 0 0.031750001
3.283 0.54299998 0.045000002 153 0 0 0 0.03176
3.2969999 0.53500003 0.045000002 151 0 0 0 0.031769998
3.322 0.528 0.044 152 0 0 0 0.031780001
3.3269999 0.51800001 0.044 152 0 0 0 0.031789999
3.348 0.50999999 0.044 153 0 0 0 0.031800002
3.381 0.50400001 0.044 152 0 0 0 0.031810001
3.3859999 0.49399999 0.043000001 152 0 0 0 0.031819999
3.3870001 0.48300001 0.043000001 152 0 0 0 0.031830002
3.3889999 0.472 0.041999999 152 0 0 0 0.03184
3.388 0.461 0.041999999 152 0 0 0 0.031849999
3.388 0.44999999 0.041000001 152 0 0 0 0.031860001
3.3900001 0.43900001 0.041000001 152 0 0 0 0.03187
3.3900001 0.428 0.039999999 152 0 0 0 0.031879999
3.3740001 0.41499999 0.039000001 154 0 0 0 0.031890001
3.3640001 0.40200001 0.037999999 154 0 0 0 0.0319
3.3640001 0.391 0.037999999 154 0 0 0 0.031909999
3.3610001 0.38 0.037 155 0 0 0 0.031920001
3.3599999 0.36899999 0.035999998 156 0 0 0 0.03193
3.3559999 0.35800001 0.035 158 0 0 0 0.031939998
3.348 0.34599999 0.035 158 0 0 0 0.031950001
3.3559999 0.336 0.034000002 156 0 0 0 0.031959999
3.365 0.32600001 0.033 156 0 0 0 0.031970002
3.358 0.31400001 0.032000002 157 0 0 0 0.03198
3.3529999 0.303 0.030999999 159 0 0 0 0.031989999
3.352 0.292 0.029999999 160 0 0 0 0.032000002
3.352 0.28099999 0.029999999 160 0 0 0 0.03201
3.355 0.271 0.028999999 161 0 0 0 0.032019999
3.355 0.25999999 0.028000001 160 0 0 0 0.032030001
3.3540001 0.249 0.027000001 161 0 0 0 0.03204
3.355 0.23800001 0.026000001 160 0 0 0 0.032049999
3.3610001 0.227 0.025 160 0 0 0 0.032060001
3.3559999 0.21600001 0.024 160 0 0 0 0.03207
3.3559999 0.206 0.023 160 0 0 0 0.032079998
3.3599999 0.19499999 0.022 159 0 0 0 0.032090001
3.3629999 0.184 0.021 159 0 0 0 0.032099999
3.3629999 0.17299999 0.02 160 0 0 0 0.032109998
3.362 0.163 0.018999999 159 0 0 0 0.032120001
3.368 0.152 0.017999999 158 0 0 0 0.032129999
3.3699999 0.141 0.016000001 158 0 0 0 0.032140002
3.3829999 0.131 0.015 156 0 0 0 0.03215
3.382 0.12 0.014 156 0 0 0 0.032159999
3.382 0.109 0.013 155 0 0 0 0.032170001
3.395 0.098999999 0.012 154 0 0 0 0.03218
3.398 0.088 0.011 154 0 0 0 0.032189999
3.404 0.077 0.0089999996 154 0 0 0 0.032200001
3.4070001 0.066 0.0080000004 153 0 0 0 0.03221
3.4059999 0.055 0.0070000002 153 0 0 0 0.032219999
3.418 0.044 0.0060000001 153 0 0 0 0.032230001
3.4230001 0.033 0.0040000002 152 0 0 0 0.03224
3.418 0.022 0.003 151 0 0 0 0.032249998
3.421 0.011 0.001 152 0 0 0 0.032260001
3.4200001 0 0 151 0 0 0 0.032269999
3.4200001 -0.0099999998 0 151 0 0 0 0.032280002
3.4200001 -0.021 -0.0020000001 151 0 0 0 0.03229
3.418 -0.032000002 -0.003 151 0 0 0 0.032299999
3.424 -0.043000001 -0.0049999999 151 0 0 0 0.032310002
3.427 -0.054000001 -0.0060000001 151 0 0 0 0.03232
3.428 -0.064999998 -0.0080000004 151 0 0 0 0.032329999
3.428 -0.075999998 -0.0089999996 151 0 0 0 0.032340001
3.427 -0.086999997 -0.011 151 0 0 0 0.03235
3.431 -0.097999997 -0.012 151 0 0 0 0.032359999
3.431 -0.109 -0.014 151 0 0 0 0.032370001
3.431 -0.12 -0.016000001 151 0 0 0 0.03238
3.4389999 -0.131 -0.017000001 151 0 0 0 0.032389998
3.4330001 -0.142 -0.018999999 151 0 0 0 0.032400001
3.4349999 -0.153 -0.021 151 0 0 0 0.03241
3.4349999 -0.164 -0.022 151 0 0 0 0.032419998
3.411 -0.17399999 -0.024 154 0 0 0 0.032430001
3.372 -0.183 -0.025 151 0 0 0 0.032439999
3.3710001 -0.193 -0.027000001 152 0 0 0 0.032450002
3.3740001 -0.204 -0.028999999 153 0 0 0 0.03246
3.348 -0.214 -0.029999999 151 0 0 0 0.032469999
3.346 -0.22400001 -0.032000002 152 0 0 0 0.032480001
3.345 -0.235 -0.034000002 152 0 0 0 0.03249
3.339 -0.245 -0.035 153 0 0 0 0.032499999
3.3429999 -0.25600001 -0.037 151 0 0 0 0.032510001
3.2449999 -0.259 -0.037999999 150 0 0 0 0.03252
3.2309999 -0.26800001 -0.039999999 153 0 0 0 0.032529999
3.2360001 -0.27900001 -0.041000001 152 0 0 0 0.032540001
3.2349999 -0.289 -0.043000001 152 0 0 0 0.03255
3.233 -0.30000001 -0.045000002 152 0 0 0 0.032559998
3.233 -0.31 -0.046999998 153 0 0 0 0.032570001
3.2279999 -0.31999999 -0.048999999 152 0 0 0 0.032579999
3.207 -0.32800001 -0.050000001 151 0 0 0 0.032590002
3.2079999 -0.338 -0.052000001 151 0 0 0 0.032600001
3.21 -0.34900001 -0.054000001 151 0 0 0 0.032609999
3.211 -0.359 -0.056000002 151 0 0 0 0.032620002
3.211 -0.36899999 -0.057999998 151 0 0 0 0.03263
2.9530001 -0.34900001 -0.055 150 0 0 0 0.032639999
2.6140001 -0.317 -0.050000001 33 0 0 0 0.032650001
2.573 -0.32100001 -0.050999999 36 0 0 0 0.03266
2.4879999 -0.31799999 -0.050999999 31 0 0 0 0.032669999
2.4260001 -0.31799999 -0.050999999 21 0 0 0 0.032680001
2.3940001 -0.322 -0.052000001 29 0 0 0 0.03269
2.3559999 -0.324 -0.052999999 24 0 0 0 0.032699998
2.3629999 -0.33199999 -0.055 21 0 0 0 0.032710001
2.368 -0.34099999 -0.057 21 0 0 0 0.03272
2.3610001 -0.347 -0.057999998 18 0 0 0 0.032729998
2.3659999 -0.35600001 -0.059999999 15 0 0 0 0.032740001
2.3640001 -0.36300001 -0.061000001 17 0 0 0 0.032749999
2.3599999 -0.37 -0.063000001 16 0 0 0 0.032760002
2.3659999 -0.37799999 -0.064999998 20 0 0 0 0.03277
2.365 -0.38600001 -0.066 24 0 0 0 0.032779999
2.3670001 -0.39399999 -0.068000004 25 0 0 0 0.032790001
2.368 -0.40099999 -0.07 24 0 0 0 0.0328
2.3659999 -0.40900001 -0.071999997 26 0 0 0 0.032809999
2.3659999 -0.41600001 -0.072999999 26 0 0 0 0.032820001
2.368 -0.42399999 -0.075000003 23 0 0 0 0.03283
2.372 -0.433 -0.077 20 0 0 0 0.032839999
2.3710001 -0.44 -0.079000004 20 0 0 0 0.032850001
2.3740001 -0.44800001 -0.081 19 0 0 0 0.03286
2.3759999 -0.456 -0.082999997 16 0 0 0 0.032869998
2.3740001 -0.46399999 -0.083999999 15 0 0 0 0.032880001
2.375 -0.47099999 -0.086000003 17 0 0 0 0.032889999
2.3770001 -0.479 -0.088 18 0 0 0 0.032900002
2.3740001 -0.48699999 -0.090000004 19 0 0 0 0.032910001
2.3699999 -0.493 -0.092 20 0 0 0 0.032919999
2.372 -0.50099999 -0.093999997 23 0 0 0 0.032930002
2.372 -0.509 -0.096000001 24 0 0 0 0.03294
2.3759999 -0.51700002 -0.097999997 20 0 0 0 0.032949999
2.3740001 -0.52499998 -0.1 17 0 0 0 0.032960001
2.3740001 -0.53200001 -0.102 17 0 0 0 0.03297
2.3740001 -0.54000002 -0.104 21 0 0 0 0.032979999
2.3759999 -0.54799998 -0.106 23 0 0 0 0.032990001
2.3770001 -0.55599999 -0.108 20 0 0 0 0.033
2.3789999 -0.56400001 -0.11 19 0 0 0 0.033009999
2.3729999 -0.56999999 -0.112 22 0 0 0 0.033020001
2.3789999 -0.57999998 -0.115 21 0 0 0 0.03303
2.3789999 -0.58700001 -0.117 19 0 0 0 0.033039998
2.3759999 -0.59399998 -0.119 19 0 0 0 0.033050001
2.3800001 -0.60299999 -0.121 21 0 0 0 0.033059999
2.3759999 -0.61000001 -0.123 23 0 0 0 0.033070002
2.378 -0.61799997 -0.126 24 0 0 0 0.03308
2.3800001 -0.62599999 -0.12800001 26 0 0 0 0.033089999
2.381 -0.634 -0.13 23 0 0 0 0.033100002
2.3800001 -0.64099997 -0.133 21 0 0 0 0.03311
2.3829999 -0.64899999 -0.13500001 23 0 0 0 0.033119999
2.385 -0.65799999 -0.138 22 0 0 0 0.033130001
2.381 -0.66399997 -0.14 21 0 0 0 0.03314
2.3789999 -0.67199999 -0.142 24 0 0 0 0.033149999
2.3859999 -0.68099999 -0.145 26 0 0 0 0.033160001
2.3870001 -0.68900001 -0.147 23 0 0 0 0.03317
2.3870001 -0.69700003 -0.15000001 24 0 0 0 0.033179998
2.3870001 -0.704 -0.152 24 0 0 0 0.033190001
2.3859999 -0.71200001 -0.155 24 0 0 0 0.033199999
2.3840001 -0.71899998 -0.15700001 20 0 0 0 0.033209998
2.3889999 -0.72799999 -0.16 18 0 0 0 0.033220001
2.3859999 -0.73500001 -0.162 19 0 0 0 0.033229999
2.3859999 -0.74199998 -0.16500001 21 0 0 0 0.033240002
2.3900001 -0.75199997 -0.168 20 0 0 0 0.03325
2.391 -0.759 -0.17 21 0 0 0 0.033259999
2.3889999 -0.76599997 -0.17299999 21 0 0 0 0.033270001
2.392 -0.77499998 -0.176 21 0 0 0 0.03328
2.392 -0.78299999 -0.17900001 20 0 0 0 0.033289999
2.3970001 -0.792 -0.182 18 0 0 0 0.033300001
2.405 -0.80199999 -0.185 18 0 0 0 0.03331
2.4119999 -0.81199998 -0.18799999 17 0 0 0 0.033319999
2.405 -0.81800002 -0.191 18 0 0 0 0.033330001
2.402 -0.824 -0.193 21 0 0 0 0.03334
2.398 -0.83099997 -0.19599999 24 0 0 0 0.033349998
2.395 -0.83700001 -0.198 27 0 0 0 0.033360001
2.3900001 -0.84299999 -0.20100001 28 0 0 0 0.033369999
2.391 -0.85100001 -0.204 26 0 0 0 0.033380002
2.3929999 -0.85900003 -0.207 25 0 0 0 0.03339
2.3940001 -0.86799997 -0.20999999 24 0 0 0 0.033399999
2.395 -0.87599999 -0.213 23 0 0 0 0.033410002
2.398 -0.884 -0.21600001 21 0 0 0 0.03342
2.398 -0.89099997 -0.219 21 0 0 0 0.033429999
2.3989999 -0.89999998 -0.223 23 0 0 0 0.033440001
2.395 -0.90600002 -0.22499999 24 0 0 0 0.03345
2.401 -0.91600001 -0.229 23 0 0 0 0.033459999
2.402 -0.92400002 -0.23199999 21 0 0 0 0.033470001
2.401 -0.93099999 -0.236 20 0 0 0 0.03348
2.4000001 -0.93800002 -0.23899999 20 0 0 0 0.033489998
2.401 -0.94599998 -0.242 20 0 0 0 0.033500001
2.402 -0.954 -0.245 20 0 0 0 0.03351
2.402 -0.96100003 -0.249 21 0 0 0 0.033519998
2.4070001 -0.97100002 -0.252 26 0 0 0 0.033530001
2.404 -0.977 -0.255 26 0 0 0 0.033539999
2.4059999 -0.98500001 -0.259 24 0 0 0 0.033550002
2.4030001 -0.991 -0.26199999 23 0 0 0 0.03356
2.4030001 -0.99900001 -0.26499999 23 0 0 0 0.033569999
2.4070001 -1.008 -0.26899999 25 0 0 0 0.033580001
2.4070001 -1.015 -0.273 24 0 0 0 0.03359
2.408 -1.024 -0.27599999 23 0 0 0 0.033599999
2.405 -1.03 -0.28 25 0 0 0 0.033610001
2.4100001 -1.039 -0.28400001 21 0 0 0 0.03362
2.4070001 -1.045 -0.287 26 0 0 0 0.033629999
2.411 -1.054 -0.29100001 29 0 0 0 0.033640001
2.411 -1.061 -0.29499999 27 0 0 0 0.03365
2.411 -1.069 -0.29800001 21 0 0 0 0.033659998
2.4100001 -1.076 -0.30199999 21 0 0 0 0.033670001
2.4070001 -1.082 -0.30500001 17 0 0 0 0.033679999
2.4100001 -1.09 -0.30899999 20 0 0 0 0.033690002
2.3989999 -1.092 -0.31200001 43 0 0 0 0.0337
2.3959999 -1.098 -0.315 150 0 0 0 0.033709999
2.263 -1.044 -0.301 150 0 0 0 0.033720002
1.143 -0.52999997 -0.154 4 0 0 0 0.03373
1.141 -0.53299999 -0.155 4 0 0 0 0.033739999
1.141 -0.53600001 -0.15700001 2 0 0 0 0.033750001
1.141 -0.54000002 -0.15899999 1 0 0 0 0.03376
1.143 -0.54400003 -0.161 1 0 0 0 0.033769999
1.146 -0.54900002 -0.163 1 0 0 0 0.033780001
1.143 -0.551 -0.16500001 1 0 0 0 0.03379
1.154 -0.55900002 -0.168 1 0 0 0 0.033799998
1.15 -0.56 -0.17 1 0 0 0 0.033810001
1.151 -0.56400001 -0.17200001 1 0 0 0 0.03382
1.156 -0.56999999 -0.175 1 0 0 0 0.033829998
1.151 -0.57099998 -0.176 1 0 0 0 0.033840001
1.153 -0.57499999 -0.178 1 0 0 0 0.033849999
1.151 -0.57700002 -0.18000001 1 0 0 0 0.033860002
1.15 -0.57999998 -0.182 1 0 0 0 0.03387
1.15 -0.583 -0.184 1 0 0 0 0.033879999
1.158 -0.58999997 -0.18700001 1 0 0 0 0.033890001
1.154 -0.59100002 -0.18799999 1 0 0 0 0.0339
1.152 -0.59399998 -0.19 1 0 0 0 0.033909999
1.153 -0.597 -0.192 1 0 0 0 0.033920001
1.155 -0.60100001 -0.19499999 1 0 0 0 0.03393
1.1569999 -0.60500002 -0.197 2 0 0 0 0.033939999
1.156 -0.60799998 -0.199 2 0 0 0 0.033950001
1.15 -0.60799998 -0.2 2 0 0 0 0.03396
1.1569999 -0.61500001 -0.20299999 2 0 0 0 0.033969998
1.154 -0.616 -0.205 2 0 0 0 0.033980001
1.156 -0.62 -0.207 2 0 0 0 0.033989999
1.155 -0.62199998 -0.20900001 2 0 0 0 0.034000002
1.153 -0.62400001 -0.211 2 0 0 0 0.034010001
1.154 -0.62800002 -0.214 2 0 0 0 0.034019999
1.153 -0.63 -0.215 2 0 0 0 0.034030002
1.154 -0.63300002 -0.21799999 2 0 0 0 0.03404
1.155 -0.63700002 -0.22 2 0 0 0 0.034049999
1.15 -0.63700002 -0.221 2 0 0 0 0.034060001
1.152 -0.64099997 -0.22400001 2 0 0 0 0.03407
1.153 -0.64300001 -0.226 2 0 0 0 0.034079999
1.15 -0.64499998 -0.228 2 0 0 0 0.034090001
1.156 -0.64999998 -0.23100001 2 0 0 0 0.0341
1.151 -0.64999998 -0.233 2 0 0 0 0.034109998
1.155 -0.65600002 -0.236 2 0 0 0 0.034120001
1.156 -0.65799999 -0.23800001 2 0 0 0 0.03413
1.154 -0.65899998 -0.23999999 2 0 0 0 0.034139998
1.154 -0.662 -0.242 2 0 0 0 0.034150001
1.156 -0.66600001 -0.245 2 0 0 0 0.034159999
1.155 -0.66799998 -0.24699999 2 0 0 0 0.034170002
1.154 -0.66900003 -0.249 2 0 0 0 0.03418
1.154 -0.67199999 -0.25099999 2 0 0 0 0.034189999
1.151 -0.67299998 -0.25299999 2 0 0 0 0.034200002
1.154 -0.67699999 -0.25600001 2 0 0 0 0.03421
1.159 -0.68099999 -0.259 2 0 0 0 0.034219999
1.154 -0.68099999 -0.25999999 2 0 0 0 0.034230001
1.158 -0.685 -0.26300001 2 0 0 0 0.03424
1.1569999 -0.68699998 -0.26499999 2 0 0 0 0.034249999
1.153 -0.68599999 -0.26699999 3 0 0 0 0.034260001
1.154 -0.68900001 -0.26899999 2 0 0 0 0.03427
1.154 -0.69099998 -0.271 2 0 0 0 0.034279998
1.154 -0.69300002 -0.273 2 0 0 0 0.034290001
1.151 -0.69300002 -0.27500001 3 0 0 0 0.034299999
1.156 -0.69800001 -0.27900001 2 0 0 0 0.034309998
1.1569999 -0.69999999 -0.28099999 2 0 0 0 0.034320001
1.152 -0.699 -0.28200001 3 0 0 0 0.034329999
1.155 -0.70200002 -0.285 3 0 0 0 0.034340002
1.156 -0.70499998 -0.287 2 0 0 0 0.03435
1.151 -0.70300001 -0.28799999 2 0 0 0 0.034359999
1.152 -0.70599997 -0.29100001 3 0 0 0 0.034370001
1.15 -0.70599997 -0.292 2 0 0 0 0.03438
1.154 -0.70899999 -0.296 3 0 0 0 0.034389999
1.153 -0.70999998 -0.29800001 3 0 0 0 0.034400001
1.152 -0.71100003 -0.30000001 3 0 0 0 0.03441
1.15 -0.71100003 -0.301 3 0 0 0 0.034419999
1.154 -0.71499997 -0.30399999 3 0 0 0 0.034430001
1.153 -0.71600002 -0.30599999 3 0 0 0 0.03444
1.153 -0.71700001 -0.30899999 3 0 0 0 0.034449998
1.152 -0.71700001 -0.31 4 0 0 0 0.034460001
1.15 -0.71700001 -0.31200001 3 0 0 0 0.034469999
1.15 -0.71799999 -0.31400001 3 0 0 0 0.034480002
1.156 -0.72299999 -0.31799999 3 0 0 0 0.03449
1.15 -0.72000003 -0.31799999 4 0 0 0 0.034499999
1.152 -0.722 -0.32100001 4 0 0 0 0.034510002
1.151 -0.722 -0.32300001 3 0 0 0 0.03452
1.15 -0.722 -0.324 3 0 0 0 0.034529999
1.147 -0.72100002 -0.32600001 3 0 0 0 0.034540001
1.15 -0.72299999 -0.32800001 4 0 0 0 0.03455
1.145 -0.72100002 -0.329 4 0 0 0 0.034559999
1.145 -0.72100002 -0.331 4 0 0 0 0.034570001
1.153 -0.727 -0.33500001 4 0 0 0 0.03458
1.146 -0.722 -0.33500001 3 0 0 0 0.034589998
1.147 -0.72399998 -0.33700001 3 0 0 0 0.034600001
1.146 -0.72299999 -0.33899999 4 0 0 0 0.03461
1.147 -0.72399998 -0.34099999 4 0 0 0 0.034619998
1.145 -0.72299999 -0.34200001 4 0 0 0 0.034630001
1.149 -0.72600001 -0.345 4 0 0 0 0.034639999
1.145 -0.72299999 -0.34599999 4 0 0 0 0.034650002
1.141 -0.72100002 -0.34599999 4 0 0 0 0.03466
1.146 -0.72299999 -0.34999999 4 0 0 0 0.034669999
1.141 -0.72100002 -0.34999999 5 0 0 0 0.034680001
1.1390001 -0.71899998 -0.35100001 4 0 0 0 0.03469
1.148 -0.72399998 -0.35600001 4 0 0 0 0.034699999
1.14 -0.71899998 -0.35499999 5 0 0 0 0.034710001
1.1390001 -0.71799999 -0.35600001 5 0 0 0 0.03472
1.14 -0.71799999 -0.35800001 5 0 0 0 0.034729999
1.14 -0.71799999 -0.359 5 0 0 0 0.034740001
1.14 -0.71700001 -0.361 5 0 0 0 0.03475
1.136 -0.71399999 -0.361 4 0 0 0 0.034759998
1.136 -0.713 -0.36300001 4 0 0 0 0.034770001
1.136 -0.713 -0.36399999 4 0 0 0 0.034779999
1.132 -0.70999998 -0.36399999 4 0 0 0 0.034790002
1.132 -0.70899999 -0.366 3 0 0 0 0.0348
1.1289999 -0.70599997 -0.366 3 0 0 0 0.034809999
1.133 -0.708 -0.36899999 3 0 0 0 0.034820002
1.1289999 -0.704 -0.36899999 3 0 0 0 0.03483
1.131 -0.704 -0.37099999 2 0 0 0 0.034839999
1.133 -0.704 -0.373 2 0 0 0 0.034850001
1.126 -0.699 -0.37099999 2 0 0 0 0.03486
1.127 -0.69800001 -0.373 2 0 0 0 0.034869999
1.126 -0.69700003 -0.37400001 2 0 0 0 0.034880001
1.12 -0.69199997 -0.373 1 0 0 0 0.03489
1.122 -0.69099998 -0.375 1 0 0 0 0.034899998
1.1210001 -0.68900001 -0.375 1 0 0 0 0.034910001
1.118 -0.68599999 -0.375 1 0 0 0 0.03492
1.117 -0.68400002 -0.37599999 1 0 0 0 0.034929998
1.1160001 -0.68199998 -0.377 1 0 0 0 0.034940001
1.113 -0.67900002 -0.377 1 0 0 0 0.034949999
1.113 -0.67699999 -0.377 1 0 0 0 0.034960002
1.112 -0.67400002 -0.37799999 1 0 0 0 0.03497
1.107 -0.66900003 -0.377 1 0 0 0 0.034979999
1.09 -0.65799999 -0.37200001 1 0 0 0 0.034990001
1.082 -0.65100002 -0.37 1 0 0 0 0.035
1.077 -0.64600003 -0.36899999 1 0 0 0 0.035009999
1.075 -0.64300001 -0.36899999 1 0 0 0 0.035020001
1.071 -0.639 -0.368 1 0 0 0 0.03503
1.084 -0.64499998 -0.373 1 0 0 0 0.035039999
1.072 -0.63499999 -0.36899999 1 0 0 0 0.035050001
1.075 -0.63499999 -0.37099999 1 0 0 0 0.03506
1.076 -0.634 -0.37200001 1 0 0 0 0.035069998
1.0930001 -0.64099997 -0.37799999 1 0 0 0 0.035080001
1.063 -0.62199998 -0.368 1 0 0 0 0.035089999
1.075 -0.62699997 -0.373 1 0 0 0 0.035100002
1.081 -0.62800002 -0.375 1 0 0 0 0.035110001
1.066 -0.61699998 -0.37 1 0 0 0 0.035119999
1.061 -0.61199999 -0.36899999 0 0 0 0 0.035130002
1.054 -0.60500002 -0.366 0 0 0 0 0.03514
1.0700001 -0.61299998 -0.37200001 1 0 0 0 0.035149999
1.0549999 -0.602 -0.36700001 0 0 0 0 0.035160001
1.056 -0.60000002 -0.368 0 0 0 0 0.03517
1.057 -0.59799999 -0.368 1 0 0 0 0.035179999
1.0549999 -0.59399998 -0.36700001 1 0 0 0 0.035190001
1.069 -0.60000002 -0.37200001 1 0 0 0 0.0352
1.049 -0.58600003 -0.36500001 0 0 0 0 0.035209998
1.071 -0.59600002 -0.373 1 0 0 0 0.035220001
1.0549999 -0.58399999 -0.36700001 0 0 0 0 0.03523
1.063 -0.58600003 -0.37 1 0 0 0 0.035239998
1.057 -0.57999998 -0.368 1 0 0 0 0.035250001
1.058 -0.57800001 -0.368 0 0 0 0 0.035259999
1.067 -0.57999998 -0.37099999 1 0 0 0 0.035270002
1.061 -0.574 -0.368 1 0 0 0 0.03528
1.062 -0.57200003 -0.36899999 1 0 0 0 0.035289999
1.063 -0.56999999 -0.36899999 1 0 0 0 0.035300002
1.087 -0.57999998 -0.377 1 0 0 0 0.03531
1.092 -0.579 -0.37799999 1 0 0 0 0.035319999
1.087 -0.574 -0.37599999 1 0 0 0 0.035330001
1.09 -0.57200003 -0.37599999 2 0 0 0 0.03534
1.091 -0.56999999 -0.37599999 4 0 0 0 0.035349999
1.0880001 -0.56599998 -0.375 5 0 0 0 0.035360001
1.092 -0.565 -0.37599999 5 0 0 0 0.03537
1.094 -0.56300002 -0.37599999 6 0 0 0 0.035379998
1.098 -0.56199998 -0.377 6 0 0 0 0.035390001
1.099 -0.55900002 -0.37599999 5 0 0 0 0.035399999
1.101 -0.55699998 -0.377 6 0 0 0 0.035409998
1.108 -0.55699998 -0.37799999 6 0 0 0 0.035420001
1.109 -0.55500001 -0.37799999 6 0 0 0 0.035429999
1.1109999 -0.55299997 -0.37799999 6 0 0 0 0.035440002
1.113 -0.551 -0.37799999 6 0 0 0 0.03545
1.109 -0.546 -0.37599999 5 0 0 0 0.035459999
1.108 -0.542 -0.375 5 0 0 0 0.035470001
1.108 -0.53799999 -0.37400001 5 0 0 0 0.03548
1.115 -0.53899997 -0.375 6 0 0 0 0.035489999
1.112 -0.53399998 -0.373 6 0 0 0 0.035500001
1.1109999 -0.52999997 -0.37200001 6 0 0 0 0.03551
1.113 -0.528 -0.37099999 121 0 0 0 0.035519999
2.2969999 -1.0829999 -0.76499999 150 0 0 0 0.035530001
2.3340001 -1.0930001 -0.77499998 130 0 0 0 0.03554
2.4000001 -1.117 -0.79500002 23 0 0 0 0.035549998
2.404 -1.112 -0.79400003 18 0 0 0 0.035560001
2.402 -1.104 -0.79100001 14 0 0 0 0.035569999
2.401 -1.097 -0.78899997 18 0 0 0 0.035580002
2.4000001 -1.089 -0.78600001 22 0 0 0 0.03559
2.398 -1.081 -0.78299999 22 0 0 0 0.035599999
2.3970001 -1.073 -0.77999997 19 0 0 0 0.035610002
2.398 -1.066 -0.77700001 18 0 0 0 0.03562
2.3959999 -1.058 -0.77399999 24 0 0 0 0.035629999
2.3940001 -1.05 -0.77100003 24 0 0 0 0.035640001
2.3989999 -1.045 -0.76999998 24 0 0 0 0.03565
2.3970001 -1.0369999 -0.76599997 24 0 0 0 0.035659999
2.395 -1.029 -0.76300001 27 0 0 0 0.035670001
2.398 -1.023 -0.76099998 27 0 0 0 0.03568
2.398 -1.016 -0.75800002 24 0 0 0 0.035689998
2.401 -1.0089999 -0.75599998 28 0 0 0 0.035700001
2.395 -1 -0.75099999 31 0 0 0 0.03571
2.3970001 -0.99299997 -0.74900001 31 0 0 0 0.035719998
2.395 -0.98500001 -0.745 28 0 0 0 0.035730001
2.395 -0.97799999 -0.74199998 25 0 0 0 0.035739999
2.398 -0.972 -0.74000001 27 0 0 0 0.035750002
2.3929999 -0.963 -0.73500001 29 0 0 0 0.03576
2.398 -0.95700002 -0.73299998 27 0 0 0 0.035769999
2.3970001 -0.949 -0.73000002 26 0 0 0 0.035780001
2.3959999 -0.94199997 -0.72600001 22 0 0 0 0.03579
2.395 -0.93400002 -0.722 21 0 0 0 0.035799999
2.391 -0.92500001 -0.71799999 20 0 0 0 0.035810001
2.3889999 -0.917 -0.71399999 21 0 0 0 0.03582
2.3929999 -0.91100001 -0.71100003 23 0 0 0 0.035829999
2.392 -0.90399998 -0.708 23 0 0 0 0.035840001
2.3900001 -0.89600003 -0.70300001 24 0 0 0 0.03585
2.391 -0.889 -0.69999999 20 0 0 0 0.035859998
2.392 -0.88200003 -0.69700003 20 0 0 0 0.035870001
2.391 -0.875 -0.69300002 22 0 0 0 0.035879999
2.391 -0.86799997 -0.68900001 23 0 0 0 0.035890002
2.3889999 -0.86000001 -0.685 23 0 0 0 0.0359
2.3900001 -0.85299999 -0.68099999 23 0 0 0 0.035909999
2.3870001 -0.84500003 -0.67699999 26 0 0 0 0.035920002
2.3859999 -0.83700001 -0.67299998 28 0 0 0 0.03593
2.3870001 -0.82999998 -0.66900003 28 0 0 0 0.035939999
2.385 -0.82300001 -0.66500002 29 0 0 0 0.035950001
2.3859999 -0.81599998 -0.66100001 29 0 0 0 0.03596
2.3889999 -0.81 -0.65799999 26 0 0 0 0.035969999
2.388 -0.80199999 -0.65399998 24 0 0 0 0.035980001
2.3829999 -0.79299998 -0.648 20 0 0 0 0.03599
2.3889999 -0.78799999 -0.64600003 19 0 0 0 0.035999998
2.3829999 -0.77899998 -0.63999999 20 0 0 0 0.036010001
2.3829999 -0.77200001 -0.63599998 19 0 0 0 0.03602
2.381 -0.76499999 -0.63200003 19 0 0 0 0.036029998
2.3829999 -0.75800002 -0.62800002 23 0 0 0 0.036040001
2.3829999 -0.75099999 -0.62400001 25 0 0 0 0.036049999
2.3840001 -0.74400002 -0.62 22 0 0 0 0.036060002
2.385 -0.73799998 -0.616 19 0 0 0 0.03607
2.3829999 -0.73000002 -0.611 20 0 0 0 0.036079999
2.3789999 -0.722 -0.60600001 24 0 0 0 0.036090001
2.385 -0.71700001 -0.60299999 27 0 0 0 0.0361
2.381 -0.70899999 -0.59799999 23 0 0 0 0.036109999
2.3789999 -0.70099998 -0.59299999 23 0 0 0 0.036120001
2.3770001 -0.69400001 -0.588 24 0 0 0 0.03613
2.3759999 -0.68699998 -0.58399999 26 0 0 0 0.036139999
2.3770001 -0.68000001 -0.57999998 24 0 0 0 0.036150001
2.3789999 -0.67400002 -0.57599998 20 0 0 0 0.03616
2.3789999 -0.667 -0.57099998 22 0 0 0 0.036169998
2.3770001 -0.66000003 -0.56699997 23 0 0 0 0.036180001
2.375 -0.65200001 -0.56199998 21 0 0 0 0.036189999
2.378 -0.64600003 -0.55800003 22 0 0 0 0.036200002
2.3759999 -0.639 -0.55299997 24 0 0 0 0.036210001
2.3759999 -0.63200003 -0.54799998 23 0 0 0 0.036219999
2.3740001 -0.625 -0.54299998 22 0 0 0 0.036230002
2.3710001 -0.61699998 -0.53799999 19 0 0 0 0.03624
2.3759999 -0.61199999 -0.53500003 18 0 0 0 0.036249999
2.3789999 -0.60600001 -0.53100002 18 0 0 0 0.036260001
