# .PCD v0.7 - Point Cloud Data file format
VERSION 0.7
FIELDS x y z intensity normal_x normal_y normal_z curvature
SIZE 4 4 4 4 4 4 4 4
TYPE F F F F F F F F
COUNT 1 1 1 1 1 1 1 1
WIDTH 1049
HEIGHT 1
VIEWPOINT 0 0 0 1 0 0 0
POINTS 1049
DATA ascii
2.414 -0.33000001 -0.71499997 12 0 0 0 0.01439
2.438 -0.329 -0.71499997 14 0 0 0 0.0144
2.4590001 -0.32800001 -0.71399999 13 0 0 0 0.01441
2.4809999 -0.32699999 -0.713 12 0 0 0 0.01442
2.5020001 -0.32499999 -0.71200001 13 0 0 0 0.01443
2.5209999 -0.32300001 -0.70999998 13 0 0 0 0.01444
2.5409999 -0.32100001 -0.708 13 0 0 0 0.01445
2.6429999 -0.33000001 -0.72799999 23 0 0 0 0.01446
2.8280001 -0.34799999 -0.77100003 35 0 0 0 0.01447
3.0220001 -0.36700001 -0.815 30 0 0 0 0.01448
3.158 -0.37799999 -0.84299999 8 0 0 0 0.01449
3.1949999 -0.377 -0.84299999 18 0 0 0 0.0145
3.2079999 -0.37400001 -0.83700001 99 0 0 0 0.01451
3.2060001 -0.368 -0.82700002 150 0 0 0 0.01452
3.204 -0.36199999 -0.81699997 150 0 0 0 0.01453
3.207 -0.35800001 -0.80900002 150 0 0 0 0.01454
3.2060001 -0.352 -0.79900002 150 0 0 0 0.01455
3.2060001 -0.347 -0.79000002 150 0 0 0 0.01456
3.2090001 -0.34200001 -0.78100002 150 0 0 0 0.01457
3.2049999 -0.33700001 -0.76999998 150 0 0 0 0.01458
3.217 -0.333 -0.764 150 0 0 0 0.01459
3.2320001 -0.329 -0.75800002 150 0 0 0 0.0146
3.23 -0.324 -0.74800003 151 0 0 0 0.01461
3.234 -0.31900001 -0.73900002 150 0 0 0 0.01462
3.2349999 -0.31400001 -0.73000002 150 0 0 0 0.01463
3.233 -0.30899999 -0.72000003 150 0 0 0 0.01464
3.233 -0.30399999 -0.70999998 150 0 0 0 0.01465
3.2349999 -0.29899999 -0.70099998 150 0 0 0 0.01466
3.2320001 -0.294 -0.69099998 150 0 0 0 0.01467
3.2290001 -0.289 -0.68000001 150 0 0 0 0.01468
3.234 -0.285 -0.67199999 150 0 0 0 0.01469
3.2309999 -0.28 -0.662 150 0 0 0 0.0147
3.2360001 -0.27500001 -0.653 150 0 0 0 0.01471
3.237 -0.27000001 -0.64399999 129 0 0 0 0.01472
3.28 -0.26899999 -0.64300001 42 0 0 0 0.01473
3.3280001 -0.26800001 -0.64200002 91 0 0 0 0.01474
3.329 -0.26300001 -0.63200003 150 0 0 0 0.01475
3.332 -0.259 -0.62300003 151 0 0 0 0.01476
3.332 -0.25400001 -0.61299998 151 0 0 0 0.01477
3.3340001 -0.249 -0.60399997 151 0 0 0 0.01478
3.3310001 -0.244 -0.59299999 151 0 0 0 0.01479
3.329 -0.23899999 -0.583 150 0 0 0 0.0148
3.3310001 -0.235 -0.57300001 150 0 0 0 0.01481
3.332 -0.23 -0.56400001 150 0 0 0 0.01482
3.3310001 -0.22499999 -0.55299997 150 0 0 0 0.01483
3.3399999 -0.221 -0.54500002 150 0 0 0 0.01484
3.352 -0.21699999 -0.537 150 0 0 0 0.01485
3.3610001 -0.213 -0.528 151 0 0 0 0.01486
3.365 -0.20900001 -0.51899999 151 0 0 0 0.01487
3.3640001 -0.204 -0.509 151 0 0 0 0.01488
3.3659999 -0.2 -0.49900001 151 0 0 0 0.01489
3.3640001 -0.19499999 -0.48800001 151 0 0 0 0.0149
3.3640001 -0.191 -0.47799999 150 0 0 0 0.01491
3.382 -0.18700001 -0.47099999 150 0 0 0 0.01492
3.4130001 -0.184 -0.465 150 0 0 0 0.01493
3.434 -0.18099999 -0.45699999 151 0 0 0 0.01494
3.4330001 -0.176 -0.447 151 0 0 0 0.01495
3.431 -0.171 -0.43599999 151 0 0 0 0.01496
3.4319999 -0.167 -0.426 151 0 0 0 0.01497
3.4330001 -0.163 -0.41600001 151 0 0 0 0.01498
3.431 -0.15800001 -0.40599999 151 0 0 0 0.01499
3.4319999 -0.154 -0.39500001 151 0 0 0 0.015
3.431 -0.149 -0.38499999 151 0 0 0 0.01501
3.431 -0.145 -0.375 151 0 0 0 0.01502
3.431 -0.14 -0.36399999 151 0 0 0 0.01503
3.4289999 -0.13600001 -0.354 151 0 0 0 0.01504
3.427 -0.131 -0.34299999 151 0 0 0 0.01505
3.4260001 -0.127 -0.333 151 0 0 0 0.01506
3.4289999 -0.123 -0.32300001 151 0 0 0 0.01507
3.4300001 -0.119 -0.31299999 151 0 0 0 0.01508
3.431 -0.114 -0.30199999 151 0 0 0 0.01509
3.4289999 -0.11 -0.292 151 0 0 0 0.0151
3.4260001 -0.106 -0.28099999 151 0 0 0 0.01511
3.427 -0.102 -0.271 151 0 0 0 0.01512
3.428 -0.097999997 -0.26100001 151 0 0 0 0.01513
3.431 -0.093000002 -0.25099999 151 0 0 0 0.01514
3.4300001 -0.089000002 -0.23999999 151 0 0 0 0.01515
3.431 -0.085000001 -0.23 151 0 0 0 0.01516
3.431 -0.081 -0.22 151 0 0 0 0.01517
3.427 -0.077 -0.20900001 151 0 0 0 0.01518
3.428 -0.072999999 -0.199 151 0 0 0 0.01519
3.4230001 -0.068999998 -0.18799999 151 0 0 0 0.0152
3.4289999 -0.064999998 -0.178 151 0 0 0 0.01521
3.424 -0.061000001 -0.168 151 0 0 0 0.01522
3.428 -0.057 -0.15700001 151 0 0 0 0.01523
3.425 -0.052999999 -0.147 151 0 0 0 0.01524
3.4260001 -0.048999999 -0.13600001 151 0 0 0 0.01525
3.424 -0.045000002 -0.126 151 0 0 0 0.01526
3.4189999 -0.041000001 -0.115 151 0 0 0 0.01527
3.425 -0.037 -0.105 151 0 0 0 0.01528
3.4230001 -0.033 -0.094999999 151 0 0 0 0.01529
3.4230001 -0.029999999 -0.083999999 151 0 0 0 0.0153
3.425 -0.026000001 -0.074000001 151 0 0 0 0.01531
3.425 -0.022 -0.063000001 151 0 0 0 0.01532
3.418 -0.017999999 -0.052999999 151 0 0 0 0.01533
3.424 -0.014 -0.041999999 151 0 0 0 0.01534
3.4230001 -0.011 -0.032000002 151 0 0 0 0.01535
3.4219999 -0.0070000002 -0.022 151 0 0 0 0.01536
3.421 -0.003 -0.011 151 0 0 0 0.01537
3.4230001 0 -0.001 151 0 0 0 0.01538
3.4219999 0.003 0.0089999996 152 0 0 0 0.01539
3.4230001 0.0070000002 0.018999999 152 0 0 0 0.0154
3.424 0.011 0.029999999 152 0 0 0 0.01541
3.421 0.014 0.039999999 152 0 0 0 0.01542
3.4260001 0.017999999 0.050999999 152 0 0 0 0.01543
3.4219999 0.021 0.061000001 152 0 0 0 0.01544
3.4260001 0.025 0.071999997 152 0 0 0 0.01545
3.425 0.028000001 0.082000002 152 0 0 0 0.01546
3.425 0.032000002 0.092 152 0 0 0 0.01547
3.4219999 0.035 0.103 152 0 0 0 0.01548
3.424 0.039000001 0.113 152 0 0 0 0.01549
3.424 0.041999999 0.124 152 0 0 0 0.0155
3.424 0.046 0.13500001 152 0 0 0 0.01551
3.4189999 0.048999999 0.145 152 0 0 0 0.01552
3.421 0.052999999 0.156 152 0 0 0 0.01553
3.418 0.056000002 0.16599999 152 0 0 0 0.01554
3.4230001 0.059999999 0.177 151 0 0 0 0.01555
3.4200001 0.063000001 0.18700001 151 0 0 0 0.01556
3.418 0.066 0.198 152 0 0 0 0.01557
3.4200001 0.07 0.208 152 0 0 0 0.01558
3.4200001 0.072999999 0.219 151 0 0 0 0.01559
3.4189999 0.075999998 0.229 151 0 0 0 0.0156
3.418 0.079999998 0.23999999 151 0 0 0 0.01561
3.4170001 0.082999997 0.25099999 151 0 0 0 0.01562
3.4159999 0.086000003 0.26100001 151 0 0 0 0.015629999
3.4200001 0.089000002 0.27200001 151 0 0 0 0.01564
3.4219999 0.093000002 0.28299999 151 0 0 0 0.01565
3.415 0.096000001 0.29300001 151 0 0 0 0.015659999
3.4200001 0.098999999 0.30399999 151 0 0 0 0.01567
3.418 0.102 0.315 151 0 0 0 0.01568
3.4159999 0.105 0.32499999 151 0 0 0 0.015690001
3.421 0.108 0.336 151 0 0 0 0.015699999
3.4200001 0.112 0.347 151 0 0 0 0.01571
3.4189999 0.115 0.35800001 151 0 0 0 0.01572
3.418 0.118 0.368 151 0 0 0 0.015729999
3.421 0.121 0.37900001 151 0 0 0 0.01574
3.4200001 0.124 0.38999999 151 0 0 0 0.01575
3.4189999 0.127 0.40099999 151 0 0 0 0.015760001
3.4200001 0.13 0.412 151 0 0 0 0.015769999
3.418 0.133 0.42199999 151 0 0 0 0.01578
3.4170001 0.13600001 0.433 151 0 0 0 0.015790001
3.4230001 0.139 0.44400001 151 0 0 0 0.015799999
3.4159999 0.141 0.454 151 0 0 0 0.01581
3.421 0.145 0.46599999 151 0 0 0 0.01582
3.4189999 0.147 0.47600001 151 0 0 0 0.015830001
3.418 0.15000001 0.48699999 151 0 0 0 0.01584
3.4159999 0.153 0.49700001 151 0 0 0 0.01585
3.418 0.156 0.509 151 0 0 0 0.015860001
3.4170001 0.15899999 0.51899999 151 0 0 0 0.015869999
3.4200001 0.161 0.52999997 151 0 0 0 0.01588
3.4170001 0.164 0.54100001 151 0 0 0 0.01589
3.4219999 0.167 0.55299997 151 0 0 0 0.015900001
3.418 0.17 0.56300002 151 0 0 0 0.01591
3.4170001 0.17200001 0.574 151 0 0 0 0.01592
3.4200001 0.175 0.58499998 151 0 0 0 0.015930001
3.418 0.178 0.59600002 151 0 0 0 0.015939999
3.421 0.18000001 0.60699999 151 0 0 0 0.01595
3.421 0.183 0.61799997 151 0 0 0 0.01596
3.4170001 0.185 0.62900001 151 0 0 0 0.015969999
3.421 0.18799999 0.63999999 151 0 0 0 0.01598
3.4159999 0.191 0.64999998 151 0 0 0 0.01599
3.4189999 0.193 0.662 151 0 0 0 0.016000001
3.418 0.19599999 0.67299998 151 0 0 0 0.016009999
3.415 0.198 0.68300003 151 0 0 0 0.01602
3.414 0.2 0.69400001 151 0 0 0 0.016030001
3.415 0.20299999 0.70599997 151 0 0 0 0.016039999
3.411 0.205 0.71600002 150 0 0 0 0.01605
3.418 0.208 0.72799999 151 0 0 0 0.01606
3.4159999 0.20999999 0.73900002 151 0 0 0 0.016070001
3.4159999 0.212 0.75 151 0 0 0 0.01608
3.4170001 0.215 0.76200002 151 0 0 0 0.01609
3.4170001 0.21699999 0.773 151 0 0 0 0.016100001
3.414 0.219 0.78299999 151 0 0 0 0.016109999
3.4119999 0.221 0.79400003 151 0 0 0 0.01612
3.4159999 0.22400001 0.80599999 150 0 0 0 0.01613
3.4119999 0.226 0.81599998 150 0 0 0 0.016140001
3.4119999 0.228 0.82700002 150 0 0 0 0.01615
3.408 0.23 0.838 150 0 0 0 0.01616
3.415 0.23199999 0.85100001 150 0 0 0 0.016170001
3.4130001 0.234 0.86199999 150 0 0 0 0.016179999
3.4089999 0.236 0.87199998 150 0 0 0 0.01619
3.414 0.23899999 0.884 150 0 0 0 0.0162
3.414 0.241 0.89499998 150 0 0 0 0.016209999
3.411 0.242 0.90600002 150 0 0 0 0.01622
3.4130001 0.244 0.91799998 150 0 0 0 0.01623
3.4130001 0.24600001 0.92900002 150 0 0 0 0.016240001
3.4159999 0.249 0.94099998 150 0 0 0 0.016249999
3.415 0.25 0.95200002 150 0 0 0 0.01626
3.4130001 0.252 0.963 150 0 0 0 0.01627
3.4130001 0.25400001 0.97500002 150 0 0 0 0.016279999
3.414 0.25600001 0.986 150 0 0 0 0.01629
3.4119999 0.25799999 0.99699998 150 0 0 0 0.0163
3.4130001 0.259 1.0089999 150 0 0 0 0.016310001
3.415 0.26100001 1.021 150 0 0 0 0.016319999
3.408 0.26199999 1.03 150 0 0 0 0.01633
3.4170001 0.26499999 1.044 150 0 0 0 0.016340001
3.414 0.266 1.0549999 150 0 0 0 0.016349999
3.4130001 0.26800001 1.066 150 0 0 0 0.01636
3.4089999 0.26899999 1.076 150 0 0 0 0.01637
3.4100001 0.27000001 1.0880001 150 0 0 0 0.016380001
3.4130001 0.27200001 1.1 150 0 0 0 0.01639
3.4100001 0.273 1.1109999 150 0 0 0 0.0164
3.414 0.27500001 1.124 150 0 0 0 0.016410001
3.414 0.27700001 1.135 150 0 0 0 0.016419999
3.411 0.278 1.146 150 0 0 0 0.01643
3.4119999 0.27900001 1.158 150 0 0 0 0.01644
3.415 0.28099999 1.171 150 0 0 0 0.016450001
3.4119999 0.28200001 1.181 150 0 0 0 0.01646
3.414 0.28299999 1.193 150 0 0 0 0.01647
3.4189999 0.285 1.207 150 0 0 0 0.016480001
3.415 0.28600001 1.217 150 0 0 0 0.016489999
3.415 0.287 1.228 150 0 0 0 0.0165
3.414 0.28799999 1.24 150 0 0 0 0.01651
3.414 0.289 1.251 150 0 0 0 0.016519999
3.4089999 0.289 1.261 150 0 0 0 0.01653
3.3759999 0.28799999 1.26 81 0 0 0 0.01654
3.3540001 0.28600001 1.263 150 0 0 0 0.016550001
3.3469999 0.287 1.272 150 0 0 0 0.016559999
3.349 0.28799999 1.284 150 0 0 0 0.01657
3.336 0.28799999 1.291 150 0 0 0 0.016580001
3.3199999 0.287 1.296 150 0 0 0 0.016589999
3.3199999 0.28799999 1.307 150 0 0 0 0.0166
3.3180001 0.28799999 1.318 150 0 0 0 0.01661
3.3169999 0.289 1.329 150 0 0 0 0.016620001
3.316 0.289 1.34 150 0 0 0 0.01663
3.316 0.28999999 1.351 150 0 0 0 0.01664
3.319 0.29100001 1.364 150 0 0 0 0.016650001
3.322 0.29100001 1.376 150 0 0 0 0.016659999
3.3239999 0.292 1.388 150 0 0 0 0.01667
3.3199999 0.292 1.398 150 0 0 0 0.01668
3.3239999 0.29300001 1.411 150 0 0 0 0.016690001
3.3210001 0.29300001 1.421 150 0 0 0 0.0167
3.323 0.29300001 1.433 150 0 0 0 0.01671
3.3239999 0.294 1.4450001 150 0 0 0 0.016720001
3.3239999 0.294 1.456 150 0 0 0 0.016729999
3.3199999 0.294 1.466 150 0 0 0 0.01674
3.325 0.294 1.479 150 0 0 0 0.01675
3.3239999 0.294 1.49 150 0 0 0 0.016759999
3.326 0.29499999 1.502 150 0 0 0 0.01677
3.322 0.294 1.511 150 0 0 0 0.01678
3.3239999 0.294 1.524 150 0 0 0 0.016790001
3.325 0.294 1.536 150 0 0 0 0.016799999
3.326 0.294 1.5470001 150 0 0 0 0.01681
3.326 0.294 1.559 150 0 0 0 0.01682
3.323 0.29300001 1.568 150 0 0 0 0.016829999
3.3239999 0.29300001 1.58 150 0 0 0 0.01684
3.3180001 0.292 1.5880001 150 0 0 0 0.01685
3.3099999 0.29100001 1.596 150 0 0 0 0.016860001
3.2880001 0.289 1.596 102 0 0 0 0.016869999
3.26 0.28600001 1.594 96 0 0 0 0.01688
3.2409999 0.28299999 1.595 96 0 0 0 0.016890001
3.221 0.28099999 1.595 98 0 0 0 0.016899999
3.2 0.27900001 1.596 98 0 0 0 0.01691
3.1830001 0.27599999 1.598 98 0 0 0 0.01692
3.158 0.27399999 1.595 96 0 0 0 0.016930001
3.141 0.271 1.598 96 0 0 0 0.01694
3.1229999 0.26899999 1.598 95 0 0 0 0.01695
3.1040001 0.26699999 1.599 99 0 0 0 0.016960001
3.079 0.264 1.596 99 0 0 0 0.016969999
3.059 0.26100001 1.596 101 0 0 0 0.01698
3.0450001 0.259 1.598 104 0 0 0 0.01699
3.026 0.25600001 1.598 104 0 0 0 0.017000001
3.007 0.25299999 1.598 101 0 0 0 0.01701
2.987 0.25099999 1.597 107 0 0 0 0.01702
2.9690001 0.248 1.597 103 0 0 0 0.017030001
2.954 0.24600001 1.598 102 0 0 0 0.017039999
2.9360001 0.243 1.598 104 0 0 0 0.01705
2.9200001 0.23999999 1.598 111 0 0 0 0.01706
2.901 0.237 1.597 106 0 0 0 0.017069999
2.8859999 0.235 1.598 116 0 0 0 0.01708
2.8699999 0.23199999 1.598 118 0 0 0 0.01709
2.8559999 0.23 1.599 117 0 0 0 0.017100001
2.845 0.227 1.601 107 0 0 0 0.017109999
2.8239999 0.22400001 1.598 120 0 0 0 0.01712
2.8069999 0.221 1.598 121 0 0 0 0.017130001
2.7980001 0.219 1.601 120 0 0 0 0.017139999
2.779 0.21600001 1.598 113 0 0 0 0.01715
2.7650001 0.213 1.599 114 0 0 0 0.01716
2.7509999 0.20999999 1.599 110 0 0 0 0.017170001
2.737 0.208 1.599 119 0 0 0 0.01718
2.723 0.205 1.599 133 0 0 0 0.01719
2.71 0.20200001 1.599 136 0 0 0 0.017200001
2.697 0.199 1.599 145 0 0 0 0.017209999
2.6849999 0.19599999 1.6 134 0 0 0 0.01722
2.671 0.19400001 1.599 150 0 0 0 0.01723
2.6600001 0.191 1.6 131 0 0 0 0.017240001
2.6459999 0.18799999 1.599 139 0 0 0 0.01725
2.6340001 0.185 1.599 132 0 0 0 0.01726
2.618 0.182 1.596 142 0 0 0 0.017270001
2.6099999 0.17900001 1.599 138 0 0 0 0.017279999
2.598 0.176 1.598 150 0 0 0 0.01729
2.589 0.17299999 1.6 150 0 0 0 0.0173
2.579 0.17 1.601 150 0 0 0 0.017309999
2.569 0.168 1.601 141 0 0 0 0.01732
2.5550001 0.16500001 1.599 150 0 0 0 0.01733
2.543 0.161 1.598 143 0 0 0 0.017340001
2.533 0.15800001 1.598 149 0 0 0 0.017349999
2.5220001 0.156 1.597 150 0 0 0 0.01736
2.516 0.153 1.6 150 0 0 0 0.01737
2.5050001 0.15000001 1.599 150 0 0 0 0.017379999
2.4949999 0.147 1.598 150 0 0 0 0.01739
2.4890001 0.14399999 1.601 150 0 0 0 0.0174
2.477 0.141 1.599 150 0 0 0 0.017410001
2.4690001 0.138 1.599 150 0 0 0 0.017419999
2.46 0.13500001 1.599 150 0 0 0 0.01743
2.451 0.132 1.599 150 0 0 0 0.017440001
2.4460001 0.12899999 1.601 150 0 0 0 0.017449999
2.437 0.126 1.6 150 0 0 0 0.01746
2.4349999 0.123 1.604 150 0 0 0 0.01747
2.424 0.12 1.601 150 0 0 0 0.017480001
2.4159999 0.117 1.601 150 0 0 0 0.01749
2.4089999 0.114 1.601 150 0 0 0 0.0175
2.401 0.11 1.6 150 0 0 0 0.017510001
2.3959999 0.107 1.602 150 0 0 0 0.017519999
2.388 0.104 1.601 150 0 0 0 0.01753
2.3840001 0.101 1.603 150 0 0 0 0.01754
2.3770001 0.097999997 1.602 150 0 0 0 0.017550001
2.369 0.094999999 1.601 150 0 0 0 0.01756
2.3629999 0.092 1.601 150 0 0 0 0.01757
2.359 0.089000002 1.602 150 0 0 0 0.017580001
2.3529999 0.086000003 1.601 150 0 0 0 0.017589999
2.348 0.082000002 1.602 150 0 0 0 0.0176
2.3399999 0.079000004 1.6 150 0 0 0 0.01761
2.339 0.075999998 1.603 150 0 0 0 0.017619999
2.335 0.072999999 1.603 150 0 0 0 0.01763
2.3310001 0.07 1.604 150 0 0 0 0.01764
2.3239999 0.066 1.602 150 0 0 0 0.017650001
2.319 0.063000001 1.601 150 0 0 0 0.017659999
2.316 0.059999999 1.602 150 0 0 0 0.01767
2.3150001 0.057 1.604 150 0 0 0 0.017680001
2.309 0.054000001 1.603 150 0 0 0 0.017689999
2.3080001 0.050000001 1.604 150 0 0 0 0.0177
2.3050001 0.046999998 1.605 150 0 0 0 0.01771
2.302 0.044 1.604 150 0 0 0 0.017720001
2.3 0.041000001 1.605 150 0 0 0 0.017729999
2.299 0.037999999 1.607 150 0 0 0 0.01774
2.299 0.035 1.608 150 0 0 0 0.017750001
2.2980001 0.030999999 1.609 150 0 0 0 0.017759999
2.2920001 0.028000001 1.607 150 0 0 0 0.01777
2.2909999 0.025 1.607 150 0 0 0 0.01778
2.29 0.022 1.608 150 0 0 0 0.017790001
2.2880001 0.017999999 1.608 150 0 0 0 0.0178
2.289 0.015 1.609 150 0 0 0 0.01781
2.2869999 0.012 1.609 150 0 0 0 0.017820001
2.2780001 0.0089999996 1.604 150 0 0 0 0.017829999
2.2880001 0.0049999999 1.6109999 150 0 0 0 0.01784
2.2809999 0.0020000001 1.607 150 0 0 0 0.01785
2.2780001 0 1.605 150 0 0 0 0.017859999
2.28 -0.003 1.607 150 0 0 0 0.01787
2.28 -0.0070000002 1.607 150 0 0 0 0.01788
2.277 -0.0099999998 1.605 150 0 0 0 0.017890001
2.28 -0.013 1.607 150 0 0 0 0.017899999
2.2809999 -0.016000001 1.607 150 0 0 0 0.01791
2.2809999 -0.02 1.607 146 0 0 0 0.01792
2.2809999 -0.023 1.607 149 0 0 0 0.017929999
2.2809999 -0.026000001 1.6059999 146 0 0 0 0.01794
2.2820001 -0.028999999 1.6059999 148 0 0 0 0.01795
2.289 -0.033 1.61 148 0 0 0 0.017960001
2.2839999 -0.035999998 1.6059999 144 0 0 0 0.017969999
2.29 -0.039000001 1.609 150 0 0 0 0.01798
2.29 -0.041999999 1.607 150 0 0 0 0.017990001
2.2950001 -0.046 1.609 148 0 0 0 0.017999999
2.2969999 -0.048999999 1.61 147 0 0 0 0.01801
2.2980001 -0.052000001 1.608 148 0 0 0 0.01802
2.299 -0.055 1.607 150 0 0 0 0.018030001
2.3 -0.059 1.6059999 150 0 0 0 0.01804
2.3050001 -0.061999999 1.608 150 0 0 0 0.01805
2.3039999 -0.064999998 1.605 145 0 0 0 0.018060001
2.3069999 -0.068000004 1.605 150 0 0 0 0.018069999
2.313 -0.071000002 1.607 150 0 0 0 0.01808
2.3139999 -0.074000001 1.605 150 0 0 0 0.01809
2.319 -0.078000002 1.605 150 0 0 0 0.018100001
2.3169999 -0.081 1.602 146 0 0 0 0.01811
2.326 -0.083999999 1.605 150 0 0 0 0.01812
2.3299999 -0.086999997 1.605 150 0 0 0 0.018130001
2.3299999 -0.090000004 1.601 142 0 0 0 0.018139999
2.336 -0.093999997 1.603 145 0 0 0 0.01815
2.3469999 -0.097000003 1.607 148 0 0 0 0.01816
2.3499999 -0.1 1.605 150 0 0 0 0.018169999
2.3529999 -0.103 1.604 147 0 0 0 0.01818
2.3599999 -0.106 1.605 149 0 0 0 0.01819
2.3610001 -0.109 1.602 134 0 0 0 0.018200001
2.369 -0.112 1.603 149 0 0 0 0.018209999
2.375 -0.116 1.604 146 0 0 0 0.01822
2.378 -0.119 1.601 143 0 0 0 0.018230001
2.391 -0.122 1.605 142 0 0 0 0.018239999
2.3970001 -0.125 1.605 143 0 0 0 0.01825
2.4059999 -0.12800001 1.607 138 0 0 0 0.01826
2.408 -0.131 1.604 141 0 0 0 0.018270001
2.4170001 -0.134 1.605 146 0 0 0 0.018279999
2.424 -0.13699999 1.605 133 0 0 0 0.01829
2.4330001 -0.141 1.605 136 0 0 0 0.018300001
2.4400001 -0.14399999 1.605 139 0 0 0 0.018309999
2.4489999 -0.147 1.6059999 138 0 0 0 0.01832
2.4560001 -0.15000001 1.605 130 0 0 0 0.01833
2.461 -0.153 1.603 121 0 0 0 0.018340001
2.473 -0.156 1.605 122 0 0 0 0.01835
2.48 -0.15899999 1.604 127 0 0 0 0.01836
2.487 -0.162 1.603 126 0 0 0 0.018370001
2.493 -0.16500001 1.601 117 0 0 0 0.018379999
2.506 -0.168 1.604 125 0 0 0 0.01839
2.5179999 -0.171 1.605 117 0 0 0 0.0184
2.5239999 -0.17399999 1.603 113 0 0 0 0.018409999
2.5350001 -0.177 1.603 113 0 0 0 0.01842
2.549 -0.18000001 1.6059999 118 0 0 0 0.01843
2.559 -0.183 1.605 108 0 0 0 0.018440001
2.5739999 -0.186 1.608 118 0 0 0 0.018449999
2.5840001 -0.189 1.608 115 0 0 0 0.01846
2.5899999 -0.192 1.605 114 0 0 0 0.01847
2.6040001 -0.19499999 1.607 119 0 0 0 0.018479999
2.612 -0.198 1.604 114 0 0 0 0.01849
2.6259999 -0.20100001 1.6059999 109 0 0 0 0.0185
2.6359999 -0.204 1.605 114 0 0 0 0.018510001
2.6530001 -0.207 1.608 104 0 0 0 0.018519999
2.664 -0.20999999 1.607 98 0 0 0 0.01853
2.6730001 -0.212 1.605 102 0 0 0 0.018540001
2.6900001 -0.215 1.607 97 0 0 0 0.018549999
2.697 -0.21799999 1.604 97 0 0 0 0.01856
2.7160001 -0.221 1.607 99 0 0 0 0.01857
2.73 -0.22400001 1.608 110 0 0 0 0.018580001
2.744 -0.227 1.608 94 0 0 0 0.01859
2.753 -0.229 1.605 96 0 0 0 0.0186
2.7709999 -0.23199999 1.607 101 0 0 0 0.018610001
2.7839999 -0.235 1.6059999 88 0 0 0 0.018619999
2.8 -0.23800001 1.607 87 0 0 0 0.01863
2.8169999 -0.241 1.608 105 0 0 0 0.01864
2.829 -0.244 1.607 116 0 0 0 0.018650001
2.8429999 -0.24600001 1.6059999 122 0 0 0 0.01866
2.8570001 -0.249 1.605 75 0 0 0 0.01867
2.872 -0.25099999 1.604 43 0 0 0 0.018680001
2.8740001 -0.25299999 1.597 23 0 0 0 0.018689999
2.8800001 -0.255 1.591 15 0 0 0 0.0187
2.8859999 -0.25600001 1.585 14 0 0 0 0.01871
2.8889999 -0.25799999 1.577 13 0 0 0 0.018719999
2.892 -0.259 1.5700001 14 0 0 0 0.01873
2.8859999 -0.25999999 1.558 13 0 0 0 0.01874
2.8789999 -0.25999999 1.545 14 0 0 0 0.018750001
2.881 -0.26100001 1.536 14 0 0 0 0.018759999
2.881 -0.26199999 1.527 14 0 0 0 0.01877
2.872 -0.26199999 1.513 14 0 0 0 0.018780001
2.8729999 -0.26300001 1.5039999 16 0 0 0 0.018789999
2.8659999 -0.264 1.4910001 15 0 0 0 0.0188
2.855 -0.26300001 1.477 17 0 0 0 0.01881
2.8559999 -0.264 1.4680001 19 0 0 0 0.018820001
2.855 -0.26499999 1.4579999 18 0 0 0 0.018829999
2.8429999 -0.264 1.442 18 0 0 0 0.01884
2.8380001 -0.264 1.4299999 19 0 0 0 0.018850001
2.8380001 -0.26499999 1.421 18 0 0 0 0.018859999
2.8380001 -0.26499999 1.411 20 0 0 0 0.01887
2.8340001 -0.26499999 1.4 25 0 0 0 0.01888
2.8329999 -0.266 1.39 26 0 0 0 0.018890001
2.822 -0.26499999 1.375 23 0 0 0 0.0189
2.829 -0.266 1.369 24 0 0 0 0.01891
2.816 -0.26499999 1.353 29 0 0 0 0.018920001
2.7909999 -0.26300001 1.332 33 0 0 0 0.018929999
2.777 -0.26199999 1.316 35 0 0 0 0.01894
2.78 -0.26199999 1.308 49 0 0 0 0.01895
2.7909999 -0.26300001 1.304 56 0 0 0 0.018959999
2.8099999 -0.26499999 1.304 61 0 0 0 0.01897
2.8299999 -0.26699999 1.303 63 0 0 0 0.01898
2.855 -0.26899999 1.3049999 63 0 0 0 0.018990001
2.8710001 -0.271 1.303 64 0 0 0 0.018999999
2.892 -0.27200001 1.302 60 0 0 0 0.01901
2.9189999 -0.27500001 1.3049999 61 0 0 0 0.01902
2.937 -0.27599999 1.303 62 0 0 0 0.019029999
2.96 -0.278 1.303 63 0 0 0 0.01904
2.984 -0.28 1.303 64 0 0 0 0.01905
3.003 -0.28200001 1.301 62 0 0 0 0.019060001
3.0280001 -0.28400001 1.302 62 0 0 0 0.019069999
3.049 -0.285 1.3 69 0 0 0 0.01908
3.079 -0.28799999 1.303 76 0 0 0 0.019090001
3.1029999 -0.289 1.302 65 0 0 0 0.019099999
3.125 -0.29100001 1.301 46 0 0 0 0.01911
3.1400001 -0.292 1.296 35 0 0 0 0.01912
3.1300001 -0.28999999 1.2819999 35 0 0 0 0.019130001
3.145 -0.29100001 1.277 42 0 0 0 0.01914
3.1670001 -0.292 1.275 52 0 0 0 0.01915
3.194 -0.294 1.275 62 0 0 0 0.019160001
3.2090001 -0.29499999 1.27 150 0 0 0 0.019169999
3.221 -0.29499999 1.2640001 150 0 0 0 0.01918
3.221 -0.294 1.253 150 0 0 0 0.01919
3.224 -0.294 1.243 150 0 0 0 0.019200001
3.2219999 -0.292 1.2309999 150 0 0 0 0.01921
3.2179999 -0.29100001 1.219 150 0 0 0 0.01922
3.2219999 -0.29100001 1.209 150 0 0 0 0.019230001
3.224 -0.28999999 1.199 150 0 0 0 0.019239999
3.2219999 -0.28799999 1.188 150 0 0 0 0.01925
3.2290001 -0.28799999 1.179 150 0 0 0 0.01926
3.23 -0.287 1.169 150 0 0 0 0.019269999
3.237 -0.28600001 1.16 150 0 0 0 0.01928
3.237 -0.285 1.149 150 0 0 0 0.01929
3.2409999 -0.28400001 1.14 150 0 0 0 0.019300001
3.244 -0.28299999 1.13 150 0 0 0 0.019309999
3.2420001 -0.28200001 1.118 150 0 0 0 0.01932
3.2449999 -0.28099999 1.108 150 0 0 0 0.019330001
3.2460001 -0.27900001 1.097 150 0 0 0 0.019339999
3.2490001 -0.278 1.0880001 150 0 0 0 0.01935
3.25 -0.27700001 1.077 150 0 0 0 0.01936
3.243 -0.27500001 1.064 150 0 0 0 0.019370001
3.2449999 -0.273 1.053 150 0 0 0 0.019379999
3.2479999 -0.27200001 1.043 150 0 0 0 0.01939
3.2420001 -0.27000001 1.031 150 0 0 0 0.019400001
3.2420001 -0.26800001 1.02 150 0 0 0 0.019409999
3.243 -0.26699999 1.0089999 150 0 0 0 0.01942
3.2420001 -0.26499999 0.99800003 150 0 0 0 0.01943
3.24 -0.26300001 0.98699999 150 0 0 0 0.019440001
3.237 -0.26100001 0.97500002 150 0 0 0 0.01945
3.24 -0.25999999 0.96499997 150 0 0 0 0.01946
3.237 -0.25799999 0.95300001 150 0 0 0 0.019470001
3.237 -0.25600001 0.94199997 150 0 0 0 0.019479999
3.2390001 -0.25400001 0.93199998 150 0 0 0 0.01949
3.237 -0.252 0.921 150 0 0 0 0.0195
3.2390001 -0.25099999 0.91100001 150 0 0 0 0.019509999
3.237 -0.249 0.89899999 150 0 0 0 0.01952
3.237 -0.24699999 0.88800001 150 0 0 0 0.01953
3.2379999 -0.245 0.87800002 150 0 0 0 0.019540001
3.2420001 -0.243 0.86799997 101 0 0 0 0.019549999
3.26 -0.242 0.86199999 55 0 0 0 0.01956
3.273 -0.241 0.85500002 35 0 0 0 0.01957
3.3199999 -0.243 0.85600001 27 0 0 0 0.019579999
3.3340001 -0.242 0.84899998 27 0 0 0 0.01959
3.3440001 -0.23999999 0.83999997 39 0 0 0 0.0196
3.352 -0.23899999 0.83099997 84 0 0 0 0.019610001
3.349 -0.236 0.81999999 150 0 0 0 0.019619999
3.359 -0.235 0.81099999 150 0 0 0 0.01963
3.3570001 -0.23199999 0.79900002 150 0 0 0 0.019640001
3.3559999 -0.23 0.78799999 150 0 0 0 0.019649999
3.355 -0.227 0.77700001 150 0 0 0 0.01966
3.3540001 -0.22499999 0.76599997 150 0 0 0 0.01967
3.3559999 -0.223 0.755 150 0 0 0 0.019680001
3.3529999 -0.22 0.74400002 150 0 0 0 0.01969
3.3510001 -0.21799999 0.73299998 150 0 0 0 0.0197
3.3540001 -0.215 0.722 150 0 0 0 0.019710001
3.349 -0.213 0.70999998 150 0 0 0 0.019719999
3.3469999 -0.20999999 0.699 150 0 0 0 0.01973
3.3510001 -0.208 0.68900001 150 0 0 0 0.01974
3.3510001 -0.205 0.67799997 150 0 0 0 0.019750001
3.3510001 -0.20299999 0.667 150 0 0 0 0.01976
3.352 -0.2 0.65700001 150 0 0 0 0.01977
3.3499999 -0.197 0.64600003 150 0 0 0 0.019780001
3.3570001 -0.19499999 0.63599998 150 0 0 0 0.019789999
3.3710001 -0.193 0.62800002 150 0 0 0 0.0198
3.369 -0.191 0.61699998 150 0 0 0 0.01981
3.378 -0.18799999 0.60799998 150 0 0 0 0.019819999
3.375 -0.185 0.59600002 150 0 0 0 0.01983
3.372 -0.183 0.58499998 150 0 0 0 0.01984
3.3759999 -0.18000001 0.57499999 150 0 0 0 0.019850001
3.375 -0.177 0.56400001 150 0 0 0 0.019859999
3.375 -0.17399999 0.55299997 150 0 0 0 0.01987
3.375 -0.17200001 0.542 150 0 0 0 0.019880001
3.382 -0.169 0.53299999 150 0 0 0 0.019889999
3.4089999 -0.167 0.52600002 150 0 0 0 0.0199
3.4319999 -0.16599999 0.51899999 150 0 0 0 0.01991
3.4400001 -0.163 0.509 150 0 0 0 0.019920001
3.441 -0.16 0.498 151 0 0 0 0.019929999
3.4400001 -0.15700001 0.48699999 151 0 0 0 0.01994
3.441 -0.154 0.477 150 0 0 0 0.019950001
3.4430001 -0.15099999 0.46599999 150 0 0 0 0.019959999
3.4389999 -0.148 0.45500001 150 0 0 0 0.01997
3.4360001 -0.145 0.44299999 150 0 0 0 0.01998
3.437 -0.142 0.433 150 0 0 0 0.019990001
3.441 -0.139 0.42199999 150 0 0 0 0.02
3.4349999 -0.13500001 0.41100001 150 0 0 0 0.02001
3.4330001 -0.132 0.40000001 150 0 0 0 0.020020001
3.434 -0.12899999 0.389 150 0 0 0 0.020029999
3.4349999 -0.126 0.37799999 150 0 0 0 0.02004
3.437 -0.123 0.368 150 0 0 0 0.02005
3.4360001 -0.119 0.35699999 150 0 0 0 0.020059999
3.4389999 -0.116 0.347 150 0 0 0 0.02007
3.4330001 -0.113 0.33500001 150 0 0 0 0.02008
3.4360001 -0.11 0.32499999 150 0 0 0 0.020090001
3.4349999 -0.106 0.31400001 150 0 0 0 0.020099999
3.4300001 -0.103 0.303 150 0 0 0 0.02011
3.4330001 -0.1 0.29300001 150 0 0 0 0.02012
3.4260001 -0.096000001 0.28099999 150 0 0 0 0.020129999
3.4289999 -0.093000002 0.271 150 0 0 0 0.02014
3.427 -0.089000002 0.25999999 150 0 0 0 0.02015
3.4260001 -0.086000003 0.25 150 0 0 0 0.020160001
3.431 -0.082999997 0.23899999 150 0 0 0 0.020169999
3.4289999 -0.079000004 0.229 150 0 0 0 0.02018
3.431 -0.075999998 0.21799999 150 0 0 0 0.020190001
3.428 -0.071999997 0.207 150 0 0 0 0.020199999
3.4300001 -0.068999998 0.197 150 0 0 0 0.02021
3.4300001 -0.064999998 0.186 150 0 0 0 0.02022
3.428 -0.061999999 0.176 150 0 0 0 0.020230001
3.425 -0.057999998 0.16500001 150 0 0 0 0.02024
3.4260001 -0.055 0.154 150 0 0 0 0.02025
3.421 -0.050999999 0.14399999 150 0 0 0 0.020260001
3.427 -0.048 0.133 150 0 0 0 0.020269999
3.425 -0.044 0.123 150 0 0 0 0.02028
3.425 -0.039999999 0.112 151 0 0 0 0.02029
3.4230001 -0.037 0.102 150 0 0 0 0.020300001
3.4230001 -0.033 0.090999998 150 0 0 0 0.02031
3.4260001 -0.028999999 0.081 151 0 0 0 0.02032
3.424 -0.026000001 0.07 151 0 0 0 0.020330001
3.4189999 -0.022 0.059999999 150 0 0 0 0.020339999
3.4189999 -0.017999999 0.050000001 151 0 0 0 0.02035
3.4189999 -0.014 0.039000001 150 0 0 0 0.02036
3.418 -0.011 0.028999999 151 0 0 0 0.020369999
3.418 -0.0070000002 0.017999999 151 0 0 0 0.02038
3.4200001 -0.003 0.0080000004 151 0 0 0 0.02039
3.4200001 0 -0.0020000001 151 0 0 0 0.020400001
3.4200001 0.0040000002 -0.012 151 0 0 0 0.020409999
3.4200001 0.0070000002 -0.022 151 0 0 0 0.02042
3.4159999 0.011 -0.033 151 0 0 0 0.02043
3.4159999 0.015 -0.043000001 151 0 0 0 0.020439999
3.4159999 0.018999999 -0.052999999 151 0 0 0 0.02045
3.4170001 0.023 -0.064000003 151 0 0 0 0.02046
3.4159999 0.027000001 -0.074000001 151 0 0 0 0.020470001
3.415 0.030999999 -0.083999999 151 0 0 0 0.020479999
3.418 0.035 -0.094999999 151 0 0 0 0.02049
3.4189999 0.039000001 -0.105 151 0 0 0 0.020500001
3.4159999 0.043000001 -0.115 151 0 0 0 0.020509999
3.4189999 0.046999998 -0.126 152 0 0 0 0.02052
3.4170001 0.050999999 -0.13600001 151 0 0 0 0.02053
3.4130001 0.055 -0.146 151 0 0 0 0.020540001
3.4170001 0.059 -0.15700001 151 0 0 0 0.02055
3.418 0.063000001 -0.167 151 0 0 0 0.02056
3.4159999 0.067000002 -0.177 151 0 0 0 0.020570001
3.4159999 0.071000002 -0.18700001 151 0 0 0 0.020579999
3.4119999 0.075000003 -0.197 151 0 0 0 0.02059
3.411 0.079999998 -0.208 151 0 0 0 0.0206
3.4100001 0.083999999 -0.21799999 151 0 0 0 0.020609999
3.4119999 0.088 -0.228 151 0 0 0 0.02062
3.4100001 0.092 -0.23800001 151 0 0 0 0.02063
3.408 0.096000001 -0.248 151 0 0 0 0.020640001
3.4119999 0.101 -0.259 151 0 0 0 0.020649999
3.4119999 0.105 -0.26899999 151 0 0 0 0.02066
3.4100001 0.109 -0.27900001 151 0 0 0 0.02067
3.4100001 0.114 -0.28999999 151 0 0 0 0.020679999
3.4089999 0.118 -0.30000001 151 0 0 0 0.02069
3.408 0.122 -0.31 150 0 0 0 0.0207
3.4070001 0.126 -0.31999999 150 0 0 0 0.020710001
3.4059999 0.131 -0.33000001 150 0 0 0 0.020719999
3.4100001 0.13500001 -0.34099999 150 0 0 0 0.02073
3.408 0.14 -0.34999999 150 0 0 0 0.020740001
3.4070001 0.14399999 -0.361 150 0 0 0 0.020749999
3.4059999 0.149 -0.37099999 150 0 0 0 0.02076
3.408 0.153 -0.38100001 150 0 0 0 0.02077
3.402 0.15700001 -0.391 150 0 0 0 0.020780001
3.404 0.162 -0.40099999 150 0 0 0 0.02079
3.404 0.167 -0.41100001 150 0 0 0 0.0208
3.402 0.171 -0.421 150 0 0 0 0.020810001
3.4030001 0.176 -0.43099999 150 0 0 0 0.020819999
3.4030001 0.18000001 -0.442 150 0 0 0 0.02083
3.4000001 0.185 -0.45100001 150 0 0 0 0.02084
3.402 0.19 -0.46200001 150 0 0 0 0.020850001
3.4000001 0.19400001 -0.472 150 0 0 0 0.02086
3.404 0.199 -0.48199999 150 0 0 0 0.02087
3.402 0.204 -0.49200001 150 0 0 0 0.020880001
3.4000001 0.208 -0.50199997 150 0 0 0 0.020889999
3.401 0.213 -0.51200002 150 0 0 0 0.0209
3.3989999 0.21799999 -0.52200001 150 0 0 0 0.02091
3.398 0.223 -0.53200001 150 0 0 0 0.020919999
3.3959999 0.227 -0.542 150 0 0 0 0.02093
3.3970001 0.23199999 -0.55199999 150 0 0 0 0.02094
3.401 0.237 -0.56300002 150 0 0 0 0.020950001
3.395 0.242 -0.57200003 150 0 0 0 0.020959999
3.398 0.24699999 -0.58200002 150 0 0 0 0.02097
3.398 0.252 -0.59200001 150 0 0 0 0.02098
3.3989999 0.257 -0.60299999 150 0 0 0 0.020989999
3.398 0.26199999 -0.61199999 150 0 0 0 0.021
3.398 0.26699999 -0.62199998 150 0 0 0 0.02101
3.3929999 0.27200001 -0.63200003 150 0 0 0 0.021020001
3.3929999 0.27700001 -0.64200002 150 0 0 0 0.021029999
3.3940001 0.28200001 -0.65200001 150 0 0 0 0.02104
3.3940001 0.287 -0.662 150 0 0 0 0.021050001
3.395 0.292 -0.67199999 150 0 0 0 0.021059999
3.3929999 0.29699999 -0.68199998 150 0 0 0 0.02107
3.3900001 0.30199999 -0.69099998 150 0 0 0 0.02108
3.388 0.30700001 -0.70099998 150 0 0 0 0.021090001
3.391 0.31299999 -0.71200001 150 0 0 0 0.0211
3.3870001 0.31799999 -0.72100002 150 0 0 0 0.02111
3.3870001 0.32300001 -0.73100001 150 0 0 0 0.021120001
3.391 0.329 -0.741 150 0 0 0 0.021129999
3.3859999 0.33399999 -0.75 150 0 0 0 0.02114
3.382 0.33899999 -0.759 150 0 0 0 0.02115
3.3870001 0.345 -0.76999998 150 0 0 0 0.021159999
3.3889999 0.34999999 -0.78100002 150 0 0 0 0.02117
3.3859999 0.35499999 -0.79000002 150 0 0 0 0.02118
3.3829999 0.361 -0.80000001 150 0 0 0 0.021190001
3.381 0.366 -0.80900002 150 0 0 0 0.021199999
3.381 0.37099999 -0.81900001 150 0 0 0 0.02121
3.3770001 0.37599999 -0.82800001 151 0 0 0 0.02122
3.385 0.38299999 -0.83899999 150 0 0 0 0.021229999
3.3889999 0.389 -0.85000002 89 0 0 0 0.02124
3.3759999 0.39300001 -0.85699999 29 0 0 0 0.02125
3.3340001 0.39399999 -0.85600001 24 0 0 0 0.021260001
3.3 0.39500001 -0.85699999 27 0 0 0 0.021269999
3.2679999 0.39700001 -0.85799998 27 0 0 0 0.02128
3.2309999 0.398 -0.85799998 26 0 0 0 0.021290001
3.188 0.398 -0.85600001 26 0 0 0 0.021299999
3.1589999 0.40000001 -0.85699999 26 0 0 0 0.02131
3.135 0.40200001 -0.86000001 26 0 0 0 0.02132
3.1059999 0.40400001 -0.861 27 0 0 0 0.021330001
3.0799999 0.40599999 -0.86299998 27 0 0 0 0.02134
3.0420001 0.40599999 -0.861 26 0 0 0 0.02135
3.007 0.40700001 -0.85900003 26 0 0 0 0.021360001
2.971 0.40700001 -0.85799998 26 0 0 0 0.021369999
2.9400001 0.40799999 -0.85699999 25 0 0 0 0.02138
2.9070001 0.40900001 -0.85600001 25 0 0 0 0.02139
2.872 0.40900001 -0.85399997 23 0 0 0 0.021400001
2.846 0.41100001 -0.85399997 23 0 0 0 0.02141
2.813 0.41100001 -0.85299999 24 0 0 0 0.02142
2.7909999 0.41299999 -0.85399997 23 0 0 0 0.021430001
2.757 0.41299999 -0.852 22 0 0 0 0.021439999
2.734 0.41499999 -0.852 22 0 0 0 0.02145
2.7079999 0.41600001 -0.852 22 0 0 0 0.02146
2.684 0.417 -0.852 23 0 0 0 0.021469999
2.6530001 0.417 -0.85000002 25 0 0 0 0.02148
2.6329999 0.419 -0.85100001 26 0 0 0 0.02149
2.6059999 0.41999999 -0.85000002 25 0 0 0 0.021500001
2.5829999 0.421 -0.84899998 25 0 0 0 0.021509999
2.563 0.42300001 -0.85000002 26 0 0 0 0.02152
2.54 0.42399999 -0.84899998 25 0 0 0 0.02153
2.517 0.42500001 -0.84899998 27 0 0 0 0.021539999
2.494 0.426 -0.84799999 27 0 0 0 0.02155
2.4690001 0.426 -0.84600002 28 0 0 0 0.02156
2.448 0.42699999 -0.84600002 28 0 0 0 0.021570001
2.424 0.428 -0.84500003 26 0 0 0 0.021579999
2.411 0.43000001 -0.847 26 0 0 0 0.02159
2.388 0.43099999 -0.84500003 25 0 0 0 0.021600001
2.375 0.433 -0.847 26 0 0 0 0.021609999
2.3559999 0.435 -0.847 26 0 0 0 0.02162
2.332 0.435 -0.84500003 25 0 0 0 0.02163
2.316 0.43599999 -0.84500003 26 0 0 0 0.021640001
2.302 0.43799999 -0.84600002 27 0 0 0 0.02165
2.2839999 0.44 -0.84600002 26 0 0 0 0.02166
2.2639999 0.44100001 -0.84500003 26 0 0 0 0.021670001
2.2520001 0.44299999 -0.847 26 0 0 0 0.021679999
2.2320001 0.44299999 -0.84500003 26 0 0 0 0.02169
2.2179999 0.44499999 -0.84600002 26 0 0 0 0.0217
2.2030001 0.447 -0.84600002 26 0 0 0 0.021709999
2.1849999 0.44800001 -0.84500003 27 0 0 0 0.02172
2.1700001 0.449 -0.84500003 26 0 0 0 0.02173
2.152 0.44999999 -0.84399998 27 0 0 0 0.021740001
2.135 0.45100001 -0.84299999 26 0 0 0 0.021749999
2.1259999 0.454 -0.84500003 29 0 0 0 0.02176
2.118 0.45699999 -0.847 27 0 0 0 0.02177
2.102 0.458 -0.847 26 0 0 0 0.021779999
2.086 0.45899999 -0.84500003 27 0 0 0 0.02179
2.072 0.46000001 -0.84500003 27 0 0 0 0.0218
2.0610001 0.46200001 -0.84600002 28 0 0 0 0.021810001
2.0450001 0.463 -0.84500003 28 0 0 0 0.021819999
2.0350001 0.465 -0.84600002 27 0 0 0 0.02183
2.02 0.46599999 -0.84500003 27 0 0 0 0.021840001
2.01 0.46799999 -0.84600002 28 0 0 0 0.021849999
2 0.47099999 -0.847 28 0 0 0 0.02186
1.989 0.47299999 -0.847 27 0 0 0 0.02187
1.972 0.47299999 -0.84500003 28 0 0 0 0.021880001
1.962 0.47499999 -0.84500003 27 0 0 0 0.02189
1.949 0.47600001 -0.84399998 24 0 0 0 0.0219
1.937 0.477 -0.84399998 21 0 0 0 0.021910001
1.924 0.47799999 -0.84299999 18 0 0 0 0.021919999
1.9170001 0.48100001 -0.84500003 17 0 0 0 0.02193
1.908 0.48300001 -0.84500003 18 0 0 0 0.02194
1.899 0.48500001 -0.84600002 21 0 0 0 0.021950001
1.8839999 0.486 -0.84299999 23 0 0 0 0.02196
1.877 0.48800001 -0.84500003 28 0 0 0 0.02197
1.867 0.49000001 -0.84500003 30 0 0 0 0.021980001
1.857 0.49200001 -0.84500003 30 0 0 0 0.021989999
1.848 0.49399999 -0.84500003 30 0 0 0 0.022
1.8380001 0.495 -0.84399998 31 0 0 0 0.02201
1.829 0.49700001 -0.84500003 32 0 0 0 0.022019999
1.827 0.50099999 -0.84799999 32 0 0 0 0.02203
1.817 0.50199997 -0.847 31 0 0 0 0.02204
1.798 0.50099999 -0.84200001 30 0 0 0 0.022050001
1.793 0.50400001 -0.84399998 31 0 0 0 0.022059999
1.789 0.50700003 -0.84600002 32 0 0 0 0.02207
1.777 0.50800002 -0.84399998 31 0 0 0 0.02208
1.774 0.51099998 -0.847 25 0 0 0 0.022089999
1.762 0.51200002 -0.84500003 24 0 0 0 0.0221
1.757 0.514 -0.84600002 26 0 0 0 0.02211
1.743 0.514 -0.84299999 12 0 0 0 0.022120001
1.682 0.5 -0.81599998 13 0 0 0 0.022129999
1.6109999 0.48300001 -0.78500003 11 0 0 0 0.02214
1.501 0.454 -0.73500001 2 0 0 0 0.022150001
1.473 0.449 -0.72399998 2 0 0 0 0.022159999
1.4579999 0.44800001 -0.71899998 2 0 0 0 0.02217
1.446 0.447 -0.71600002 2 0 0 0 0.02218
1.436 0.44800001 -0.71399999 2 0 0 0 0.022190001
1.423 0.447 -0.70999998 2 0 0 0 0.0222
1.411 0.447 -0.70700002 2 0 0 0 0.02221
1.396 0.44499999 -0.70200002 2 0 0 0 0.022220001
1.382 0.44400001 -0.69700003 2 0 0 0 0.022229999
1.372 0.44400001 -0.69499999 2 0 0 0 0.02224
1.362 0.44400001 -0.69199997 2 0 0 0 0.02225
1.346 0.442 -0.68599999 2 0 0 0 0.022260001
1.332 0.44 -0.68099999 11 0 0 0 0.02227
1.313 0.43700001 -0.67400002 30 0 0 0 0.02228
1.3 0.43599999 -0.66900003 122 0 0 0 0.022290001
1.2869999 0.435 -0.66500002 150 0 0 0 0.022299999
1.279 0.435 -0.662 150 0 0 0 0.02231
1.274 0.43599999 -0.662 150 0 0 0 0.02232
1.277 0.44 -0.66500002 150 0 0 0 0.022329999
1.275 0.44299999 -0.66600001 150 0 0 0 0.02234
1.277 0.44600001 -0.66900003 150 0 0 0 0.02235
1.276 0.449 -0.67000002 150 0 0 0 0.022360001
1.276 0.45199999 -0.67199999 150 0 0 0 0.022369999
1.276 0.45500001 -0.67400002 150 0 0 0 0.02238
1.275 0.45699999 -0.67500001 150 0 0 0 0.022390001
1.275 0.46000001 -0.676 150 0 0 0 0.022399999
1.276 0.46399999 -0.67900002 150 0 0 0 0.02241
1.279 0.46700001 -0.68099999 150 0 0 0 0.02242
1.272 0.46799999 -0.67900002 150 0 0 0 0.022430001
1.281 0.47400001 -0.685 150 0 0 0 0.02244
1.278 0.47600001 -0.685 150 0 0 0 0.02245
1.273 0.477 -0.68400002 134 0 0 0 0.022460001
1.266 0.477 -0.68099999 97 0 0 0 0.022469999
1.252 0.47400001 -0.67500001 68 0 0 0 0.02248
1.226 0.46700001 -0.662 51 0 0 0 0.02249
1.2 0.46000001 -0.64899999 45 0 0 0 0.022500001
1.189 0.458 -0.64399999 55 0 0 0 0.02251
1.184 0.45899999 -0.64300001 67 0 0 0 0.02252
1.177 0.45899999 -0.63999999 61 0 0 0 0.022530001
1.179 0.46200001 -0.64099997 59 0 0 0 0.022539999
1.177 0.463 -0.64099997 52 0 0 0 0.02255
1.184 0.46799999 -0.64499998 48 0 0 0 0.02256
1.178 0.46900001 -0.64300001 47 0 0 0 0.022569999
1.1799999 0.472 -0.64499998 38 0 0 0 0.02258
1.174 0.472 -0.64200002 42 0 0 0 0.02259
1.1720001 0.47299999 -0.64099997 44 0 0 0 0.022600001
1.165 0.47299999 -0.63800001 42 0 0 0 0.022609999
1.159 0.47299999 -0.63599998 43 0 0 0 0.02262
1.154 0.47299999 -0.63300002 44 0 0 0 0.02263
1.148 0.47299999 -0.63 43 0 0 0 0.022639999
1.141 0.472 -0.62599999 43 0 0 0 0.02265
1.137 0.47299999 -0.625 45 0 0 0 0.02266
1.132 0.472 -0.62199998 43 0 0 0 0.022670001
1.128 0.47299999 -0.62 45 0 0 0 0.022679999
1.1210001 0.472 -0.616 42 0 0 0 0.02269
1.118 0.472 -0.61400002 39 0 0 0 0.022700001
1.112 0.472 -0.611 42 0 0 0 0.022709999
1.109 0.47299999 -0.61000001 46 0 0 0 0.02272
1.1059999 0.47299999 -0.60799998 45 0 0 0 0.02273
1.099 0.472 -0.60399997 48 0 0 0 0.022740001
1.096 0.472 -0.602 48 0 0 0 0.02275
1.092 0.472 -0.59899998 47 0 0 0 0.02276
1.087 0.472 -0.597 53 0 0 0 0.022770001
1.081 0.47099999 -0.59299999 46 0 0 0 0.022779999
1.077 0.47099999 -0.58999997 46 0 0 0 0.02279
1.0700001 0.46900001 -0.58600003 44 0 0 0 0.0228
1.0599999 0.46700001 -0.57999998 43 0 0 0 0.022810001
1.057 0.46700001 -0.57800001 40 0 0 0 0.02282
1.054 0.46700001 -0.57499999 39 0 0 0 0.02283
1.05 0.46700001 -0.57300001 41 0 0 0 0.022840001
1.049 0.46700001 -0.57099998 43 0 0 0 0.022849999
1.045 0.46700001 -0.56900001 45 0 0 0 0.02286
1.0420001 0.46700001 -0.56599998 40 0 0 0 0.02287
1.034 0.46399999 -0.56099999 44 0 0 0 0.022879999
1.035 0.46599999 -0.56099999 47 0 0 0 0.02289
1.033 0.46599999 -0.55800003 47 0 0 0 0.0229
1.03 0.46599999 -0.55599999 50 0 0 0 0.022910001
1.026 0.46599999 -0.55299997 49 0 0 0 0.022919999
1.024 0.46599999 -0.551 52 0 0 0 0.02293
1.021 0.465 -0.54799998 49 0 0 0 0.022940001
1.017 0.465 -0.54500002 49 0 0 0 0.022949999
1.015 0.46399999 -0.54299998 49 0 0 0 0.02296
1.0140001 0.465 -0.54100001 52 0 0 0 0.02297
1.013 0.465 -0.53899997 52 0 0 0 0.022980001
1.013 0.46599999 -0.53799999 53 0 0 0 0.02299
1.005 0.463 -0.53299999 51 0 0 0 0.023
1.0039999 0.463 -0.53100002 50 0 0 0 0.023010001
1.002 0.463 -0.528 48 0 0 0 0.023019999
0.99800003 0.46200001 -0.52499998 51 0 0 0 0.02303
0.99800003 0.463 -0.523 50 0 0 0 0.02304
1.001 0.465 -0.523 51 0 0 0 0.023050001
0.99699998 0.463 -0.51999998 53 0 0 0 0.02306
0.995 0.463 -0.51700002 54 0 0 0 0.02307
0.991 0.46200001 -0.514 53 0 0 0 0.023080001
0.995 0.46399999 -0.514 58 0 0 0 0.023089999
0.98900002 0.461 -0.509 55 0 0 0 0.0231
0.98900002 0.461 -0.50700003 57 0 0 0 0.02311
0.99199998 0.463 -0.50800002 55 0 0 0 0.023119999
0.98699999 0.461 -0.50300002 55 0 0 0 0.02313
0.98900002 0.46200001 -0.50199997 56 0 0 0 0.02314
0.98699999 0.46200001 -0.5 54 0 0 0 0.023150001
0.98699999 0.46200001 -0.498 57 0 0 0 0.023159999
0.98299998 0.46000001 -0.49399999 57 0 0 0 0.02317
0.98799998 0.463 -0.495 54 0 0 0 0.02318
0.98400003 0.461 -0.491 57 0 0 0 0.023189999
0.98500001 0.461 -0.48899999 62 0 0 0 0.0232
0.991 0.46399999 -0.49000001 62 0 0 0 0.02321
0.98400003 0.46000001 -0.48500001 59 0 0 0 0.023220001
0.98500001 0.461 -0.48300001 59 0 0 0 0.023229999
0.97899997 0.458 -0.47799999 55 0 0 0 0.02324
0.98000002 0.458 -0.477 55 0 0 0 0.023250001
0.98199999 0.45899999 -0.47499999 57 0 0 0 0.023259999
0.98299998 0.45899999 -0.47400001 67 0 0 0 0.02327
0.98299998 0.45899999 -0.472 65 0 0 0 0.02328
0.98699999 0.46000001 -0.47099999 68 0 0 0 0.023290001
0.98799998 0.46000001 -0.46900001 62 0 0 0 0.0233
0.98799998 0.45899999 -0.46700001 62 0 0 0 0.02331
0.98799998 0.45899999 -0.465 59 0 0 0 0.023320001
0.991 0.46000001 -0.46399999 53 0 0 0 0.023329999
0.99000001 0.45899999 -0.46200001 54 0 0 0 0.02334
0.99199998 0.45899999 -0.46000001 59 0 0 0 0.02335
0.99599999 0.461 -0.46000001 66 0 0 0 0.023360001
0.99800003 0.461 -0.458 71 0 0 0 0.02337
0.99900001 0.461 -0.456 76 0 0 0 0.02338
0.99900001 0.46000001 -0.454 76 0 0 0 0.023390001
1.001 0.46000001 -0.45199999 73 0 0 0 0.023399999
1.001 0.46000001 -0.44999999 82 0 0 0 0.02341
1.006 0.461 -0.449 80 0 0 0 0.02342
1.006 0.46000001 -0.447 84 0 0 0 0.023429999
1.01 0.461 -0.44600001 70 0 0 0 0.02344
1.012 0.461 -0.44499999 82 0 0 0 0.02345
1.013 0.46000001 -0.442 76 0 0 0 0.023460001
1.016 0.461 -0.44100001 73 0 0 0 0.023469999
1.017 0.46000001 -0.43900001 72 0 0 0 0.02348
1.021 0.461 -0.43799999 69 0 0 0 0.023490001
1.022 0.46000001 -0.43599999 73 0 0 0 0.023499999
1.025 0.461 -0.435 65 0 0 0 0.02351
1.026 0.46000001 -0.43200001 65 0 0 0 0.02352
1.029 0.46000001 -0.43099999 58 0 0 0 0.023530001
1.0369999 0.46200001 -0.43200001 59 0 0 0 0.023539999
1.038 0.461 -0.42899999 70 0 0 0 0.02355
1.04 0.461 -0.42699999 71 0 0 0 0.023560001
1.041 0.46000001 -0.42500001 75 0 0 0 0.023569999
1.0470001 0.461 -0.42500001 74 0 0 0 0.02358
1.05 0.461 -0.42300001 72 0 0 0 0.02359
1.0549999 0.46200001 -0.42300001 75 0 0 0 0.023600001
1.057 0.461 -0.41999999 74 0 0 0 0.02361
1.063 0.463 -0.41999999 86 0 0 0 0.02362
1.066 0.46200001 -0.41800001 88 0 0 0 0.023630001
1.074 0.46399999 -0.419 85 0 0 0 0.023639999
1.077 0.46399999 -0.417 85 0 0 0 0.02365
1.079 0.463 -0.41499999 84 0 0 0 0.02366
1.087 0.465 -0.41499999 87 0 0 0 0.023669999
1.094 0.46599999 -0.41499999 86 0 0 0 0.02368
1.095 0.465 -0.412 31 0 0 0 0.02369
1.1 0.465 -0.41100001 30 0 0 0 0.023700001
1.105 0.465 -0.41 31 0 0 0 0.023709999
1.1109999 0.46599999 -0.40900001 32 0 0 0 0.02372
1.112 0.465 -0.40700001 32 0 0 0 0.02373
1.115 0.46399999 -0.40400001 33 0 0 0 0.023739999
1.126 0.46700001 -0.405 34 0 0 0 0.02375
1.132 0.46700001 -0.405 34 0 0 0 0.02376
1.136 0.46700001 -0.403 39 0 0 0 0.023770001
1.141 0.46700001 -0.40200001 36 0 0 0 0.023779999
1.151 0.46900001 -0.40200001 40 0 0 0 0.02379
1.152 0.46700001 -0.39899999 38 0 0 0 0.023800001
1.16 0.46799999 -0.39899999 37 0 0 0 0.023809999
1.1619999 0.46700001 -0.39700001 37 0 0 0 0.02382
1.174 0.46900001 -0.398 36 0 0 0 0.02383
1.179 0.46900001 -0.396 35 0 0 0 0.023840001
1.183 0.46900001 -0.39399999 36 0 0 0 0.02385
1.197 0.472 -0.396 32 0 0 0 0.02386
1.204 0.472 -0.39500001 28 0 0 0 0.023870001
1.209 0.472 -0.39300001 26 0 0 0 0.023879999
1.221 0.47400001 -0.39399999 23 0 0 0 0.02389
1.2410001 0.479 -0.39700001 4 0 0 0 0.0239
1.253 0.48100001 -0.398 5 0 0 0 0.023910001
1.278 0.48800001 -0.40200001 7 0 0 0 0.02392
1.291 0.491 -0.403 0 0 0 0 0.02393
1.288 0.48699999 -0.39899999 54 0 0 0 0.023940001
1.2819999 0.48199999 -0.39300001 150 0 0 0 0.023949999
1.2869999 0.48100001 -0.391 150 0 0 0 0.02396
1.2819999 0.477 -0.38699999 150 0 0 0 0.02397
1.28 0.47299999 -0.38299999 150 0 0 0 0.023979999
1.286 0.47299999 -0.38100001 150 0 0 0 0.02399
1.278 0.46700001 -0.375 150 0 0 0 0.024
1.279 0.465 -0.37200001 150 0 0 0 0.024010001
1.281 0.46200001 -0.37 150 0 0 0 0.024019999
1.283 0.46000001 -0.36700001 150 0 0 0 0.02403
1.283 0.458 -0.36399999 150 0 0 0 0.024040001
1.285 0.45500001 -0.361 150 0 0 0 0.024049999
1.285 0.45199999 -0.35800001 150 0 0 0 0.02406
1.285 0.449 -0.354 150 0 0 0 0.02407
1.284 0.44600001 -0.35100001 150 0 0 0 0.024080001
1.283 0.44299999 -0.347 150 0 0 0 0.024089999
1.288 0.442 -0.345 150 0 0 0 0.0241
1.299 0.44299999 -0.345 92 0 0 0 0.024110001
1.311 0.44400001 -0.345 12 0 0 0 0.024119999
1.327 0.44600001 -0.34599999 4 0 0 0 0.02413
1.346 0.44999999 -0.347 1 0 0 0 0.02414
1.363 0.45199999 -0.34799999 1 0 0 0 0.024150001
1.375 0.45300001 -0.34799999 1 0 0 0 0.02416
1.39 0.454 -0.34799999 1 0 0 0 0.02417
1.399 0.454 -0.347 1 0 0 0 0.024180001
1.4119999 0.45500001 -0.347 1 0 0 0 0.024189999
1.424 0.45500001 -0.34599999 1 0 0 0 0.0242
1.437 0.456 -0.34599999 1 0 0 0 0.02421
1.4529999 0.458 -0.34599999 1 0 0 0 0.024219999
1.467 0.45899999 -0.34599999 1 0 0 0 0.02423
1.482 0.46000001 -0.34599999 1 0 0 0 0.02424
2.4990001 0.76999998 -0.57700002 116 0 0 0 0.024250001
2.29 0.69999999 -0.523 150 0 0 0 0.024259999
2.348 0.71200001 -0.53100002 150 0 0 0 0.02427
2.4760001 0.745 -0.55400002 150 0 0 0 0.02428
2.4779999 0.73900002 -0.54900002 150 0 0 0 0.024289999
2.4760001 0.73199999 -0.542 150 0 0 0 0.0243
2.4809999 0.72799999 -0.537 150 0 0 0 0.02431
2.4790001 0.72100002 -0.53100002 150 0 0 0 0.024320001
2.4790001 0.71499997 -0.52499998 150 0 0 0 0.024329999
2.345 0.671 -0.491 150 0 0 0 0.02434
2.2579999 0.63999999 -0.46799999 151 0 0 0 0.024350001
2.2249999 0.625 -0.456 151 0 0 0 0.024359999
2.2219999 0.61900002 -0.44999999 151 0 0 0 0.02437
2.2249999 0.61400002 -0.44499999 151 0 0 0 0.02438
2.221 0.60699999 -0.44 151 0 0 0 0.024390001
2.221 0.602 -0.43399999 151 0 0 0 0.0244
2.22 0.59600002 -0.42899999 151 0 0 0 0.02441
2.2190001 0.58999997 -0.42399999 151 0 0 0 0.024420001
2.2160001 0.58399999 -0.41800001 151 0 0 0 0.024429999
2.2179999 0.579 -0.414 151 0 0 0 0.02444
2.217 0.57300001 -0.40799999 151 0 0 0 0.02445
2.217 0.56699997 -0.403 151 0 0 0 0.024460001
2.2160001 0.56099999 -0.398 151 0 0 0 0.02447
2.2149999 0.55599999 -0.39300001 151 0 0 0 0.02448
2.217 0.55000001 -0.389 151 0 0 0 0.024490001
2.2190001 0.54500002 -0.384 151 0 0 0 0.024499999
2.221 0.54000002 -0.37900001 151 0 0 0 0.02451
2.22 0.53399998 -0.37400001 151 0 0 0 0.02452
2.2219999 0.52899998 -0.37 151 0 0 0 0.024529999
2.23 0.52499998 -0.366 150 0 0 0 0.02454
2.2409999 0.52200001 -0.36300001 151 0 0 0 0.02455
2.2379999 0.51499999 -0.35800001 151 0 0 0 0.024560001
2.2449999 0.51099998 -0.354 151 0 0 0 0.024569999
2.253 0.50700003 -0.35100001 151 0 0 0 0.02458
2.2750001 0.50599998 -0.34900001 135 0 0 0 0.024590001
2.3469999 0.51599997 -0.35499999 26 0 0 0 0.024599999
2.3959999 0.52100003 -0.35699999 25 0 0 0 0.02461
2.4349999 0.523 -0.35800001 23 0 0 0 0.02462
2.4749999 0.52499998 -0.359 23 0 0 0 0.024630001
2.5220001 0.52899998 -0.361 23 0 0 0 0.024639999
2.576 0.53299999 -0.36300001 24 0 0 0 0.02465
2.6270001 0.537 -0.36399999 25 0 0 0 0.024660001
2.6789999 0.54000002 -0.366 26 0 0 0 0.024669999
2.75 0.54799998 -0.37 28 0 0 0 0.02468
2.822 0.55400002 -0.37400001 29 0 0 0 0.02469
2.882 0.55900002 -0.37599999 30 0 0 0 0.024700001
2.9489999 0.56400001 -0.37900001 30 0 0 0 0.02471
3.027 0.57099998 -0.38299999 31 0 0 0 0.02472
3.0710001 0.57099998 -0.382 30 0 0 0 0.024730001
3.1389999 0.57499999 -0.384 27 0 0 0 0.024739999
3.1889999 0.57599998 -0.384 27 0 0 0 0.02475
3.2390001 0.57700002 -0.38299999 27 0 0 0 0.02476
3.2709999 0.574 -0.38 150 0 0 0 0.024769999
3.2839999 0.56699997 -0.375 152 0 0 0 0.02478
3.286 0.55900002 -0.36899999 152 0 0 0 0.02479
3.2880001 0.551 -0.36300001 152 0 0 0 0.024800001
3.2839999 0.54100001 -0.35600001 152 0 0 0 0.024809999
3.2920001 0.53399998 -0.34999999 151 0 0 0 0.02482
3.316 0.52899998 -0.34599999 151 0 0 0 0.02483
3.3150001 0.51999998 -0.33899999 152 0 0 0 0.024839999
3.3150001 0.51099998 -0.333 151 0 0 0 0.02485
3.3570001 0.509 -0.331 151 0 0 0 0.02486
3.378 0.50300002 -0.32600001 152 0 0 0 0.024870001
