# .PCD v0.7 - Point Cloud Data file format
VERSION 0.7
FIELDS x y z intensity normal_x normal_y normal_z curvature
SIZE 4 4 4 4 4 4 4 4
TYPE F F F F F F F F
COUNT 1 1 1 1 1 1 1 1
WIDTH 1034
HEIGHT 1
VIEWPOINT 0 0 0 1 0 0 0
POINTS 1034
DATA ascii
2.6170001 0.56999999 1.423 14 0 0 0 0.060180001
2.658 0.574 1.439 13 0 0 0 0.06019
2.704 0.579 1.4579999 12 0 0 0 0.060199998
2.7420001 0.58099997 1.471 12 0 0 0 0.060210001
2.7869999 0.58499998 1.489 12 0 0 0 0.060219999
2.825 0.588 1.502 12 0 0 0 0.060230002
2.8659999 0.58999997 1.517 11 0 0 0 0.06024
2.9159999 0.59500003 1.536 12 0 0 0 0.060249999
2.9549999 0.597 1.55 13 0 0 0 0.060260002
3.0009999 0.60100001 1.567 14 0 0 0 0.06027
3.0420001 0.60299999 1.58 19 0 0 0 0.060279999
3.0610001 0.60100001 1.5829999 36 0 0 0 0.060290001
3.079 0.59799999 1.584 56 0 0 0 0.0603
3.099 0.59600002 1.586 78 0 0 0 0.060309999
3.1159999 0.59299999 1.586 87 0 0 0 0.060320001
3.1289999 0.58999997 1.585 85 0 0 0 0.06033
3.1500001 0.588 1.5880001 80 0 0 0 0.060339998
3.1600001 0.58399999 1.584 79 0 0 0 0.060350001
3.181 0.58200002 1.586 79 0 0 0 0.06036
3.1960001 0.579 1.585 80 0 0 0 0.060369998
3.214 0.57599998 1.585 79 0 0 0 0.060380001
3.2290001 0.57300001 1.584 79 0 0 0 0.060389999
3.2490001 0.56999999 1.585 81 0 0 0 0.060400002
3.2720001 0.56800002 1.587 83 0 0 0 0.06041
3.2869999 0.565 1.586 146 0 0 0 0.060419999
3.299 0.56099999 1.582 150 0 0 0 0.060430001
3.3 0.55500001 1.573 150 0 0 0 0.06044
3.303 0.55000001 1.5650001 150 0 0 0 0.060449999
3.3010001 0.54400003 1.5549999 150 0 0 0 0.060460001
3.303 0.53799999 1.5470001 150 0 0 0 0.06047
3.306 0.53299999 1.539 150 0 0 0 0.060479999
3.306 0.52700001 1.529 150 0 0 0 0.060490001
3.3050001 0.52100003 1.5190001 150 0 0 0 0.0605
3.306 0.51499999 1.51 150 0 0 0 0.060509998
3.3080001 0.50999999 1.502 150 0 0 0 0.060520001
3.306 0.50400001 1.4910001 150 0 0 0 0.060529999
3.3050001 0.498 1.4809999 150 0 0 0 0.060540002
3.3080001 0.493 1.473 150 0 0 0 0.060550001
3.3080001 0.48699999 1.4630001 150 0 0 0 0.060559999
3.312 0.48199999 1.455 150 0 0 0 0.060570002
3.309 0.47600001 1.444 150 0 0 0 0.06058
3.3080001 0.47099999 1.434 150 0 0 0 0.060589999
3.312 0.46599999 1.426 150 0 0 0 0.060600001
3.3110001 0.46000001 1.416 150 0 0 0 0.06061
3.309 0.45500001 1.405 150 0 0 0 0.060619999
3.3069999 0.449 1.3940001 150 0 0 0 0.060630001
3.309 0.44400001 1.385 150 0 0 0 0.06064
3.312 0.43900001 1.376 150 0 0 0 0.060649998
3.309 0.43399999 1.365 150 0 0 0 0.060660001
3.313 0.42899999 1.3559999 150 0 0 0 0.06067
3.3050001 0.42300001 1.3430001 150 0 0 0 0.060679998
3.303 0.417 1.3329999 150 0 0 0 0.060690001
3.3069999 0.41299999 1.324 150 0 0 0 0.060699999
3.3069999 0.40700001 1.314 150 0 0 0 0.060710002
3.309 0.403 1.3049999 150 0 0 0 0.06072
3.3099999 0.398 1.295 150 0 0 0 0.060729999
3.3169999 0.39399999 1.2869999 150 0 0 0 0.060740001
3.3329999 0.391 1.283 150 0 0 0 0.06075
3.348 0.38699999 1.279 150 0 0 0 0.060759999
3.3399999 0.382 1.266 150 0 0 0 0.060770001
3.3469999 0.377 1.258 139 0 0 0 0.06078
3.372 0.375 1.257 62 0 0 0 0.060789999
3.401 0.37400001 1.257 150 0 0 0 0.060800001
3.4089999 0.37 1.249 150 0 0 0 0.06081
3.4070001 0.36500001 1.238 150 0 0 0 0.060819998
3.408 0.36000001 1.228 150 0 0 0 0.060830001
3.4119999 0.35600001 1.219 150 0 0 0 0.060839999
3.4119999 0.35100001 1.2079999 150 0 0 0 0.060849998
3.404 0.34599999 1.1950001 150 0 0 0 0.060860001
3.408 0.34099999 1.1849999 150 0 0 0 0.060869999
3.4119999 0.33700001 1.176 150 0 0 0 0.060880002
3.4089999 0.33199999 1.164 150 0 0 0 0.06089
3.4119999 0.32800001 1.155 150 0 0 0 0.060899999
3.4130001 0.324 1.1440001 150 0 0 0 0.060910001
3.4070001 0.31900001 1.132 150 0 0 0 0.06092
3.411 0.31400001 1.122 150 0 0 0 0.060929999
3.4089999 0.31 1.1109999 150 0 0 0 0.060940001
3.404 0.30500001 1.099 150 0 0 0 0.06095
3.408 0.301 1.089 150 0 0 0 0.060959999
3.408 0.29699999 1.0779999 150 0 0 0 0.060970001
3.4100001 0.292 1.068 150 0 0 0 0.06098
3.411 0.28799999 1.058 150 0 0 0 0.060989998
3.414 0.28400001 1.048 150 0 0 0 0.061000001
3.411 0.28 1.036 150 0 0 0 0.061009999
3.414 0.27599999 1.026 150 0 0 0 0.061020002
3.4119999 0.27200001 1.015 150 0 0 0 0.06103
3.4130001 0.26800001 1.0039999 150 0 0 0 0.061039999
3.4089999 0.26300001 0.99199998 150 0 0 0 0.061050002
3.414 0.25999999 0.98299998 150 0 0 0 0.06106
3.4130001 0.25600001 0.972 150 0 0 0 0.061069999
3.414 0.252 0.96100003 150 0 0 0 0.061080001
3.4130001 0.248 0.94999999 150 0 0 0 0.06109
3.408 0.243 0.93800002 150 0 0 0 0.061099999
3.411 0.23999999 0.92799997 150 0 0 0 0.061110001
3.4100001 0.236 0.917 150 0 0 0 0.06112
3.4119999 0.23199999 0.90700001 150 0 0 0 0.061129998
3.4130001 0.228 0.89600003 150 0 0 0 0.061140001
3.4130001 0.22499999 0.88499999 150 0 0 0 0.061149999
3.4119999 0.221 0.87400001 150 0 0 0 0.061159998
3.4159999 0.21699999 0.86400002 150 0 0 0 0.061170001
3.415 0.214 0.85299999 150 0 0 0 0.061179999
3.4119999 0.20999999 0.84200001 150 0 0 0 0.061190002
3.415 0.206 0.83200002 150 0 0 0 0.0612
3.4119999 0.20200001 0.81999999 150 0 0 0 0.061209999
3.418 0.199 0.81099999 150 0 0 0 0.061220001
3.418 0.19599999 0.80000001 150 0 0 0 0.06123
3.415 0.192 0.78799999 150 0 0 0 0.061239999
3.4170001 0.189 0.778 150 0 0 0 0.061250001
3.4130001 0.185 0.76599997 150 0 0 0 0.06126
3.4219999 0.182 0.75700003 150 0 0 0 0.061269999
3.4130001 0.178 0.74400002 150 0 0 0 0.061280001
3.414 0.175 0.73400003 150 0 0 0 0.06129
3.415 0.17200001 0.72299999 150 0 0 0 0.061299998
3.418 0.168 0.713 150 0 0 0 0.061310001
3.4170001 0.16500001 0.70200002 150 0 0 0 0.061319999
3.4200001 0.162 0.69199997 150 0 0 0 0.061330002
3.4170001 0.15800001 0.68000001 150 0 0 0 0.06134
3.4170001 0.155 0.66900003 150 0 0 0 0.061349999
3.418 0.152 0.65899998 150 0 0 0 0.061360002
3.4200001 0.149 0.648 150 0 0 0 0.06137
3.418 0.146 0.63700002 150 0 0 0 0.061379999
3.418 0.14300001 0.62599999 150 0 0 0 0.061390001
3.4200001 0.139 0.616 150 0 0 0 0.0614
3.4200001 0.13600001 0.60500002 150 0 0 0 0.061409999
3.418 0.133 0.59399998 150 0 0 0 0.061420001
3.4159999 0.13 0.58200002 150 0 0 0 0.06143
3.4159999 0.127 0.57200003 150 0 0 0 0.061439998
3.421 0.124 0.56199998 150 0 0 0 0.061450001
3.4189999 0.121 0.55000001 150 0 0 0 0.06146
3.414 0.118 0.53899997 150 0 0 0 0.061469998
3.4170001 0.115 0.528 150 0 0 0 0.061480001
3.4159999 0.112 0.51700002 150 0 0 0 0.061489999
3.4200001 0.11 0.50700003 150 0 0 0 0.061500002
3.4230001 0.107 0.49700001 150 0 0 0 0.06151
3.4159999 0.104 0.48500001 150 0 0 0 0.061519999
3.4189999 0.101 0.47400001 150 0 0 0 0.061530001
3.4200001 0.097999997 0.46399999 150 0 0 0 0.06154
3.4200001 0.096000001 0.45300001 150 0 0 0 0.061549999
3.424 0.093000002 0.442 150 0 0 0 0.061560001
3.418 0.090000004 0.43099999 150 0 0 0 0.06157
3.4200001 0.088 0.41999999 150 0 0 0 0.061579999
3.4200001 0.085000001 0.40900001 150 0 0 0 0.061590001
3.4200001 0.082000002 0.39899999 150 0 0 0 0.0616
3.414 0.079000004 0.38699999 150 0 0 0 0.061609998
3.415 0.077 0.37599999 150 0 0 0 0.061620001
3.4230001 0.074000001 0.366 151 0 0 0 0.061629999
3.4189999 0.071999997 0.35499999 151 0 0 0 0.061640002
3.415 0.068999998 0.34400001 151 0 0 0 0.061650001
3.4219999 0.067000002 0.333 151 0 0 0 0.061659999
3.418 0.064000003 0.322 150 0 0 0 0.061670002
3.418 0.061999999 0.31099999 150 0 0 0 0.06168
3.414 0.059 0.30000001 150 0 0 0 0.061689999
3.4159999 0.057 0.28999999 151 0 0 0 0.061700001
3.4159999 0.054000001 0.27900001 150 0 0 0 0.06171
3.4170001 0.052000001 0.26800001 151 0 0 0 0.061719999
3.4170001 0.050000001 0.257 150 0 0 0 0.061730001
3.4189999 0.046999998 0.24699999 151 0 0 0 0.06174
3.4200001 0.045000002 0.236 151 0 0 0 0.061749998
3.4189999 0.043000001 0.22499999 151 0 0 0 0.061760001
3.415 0.039999999 0.214 151 0 0 0 0.06177
3.415 0.037999999 0.20299999 151 0 0 0 0.061779998
3.4159999 0.035999998 0.192 151 0 0 0 0.061790001
3.4159999 0.034000002 0.18099999 151 0 0 0 0.061799999
3.4159999 0.030999999 0.17 151 0 0 0 0.061810002
3.415 0.028999999 0.15899999 151 0 0 0 0.06182
3.4170001 0.027000001 0.148 151 0 0 0 0.061829999
3.418 0.025 0.138 151 0 0 0 0.061840001
3.415 0.023 0.127 151 0 0 0 0.06185
3.414 0.021 0.116 151 0 0 0 0.061859999
3.4200001 0.017999999 0.105 151 0 0 0 0.061870001
3.4200001 0.016000001 0.093999997 151 0 0 0 0.06188
3.4200001 0.014 0.082999997 151 0 0 0 0.061889999
3.4159999 0.012 0.071999997 151 0 0 0 0.061900001
3.4230001 0.0099999998 0.061999999 151 0 0 0 0.06191
3.4159999 0.0080000004 0.050999999 151 0 0 0 0.061919998
3.421 0.0060000001 0.039999999 151 0 0 0 0.061930001
3.4189999 0.0040000002 0.028999999 151 0 0 0 0.061939999
3.4159999 0.0020000001 0.017999999 151 0 0 0 0.061949998
3.421 0 0.0070000002 151 0 0 0 0.061960001
3.4159999 -0.001 -0.003 151 0 0 0 0.061969999
3.418 -0.0020000001 -0.014 151 0 0 0 0.061980002
3.418 -0.0040000002 -0.025 151 0 0 0 0.06199
3.4170001 -0.0060000001 -0.035 151 0 0 0 0.061999999
3.418 -0.0080000004 -0.046 151 0 0 0 0.062010001
3.4159999 -0.0099999998 -0.057 151 0 0 0 0.06202
3.4170001 -0.012 -0.068000004 151 0 0 0 0.062029999
3.4159999 -0.013 -0.079000004 151 0 0 0 0.062040001
3.4189999 -0.015 -0.090000004 151 0 0 0 0.06205
3.4170001 -0.017000001 -0.101 151 0 0 0 0.062059999
3.4189999 -0.018999999 -0.112 151 0 0 0 0.062070001
3.418 -0.02 -0.123 151 0 0 0 0.06208
3.4159999 -0.022 -0.134 151 0 0 0 0.062089998
3.415 -0.024 -0.145 151 0 0 0 0.062100001
3.4170001 -0.025 -0.156 151 0 0 0 0.062109999
3.418 -0.027000001 -0.167 151 0 0 0 0.062120002
3.4219999 -0.028999999 -0.178 151 0 0 0 0.06213
3.4219999 -0.029999999 -0.189 151 0 0 0 0.062139999
3.418 -0.032000002 -0.2 151 0 0 0 0.062150002
3.418 -0.033 -0.20999999 151 0 0 0 0.06216
3.4200001 -0.035 -0.222 151 0 0 0 0.062169999
3.4189999 -0.037 -0.233 151 0 0 0 0.062180001
3.421 -0.037999999 -0.244 151 0 0 0 0.06219
3.418 -0.039999999 -0.25400001 150 0 0 0 0.062199999
3.4189999 -0.041000001 -0.266 150 0 0 0 0.062210001
3.421 -0.041999999 -0.27700001 151 0 0 0 0.06222
3.4230001 -0.044 -0.28799999 151 0 0 0 0.062229998
3.4230001 -0.045000002 -0.29899999 150 0 0 0 0.062240001
3.4219999 -0.046999998 -0.31 150 0 0 0 0.062249999
3.428 -0.048 -0.322 150 0 0 0 0.062259998
3.4219999 -0.048999999 -0.33199999 150 0 0 0 0.062270001
3.4189999 -0.050999999 -0.34299999 150 0 0 0 0.062279999
3.425 -0.052000001 -0.35499999 150 0 0 0 0.062290002
3.421 -0.052999999 -0.36500001 150 0 0 0 0.0623
3.4189999 -0.055 -0.37599999 150 0 0 0 0.062309999
3.4230001 -0.056000002 -0.38800001 150 0 0 0 0.062320001
3.428 -0.057 -0.39899999 150 0 0 0 0.06233
3.425 -0.057999998 -0.41 150 0 0 0 0.062339999
3.4200001 -0.059999999 -0.421 150 0 0 0 0.062350001
3.424 -0.061000001 -0.43200001 150 0 0 0 0.06236
3.4219999 -0.061999999 -0.44299999 150 0 0 0 0.062369999
3.4230001 -0.063000001 -0.454 150 0 0 0 0.062380001
3.424 -0.064000003 -0.46599999 150 0 0 0 0.06239
3.425 -0.064999998 -0.477 150 0 0 0 0.062399998
3.4230001 -0.066 -0.48800001 150 0 0 0 0.062410001
3.4219999 -0.067000002 -0.49900001 150 0 0 0 0.062419999
3.424 -0.068000004 -0.50999999 150 0 0 0 0.062430002
3.4200001 -0.068999998 -0.52100003 150 0 0 0 0.06244
3.4219999 -0.07 -0.53299999 150 0 0 0 0.062449999
3.4260001 -0.071999997 -0.54400003 150 0 0 0 0.062460002
3.4260001 -0.071999997 -0.55599999 150 0 0 0 0.06247
3.4200001 -0.072999999 -0.56599998 150 0 0 0 0.062479999
3.4260001 -0.074000001 -0.57800001 150 0 0 0 0.062490001
3.4230001 -0.075000003 -0.58899999 150 0 0 0 0.0625
3.4219999 -0.075999998 -0.60000002 150 0 0 0 0.062509999
3.421 -0.077 -0.611 150 0 0 0 0.062519997
3.4200001 -0.078000002 -0.62199998 150 0 0 0 0.062530003
3.4200001 -0.078000002 -0.63300002 150 0 0 0 0.062540002
3.4189999 -0.079000004 -0.64399999 150 0 0 0 0.062550001
3.4200001 -0.079999998 -0.65600002 150 0 0 0 0.06256
3.421 -0.081 -0.667 150 0 0 0 0.062569998
3.4219999 -0.081 -0.67900002 150 0 0 0 0.062579997
3.4200001 -0.082000002 -0.69 150 0 0 0 0.062590003
3.4170001 -0.082999997 -0.70099998 150 0 0 0 0.062600002
3.418 -0.082999997 -0.71200001 150 0 0 0 0.06261
3.4200001 -0.083999999 -0.72399998 150 0 0 0 0.062619999
3.4170001 -0.083999999 -0.73500001 150 0 0 0 0.062629998
3.421 -0.085000001 -0.74699998 150 0 0 0 0.062639996
3.4170001 -0.085000001 -0.75700003 150 0 0 0 0.062650003
3.418 -0.086000003 -0.76899999 150 0 0 0 0.062660001
3.415 -0.086000003 -0.77999997 150 0 0 0 0.06267
3.421 -0.086999997 -0.792 150 0 0 0 0.062679999
3.421 -0.086999997 -0.80400002 150 0 0 0 0.062689997
3.4189999 -0.088 -0.81400001 150 0 0 0 0.062700003
3.421 -0.088 -0.82599998 150 0 0 0 0.062710002
3.424 -0.088 -0.83899999 78 0 0 0 0.062720001
3.415 -0.088 -0.84799999 29 0 0 0 0.062729999
3.3640001 -0.088 -0.847 25 0 0 0 0.062739998
3.329 -0.086999997 -0.84899998 27 0 0 0 0.062749997
3.289 -0.086000003 -0.85000002 27 0 0 0 0.062760003
3.2509999 -0.085000001 -0.85100001 27 0 0 0 0.062770002
3.2060001 -0.083999999 -0.85000002 26 0 0 0 0.06278
3.1719999 -0.082999997 -0.85100001 27 0 0 0 0.062789999
3.1389999 -0.082999997 -0.85299999 27 0 0 0 0.062799998
3.095 -0.082000002 -0.85100001 27 0 0 0 0.062809996
3.053 -0.081 -0.85000002 26 0 0 0 0.062820002
3.0079999 -0.079000004 -0.84799999 26 0 0 0 0.062830001
2.97 -0.078000002 -0.847 25 0 0 0 0.06284
2.928 -0.077 -0.84500003 24 0 0 0 0.062849998
2.892 -0.075999998 -0.84399998 24 0 0 0 0.062859997
2.852 -0.075000003 -0.84200001 22 0 0 0 0.062870003
2.8139999 -0.074000001 -0.83999997 22 0 0 0 0.062880002
2.786 -0.072999999 -0.84200001 24 0 0 0 0.062890001
2.753 -0.071999997 -0.84100002 25 0 0 0 0.062899999
2.724 -0.071000002 -0.84100002 26 0 0 0 0.062909998
2.691 -0.07 -0.83999997 26 0 0 0 0.062919997
2.6619999 -0.068999998 -0.83999997 25 0 0 0 0.062930003
2.635 -0.068000004 -0.83999997 25 0 0 0 0.062940001
2.6059999 -0.067000002 -0.83999997 25 0 0 0 0.06295
2.576 -0.066 -0.83899999 25 0 0 0 0.062959999
2.546 -0.064999998 -0.838 25 0 0 0 0.062969998
2.517 -0.064000003 -0.83700001 25 0 0 0 0.062980004
2.4920001 -0.063000001 -0.83700001 24 0 0 0 0.062990002
2.464 -0.061999999 -0.83600003 24 0 0 0 0.063000001
2.4419999 -0.061000001 -0.83700001 24 0 0 0 0.06301
2.4200001 -0.059999999 -0.838 25 0 0 0 0.063019998
2.3929999 -0.059 -0.83600003 24 0 0 0 0.063029997
2.3670001 -0.057999998 -0.83499998 25 0 0 0 0.063040003
2.348 -0.057 -0.83700001 25 0 0 0 0.063050002
2.3239999 -0.056000002 -0.83600003 25 0 0 0 0.063060001
2.302 -0.055 -0.83600003 25 0 0 0 0.063069999
2.28 -0.054000001 -0.83600003 25 0 0 0 0.063079998
2.257 -0.052999999 -0.83499998 25 0 0 0 0.063089997
2.2420001 -0.052000001 -0.83700001 25 0 0 0 0.063100003
2.2190001 -0.050999999 -0.83600003 24 0 0 0 0.063110001
2.1919999 -0.050000001 -0.833 23 0 0 0 0.06312
2.174 -0.048999999 -0.83399999 24 0 0 0 0.063129999
2.154 -0.048 -0.83399999 24 0 0 0 0.063139997
2.1340001 -0.046 -0.833 24 0 0 0 0.063150004
2.118 -0.045000002 -0.83399999 24 0 0 0 0.063160002
2.0969999 -0.044 -0.833 24 0 0 0 0.063170001
2.079 -0.043000001 -0.833 24 0 0 0 0.06318
2.0610001 -0.041999999 -0.833 24 0 0 0 0.063189998
2.0480001 -0.041000001 -0.83399999 25 0 0 0 0.063199997
2.0280001 -0.039999999 -0.833 24 0 0 0 0.063210003
2.007 -0.039000001 -0.83099997 25 0 0 0 0.063220002
1.993 -0.037999999 -0.83200002 25 0 0 0 0.06323
1.973 -0.037 -0.83099997 25 0 0 0 0.063239999
1.9579999 -0.035 -0.83099997 25 0 0 0 0.063249998
1.944 -0.034000002 -0.83099997 25 0 0 0 0.063259996
1.927 -0.033 -0.83099997 26 0 0 0 0.063270003
1.911 -0.032000002 -0.83099997 26 0 0 0 0.063280001
1.901 -0.030999999 -0.83200002 27 0 0 0 0.06329
1.8839999 -0.029999999 -0.83099997 27 0 0 0 0.063299999
1.87 -0.028999999 -0.83099997 29 0 0 0 0.063309997
1.855 -0.027000001 -0.83099997 26 0 0 0 0.063320003
1.842 -0.026000001 -0.83099997 28 0 0 0 0.063330002
1.825 -0.025 -0.82999998 32 0 0 0 0.063340001
1.814 -0.024 -0.83099997 41 0 0 0 0.063349999
1.798 -0.023 -0.82999998 31 0 0 0 0.063359998
1.788 -0.022 -0.83099997 29 0 0 0 0.063369997
1.771 -0.02 -0.829 35 0 0 0 0.063380003
1.7589999 -0.018999999 -0.829 33 0 0 0 0.063390002
1.7460001 -0.017999999 -0.829 40 0 0 0 0.0634
1.738 -0.017000001 -0.83099997 41 0 0 0 0.063409999
1.726 -0.016000001 -0.83099997 14 0 0 0 0.063419998
1.7180001 -0.014 -0.833 14 0 0 0 0.063429996
1.709 -0.013 -0.83399999 14 0 0 0 0.063440003
1.6950001 -0.012 -0.83200002 14 0 0 0 0.063450001
1.686 -0.011 -0.83399999 14 0 0 0 0.06346
1.666 -0.0089999996 -0.829 13 0 0 0 0.063469999
1.659 -0.0080000004 -0.83099997 14 0 0 0 0.063479997
1.648 -0.0070000002 -0.83099997 14 0 0 0 0.063490003
1.637 -0.0060000001 -0.83099997 13 0 0 0 0.063500002
1.63 -0.0040000002 -0.833 14 0 0 0 0.063510001
1.619 -0.003 -0.83200002 14 0 0 0 0.063519999
1.6160001 -0.0020000001 -0.83600003 14 0 0 0 0.063529998
1.595 0 -0.82999998 14 0 0 0 0.063539997
1.586 0 -0.82999998 13 0 0 0 0.063550003
1.581 0.001 -0.833 13 0 0 0 0.063560002
1.573 0.0020000001 -0.83399999 14 0 0 0 0.06357
1.5599999 0.0040000002 -0.83099997 14 0 0 0 0.063579999
1.544 0.0049999999 -0.82800001 14 0 0 0 0.063589998
1.531 0.0060000001 -0.82599998 13 0 0 0 0.063600004
1.525 0.0080000004 -0.82700002 13 0 0 0 0.063610002
1.516 0.0089999996 -0.82700002 13 0 0 0 0.063620001
1.508 0.0099999998 -0.82700002 13 0 0 0 0.06363
1.5 0.012 -0.82800001 14 0 0 0 0.063639998
1.4960001 0.013 -0.82999998 13 0 0 0 0.063649997
1.484 0.014 -0.82800001 14 0 0 0 0.063660003
1.479 0.016000001 -0.829 13 0 0 0 0.063670002
1.4680001 0.017000001 -0.82800001 14 0 0 0 0.063680001
1.4630001 0.018999999 -0.829 12 0 0 0 0.063689999
1.454 0.02 -0.82800001 12 0 0 0 0.063699998
1.446 0.021 -0.82800001 12 0 0 0 0.063709997
1.436 0.023 -0.82700002 13 0 0 0 0.063720003
1.432 0.024 -0.82800001 14 0 0 0 0.063730001
1.424 0.026000001 -0.82800001 14 0 0 0 0.06374
1.414 0.027000001 -0.82599998 14 0 0 0 0.063749999
1.409 0.028000001 -0.82700002 14 0 0 0 0.063759997
1.403 0.029999999 -0.82800001 14 0 0 0 0.063770004
1.395 0.030999999 -0.82599998 14 0 0 0 0.063780002
1.386 0.032000002 -0.82499999 14 0 0 0 0.063790001
1.3839999 0.034000002 -0.82800001 13 0 0 0 0.0638
1.376 0.035 -0.82700002 14 0 0 0 0.063809998
1.368 0.037 -0.82599998 13 0 0 0 0.063819997
1.362 0.037999999 -0.82599998 13 0 0 0 0.063830003
1.355 0.039999999 -0.82499999 14 0 0 0 0.063840002
1.353 0.041000001 -0.82700002 13 0 0 0 0.063850001
1.347 0.043000001 -0.82700002 14 0 0 0 0.063859999
1.34 0.044 -0.82599998 13 0 0 0 0.063869998
1.337 0.046 -0.82800001 14 0 0 0 0.063879997
1.3279999 0.046999998 -0.82499999 13 0 0 0 0.063890003
1.322 0.048999999 -0.82499999 14 0 0 0 0.063900001
1.316 0.050000001 -0.824 13 0 0 0 0.06391
1.314 0.052000001 -0.82599998 13 0 0 0 0.063919999
1.308 0.052999999 -0.82499999 14 0 0 0 0.063929997
1.302 0.055 -0.82499999 13 0 0 0 0.063940004
1.299 0.056000002 -0.82599998 14 0 0 0 0.063950002
1.298 0.057999998 -0.82800001 14 0 0 0 0.063960001
1.291 0.059 -0.82700002 13 0 0 0 0.06397
1.286 0.061000001 -0.82700002 14 0 0 0 0.063979998
1.281 0.061999999 -0.82599998 14 0 0 0 0.063989997
1.279 0.064000003 -0.82700002 13 0 0 0 0.064000003
1.272 0.064999998 -0.82599998 14 0 0 0 0.064010002
1.2690001 0.067000002 -0.82599998 13 0 0 0 0.06402
1.268 0.068999998 -0.82800001 14 0 0 0 0.064029999
1.2640001 0.07 -0.82800001 14 0 0 0 0.064039998
1.2589999 0.071999997 -0.82700002 13 0 0 0 0.064049996
1.256 0.072999999 -0.82700002 14 0 0 0 0.064060003
1.251 0.075000003 -0.82599998 14 0 0 0 0.064070001
1.248 0.077 -0.82599998 14 0 0 0 0.06408
1.245 0.078000002 -0.82700002 14 0 0 0 0.064089999
1.243 0.079999998 -0.82800001 14 0 0 0 0.064099997
1.24 0.082000002 -0.82800001 14 0 0 0 0.064110003
1.2359999 0.082999997 -0.82700002 14 0 0 0 0.064120002
1.233 0.085000001 -0.82700002 14 0 0 0 0.064130001
1.2309999 0.086000003 -0.82800001 15 0 0 0 0.064139999
1.229 0.088 -0.82800001 14 0 0 0 0.064149998
1.23 0.090000004 -0.83099997 13 0 0 0 0.064159997
1.227 0.092 -0.82999998 11 0 0 0 0.064170003
1.225 0.093000002 -0.83099997 10 0 0 0 0.064180002
1.224 0.094999999 -0.83200002 9 0 0 0 0.06419
1.225 0.097000003 -0.83399999 9 0 0 0 0.064199999
1.22 0.098999999 -0.83200002 9 0 0 0 0.064209998
1.2180001 0.1 -0.83200002 10 0 0 0 0.064219996
1.215 0.102 -0.83099997 11 0 0 0 0.064230002
1.21 0.103 -0.829 12 0 0 0 0.064240001
1.205 0.105 -0.82700002 14 0 0 0 0.06425
1.2029999 0.106 -0.82599998 17 0 0 0 0.064259999
1.205 0.108 -0.829 17 0 0 0 0.064269997
1.2 0.109 -0.82599998 17 0 0 0 0.064280003
1.196 0.111 -0.82499999 17 0 0 0 0.064290002
1.198 0.113 -0.82700002 17 0 0 0 0.064300001
1.198 0.115 -0.82700002 17 0 0 0 0.064309999
1.1950001 0.116 -0.82599998 17 0 0 0 0.064319998
1.194 0.118 -0.82599998 17 0 0 0 0.064329997
1.194 0.12 -0.82700002 18 0 0 0 0.064340003
1.194 0.121 -0.82700002 17 0 0 0 0.064350002
1.193 0.123 -0.82800001 17 0 0 0 0.06436
1.1950001 0.125 -0.829 17 0 0 0 0.064369999
1.193 0.127 -0.82800001 18 0 0 0 0.064379998
1.192 0.12800001 -0.82800001 17 0 0 0 0.064390004
1.191 0.13 -0.82800001 17 0 0 0 0.064400002
1.192 0.132 -0.82800001 17 0 0 0 0.064410001
1.192 0.133 -0.82800001 17 0 0 0 0.06442
1.191 0.13500001 -0.82700002 17 0 0 0 0.064429998
1.191 0.13699999 -0.82800001 18 0 0 0 0.064439997
1.1900001 0.138 -0.82700002 17 0 0 0 0.064450003
1.1950001 0.141 -0.82999998 17 0 0 0 0.064460002
1.191 0.142 -0.82700002 18 0 0 0 0.064470001
1.191 0.14399999 -0.82700002 17 0 0 0 0.064479999
1.194 0.146 -0.829 17 0 0 0 0.064489998
1.194 0.147 -0.82800001 17 0 0 0 0.064499997
1.194 0.149 -0.82800001 17 0 0 0 0.064510003
1.197 0.15099999 -0.829 17 0 0 0 0.064520001
1.1950001 0.152 -0.82700002 17 0 0 0 0.06453
1.197 0.154 -0.82800001 16 0 0 0 0.064539999
1.2 0.156 -0.829 17 0 0 0 0.064549997
1.197 0.15700001 -0.82700002 16 0 0 0 0.064560004
1.2 0.15899999 -0.82800001 17 0 0 0 0.064570002
1.2029999 0.161 -0.829 16 0 0 0 0.064580001
1.202 0.163 -0.82700002 16 0 0 0 0.06459
1.205 0.16500001 -0.82800001 17 0 0 0 0.064599998
1.207 0.16599999 -0.82800001 16 0 0 0 0.064609997
1.211 0.168 -0.82999998 16 0 0 0 0.064620003
1.212 0.17 -0.829 16 0 0 0 0.064630002
1.212 0.17200001 -0.82800001 16 0 0 0 0.06464
1.216 0.17299999 -0.829 17 0 0 0 0.064649999
1.2180001 0.175 -0.829 16 0 0 0 0.064659998
1.221 0.177 -0.82999998 16 0 0 0 0.064669997
1.224 0.17900001 -0.82999998 16 0 0 0 0.064680003
1.224 0.18000001 -0.829 16 0 0 0 0.064690001
1.23 0.182 -0.83099997 16 0 0 0 0.0647
1.2309999 0.184 -0.82999998 16 0 0 0 0.064709999
1.234 0.186 -0.82999998 15 0 0 0 0.064719997
1.238 0.18799999 -0.82999998 16 0 0 0 0.064730003
1.242 0.189 -0.83099997 15 0 0 0 0.064740002
1.245 0.191 -0.83099997 15 0 0 0 0.064750001
1.247 0.193 -0.82999998 15 0 0 0 0.06476
1.252 0.19499999 -0.83200002 15 0 0 0 0.064769998
1.253 0.19599999 -0.82999998 15 0 0 0 0.064779997
1.257 0.198 -0.82999998 15 0 0 0 0.064790003
1.26 0.2 -0.82999998 15 0 0 0 0.064800002
1.265 0.20100001 -0.83099997 15 0 0 0 0.06481
1.267 0.20299999 -0.82999998 15 0 0 0 0.064819999
1.271 0.205 -0.82999998 15 0 0 0 0.064829998
1.275 0.206 -0.82999998 16 0 0 0 0.064839996
1.28 0.208 -0.83099997 16 0 0 0 0.064850003
1.285 0.20999999 -0.83099997 16 0 0 0 0.064860001
1.289 0.212 -0.83099997 16 0 0 0 0.06487
1.29 0.213 -0.829 16 0 0 0 0.064879999
1.299 0.215 -0.83200002 16 0 0 0 0.064889997
1.302 0.21699999 -0.83099997 16 0 0 0 0.064900003
1.309 0.219 -0.83200002 16 0 0 0 0.064910002
1.312 0.22 -0.83200002 16 0 0 0 0.064920001
1.318 0.222 -0.83200002 15 0 0 0 0.064929999
1.326 0.22400001 -0.83399999 16 0 0 0 0.064939998
1.3279999 0.22499999 -0.83200002 15 0 0 0 0.064949997
1.337 0.228 -0.83399999 15 0 0 0 0.064960003
1.339 0.229 -0.83200002 15 0 0 0 0.064970002
1.346 0.23100001 -0.833 15 0 0 0 0.06498
1.35 0.23199999 -0.83200002 15 0 0 0 0.064989999
1.3559999 0.234 -0.83200002 15 0 0 0 0.064999998
1.362 0.236 -0.83200002 15 0 0 0 0.065009996
1.368 0.237 -0.833 15 0 0 0 0.065020002
1.377 0.23899999 -0.83499998 15 0 0 0 0.065030001
1.382 0.241 -0.833 15 0 0 0 0.06504
1.388 0.242 -0.83399999 16 0 0 0 0.065049998
1.393 0.244 -0.833 15 0 0 0 0.065059997
1.402 0.24600001 -0.83399999 15 0 0 0 0.065070003
1.4069999 0.24699999 -0.833 16 0 0 0 0.065080002
1.4119999 0.249 -0.83200002 15 0 0 0 0.065090001
1.423 0.25099999 -0.83499998 14 0 0 0 0.065099999
1.433 0.25299999 -0.83600003 13 0 0 0 0.065109998
1.443 0.255 -0.838 13 0 0 0 0.065119997
1.448 0.25600001 -0.83700001 13 0 0 0 0.065130003
1.452 0.257 -0.83499998 15 0 0 0 0.065140001
1.46 0.259 -0.83499998 15 0 0 0 0.06515
1.47 0.26100001 -0.83600003 15 0 0 0 0.065159999
1.479 0.26300001 -0.83700001 14 0 0 0 0.065169998
1.4859999 0.264 -0.83600003 14 0 0 0 0.065180004
1.495 0.266 -0.83700001 14 0 0 0 0.065190002
1.498 0.26699999 -0.83399999 14 0 0 0 0.065200001
1.5140001 0.27000001 -0.83899999 15 0 0 0 0.06521
1.5190001 0.271 -0.83700001 15 0 0 0 0.065219998
1.531 0.273 -0.83899999 15 0 0 0 0.065229997
1.543 0.27500001 -0.83999997 15 0 0 0 0.065240003
1.554 0.27700001 -0.84200001 14 0 0 0 0.065250002
1.561 0.278 -0.83999997 15 0 0 0 0.065260001
1.569 0.28 -0.83999997 15 0 0 0 0.065269999
1.582 0.28200001 -0.84200001 15 0 0 0 0.065279998
1.589 0.28299999 -0.84100002 15 0 0 0 0.065289997
1.6 0.285 -0.84100002 15 0 0 0 0.065300003
1.6109999 0.28600001 -0.84200001 15 0 0 0 0.065310001
1.619 0.28799999 -0.84100002 15 0 0 0 0.06532
1.628 0.289 -0.83999997 15 0 0 0 0.065329999
1.635 0.28999999 -0.83899999 15 0 0 0 0.065339997
1.638 0.28999999 -0.83499998 61 0 0 0 0.065350004
1.654 0.29300001 -0.838 57 0 0 0 0.065360002
1.665 0.294 -0.838 56 0 0 0 0.065370001
1.682 0.29699999 -0.84100002 15 0 0 0 0.06538
1.687 0.29699999 -0.838 55 0 0 0 0.065389998
1.7 0.29899999 -0.83899999 15 0 0 0 0.065399997
1.7180001 0.30199999 -0.84200001 15 0 0 0 0.065410003
1.726 0.30199999 -0.83999997 15 0 0 0 0.065420002
1.738 0.30399999 -0.84100002 16 0 0 0 0.06543
1.75 0.30500001 -0.84100002 15 0 0 0 0.065439999
1.758 0.30599999 -0.83899999 44 0 0 0 0.065449998
1.78 0.30899999 -0.84299999 15 0 0 0 0.065459996
1.7920001 0.31099999 -0.84299999 15 0 0 0 0.065470003
1.808 0.31299999 -0.84500003 15 0 0 0 0.065480001
1.814 0.31299999 -0.84200001 16 0 0 0 0.06549
1.8329999 0.315 -0.84399998 16 0 0 0 0.065499999
1.839 0.315 -0.84100002 46 0 0 0 0.065509997
1.854 0.317 -0.84100002 41 0 0 0 0.065520003
1.867 0.31799999 -0.84100002 41 0 0 0 0.065530002
1.877 0.31900001 -0.83999997 40 0 0 0 0.065540001
1.892 0.32100001 -0.83999997 41 0 0 0 0.065549999
1.908 0.32300001 -0.84100002 41 0 0 0 0.065559998
1.923 0.324 -0.84100002 40 0 0 0 0.065569997
1.936 0.32499999 -0.83999997 39 0 0 0 0.065580003
1.954 0.32699999 -0.84100002 40 0 0 0 0.065590002
1.973 0.329 -0.84299999 40 0 0 0 0.0656
1.987 0.33000001 -0.84200001 40 0 0 0 0.065609999
2.0020001 0.331 -0.84200001 39 0 0 0 0.065619998
2.017 0.33199999 -0.84100002 35 0 0 0 0.065629996
2.0320001 0.33399999 -0.84100002 35 0 0 0 0.065640002
2.0480001 0.33500001 -0.84100002 34 0 0 0 0.065650001
2.0669999 0.33700001 -0.84200001 34 0 0 0 0.06566
2.0899999 0.33899999 -0.84399998 33 0 0 0 0.065669999
2.105 0.34 -0.84299999 31 0 0 0 0.065679997
2.1270001 0.34200001 -0.84500003 32 0 0 0 0.065690003
2.1389999 0.34200001 -0.84200001 34 0 0 0 0.065700002
2.152 0.34299999 -0.83999997 33 0 0 0 0.065710001
2.181 0.34599999 -0.84500003 35 0 0 0 0.065719999
2.198 0.347 -0.84399998 34 0 0 0 0.065729998
2.22 0.34799999 -0.84500003 34 0 0 0 0.065739997
2.2379999 0.34999999 -0.84399998 35 0 0 0 0.065750003
2.2609999 0.35100001 -0.84500003 34 0 0 0 0.065760002
2.2820001 0.35299999 -0.84600002 35 0 0 0 0.06577
2.3050001 0.354 -0.847 35 0 0 0 0.065779999
2.326 0.35600001 -0.847 35 0 0 0 0.065789998
2.3469999 0.35699999 -0.847 35 0 0 0 0.065800004
2.365 0.35800001 -0.84500003 34 0 0 0 0.065810002
2.3870001 0.359 -0.84500003 34 0 0 0 0.065820001
2.4159999 0.361 -0.847 35 0 0 0 0.06583
2.4360001 0.36199999 -0.847 35 0 0 0 0.065839998
2.4619999 0.36399999 -0.847 37 0 0 0 0.065849997
2.4809999 0.36399999 -0.84600002 37 0 0 0 0.065860003
2.513 0.366 -0.84799999 34 0 0 0 0.065870002
2.539 0.368 -0.84899998 36 0 0 0 0.065880001
2.5710001 0.37 -0.85100001 37 0 0 0 0.065889999
2.5940001 0.37099999 -0.85000002 36 0 0 0 0.065899998
2.615 0.37200001 -0.84899998 35 0 0 0 0.065909997
2.648 0.37400001 -0.85100001 36 0 0 0 0.065920003
2.677 0.375 -0.85100001 38 0 0 0 0.065930001
2.7030001 0.37599999 -0.85100001 36 0 0 0 0.06594
2.7360001 0.37799999 -0.852 36 0 0 0 0.065949999
2.7679999 0.38 -0.85299999 37 0 0 0 0.065959997
2.793 0.38 -0.852 38 0 0 0 0.065970004
2.8239999 0.38100001 -0.852 40 0 0 0 0.065980002
2.855 0.38299999 -0.852 35 0 0 0 0.065990001
2.8989999 0.38600001 -0.85600001 35 0 0 0 0.066
2.937 0.38800001 -0.85799998 35 0 0 0 0.066009998
2.9749999 0.38999999 -0.85900003 36 0 0 0 0.066019997
3.0120001 0.391 -0.86000001 36 0 0 0 0.066030003
3.049 0.39300001 -0.861 36 0 0 0 0.066040002
3.0840001 0.39399999 -0.861 37 0 0 0 0.06605
3.1159999 0.39399999 -0.86000001 36 0 0 0 0.066059999
3.141 0.39399999 -0.85699999 37 0 0 0 0.066069998
3.177 0.39500001 -0.85699999 31 0 0 0 0.066079997
3.22 0.39700001 -0.85799998 32 0 0 0 0.066090003
3.2579999 0.398 -0.85799998 32 0 0 0 0.066100001
3.303 0.40000001 -0.85900003 32 0 0 0 0.06611
3.3380001 0.40000001 -0.85699999 32 0 0 0 0.066119999
3.3740001 0.40099999 -0.85600001 37 0 0 0 0.066129997
3.3800001 0.398 -0.847 150 0 0 0 0.066140004
3.3800001 0.39399999 -0.83600003 152 0 0 0 0.066150002
3.3789999 0.38999999 -0.82499999 151 0 0 0 0.066160001
3.3829999 0.38600001 -0.81599998 151 0 0 0 0.06617
3.382 0.382 -0.80500001 151 0 0 0 0.066179998
3.3870001 0.37799999 -0.79500002 151 0 0 0 0.066189997
3.382 0.37400001 -0.78399998 151 0 0 0 0.066200003
3.388 0.37099999 -0.77399999 151 0 0 0 0.066210002
3.3840001 0.366 -0.76300001 151 0 0 0 0.06622
3.3870001 0.36199999 -0.75300002 151 0 0 0 0.066229999
3.3870001 0.35800001 -0.74299997 151 0 0 0 0.066239998
3.3900001 0.354 -0.73299998 151 0 0 0 0.066249996
3.3900001 0.34999999 -0.722 151 0 0 0 0.066260003
3.3870001 0.34599999 -0.71100003 151 0 0 0 0.066270001
3.3940001 0.34200001 -0.70200002 151 0 0 0 0.06628
3.3900001 0.33700001 -0.69099998 151 0 0 0 0.066289999
3.3940001 0.33399999 -0.68099999 151 0 0 0 0.066299997
3.395 0.329 -0.671 151 0 0 0 0.066310003
3.3959999 0.32499999 -0.66000003 151 0 0 0 0.066320002
3.388 0.31999999 -0.64899999 151 0 0 0 0.066330001
3.3929999 0.31600001 -0.639 151 0 0 0 0.066339999
3.3929999 0.31200001 -0.62900001 151 0 0 0 0.066349998
3.3929999 0.308 -0.61799997 151 0 0 0 0.066359997
3.392 0.303 -0.60799998 151 0 0 0 0.066370003
3.3940001 0.29899999 -0.59799999 151 0 0 0 0.066380002
3.395 0.294 -0.588 151 0 0 0 0.06639
3.3970001 0.28999999 -0.57800001 151 0 0 0 0.066399999
3.3989999 0.28600001 -0.56800002 151 0 0 0 0.066409998
3.402 0.28200001 -0.55800003 151 0 0 0 0.066419996
3.395 0.27599999 -0.54699999 151 0 0 0 0.066430002
3.395 0.27200001 -0.53600001 151 0 0 0 0.066440001
3.3959999 0.26800001 -0.52600002 151 0 0 0 0.06645
3.3940001 0.26300001 -0.51599997 151 0 0 0 0.066459998
3.398 0.25799999 -0.50599998 151 0 0 0 0.066469997
3.398 0.25400001 -0.49599999 151 0 0 0 0.066480003
3.4000001 0.249 -0.486 151 0 0 0 0.066490002
3.402 0.245 -0.47600001 151 0 0 0 0.066500001
3.3989999 0.23999999 -0.46599999 151 0 0 0 0.066509999
3.401 0.235 -0.456 151 0 0 0 0.066519998
3.402 0.23100001 -0.44600001 151 0 0 0 0.066529997
3.404 0.226 -0.43599999 151 0 0 0 0.066540003
3.401 0.221 -0.42500001 151 0 0 0 0.066550002
3.401 0.21699999 -0.41499999 151 0 0 0 0.06656
3.4030001 0.212 -0.405 151 0 0 0 0.066569999
3.404 0.207 -0.396 151 0 0 0 0.066579998
3.4070001 0.20200001 -0.38600001 151 0 0 0 0.066590004
3.4059999 0.198 -0.37599999 151 0 0 0 0.066600002
3.398 0.192 -0.36500001 151 0 0 0 0.066610001
3.405 0.18799999 -0.35600001 151 0 0 0 0.06662
3.405 0.183 -0.34599999 151 0 0 0 0.066629998
3.4059999 0.178 -0.336 151 0 0 0 0.066639997
3.4070001 0.17299999 -0.32600001 152 0 0 0 0.066650003
3.4089999 0.168 -0.31600001 152 0 0 0 0.066660002
3.408 0.163 -0.30599999 152 0 0 0 0.066670001
3.408 0.15899999 -0.296 152 0 0 0 0.066679999
3.4089999 0.154 -0.28600001 152 0 0 0 0.066689998
3.4089999 0.149 -0.27599999 152 0 0 0 0.066699997
3.411 0.14399999 -0.26699999 152 0 0 0 0.066710003
3.4089999 0.139 -0.257 152 0 0 0 0.066720001
3.4119999 0.134 -0.24699999 152 0 0 0 0.06673
3.4130001 0.12899999 -0.237 152 0 0 0 0.066739999
3.414 0.124 -0.227 152 0 0 0 0.066749997
3.4100001 0.118 -0.21699999 153 0 0 0 0.066760004
3.4100001 0.113 -0.207 153 0 0 0 0.066770002
3.411 0.108 -0.198 152 0 0 0 0.066780001
3.4119999 0.103 -0.18799999 153 0 0 0 0.06679
3.4119999 0.097999997 -0.178 153 0 0 0 0.066799998
3.4130001 0.093000002 -0.168 153 0 0 0 0.066809997
3.408 0.086999997 -0.15800001 153 0 0 0 0.066820003
3.408 0.082000002 -0.148 153 0 0 0 0.066830002
3.4089999 0.077 -0.139 153 0 0 0 0.06684
3.404 0.071999997 -0.12899999 153 0 0 0 0.066849999
3.405 0.066 -0.119 153 0 0 0 0.066859998
3.405 0.061000001 -0.109 153 0 0 0 0.066869996
3.4059999 0.056000002 -0.1 153 0 0 0 0.066880003
3.411 0.050999999 -0.090000004 153 0 0 0 0.066890001
3.411 0.045000002 -0.081 153 0 0 0 0.0669
3.4119999 0.039999999 -0.071000002 153 0 0 0 0.066909999
3.418 0.035 -0.061000001 153 0 0 0 0.066919997
3.4170001 0.028999999 -0.052000001 152 0 0 0 0.066930003
3.4170001 0.024 -0.041999999 152 0 0 0 0.066940002
3.4219999 0.018999999 -0.032000002 152 0 0 0 0.066950001
3.4219999 0.013 -0.023 152 0 0 0 0.06696
3.4200001 0.0080000004 -0.013 152 0 0 0 0.066969998
3.4219999 0.0020000001 -0.003 151 0 0 0 0.066979997
3.421 -0.0020000001 0.0049999999 151 0 0 0 0.066990003
3.4230001 -0.0080000004 0.015 151 0 0 0 0.067000002
3.4230001 -0.013 0.024 152 0 0 0 0.06701
3.4230001 -0.018999999 0.034000002 151 0 0 0 0.067019999
3.427 -0.024 0.044 151 0 0 0 0.067029998
3.427 -0.029999999 0.052999999 152 0 0 0 0.067039996
3.427 -0.035 0.063000001 151 0 0 0 0.067050003
3.4260001 -0.041000001 0.071999997 151 0 0 0 0.067060001
3.428 -0.046999998 0.082000002 151 0 0 0 0.06707
3.425 -0.052000001 0.090999998 151 0 0 0 0.067079999
3.4260001 -0.057999998 0.101 151 0 0 0 0.067089997
3.4319999 -0.064000003 0.111 151 0 0 0 0.067100003
3.431 -0.068999998 0.12 151 0 0 0 0.067110002
3.431 -0.075000003 0.13 151 0 0 0 0.067120001
3.431 -0.081 0.139 151 0 0 0 0.067129999
3.4300001 -0.086999997 0.149 151 0 0 0 0.067139998
3.437 -0.093000002 0.15899999 151 0 0 0 0.067149997
3.4360001 -0.097999997 0.168 151 0 0 0 0.067160003
3.4349999 -0.104 0.178 151 0 0 0 0.067170002
3.4349999 -0.11 0.18700001 151 0 0 0 0.06718
3.434 -0.116 0.197 151 0 0 0 0.067189999
3.438 -0.122 0.206 151 0 0 0 0.067199998
3.438 -0.12800001 0.21600001 151 0 0 0 0.067209996
3.437 -0.134 0.22499999 151 0 0 0 0.067220002
3.4360001 -0.139 0.235 151 0 0 0 0.067230001
3.438 -0.145 0.244 151 0 0 0 0.06724
3.4389999 -0.15099999 0.25400001 151 0 0 0 0.067249998
3.434 -0.15700001 0.26300001 151 0 0 0 0.067259997
3.438 -0.163 0.273 152 0 0 0 0.067270003
3.444 -0.17 0.28299999 151 0 0 0 0.067280002
3.3900001 -0.17299999 0.287 150 0 0 0 0.067290001
3.3710001 -0.178 0.29499999 151 0 0 0 0.067299999
3.375 -0.184 0.30500001 151 0 0 0 0.067309998
3.375 -0.19 0.31400001 151 0 0 0 0.067319997
3.3729999 -0.19599999 0.32300001 151 0 0 0 0.067330003
3.3599999 -0.20100001 0.331 150 0 0 0 0.067340001
3.3440001 -0.206 0.338 150 0 0 0 0.06735
3.3410001 -0.212 0.347 151 0 0 0 0.067359999
3.3440001 -0.21799999 0.35699999 151 0 0 0 0.067369998
3.3410001 -0.22400001 0.366 151 0 0 0 0.067380004
3.349 -0.23100001 0.375 151 0 0 0 0.067390002
3.3499999 -0.237 0.38499999 151 0 0 0 0.067400001
3.3510001 -0.243 0.39399999 151 0 0 0 0.06741
3.3429999 -0.249 0.40200001 150 0 0 0 0.067419998
3.3210001 -0.25299999 0.40799999 29 0 0 0 0.067429997
3.2420001 -0.25299999 0.40700001 108 0 0 0 0.067440003
3.24 -0.259 0.41600001 150 0 0 0 0.067450002
3.237 -0.26499999 0.42399999 151 0 0 0 0.067460001
3.2349999 -0.27000001 0.433 151 0 0 0 0.067469999
3.2379999 -0.27700001 0.442 151 0 0 0 0.067479998
3.2360001 -0.28299999 0.45100001 151 0 0 0 0.067489997
3.24 -0.289 0.46000001 151 0 0 0 0.067500003
3.2409999 -0.29499999 0.46900001 151 0 0 0 0.067510001
3.2379999 -0.301 0.477 151 0 0 0 0.06752
3.234 -0.30700001 0.48500001 150 0 0 0 0.067529999
3.217 -0.31200001 0.491 150 0 0 0 0.067539997
3.2190001 -0.31799999 0.5 151 0 0 0 0.067550004
3.2160001 -0.324 0.50800002 151 0 0 0 0.067560002
3.214 -0.33000001 0.51700002 151 0 0 0 0.067570001
3.2119999 -0.336 0.52499998 151 0 0 0 0.06758
3.2160001 -0.34299999 0.53399998 151 0 0 0 0.067589998
3.2149999 -0.34900001 0.54299998 151 0 0 0 0.067599997
3.217 -0.35499999 0.55199999 151 0 0 0 0.067610003
3.0569999 -0.34400001 0.53299999 151 0 0 0 0.067620002
2.872 -0.329 0.50800002 150 0 0 0 0.06763
2.72 -0.31600001 0.48800001 44 0 0 0 0.067639999
2.556 -0.30199999 0.46599999 25 0 0 0 0.067649998
2.527 -0.30399999 0.46700001 24 0 0 0 0.067659996
2.494 -0.30500001 0.46700001 21 0 0 0 0.067670003
2.4549999 -0.30500001 0.46700001 19 0 0 0 0.067680001
2.4100001 -0.30399999 0.465 19 0 0 0 0.06769
2.391 -0.30700001 0.46700001 31 0 0 0 0.067699999
2.381 -0.31 0.472 20 0 0 0 0.067709997
2.3800001 -0.315 0.47799999 1 0 0 0 0.067720003
2.428 -0.32600001 0.49399999 0 0 0 0 0.067730002
0 0 0 0 0 0 0 0.067740001
0 0 0 0 0 0 0 0.067749999
0 0 0 0 0 0 0 0.067759998
0 0 0 0 0 0 0 0.067769997
0 0 0 0 0 0 0 0.067780003
0 0 0 0 0 0 0 0.067790002
0 0 0 0 0 0 0 0.0678
0 0 0 0 0 0 0 0.067809999
0 0 0 0 0 0 0 0.067819998
0 0 0 0 0 0 0 0.067829996
0 0 0 0 0 0 0 0.067840002
0 0 0 0 0 0 0 0.067850001
0 0 0 0 0 0 0 0.06786
0 0 0 0 0 0 0 0.067869999
0 0 0 0 0 0 0 0.067879997
0 0 0 0 0 0 0 0.067890003
0 0 0 0 0 0 0 0.067900002
0 0 0 0 0 0 0 0.067910001
0 0 0 0 0 0 0 0.067919999
0 0 0 0 0 0 0 0.067929998
0 0 0 0 0 0 0 0.067939997
0 0 0 0 0 0 0 0.067950003
0 0 0 0 0 0 0 0.067960002
0 0 0 0 0 0 0 0.06797
0 0 0 0 0 0 0 0.067979999
0 0 0 0 0 0 0 0.067989998
0 0 0 0 0 0 0 0.068000004
0 0 0 0 0 0 0 0.068010002
0 0 0 0 0 0 0 0.068020001
0 0 0 0 0 0 0 0.06803
0 0 0 0 0 0 0 0.068039998
0 0 0 0 0 0 0 0.068049997
0 0 0 0 0 0 0 0.068060003
0 0 0 0 0 0 0 0.068070002
0 0 0 0 0 0 0 0.068080001
0 0 0 0 0 0 0 0.068089999
0 0 0 0 0 0 0 0.068099998
0 0 0 0 0 0 0 0.068109997
0 0 0 0 0 0 0 0.068120003
0 0 0 0 0 0 0 0.068130001
0 0 0 0 0 0 0 0.06814
2.3889999 -0.54400003 0.74199998 0 0 0 0 0.068149999
2.431 -0.55900002 0.76099998 0 0 0 0 0.068159997
0 0 0 0 0 0 0 0.068170004
0 0 0 0 0 0 0 0.068180002
2.4289999 -0.57599998 0.778 0 0 0 0 0.068190001
0 0 0 0 0 0 0 0.0682
2.4170001 -0.58499998 0.78600001 0 0 0 0 0.068209998
0 0 0 0 0 0 0 0.068219997
0 0 0 0 0 0 0 0.068230003
0 0 0 0 0 0 0 0.068240002
0 0 0 0 0 0 0 0.06825
0 0 0 0 0 0 0 0.068259999
0 0 0 0 0 0 0 0.068269998
0 0 0 0 0 0 0 0.068279997
0 0 0 0 0 0 0 0.068290003
0 0 0 0 0 0 0 0.068300001
0 0 0 0 0 0 0 0.06831
2.4100001 -0.64899999 0.84600002 0 0 0 0 0.068319999
0 0 0 0 0 0 0 0.068329997
0 0 0 0 0 0 0 0.068340003
0 0 0 0 0 0 0 0.068350002
2.425 -0.67799997 0.87300003 0 0 0 0 0.068360001
2.8239999 -0.79699999 1.023 0 0 0 0 0.06837
2.8050001 -0.79799998 1.022 0 0 0 0 0.068379998
2.9300001 -0.84200001 1.074 0 0 0 0 0.068389997
2.7909999 -0.80900002 1.03 0 0 0 0 0.068400003
2.6500001 -0.77499998 0.98299998 0 0 0 0 0.068410002
2.779 -0.81999999 1.0369999 0 0 0 0 0.06842
0 0 0 0 0 0 0 0.068429999
2.7449999 -0.824 1.036 0 0 0 0 0.068439998
3.017 -0.91399997 1.145 0 0 0 0 0.068449996
4.2150002 -1.288 1.609 35 0 0 0 0.068460003
4.191 -1.291 1.609 37 0 0 0 0.068470001
4.1700001 -1.296 1.61 37 0 0 0 0.06848
4.1479998 -1.3 1.609 36 0 0 0 0.068489999
4.1259999 -1.304 1.609 35 0 0 0 0.068499997
4.1040001 -1.308 1.609 37 0 0 0 0.068510003
4.086 -1.313 1.6109999 40 0 0 0 0.068520002
4.0689998 -1.318 1.612 39 0 0 0 0.068530001
4.046 -1.321 1.6109999 43 0 0 0 0.068539999
4.0300002 -1.327 1.613 41 0 0 0 0.068549998
4.0159998 -1.3329999 1.615 41 0 0 0 0.068559997
3.99 -1.335 1.612 39 0 0 0 0.068570003
3.9790001 -1.341 1.615 39 0 0 0 0.068580002
3.9549999 -1.344 1.612 40 0 0 0 0.06859
3.9349999 -1.348 1.612 37 0 0 0 0.068599999
3.918 -1.352 1.612 41 0 0 0 0.068609998
3.9030001 -1.357 1.613 37 0 0 0 0.068619996
3.888 -1.363 1.614 37 0 0 0 0.068630002
3.8770001 -1.369 1.617 41 0 0 0 0.068640001
3.858 -1.373 1.615 38 0 0 0 0.06865
3.8440001 -1.378 1.6160001 42 0 0 0 0.068659998
3.826 -1.382 1.615 39 0 0 0 0.068669997
3.8099999 -1.386 1.615 42 0 0 0 0.068680003
3.7969999 -1.392 1.6160001 45 0 0 0 0.068690002
3.7780001 -1.395 1.614 46 0 0 0 0.068700001
3.7650001 -1.4 1.615 47 0 0 0 0.068709999
3.7420001 -1.402 1.6109999 45 0 0 0 0.068719998
3.724 -1.405 1.609 42 0 0 0 0.068729997
3.7079999 -1.409 1.608 36 0 0 0 0.068740003
3.6819999 -1.408 1.603 30 0 0 0 0.068750001
3.665 -1.4119999 1.601 24 0 0 0 0.06876
3.6429999 -1.413 1.597 22 0 0 0 0.068769999
3.6259999 -1.416 1.595 22 0 0 0 0.068779998
3.605 -1.4170001 1.591 21 0 0 0 0.068790004
3.5829999 -1.418 1.586 21 0 0 0 0.068800002
3.556 -1.4170001 1.579 19 0 0 0 0.068810001
3.54 -1.42 1.577 21 0 0 0 0.06882
3.523 -1.4220001 1.574 21 0 0 0 0.068829998
3.503 -1.423 1.5700001 20 0 0 0 0.068839997
3.4890001 -1.427 1.568 20 0 0 0 0.068850003
3.4679999 -1.427 1.563 20 0 0 0 0.068860002
3.4430001 -1.426 1.556 21 0 0 0 0.068870001
3.428 -1.428 1.553 22 0 0 0 0.068879999
3.411 -1.4299999 1.549 21 0 0 0 0.068889998
3.3929999 -1.431 1.545 22 0 0 0 0.068899997
3.3740001 -1.432 1.54 23 0 0 0 0.068910003
3.362 -1.436 1.538 22 0 0 0 0.068920001
3.336 -1.433 1.53 22 0 0 0 0.06893
3.3180001 -1.433 1.525 22 0 0 0 0.068939999
3.3039999 -1.436 1.522 22 0 0 0 0.068949997
3.2839999 -1.4349999 1.516 22 0 0 0 0.068960004
3.2679999 -1.436 1.511 22 0 0 0 0.068970002
3.253 -1.437 1.507 22 0 0 0 0.068980001
3.237 -1.439 1.503 22 0 0 0 0.06899
3.22 -1.439 1.497 22 0 0 0 0.068999998
3.21 -1.442 1.495 24 0 0 0 0.069009997
3.1960001 -1.444 1.4910001 25 0 0 0 0.069020003
3.1800001 -1.444 1.4859999 24 0 0 0 0.069030002
3.164 -1.444 1.4809999 23 0 0 0 0.06904
3.1489999 -1.4450001 1.476 25 0 0 0 0.069049999
3.1340001 -1.4450001 1.47 25 0 0 0 0.069059998
3.1210001 -1.447 1.466 25 0 0 0 0.069069996
3.1059999 -1.447 1.46 25 0 0 0 0.069080003
3.095 -1.449 1.457 26 0 0 0 0.069090001
3.0880001 -1.4529999 1.455 29 0 0 0 0.0691
3.0810001 -1.456 1.4529999 31 0 0 0 0.069109999
3.076 -1.46 1.452 31 0 0 0 0.069119997
3.076 -1.467 1.4529999 31 0 0 0 0.069130003
3.073 -1.472 1.4529999 31 0 0 0 0.069140002
3.0739999 -1.479 1.454 31 0 0 0 0.069150001
3.075 -1.4859999 1.455 32 0 0 0 0.069159999
3.0710001 -1.4910001 1.454 30 0 0 0 0.069169998
3.072 -1.498 1.455 30 0 0 0 0.069179997
3.0710001 -1.503 1.454 30 0 0 0 0.069190003
3.0699999 -1.5089999 1.454 29 0 0 0 0.069200002
3.0699999 -1.515 1.454 29 0 0 0 0.06921
3.0680001 -1.52 1.454 29 0 0 0 0.069219999
3.0669999 -1.526 1.4529999 29 0 0 0 0.069229998
3.0710001 -1.533 1.455 28 0 0 0 0.069239996
3.072 -1.539 1.455 28 0 0 0 0.069250003
3.073 -1.545 1.454 26 0 0 0 0.069260001
3.073 -1.551 1.454 27 0 0 0 0.06927
3.079 -1.559 1.456 28 0 0 0 0.069279999
3.0869999 -1.569 1.459 28 0 0 0 0.069289997
3.085 -1.573 1.457 29 0 0 0 0.069300003
3.085 -1.5779999 1.456 28 0 0 0 0.069310002
3.095 -1.5880001 1.459 29 0 0 0 0.069320001
3.0910001 -1.591 1.456 27 0 0 0 0.069329999
3.0999999 -1.601 1.459 28 0 0 0 0.069339998
3.1010001 -1.6059999 1.4579999 29 0 0 0 0.069349997
3.102 -1.6109999 1.457 27 0 0 0 0.069360003
3.1099999 -1.619 1.4579999 28 0 0 0 0.069370002
3.1170001 -1.628 1.46 26 0 0 0 0.06938
3.1199999 -1.6339999 1.459 26 0 0 0 0.069389999
3.1240001 -1.6390001 1.459 27 0 0 0 0.069399998
3.1270001 -1.645 1.4579999 27 0 0 0 0.069410004
3.1340001 -1.653 1.459 27 0 0 0 0.069420002
3.1400001 -1.66 1.459 27 0 0 0 0.069430001
3.145 -1.666 1.4579999 25 0 0 0 0.06944
3.152 -1.673 1.459 25 0 0 0 0.069449998
3.154 -1.678 1.457 25 0 0 0 0.069459997
3.1619999 -1.6849999 1.457 24 0 0 0 0.069470003
3.1700001 -1.693 1.4579999 26 0 0 0 0.069480002
3.1830001 -1.7029999 1.46 26 0 0 0 0.069490001
3.191 -1.71 1.461 30 0 0 0 0.069499999
3.2509999 -1.745 1.484 57 0 0 0 0.069509998
3.3150001 -1.7819999 1.51 62 0 0 0 0.069519997
3.3570001 -1.807 1.525 51 0 0 0 0.069530003
3.3829999 -1.824 1.5319999 30 0 0 0 0.069540001
3.3959999 -1.834 1.534 32 0 0 0 0.06955
3.408 -1.842 1.535 32 0 0 0 0.069559999
3.4130001 -1.847 1.533 32 0 0 0 0.069569997
3.425 -1.855 1.533 32 0 0 0 0.069580004
3.434 -1.862 1.533 29 0 0 0 0.069590002
3.444 -1.869 1.5319999 30 0 0 0 0.069600001
3.46 -1.8789999 1.534 30 0 0 0 0.06961
3.47 -1.886 1.534 29 0 0 0 0.069619998
3.4790001 -1.892 1.5319999 30 0 0 0 0.069629997
3.4960001 -1.902 1.534 32 0 0 0 0.069640003
3.506 -1.909 1.533 30 0 0 0 0.069650002
3.517 -1.916 1.5319999 30 0 0 0 0.069660001
3.533 -1.925 1.534 30 0 0 0 0.069669999
3.5420001 -1.9299999 1.5319999 29 0 0 0 0.069679998
3.5550001 -1.937 1.531 30 0 0 0 0.069689997
3.576 -1.949 1.534 28 0 0 0 0.069700003
3.5869999 -1.955 1.5319999 29 0 0 0 0.069710001
3.6059999 -1.965 1.534 28 0 0 0 0.06972
3.6210001 -1.973 1.534 27 0 0 0 0.069729999
3.6370001 -1.9809999 1.534 29 0 0 0 0.069739997
3.6530001 -1.989 1.534 27 0 0 0 0.069750004
3.6719999 -1.999 1.535 28 0 0 0 0.069760002
3.681 -2.003 1.531 27 0 0 0 0.069770001
3.701 -2.013 1.533 27 0 0 0 0.06978
3.724 -2.023 1.535 27 0 0 0 0.069789998
3.7360001 -2.029 1.533 25 0 0 0 0.069799997
3.756 -2.0380001 1.533 26 0 0 0 0.069810003
3.7809999 -2.05 1.536 27 0 0 0 0.069820002
3.7909999 -2.053 1.5319999 26 0 0 0 0.06983
3.813 -2.063 1.533 25 0 0 0 0.069839999
3.8299999 -2.0699999 1.5319999 26 0 0 0 0.069849998
3.849 -2.0769999 1.531 27 0 0 0 0.069859996
3.869 -2.085 1.531 26 0 0 0 0.069870003
3.8900001 -2.0940001 1.531 25 0 0 0 0.069880001
3.9119999 -2.1029999 1.5319999 25 0 0 0 0.06989
3.931 -2.1099999 1.53 25 0 0 0 0.069899999
3.957 -2.1199999 1.5319999 25 0 0 0 0.069909997
3.9790001 -2.128 1.5319999 25 0 0 0 0.069920003
4.0009999 -2.1370001 1.531 24 0 0 0 0.069930002
4.027 -2.1470001 1.533 25 0 0 0 0.069940001
4.0409999 -2.1500001 1.529 25 0 0 0 0.069949999
4.072 -2.1619999 1.531 24 0 0 0 0.069959998
4.0960002 -2.171 1.531 25 0 0 0 0.069969997
4.1160002 -2.177 1.529 24 0 0 0 0.069980003
4.1409998 -2.1849999 1.529 24 0 0 0 0.069990002
4.1700001 -2.1949999 1.53 25 0 0 0 0.07
4.1929998 -2.2019999 1.529 25 0 0 0 0.070009999
4.2199998 -2.211 1.529 24 0 0 0 0.070019998
4.2550001 -2.224 1.5319999 24 0 0 0 0.070029996
4.2820001 -2.2320001 1.5319999 25 0 0 0 0.070040002
4.3070002 -2.24 1.531 25 0 0 0 0.070050001
2.467 -1.279 0.87099999 0 0 0 0 0.07006
2.4909999 -1.288 0.87300003 0 0 0 0 0.070069999
4.4050002 -2.2709999 1.534 24 0 0 0 0.070079997
4.4349999 -2.2809999 1.535 25 0 0 0 0.070090003
4.4590001 -2.286 1.5319999 25 0 0 0 0.070100002
4.4920001 -2.296 1.533 25 0 0 0 0.070110001
4.526 -2.306 1.534 25 0 0 0 0.070119999
4.5609999 -2.316 1.535 25 0 0 0 0.070129998
4.5999999 -2.329 1.5369999 25 0 0 0 0.070139997
4.631 -2.336 1.536 25 0 0 0 0.070150003
4.6700001 -2.348 1.538 27 0 0 0 0.070160002
4.6999998 -2.355 1.5369999 35 0 0 0 0.07017
4.711 -2.352 1.529 39 0 0 0 0.070179999
4.7140002 -2.345 1.518 36 0 0 0 0.070189998
4.7059999 -2.3329999 1.505 29 0 0 0 0.070200004
4.7090001 -2.325 1.494 30 0 0 0 0.070210002
4.704 -2.3139999 1.4809999 33 0 0 0 0.070220001
4.7090001 -2.3069999 1.472 31 0 0 0 0.07023
4.7020001 -2.2950001 1.4579999 36 0 0 0 0.070239998
4.0320001 -1.96 1.2410001 151 0 0 0 0.070249997
3.7019999 -1.7920001 1.13 120 0 0 0 0.070260003
3.688 -1.778 1.117 57 0 0 0 0.070270002
3.6830001 -1.7690001 1.107 57 0 0 0 0.070280001
3.6789999 -1.7589999 1.097 56 0 0 0 0.070289999
3.6830001 -1.753 1.09 56 0 0 0 0.070299998
3.6830001 -1.745 1.081 56 0 0 0 0.070309997
3.6800001 -1.7359999 1.071 56 0 0 0 0.070320003
3.6819999 -1.729 1.063 56 0 0 0 0.070330001
3.681 -1.721 1.054 55 0 0 0 0.07034
3.6830001 -1.714 1.046 56 0 0 0 0.070349999
3.6830001 -1.706 1.0369999 56 0 0 0 0.070359997
3.6830001 -1.697 1.028 56 0 0 0 0.070370004
3.6819999 -1.689 1.0190001 56 0 0 0 0.070380002
3.684 -1.682 1.011 56 0 0 0 0.070390001
3.681 -1.6720001 1.002 56 0 0 0 0.0704
3.677 -1.6619999 0.99199998 55 0 0 0 0.070409998
3.678 -1.654 0.98400003 55 0 0 0 0.070419997
3.6730001 -1.643 0.97399998 54 0 0 0 0.070430003
3.6760001 -1.636 0.96600002 55 0 0 0 0.070440002
3.677 -1.627 0.958 55 0 0 0 0.07045
3.6700001 -1.615 0.94800001 55 0 0 0 0.070459999
3.674 -1.608 0.94 55 0 0 0 0.070469998
3.6789999 -1.602 0.93300003 55 0 0 0 0.070479997
3.675 -1.591 0.92400002 55 0 0 0 0.070490003
3.6689999 -1.579 0.91399997 54 0 0 0 0.070500001
3.6730001 -1.572 0.90700001 53 0 0 0 0.07051
