# .PCD v0.7 - Point Cloud Data file format
VERSION 0.7
FIELDS x y z intensity normal_x normal_y normal_z curvature
SIZE 4 4 4 4 4 4 4 4
TYPE F F F F F F F F
COUNT 1 1 1 1 1 1 1 1
WIDTH 1015
HEIGHT 1
VIEWPOINT 0 0 0 1 0 0 0
POINTS 1015
DATA ascii
1.082 0.64499998 -0.043000001 1 0 0 0 0.039469998
0 0 0 0 0 0 0 0.039480001
0 0 0 0 0 0 0 0.039489999
0 0 0 0 0 0 0 0.039500002
1.3329999 0.77999997 -0.046999998 0 0 0 0 0.03951
1.306 0.75999999 -0.044 0 0 0 0 0.039519999
1.321 0.76499999 -0.043000001 0 0 0 0 0.039530002
0 0 0 0 0 0 0 0.03954
0 0 0 0 0 0 0 0.039549999
1.1339999 0.64700001 -0.033 0 0 0 0 0.039560001
1.149 0.65200001 -0.032000002 0 0 0 0 0.03957
1.1670001 0.65899998 -0.032000002 0 0 0 0 0.039579999
1.184 0.66500002 -0.030999999 0 0 0 0 0.039590001
1.289 0.72100002 -0.032000002 0 0 0 0 0.0396
1.175 0.653 -0.028000001 0 0 0 0 0.039609998
0 0 0 0 0 0 0 0.039620001
0 0 0 0 0 0 0 0.03963
0 0 0 0 0 0 0 0.039639998
0 0 0 0 0 0 0 0.039650001
0 0 0 0 0 0 0 0.039659999
0 0 0 0 0 0 0 0.039670002
0 0 0 0 0 0 0 0.03968
0 0 0 0 0 0 0 0.039689999
0 0 0 0 0 0 0 0.039700001
0.94800001 0.498 -0.013 0 0 0 0 0.03971
0.93599999 0.48899999 -0.012 0 0 0 0 0.039719999
0.91000003 0.472 -0.011 2 0 0 0 0.039730001
0.903 0.46599999 -0.0099999998 3 0 0 0 0.03974
0.917 0.47 -0.0099999998 4 0 0 0 0.039749999
0.91799998 0.46700001 -0.0089999996 4 0 0 0 0.039760001
0.91799998 0.465 -0.0080000004 3 0 0 0 0.03977
0.91100001 0.458 -0.0070000002 3 0 0 0 0.039779998
0.91399997 0.456 -0.0070000002 0 0 0 0 0.039790001
3.072 1.525 -0.021 1 0 0 0 0.039799999
3.0580001 1.508 -0.017999999 2 0 0 0 0.039810002
3.0599999 1.499 -0.016000001 2 0 0 0 0.039820001
3.0639999 1.4910001 -0.014 2 0 0 0 0.039829999
3.0680001 1.483 -0.011 2 0 0 0 0.039840002
3.0699999 1.474 -0.0089999996 2 0 0 0 0.03985
3.0810001 1.469 -0.0070000002 2 0 0 0 0.039859999
3.098 1.467 -0.0049999999 3 0 0 0 0.039870001
3.0969999 1.456 -0.003 5 0 0 0 0.03988
3.1070001 1.45 0 4 0 0 0 0.039889999
3.118 1.4450001 0.001 2 0 0 0 0.039900001
3.112 1.432 0.003 2 0 0 0 0.03991
3.1099999 1.421 0.0049999999 2 0 0 0 0.039919998
3.1099999 1.41 0.0070000002 2 0 0 0 0.039930001
3.112 1.401 0.0089999996 1 0 0 0 0.03994
3.1670001 1.415 0.0099999998 1 0 0 0 0.039949998
3.175 1.408 0.012 1 0 0 0 0.039960001
3.211 1.413 0.014 4 0 0 0 0.039969999
3.21 1.402 0.016000001 5 0 0 0 0.039980002
3.2190001 1.395 0.017999999 5 0 0 0 0.03999
3.221 1.385 0.02 4 0 0 0 0.039999999
3.2449999 1.385 0.022 3 0 0 0 0.040010002
3.24 1.3710001 0.023 4 0 0 0 0.04002
3.244 1.362 0.025 5 0 0 0 0.040029999
3.2460001 1.352 0.027000001 5 0 0 0 0.040040001
3.266 1.349 0.028000001 3 0 0 0 0.04005
3.3180001 1.359 0.029999999 3 0 0 0 0.040059999
3.3110001 1.346 0.032000002 7 0 0 0 0.040070001
3.316 1.336 0.033 8 0 0 0 0.04008
3.3139999 1.324 0.035 5 0 0 0 0.040089998
3.309 1.311 0.035999998 5 0 0 0 0.040100001
1.228 0.48199999 0.014 1 0 0 0 0.040109999
1.249 0.486 0.014 0 0 0 0 0.040119998
1.279 0.49399999 0.015 6 0 0 0 0.040130001
1.295 0.495 0.016000001 25 0 0 0 0.040139999
1.289 0.48899999 0.016000001 120 0 0 0 0.040150002
1.286 0.48300001 0.017000001 150 0 0 0 0.04016
1.286 0.479 0.017000001 150 0 0 0 0.040169999
1.286 0.47400001 0.017999999 150 0 0 0 0.040180001
1.284 0.46900001 0.017999999 150 0 0 0 0.04019
1.288 0.46700001 0.017999999 150 0 0 0 0.040199999
1.2869999 0.46200001 0.018999999 150 0 0 0 0.040210001
1.291 0.45899999 0.018999999 150 0 0 0 0.04022
1.289 0.45300001 0.018999999 150 0 0 0 0.040229999
1.281 0.44600001 0.02 150 0 0 0 0.040240001
1.291 0.44499999 0.02 150 0 0 0 0.04025
1.302 0.44499999 0.021 31 0 0 0 0.040259998
1.332 0.45100001 0.022 5 0 0 0 0.040270001
1.345 0.44999999 0.022 1 0 0 0 0.040279999
1.373 0.45500001 0.023 1 0 0 0 0.040290002
1.39 0.456 0.023 1 0 0 0 0.0403
1.406 0.45699999 0.024 2 0 0 0 0.040309999
1.424 0.458 0.025 2 0 0 0 0.040320002
1.446 0.46000001 0.025 2 0 0 0 0.04033
1.466 0.461 0.026000001 2 0 0 0 0.040339999
1.483 0.46200001 0.026000001 3 0 0 0 0.040350001
2.2460001 0.69199997 0.039999999 150 0 0 0 0.04036
2.3540001 0.71700001 0.043000001 150 0 0 0 0.040369999
2.484 0.74800003 0.046 150 0 0 0 0.040380001
2.4860001 0.74000001 0.046 150 0 0 0 0.04039
2.4860001 0.73199999 0.046 150 0 0 0 0.040399998
2.4890001 0.72399998 0.046 150 0 0 0 0.040410001
2.3299999 0.67000002 0.044 150 0 0 0 0.04042
2.24 0.63700002 0.041999999 151 0 0 0 0.040429998
2.2309999 0.62699997 0.041999999 151 0 0 0 0.040440001
2.227 0.61799997 0.041999999 151 0 0 0 0.040449999
2.224 0.61000001 0.041999999 151 0 0 0 0.040460002
2.2260001 0.60299999 0.043000001 151 0 0 0 0.04047
2.2279999 0.59600002 0.043000001 151 0 0 0 0.040479999
2.2290001 0.58899999 0.043000001 151 0 0 0 0.040490001
2.223 0.579 0.043000001 151 0 0 0 0.0405
2.2219999 0.57200003 0.043000001 151 0 0 0 0.040509999
2.223 0.565 0.043000001 151 0 0 0 0.040520001
2.2219999 0.55699998 0.043000001 151 0 0 0 0.04053
2.227 0.551 0.043000001 151 0 0 0 0.040539999
2.2290001 0.54400003 0.043000001 151 0 0 0 0.040550001
2.227 0.53600001 0.043000001 151 0 0 0 0.04056
2.234 0.52999997 0.043000001 150 0 0 0 0.040569998
2.233 0.523 0.043000001 152 0 0 0 0.040580001
2.2290001 0.514 0.043000001 152 0 0 0 0.040589999
2.2409999 0.509 0.043000001 151 0 0 0 0.040600002
2.2750001 0.50999999 0.043000001 150 0 0 0 0.04061
2.362 0.52100003 0.045000002 24 0 0 0 0.040619999
2.428 0.528 0.046 24 0 0 0 0.040630002
2.4879999 0.53200001 0.046999998 24 0 0 0 0.04064
2.539 0.53500003 0.048 21 0 0 0 0.040649999
2.6289999 0.54500002 0.048999999 25 0 0 0 0.040660001
2.733 0.55800003 0.050999999 27 0 0 0 0.04067
2.8280001 0.56800002 0.052000001 28 0 0 0 0.040679999
2.908 0.574 0.054000001 27 0 0 0 0.040690001
2.938 0.56999999 0.054000001 25 0 0 0 0.0407
3.0179999 0.57599998 0.055 25 0 0 0 0.040709998
3.0999999 0.58099997 0.056000002 25 0 0 0 0.040720001
3.165 0.583 0.057 25 0 0 0 0.04073
3.2260001 0.58399999 0.057 25 0 0 0 0.040739998
3.2750001 0.58200002 0.057999998 123 0 0 0 0.040750001
3.2780001 0.57200003 0.057 153 0 0 0 0.040759999
3.28 0.56099999 0.057 153 0 0 0 0.040770002
3.2820001 0.551 0.056000002 153 0 0 0 0.04078
3.2839999 0.54000002 0.056000002 153 0 0 0 0.040789999
3.3110001 0.53399998 0.055 151 0 0 0 0.040800001
3.323 0.52499998 0.055 152 0 0 0 0.04081
3.323 0.514 0.054000001 151 0 0 0 0.040819999
3.369 0.50999999 0.054000001 154 0 0 0 0.040830001
3.3840001 0.50099999 0.054000001 152 0 0 0 0.04084
3.3870001 0.491 0.052999999 152 0 0 0 0.040849999
3.3870001 0.47999999 0.052999999 152 0 0 0 0.040860001
3.3840001 0.46799999 0.052000001 152 0 0 0 0.04087
3.3870001 0.45699999 0.050999999 152 0 0 0 0.040879998
3.3940001 0.447 0.050000001 152 0 0 0 0.040890001
3.3900001 0.43599999 0.048999999 152 0 0 0 0.040899999
3.392 0.42500001 0.048 152 0 0 0 0.040910002
3.3740001 0.412 0.046999998 153 0 0 0 0.040920001
3.3670001 0.40000001 0.046 154 0 0 0 0.040929999
3.3640001 0.38800001 0.045000002 154 0 0 0 0.040940002
3.3610001 0.377 0.044 156 0 0 0 0.04095
3.3599999 0.366 0.043000001 156 0 0 0 0.040959999
3.3499999 0.354 0.041999999 158 0 0 0 0.040970001
3.3529999 0.34400001 0.041000001 158 0 0 0 0.04098
3.3640001 0.33399999 0.041000001 156 0 0 0 0.040989999
3.365 0.32300001 0.039000001 156 0 0 0 0.041000001
3.355 0.31099999 0.037999999 157 0 0 0 0.04101
3.3499999 0.30000001 0.037 159 0 0 0 0.041019998
3.3529999 0.289 0.035999998 160 0 0 0 0.041030001
3.352 0.278 0.035 160 0 0 0 0.04104
3.352 0.26699999 0.034000002 160 0 0 0 0.041049998
3.3559999 0.257 0.033 160 0 0 0 0.041060001
3.355 0.24600001 0.032000002 160 0 0 0 0.041069999
3.358 0.235 0.029999999 159 0 0 0 0.041080002
3.359 0.22499999 0.028999999 160 0 0 0 0.04109
3.3599999 0.214 0.028000001 160 0 0 0 0.041099999
3.3599999 0.20299999 0.027000001 160 0 0 0 0.041110002
3.362 0.192 0.026000001 159 0 0 0 0.04112
3.362 0.18099999 0.024 159 0 0 0 0.041129999
3.362 0.171 0.023 159 0 0 0 0.041140001
3.365 0.16 0.022 159 0 0 0 0.04115
3.3699999 0.149 0.02 158 0 0 0 0.041159999
3.3800001 0.139 0.018999999 156 0 0 0 0.041170001
3.3829999 0.12800001 0.017999999 156 0 0 0 0.04118
3.382 0.117 0.016000001 155 0 0 0 0.041189998
3.385 0.106 0.015 154 0 0 0 0.041200001
3.398 0.096000001 0.014 154 0 0 0 0.041209999
3.398 0.085000001 0.012 154 0 0 0 0.041219998
3.404 0.074000001 0.011 154 0 0 0 0.041230001
3.4059999 0.063000001 0.0089999996 153 0 0 0 0.041239999
3.4119999 0.052000001 0.0080000004 153 0 0 0 0.041250002
3.4170001 0.041999999 0.0060000001 152 0 0 0 0.04126
3.4200001 0.030999999 0.0049999999 152 0 0 0 0.041269999
3.4170001 0.02 0.003 151 0 0 0 0.041280001
3.418 0.0089999996 0.001 151 0 0 0 0.04129
3.4200001 -0.001 0 151 0 0 0 0.041299999
3.4159999 -0.012 -0.001 151 0 0 0 0.041310001
3.4200001 -0.023 -0.003 151 0 0 0 0.04132
3.427 -0.034000002 -0.0040000002 151 0 0 0 0.041329999
3.424 -0.045000002 -0.0060000001 151 0 0 0 0.041340001
3.424 -0.056000002 -0.0080000004 151 0 0 0 0.04135
3.427 -0.067000002 -0.0089999996 151 0 0 0 0.041359998
3.4319999 -0.078000002 -0.011 151 0 0 0 0.041370001
3.4260001 -0.089000002 -0.013 151 0 0 0 0.041379999
3.428 -0.1 -0.015 151 0 0 0 0.041390002
3.4319999 -0.111 -0.017000001 151 0 0 0 0.0414
3.431 -0.122 -0.017999999 151 0 0 0 0.041409999
3.434 -0.133 -0.02 151 0 0 0 0.041420002
3.4330001 -0.14399999 -0.022 151 0 0 0 0.04143
3.4330001 -0.155 -0.024 151 0 0 0 0.041439999
3.434 -0.16599999 -0.026000001 152 0 0 0 0.041450001
3.4100001 -0.176 -0.028000001 154 0 0 0 0.04146
3.3670001 -0.184 -0.028999999 151 0 0 0 0.041469999
3.3710001 -0.19499999 -0.030999999 152 0 0 0 0.041480001
3.3740001 -0.206 -0.033 153 0 0 0 0.04149
3.3469999 -0.215 -0.035 152 0 0 0 0.041499998
3.3440001 -0.226 -0.037 152 0 0 0 0.041510001
3.345 -0.236 -0.039000001 152 0 0 0 0.04152
3.336 -0.24600001 -0.041000001 153 0 0 0 0.041529998
3.335 -0.257 -0.043000001 150 0 0 0 0.041540001
3.2409999 -0.25999999 -0.044 150 0 0 0 0.041549999
3.2249999 -0.26899999 -0.045000002 152 0 0 0 0.041560002
3.2360001 -0.28 -0.046999998 152 0 0 0 0.04157
3.234 -0.29100001 -0.050000001 152 0 0 0 0.041579999
3.234 -0.301 -0.052000001 152 0 0 0 0.041590001
3.233 -0.31099999 -0.054000001 152 0 0 0 0.0416
3.22 -0.31999999 -0.056000002 152 0 0 0 0.041609999
3.207 -0.329 -0.057 151 0 0 0 0.041620001
3.211 -0.34 -0.059999999 151 0 0 0 0.04163
3.2130001 -0.34999999 -0.061999999 151 0 0 0 0.041639999
3.2060001 -0.36000001 -0.064000003 151 0 0 0 0.041650001
3.21 -0.37 -0.066 151 0 0 0 0.04166
2.9300001 -0.347 -0.061999999 150 0 0 0 0.041669998
2.602 -0.317 -0.057 33 0 0 0 0.041680001
2.5599999 -0.31999999 -0.057999998 34 0 0 0 0.041689999
2.48 -0.31799999 -0.057999998 29 0 0 0 0.041700002
2.4260001 -0.31799999 -0.057999998 20 0 0 0 0.04171
2.3870001 -0.32100001 -0.059 24 0 0 0 0.041719999
2.355 -0.324 -0.059999999 24 0 0 0 0.041730002
2.3610001 -0.333 -0.061999999 20 0 0 0 0.04174
2.3629999 -0.34 -0.064000003 20 0 0 0 0.041749999
2.3640001 -0.34799999 -0.064999998 17 0 0 0 0.041760001
2.358 -0.35499999 -0.067000002 15 0 0 0 0.04177
2.3640001 -0.36300001 -0.068999998 18 0 0 0 0.041779999
2.365 -0.37099999 -0.071000002 17 0 0 0 0.041790001
2.3640001 -0.37799999 -0.072999999 21 0 0 0 0.0418
2.368 -0.38600001 -0.075000003 25 0 0 0 0.041809998
2.365 -0.39399999 -0.075999998 25 0 0 0 0.041820001
2.365 -0.40099999 -0.078000002 22 0 0 0 0.04183
2.3670001 -0.40900001 -0.079999998 23 0 0 0 0.041839998
2.3659999 -0.41600001 -0.082000002 25 0 0 0 0.041850001
2.368 -0.42399999 -0.083999999 23 0 0 0 0.041859999
2.3670001 -0.43200001 -0.086000003 21 0 0 0 0.041870002
2.3699999 -0.44 -0.088 21 0 0 0 0.04188
2.3729999 -0.44800001 -0.090000004 18 0 0 0 0.041889999
2.372 -0.45500001 -0.092 16 0 0 0 0.041900001
2.369 -0.46200001 -0.093999997 15 0 0 0 0.04191
2.3740001 -0.47099999 -0.096000001 17 0 0 0 0.041919999
2.3770001 -0.479 -0.097999997 17 0 0 0 0.041930001
2.3729999 -0.486 -0.1 18 0 0 0 0.04194
2.3699999 -0.493 -0.102 19 0 0 0 0.041949999
2.3710001 -0.50099999 -0.104 22 0 0 0 0.041960001
2.3699999 -0.50800002 -0.107 23 0 0 0 0.04197
2.3770001 -0.51700002 -0.109 20 0 0 0 0.041979998
2.3759999 -0.52499998 -0.111 17 0 0 0 0.041990001
2.3740001 -0.53200001 -0.113 17 0 0 0 0.041999999
2.375 -0.54000002 -0.115 20 0 0 0 0.042010002
2.378 -0.54799998 -0.118 24 0 0 0 0.042020001
2.3710001 -0.55400002 -0.12 22 0 0 0 0.042029999
2.375 -0.56199998 -0.122 19 0 0 0 0.042040002
2.3729999 -0.56999999 -0.124 22 0 0 0 0.04205
2.3789999 -0.579 -0.127 22 0 0 0 0.042059999
2.381 -0.58700001 -0.12899999 20 0 0 0 0.042070001
2.375 -0.59299999 -0.131 18 0 0 0 0.04208
2.3789999 -0.60100001 -0.134 20 0 0 0 0.042089999
2.3770001 -0.60900003 -0.13600001 22 0 0 0 0.042100001
2.3759999 -0.616 -0.138 23 0 0 0 0.04211
2.378 -0.62400001 -0.141 24 0 0 0 0.042119998
2.3789999 -0.63200003 -0.14300001 23 0 0 0 0.042130001
2.3800001 -0.63999999 -0.146 23 0 0 0 0.04214
2.3800001 -0.648 -0.149 24 0 0 0 0.042149998
2.3870001 -0.65700001 -0.15099999 23 0 0 0 0.042160001
2.3759999 -0.662 -0.153 20 0 0 0 0.042169999
2.3840001 -0.671 -0.156 22 0 0 0 0.042180002
2.382 -0.67799997 -0.15899999 26 0 0 0 0.04219
2.3859999 -0.68699998 -0.162 23 0 0 0 0.042199999
2.3870001 -0.69499999 -0.164 24 0 0 0 0.042210001
2.385 -0.70200002 -0.167 25 0 0 0 0.04222
2.3840001 -0.70999998 -0.169 25 0 0 0 0.042229999
2.3829999 -0.71700001 -0.17200001 22 0 0 0 0.042240001
2.3870001 -0.72600001 -0.175 19 0 0 0 0.04225
2.388 -0.73400003 -0.178 18 0 0 0 0.042259999
2.3900001 -0.74199998 -0.18099999 18 0 0 0 0.042270001
2.398 -0.75199997 -0.184 16 0 0 0 0.04228
2.4059999 -0.76200002 -0.18799999 14 0 0 0 0.042289998
2.404 -0.76899999 -0.19 16 0 0 0 0.042300001
2.3929999 -0.773 -0.192 17 0 0 0 0.042309999
2.3959999 -0.78200001 -0.19499999 21 0 0 0 0.042319998
2.3900001 -0.78799999 -0.198 25 0 0 0 0.042330001
2.3900001 -0.79500002 -0.20100001 26 0 0 0 0.042339999
2.388 -0.80199999 -0.20299999 27 0 0 0 0.042350002
2.3889999 -0.81 -0.206 25 0 0 0 0.04236
2.392 -0.81800002 -0.20999999 26 0 0 0 0.042369999
2.3900001 -0.82499999 -0.213 26 0 0 0 0.042380001
2.392 -0.83399999 -0.21600001 27 0 0 0 0.04239
2.391 -0.84100002 -0.219 27 0 0 0 0.042399999
2.395 -0.85000002 -0.222 24 0 0 0 0.042410001
2.395 -0.85699999 -0.22499999 24 0 0 0 0.04242
2.3940001 -0.86400002 -0.228 25 0 0 0 0.042429999
2.4000001 -0.87400001 -0.23199999 24 0 0 0 0.042440001
2.395 -0.88 -0.235 25 0 0 0 0.04245
2.395 -0.88800001 -0.23800001 22 0 0 0 0.042459998
2.392 -0.89399999 -0.241 22 0 0 0 0.042470001
2.3989999 -0.90399998 -0.245 26 0 0 0 0.042479999
2.4030001 -0.91299999 -0.249 25 0 0 0 0.042490002
2.401 -0.92000002 -0.252 24 0 0 0 0.0425
2.402 -0.92799997 -0.255 22 0 0 0 0.042509999
2.4030001 -0.935 -0.259 20 0 0 0 0.042520002
2.401 -0.94199997 -0.26199999 20 0 0 0 0.04253
2.4030001 -0.94999999 -0.26499999 20 0 0 0 0.042539999
2.404 -0.958 -0.26899999 20 0 0 0 0.042550001
2.405 -0.96600002 -0.273 23 0 0 0 0.04256
2.4030001 -0.97299999 -0.27599999 25 0 0 0 0.042569999
2.405 -0.98100001 -0.27900001 26 0 0 0 0.042580001
2.404 -0.98799998 -0.28299999 28 0 0 0 0.04259
2.4030001 -0.995 -0.28600001 26 0 0 0 0.042599998
2.4030001 -1.002 -0.28999999 27 0 0 0 0.042610001
2.4059999 -1.011 -0.294 27 0 0 0 0.042619999
2.4059999 -1.018 -0.29800001 22 0 0 0 0.042629998
2.404 -1.025 -0.301 23 0 0 0 0.042640001
2.404 -1.0319999 -0.30500001 23 0 0 0 0.042649999
2.4070001 -1.041 -0.30899999 23 0 0 0 0.042660002
2.4070001 -1.048 -0.31299999 27 0 0 0 0.04267
2.4070001 -1.0549999 -0.317 26 0 0 0 0.042679999
2.408 -1.063 -0.31999999 22 0 0 0 0.042690001
2.414 -1.073 -0.32499999 21 0 0 0 0.0427
2.4059999 -1.076 -0.32800001 21 0 0 0 0.042709999
2.414 -1.087 -0.333 19 0 0 0 0.042720001
2.4130001 -1.094 -0.33700001 17 0 0 0 0.04273
2.404 -1.097 -0.33899999 34 0 0 0 0.042739999
2.2709999 -1.043 -0.324 150 0 0 0 0.042750001
2.4130001 -1.115 -0.34900001 150 0 0 0 0.04276
1.14 -0.52999997 -0.16599999 17 0 0 0 0.042769998
1.138 -0.53200001 -0.168 5 0 0 0 0.042780001
1.138 -0.53600001 -0.17 4 0 0 0 0.042789999
1.137 -0.53899997 -0.17200001 1 0 0 0 0.042800002
1.14 -0.54299998 -0.17399999 1 0 0 0 0.04281
1.147 -0.55000001 -0.177 1 0 0 0 0.042819999
1.148 -0.55400002 -0.17900001 1 0 0 0 0.042830002
1.146 -0.55599999 -0.18099999 1 0 0 0 0.04284
1.148 -0.56 -0.183 1 0 0 0 0.042849999
1.148 -0.56300002 -0.185 1 0 0 0 0.042860001
1.15 -0.56800002 -0.18799999 1 0 0 0 0.04287
1.147 -0.56900001 -0.189 1 0 0 0 0.042879999
1.148 -0.57300001 -0.191 1 0 0 0 0.042890001
1.147 -0.57599998 -0.193 1 0 0 0 0.0429
1.152 -0.58099997 -0.19599999 1 0 0 0 0.042909998
1.145 -0.58099997 -0.197 1 0 0 0 0.042920001
1.148 -0.58499998 -0.2 1 0 0 0 0.04293
1.149 -0.58899999 -0.20200001 1 0 0 0 0.042939998
1.149 -0.59200001 -0.204 2 0 0 0 0.042950001
1.151 -0.59600002 -0.207 1 0 0 0 0.042959999
1.151 -0.59899998 -0.20900001 1 0 0 0 0.042970002
1.152 -0.60299999 -0.211 2 0 0 0 0.04298
1.147 -0.60299999 -0.212 2 0 0 0 0.042989999
1.148 -0.60600001 -0.215 2 0 0 0 0.043000001
1.15 -0.61000001 -0.21699999 2 0 0 0 0.04301
1.155 -0.616 -0.22 2 0 0 0 0.043019999
1.153 -0.61799997 -0.222 2 0 0 0 0.043030001
1.153 -0.62 -0.22400001 2 0 0 0 0.04304
1.153 -0.62300003 -0.227 2 0 0 0 0.043049999
1.152 -0.625 -0.228 2 0 0 0 0.043060001
1.152 -0.62800002 -0.23100001 2 0 0 0 0.04307
1.15 -0.63 -0.233 2 0 0 0 0.043079998
1.148 -0.63200003 -0.234 2 0 0 0 0.043090001
1.15 -0.63499999 -0.237 2 0 0 0 0.043099999
1.149 -0.63700002 -0.23899999 2 0 0 0 0.043110002
1.152 -0.64099997 -0.242 2 0 0 0 0.043120001
1.155 -0.64600003 -0.245 2 0 0 0 0.043129999
1.152 -0.64700001 -0.24699999 2 0 0 0 0.043140002
1.153 -0.64999998 -0.249 2 0 0 0 0.04315
1.154 -0.653 -0.25099999 2 0 0 0 0.043159999
1.151 -0.653 -0.25299999 2 0 0 0 0.043170001
1.15 -0.65600002 -0.255 2 0 0 0 0.04318
1.151 -0.65799999 -0.257 2 0 0 0 0.043189999
1.149 -0.66000003 -0.259 2 0 0 0 0.043200001
1.149 -0.662 -0.26199999 2 0 0 0 0.04321
1.152 -0.66600001 -0.26499999 2 0 0 0 0.043219998
1.152 -0.66799998 -0.26699999 2 0 0 0 0.043230001
1.153 -0.671 -0.27000001 2 0 0 0 0.04324
1.152 -0.67199999 -0.27200001 2 0 0 0 0.043249998
1.147 -0.67199999 -0.273 2 0 0 0 0.043260001
1.148 -0.67400002 -0.27500001 2 0 0 0 0.043269999
1.151 -0.67799997 -0.278 2 0 0 0 0.043280002
1.154 -0.68199998 -0.28099999 2 0 0 0 0.04329
1.149 -0.68099999 -0.28200001 3 0 0 0 0.043299999
1.15 -0.68400002 -0.285 2 0 0 0 0.043310001
1.153 -0.68699998 -0.28799999 2 0 0 0 0.04332
1.149 -0.68599999 -0.289 2 0 0 0 0.043329999
1.149 -0.68800002 -0.29100001 3 0 0 0 0.043340001
1.151 -0.69099998 -0.294 2 0 0 0 0.04335
1.151 -0.69300002 -0.296 2 0 0 0 0.043359999
1.15 -0.69400001 -0.29800001 3 0 0 0 0.043370001
1.149 -0.69499999 -0.30000001 3 0 0 0 0.04338
1.148 -0.69599998 -0.30199999 3 0 0 0 0.043389998
1.151 -0.699 -0.30500001 3 0 0 0 0.043400001
1.15 -0.69999999 -0.30700001 4 0 0 0 0.043409999
1.153 -0.70300001 -0.31 3 0 0 0 0.043419998
1.148 -0.70200002 -0.31099999 3 0 0 0 0.043430001
1.147 -0.70200002 -0.31299999 3 0 0 0 0.043439999
1.15 -0.70499998 -0.31600001 3 0 0 0 0.043450002
1.148 -0.70499998 -0.31799999 3 0 0 0 0.04346
1.149 -0.70700002 -0.31999999 3 0 0 0 0.043469999
1.151 -0.70899999 -0.32300001 3 0 0 0 0.043480001
1.149 -0.70899999 -0.324 3 0 0 0 0.04349
1.147 -0.70899999 -0.32600001 3 0 0 0 0.043499999
1.147 -0.70999998 -0.32800001 3 0 0 0 0.043510001
1.15 -0.713 -0.331 3 0 0 0 0.04352
1.149 -0.713 -0.333 3 0 0 0 0.043529999
1.1440001 -0.70999998 -0.33399999 3 0 0 0 0.043540001
1.145 -0.71200001 -0.336 4 0 0 0 0.04355
1.147 -0.71399999 -0.33899999 3 0 0 0 0.043559998
1.148 -0.71499997 -0.34099999 3 0 0 0 0.043570001
1.146 -0.71399999 -0.34200001 3 0 0 0 0.043579999
1.146 -0.71399999 -0.34400001 3 0 0 0 0.043590002
1.142 -0.71200001 -0.345 4 0 0 0 0.0436
1.145 -0.71499997 -0.34799999 4 0 0 0 0.043609999
1.146 -0.71600002 -0.34999999 4 0 0 0 0.043620002
1.143 -0.71399999 -0.35100001 4 0 0 0 0.04363
1.143 -0.71399999 -0.35299999 4 0 0 0 0.043639999
1.1390001 -0.71200001 -0.354 4 0 0 0 0.043650001
1.1390001 -0.71200001 -0.35499999 4 0 0 0 0.04366
1.138 -0.71200001 -0.35699999 4 0 0 0 0.043669999
1.138 -0.71200001 -0.359 4 0 0 0 0.043680001
1.137 -0.71100003 -0.36000001 4 0 0 0 0.04369
1.137 -0.71100003 -0.36199999 4 0 0 0 0.043699998
1.135 -0.70999998 -0.36300001 4 0 0 0 0.043710001
1.1339999 -0.70899999 -0.36399999 3 0 0 0 0.043719999
1.132 -0.70700002 -0.36500001 4 0 0 0 0.043729998
1.1339999 -0.708 -0.368 3 0 0 0 0.043740001
1.13 -0.70499998 -0.368 3 0 0 0 0.043749999
1.133 -0.70700002 -0.37099999 2 0 0 0 0.043760002
1.131 -0.70499998 -0.37099999 2 0 0 0 0.04377
1.126 -0.70099998 -0.37099999 2 0 0 0 0.043779999
1.127 -0.70099998 -0.373 2 0 0 0 0.043790001
1.1210001 -0.69599998 -0.373 1 0 0 0 0.0438
1.124 -0.69800001 -0.375 1 0 0 0 0.043809999
1.12 -0.69400001 -0.375 1 0 0 0 0.043820001
1.117 -0.69099998 -0.375 1 0 0 0 0.04383
1.112 -0.68800002 -0.375 1 0 0 0 0.043839999
1.113 -0.68699998 -0.377 1 0 0 0 0.043850001
1.11 -0.68400002 -0.377 1 0 0 0 0.04386
1.09 -0.671 -0.37099999 1 0 0 0 0.043869998
1.081 -0.66399997 -0.36899999 1 0 0 0 0.043880001
1.087 -0.667 -0.37200001 1 0 0 0 0.043889999
1.071 -0.65600002 -0.368 1 0 0 0 0.043900002
1.069 -0.65399998 -0.36899999 1 0 0 0 0.04391
1.077 -0.65700001 -0.37200001 1 0 0 0 0.043919999
1.0829999 -0.65899998 -0.375 1 0 0 0 0.043930002
1.0829999 -0.65799999 -0.37599999 1 0 0 0 0.04394
1.0700001 -0.64899999 -0.373 1 0 0 0 0.043949999
1.069 -0.64700001 -0.373 1 0 0 0 0.043960001
1.057 -0.63800001 -0.37 0 0 0 0 0.04397
1.054 -0.63499999 -0.37 0 0 0 0 0.043979999
1.0470001 -0.62900001 -0.368 0 0 0 0 0.043990001
1.0470001 -0.62699997 -0.36899999 0 0 0 0 0.044
1.049 -0.62699997 -0.37 0 0 0 0 0.044009998
1.0470001 -0.62400001 -0.37 0 0 0 0 0.044020001
1.046 -0.62099999 -0.37 0 0 0 0 0.04403
1.038 -0.61500001 -0.368 0 0 0 0 0.044039998
1.029 -0.60799998 -0.36500001 0 0 0 0 0.044050001
1.034 -0.60900003 -0.368 0 0 0 0 0.044059999
1.028 -0.60399997 -0.366 0 0 0 0 0.044070002
1.022 -0.59799999 -0.36500001 0 0 0 0 0.04408
1.0319999 -0.602 -0.368 0 0 0 0 0.044089999
1.0190001 -0.59299999 -0.36399999 0 0 0 0 0.044100001
1.024 -0.59299999 -0.366 0 0 0 0 0.04411
1.018 -0.588 -0.36500001 0 0 0 0 0.044119999
1.022 -0.588 -0.366 0 0 0 0 0.044130001
1.01 -0.579 -0.36199999 0 0 0 0 0.04414
1.008 -0.57599998 -0.36199999 0 0 0 0 0.044149999
1.017 -0.57800001 -0.36500001 0 0 0 0 0.044160001
1.013 -0.574 -0.36399999 0 0 0 0 0.04417
1.011 -0.57099998 -0.36300001 0 0 0 0 0.044179998
1.018 -0.57300001 -0.366 0 0 0 0 0.044190001
1.008 -0.565 -0.36300001 0 0 0 0 0.044199999
1.013 -0.565 -0.36399999 0 0 0 0 0.044210002
1.016 -0.56400001 -0.36500001 1 0 0 0 0.044220001
1.028 -0.56800002 -0.37 1 0 0 0 0.044229999
1.03 -0.56699997 -0.37 1 0 0 0 0.044240002
1.051 -0.57599998 -0.37799999 1 0 0 0 0.04425
1.054 -0.57499999 -0.37900001 1 0 0 0 0.044259999
1.0599999 -0.57599998 -0.38100001 1 0 0 0 0.044270001
1.0599999 -0.574 -0.38100001 1 0 0 0 0.04428
1.0650001 -0.57300001 -0.382 1 0 0 0 0.044289999
1.066 -0.57099998 -0.382 1 0 0 0 0.044300001
1.071 -0.57099998 -0.384 1 0 0 0 0.04431
1.072 -0.56900001 -0.384 2 0 0 0 0.044319998
1.079 -0.56999999 -0.38600001 2 0 0 0 0.044330001
1.081 -0.56800002 -0.38600001 2 0 0 0 0.04434
1.084 -0.56699997 -0.38699999 3 0 0 0 0.044349998
1.0880001 -0.56599998 -0.38800001 3 0 0 0 0.044360001
1.0930001 -0.56599998 -0.389 4 0 0 0 0.044369999
1.098 -0.565 -0.38999999 4 0 0 0 0.044380002
1.098 -0.56199998 -0.38999999 5 0 0 0 0.04439
1.099 -0.56 -0.389 5 0 0 0 0.044399999
1.102 -0.55800003 -0.38999999 6 0 0 0 0.044410001
1.108 -0.55800003 -0.39199999 6 0 0 0 0.04442
1.1059999 -0.55400002 -0.38999999 6 0 0 0 0.044429999
1.108 -0.55199999 -0.38999999 6 0 0 0 0.044440001
1.11 -0.55000001 -0.38999999 6 0 0 0 0.04445
1.107 -0.546 -0.38800001 5 0 0 0 0.044459999
1.1059999 -0.542 -0.38699999 5 0 0 0 0.044470001
1.109 -0.54000002 -0.38699999 5 0 0 0 0.04448
1.1059999 -0.53500003 -0.38499999 6 0 0 0 0.044489998
1.1109999 -0.53500003 -0.38600001 6 0 0 0 0.044500001
1.11 -0.53100002 -0.38499999 6 0 0 0 0.044509999
1.114 -0.52999997 -0.38499999 74 0 0 0 0.044520002
2.3610001 -1.1160001 -0.815 150 0 0 0 0.044530001
2.2420001 -1.053 -0.77200001 150 0 0 0 0.044539999
2.3629999 -1.103 -0.81199998 6 0 0 0 0.044550002
2.3740001 -1.101 -0.81300002 29 0 0 0 0.04456
2.3800001 -1.097 -0.81300002 29 0 0 0 0.044569999
2.388 -1.0930001 -0.81300002 29 0 0 0 0.044580001
2.3889999 -1.087 -0.81099999 29 0 0 0 0.04459
2.3970001 -1.084 -0.81099999 28 0 0 0 0.044599999
2.3959999 -1.076 -0.80800003 26 0 0 0 0.044610001
2.4000001 -1.071 -0.80699998 24 0 0 0 0.04462
2.4000001 -1.063 -0.80400002 24 0 0 0 0.044629999
2.398 -1.0549999 -0.801 25 0 0 0 0.044640001
2.3970001 -1.048 -0.79799998 23 0 0 0 0.04465
2.3970001 -1.04 -0.79500002 24 0 0 0 0.044659998
2.398 -1.034 -0.79299998 26 0 0 0 0.044670001
2.3970001 -1.026 -0.79000002 28 0 0 0 0.044679999
2.395 -1.018 -0.78600001 26 0 0 0 0.044690002
2.395 -1.011 -0.78299999 26 0 0 0 0.0447
2.3970001 -1.005 -0.78100002 29 0 0 0 0.044709999
2.395 -0.99699998 -0.77700001 30 0 0 0 0.044720002
2.3929999 -0.98900002 -0.773 31 0 0 0 0.04473
2.398 -0.98400003 -0.77200001 26 0 0 0 0.044739999
2.395 -0.97500002 -0.76700002 24 0 0 0 0.044750001
2.3940001 -0.96799999 -0.764 29 0 0 0 0.04476
2.392 -0.95999998 -0.75999999 26 0 0 0 0.044769999
2.392 -0.95200002 -0.75599998 25 0 0 0 0.044780001
2.392 -0.94499999 -0.75300002 21 0 0 0 0.04479
2.391 -0.93699998 -0.74900001 21 0 0 0 0.044799998
2.3959999 -0.93199998 -0.74699998 21 0 0 0 0.044810001
2.3929999 -0.92400002 -0.74299997 20 0 0 0 0.044819999
2.395 -0.917 -0.74000001 21 0 0 0 0.044829998
2.3959999 -0.91100001 -0.73699999 23 0 0 0 0.044840001
2.3929999 -0.90200001 -0.73199999 24 0 0 0 0.044849999
2.392 -0.89499998 -0.72799999 23 0 0 0 0.044860002
2.3900001 -0.88700002 -0.72399998 21 0 0 0 0.04487
2.3900001 -0.88 -0.72000003 23 0 0 0 0.044879999
2.3900001 -0.87300003 -0.71700001 25 0 0 0 0.044890001
2.3889999 -0.86500001 -0.713 25 0 0 0 0.0449
2.3870001 -0.85699999 -0.708 24 0 0 0 0.044909999
2.3900001 -0.85100001 -0.70499998 26 0 0 0 0.044920001
2.3859999 -0.84200001 -0.69999999 25 0 0 0 0.04493
2.3859999 -0.83600003 -0.69599998 26 0 0 0 0.044939999
2.385 -0.82800001 -0.69199997 26 0 0 0 0.044950001
2.3870001 -0.82200003 -0.68900001 28 0 0 0 0.04496
2.388 -0.815 -0.685 27 0 0 0 0.044969998
2.385 -0.80699998 -0.68000001 24 0 0 0 0.044980001
2.385 -0.80000001 -0.676 20 0 0 0 0.044989999
2.3859999 -0.79299998 -0.67199999 20 0 0 0 0.045000002
2.385 -0.78600001 -0.66799998 21 0 0 0 0.04501
2.382 -0.778 -0.66299999 20 0 0 0 0.045019999
2.3840001 -0.77100003 -0.66000003 19 0 0 0 0.045030002
2.3829999 -0.764 -0.65499997 19 0 0 0 0.04504
2.3829999 -0.75700003 -0.65100002 22 0 0 0 0.045049999
2.3829999 -0.75 -0.64600003 24 0 0 0 0.045060001
2.3770001 -0.741 -0.64099997 22 0 0 0 0.04507
2.3859999 -0.73699999 -0.639 19 0 0 0 0.045079999
2.385 -0.73000002 -0.634 20 0 0 0 0.045090001
2.375 -0.72000003 -0.62699997 24 0 0 0 0.0451
2.3800001 -0.71499997 -0.62400001 26 0 0 0 0.045109998
2.3759999 -0.70700002 -0.61900002 25 0 0 0 0.045120001
2.381 -0.70099998 -0.616 25 0 0 0 0.04513
2.3729999 -0.69199997 -0.60900003 26 0 0 0 0.045139998
2.3789999 -0.68699998 -0.60600001 30 0 0 0 0.045150001
2.3740001 -0.67900002 -0.60100001 28 0 0 0 0.045159999
2.3740001 -0.67199999 -0.59600002 23 0 0 0 0.045170002
2.3789999 -0.667 -0.59299999 23 0 0 0 0.04518
2.3789999 -0.66000003 -0.588 23 0 0 0 0.045189999
2.3770001 -0.653 -0.583 21 0 0 0 0.045200001
2.3729999 -0.64499998 -0.57800001 22 0 0 0 0.04521
2.3729999 -0.63800001 -0.57300001 21 0 0 0 0.045219999
2.3740001 -0.63200003 -0.56900001 22 0 0 0 0.045230001
2.3740001 -0.625 -0.56400001 22 0 0 0 0.04524
2.3759999 -0.61900002 -0.56 19 0 0 0 0.045249999
2.3759999 -0.61299998 -0.55599999 17 0 0 0 0.045260001
2.3759999 -0.60600001 -0.551 17 0 0 0 0.04527
2.375 -0.59899998 -0.546 19 0 0 0 0.045279998
2.3729999 -0.59200001 -0.54100001 20 0 0 0 0.045290001
2.3729999 -0.58600003 -0.53600001 19 0 0 0 0.045299999
2.3729999 -0.579 -0.53100002 17 0 0 0 0.045310002
2.3710001 -0.57200003 -0.52600002 16 0 0 0 0.04532
2.3710001 -0.565 -0.52100003 18 0 0 0 0.045329999
2.3800001 -0.56099999 -0.51800001 15 0 0 0 0.045340002
2.3859999 -0.55599999 -0.51499999 13 0 0 0 0.04535
2.3770001 -0.54699999 -0.50800002 15 0 0 0 0.045359999
2.375 -0.54100001 -0.50300002 17 0 0 0 0.045370001
2.3740001 -0.53399998 -0.498 18 0 0 0 0.04538
2.3710001 -0.52700001 -0.49200001 17 0 0 0 0.045389999
2.369 -0.51999998 -0.48699999 19 0 0 0 0.045400001
2.3670001 -0.51300001 -0.48199999 19 0 0 0 0.04541
2.368 -0.50700003 -0.477 19 0 0 0 0.045419998
2.3670001 -0.50099999 -0.472 19 0 0 0 0.045430001
2.368 -0.49399999 -0.46700001 20 0 0 0 0.04544
2.368 -0.48800001 -0.46200001 20 0 0 0 0.045449998
2.3740001 -0.48300001 -0.458 19 0 0 0 0.045460001
2.3659999 -0.47499999 -0.45199999 16 0 0 0 0.045469999
2.3699999 -0.47 -0.44800001 16 0 0 0 0.045480002
2.3659999 -0.463 -0.442 18 0 0 0 0.04549
2.3659999 -0.45699999 -0.43700001 19 0 0 0 0.045499999
2.3659999 -0.45100001 -0.43200001 18 0 0 0 0.045510001
2.365 -0.44400001 -0.42699999 18 0 0 0 0.04552
2.3629999 -0.43799999 -0.42199999 20 0 0 0 0.045529999
2.368 -0.433 -0.41800001 23 0 0 0 0.045540001
2.368 -0.426 -0.412 23 0 0 0 0.04555
2.3640001 -0.41999999 -0.40700001 21 0 0 0 0.045559999
2.3610001 -0.41299999 -0.40099999 21 0 0 0 0.045570001
2.3640001 -0.40700001 -0.39700001 22 0 0 0 0.04558
2.369 -0.40200001 -0.39199999 19 0 0 0 0.045589998
2.3640001 -0.39500001 -0.38600001 19 0 0 0 0.045600001
2.3599999 -0.389 -0.38100001 20 0 0 0 0.045609999
2.359 -0.38299999 -0.37599999 21 0 0 0 0.045620002
2.3610001 -0.377 -0.37099999 21 0 0 0 0.045630001
2.358 -0.37 -0.36500001 22 0 0 0 0.045639999
2.362 -0.36500001 -0.361 21 0 0 0 0.045650002
2.365 -0.36000001 -0.35600001 17 0 0 0 0.04566
2.359 -0.35299999 -0.34999999 16 0 0 0 0.045669999
2.358 -0.347 -0.345 16 0 0 0 0.045680001
2.3640001 -0.34200001 -0.34 18 0 0 0 0.04569
2.362 -0.336 -0.33500001 18 0 0 0 0.045699999
2.3670001 -0.33000001 -0.33000001 19 0 0 0 0.045710001
2.3829999 -0.32699999 -0.32699999 17 0 0 0 0.04572
2.4170001 -0.32600001 -0.32699999 22 0 0 0 0.045729998
2.448 -0.324 -0.32499999 20 0 0 0 0.045740001
2.4860001 -0.32300001 -0.32499999 21 0 0 0 0.04575
2.5190001 -0.32100001 -0.324 22 0 0 0 0.045759998
2.5469999 -0.31799999 -0.322 21 0 0 0 0.045770001
2.766 -0.33899999 -0.34299999 61 0 0 0 0.045779999
2.8929999 -0.347 -0.35299999 150 0 0 0 0.045790002
3.188 -0.375 -0.38100001 150 0 0 0 0.0458
3.2060001 -0.36899999 -0.37599999 150 0 0 0 0.045809999
3.2119999 -0.36199999 -0.37 150 0 0 0 0.045820002
3.2060001 -0.354 -0.36199999 150 0 0 0 0.04583
3.204 -0.34599999 -0.35499999 150 0 0 0 0.045839999
3.2030001 -0.338 -0.347 150 0 0 0 0.045850001
3.207 -0.331 -0.34099999 150 0 0 0 0.04586
3.224 -0.32499999 -0.33500001 150 0 0 0 0.045869999
3.234 -0.31799999 -0.329 151 0 0 0 0.045880001
3.2349999 -0.31099999 -0.32100001 151 0 0 0 0.04589
3.234 -0.303 -0.31400001 151 0 0 0 0.045899998
3.233 -0.29499999 -0.30700001 151 0 0 0 0.045910001
3.237 -0.28799999 -0.30000001 151 0 0 0 0.045919999
3.2349999 -0.28 -0.292 151 0 0 0 0.045929998
3.23 -0.27200001 -0.28400001 151 0 0 0 0.045940001
3.25 -0.266 -0.27900001 150 0 0 0 0.045949999
3.332 -0.266 -0.278 78 0 0 0 0.045960002
3.339 -0.25799999 -0.271 151 0 0 0 0.04597
3.342 -0.25099999 -0.264 151 0 0 0 0.045979999
3.3429999 -0.243 -0.25600001 151 0 0 0 0.045990001
3.346 -0.236 -0.249 152 0 0 0 0.046
3.3399999 -0.227 -0.23999999 152 0 0 0 0.046009999
3.3429999 -0.22 -0.233 151 0 0 0 0.046020001
3.3610001 -0.213 -0.226 151 0 0 0 0.04603
3.3670001 -0.206 -0.219 151 0 0 0 0.046039999
3.3699999 -0.198 -0.212 151 0 0 0 0.046050001
3.3710001 -0.191 -0.204 151 0 0 0 0.04606
3.375 -0.183 -0.19599999 150 0 0 0 0.046069998
3.428 -0.178 -0.191 152 0 0 0 0.046080001
3.4400001 -0.171 -0.184 152 0 0 0 0.046089999
3.4349999 -0.163 -0.176 151 0 0 0 0.046100002
3.438 -0.156 -0.168 151 0 0 0 0.04611
3.4300001 -0.147 -0.15899999 151 0 0 0 0.046119999
3.4300001 -0.14 -0.15099999 151 0 0 0 0.046130002
3.431 -0.132 -0.14300001 151 0 0 0 0.04614
3.428 -0.124 -0.13500001 151 0 0 0 0.046149999
3.4319999 -0.117 -0.127 151 0 0 0 0.046160001
3.4319999 -0.109 -0.119 151 0 0 0 0.04617
3.4300001 -0.101 -0.111 151 0 0 0 0.046179999
3.425 -0.093999997 -0.103 151 0 0 0 0.046190001
3.4300001 -0.086000003 -0.094999999 150 0 0 0 0.0462
3.4260001 -0.079000004 -0.086999997 151 0 0 0 0.046209998
3.427 -0.071000002 -0.079000004 151 0 0 0 0.046220001
3.427 -0.064000003 -0.07 151 0 0 0 0.04623
3.4189999 -0.056000002 -0.061999999 151 0 0 0 0.046239998
3.427 -0.048 -0.054000001 151 0 0 0 0.046250001
3.4200001 -0.041000001 -0.046 151 0 0 0 0.046259999
3.4200001 -0.033 -0.037999999 151 0 0 0 0.046270002
3.421 -0.026000001 -0.028999999 151 0 0 0 0.04628
3.421 -0.018999999 -0.021 151 0 0 0 0.046289999
3.421 -0.011 -0.013 151 0 0 0 0.046300001
3.421 -0.0040000002 -0.0049999999 151 0 0 0 0.04631
3.4200001 0.003 0.0020000001 151 0 0 0 0.046319999
3.4219999 0.0099999998 0.011 152 0 0 0 0.046330001
3.421 0.017000001 0.018999999 151 0 0 0 0.04634
3.4219999 0.025 0.027000001 151 0 0 0 0.046349999
3.4260001 0.032000002 0.035999998 152 0 0 0 0.046360001
3.4230001 0.039999999 0.044 152 0 0 0 0.04637
3.4230001 0.046999998 0.052000001 152 0 0 0 0.046379998
3.4230001 0.054000001 0.059999999 152 0 0 0 0.046390001
3.4170001 0.061000001 0.068999998 153 0 0 0 0.046399999
3.4170001 0.068999998 0.077 153 0 0 0 0.046410002
3.414 0.075999998 0.085000001 153 0 0 0 0.04642
3.4159999 0.082999997 0.093999997 153 0 0 0 0.046429999
3.4159999 0.090000004 0.102 152 0 0 0 0.046440002
3.4200001 0.097999997 0.111 152 0 0 0 0.04645
3.4230001 0.105 0.119 152 0 0 0 0.046459999
3.418 0.112 0.127 152 0 0 0 0.046470001
3.4170001 0.119 0.13600001 152 0 0 0 0.04648
3.4170001 0.127 0.14399999 152 0 0 0 0.046489999
3.4170001 0.134 0.153 152 0 0 0 0.046500001
3.4119999 0.141 0.161 152 0 0 0 0.04651
3.415 0.148 0.17 152 0 0 0 0.046519998
3.4130001 0.155 0.178 151 0 0 0 0.046530001
3.4159999 0.162 0.18700001 151 0 0 0 0.04654
3.4119999 0.169 0.19499999 151 0 0 0 0.046549998
3.411 0.176 0.204 151 0 0 0 0.046560001
3.4130001 0.183 0.212 151 0 0 0 0.046569999
3.4089999 0.19 0.221 151 0 0 0 0.046580002
3.408 0.197 0.229 151 0 0 0 0.04659
3.4089999 0.204 0.23800001 151 0 0 0 0.046599999
3.418 0.212 0.24699999 151 0 0 0 0.046610001
3.4089999 0.21799999 0.255 151 0 0 0 0.04662
3.408 0.22499999 0.264 151 0 0 0 0.046629999
3.4100001 0.23199999 0.27200001 151 0 0 0 0.046640001
3.408 0.23899999 0.28099999 151 0 0 0 0.04665
3.4070001 0.24600001 0.28999999 151 0 0 0 0.046659999
3.402 0.252 0.29800001 151 0 0 0 0.046670001
3.404 0.259 0.30700001 151 0 0 0 0.04668
3.4030001 0.266 0.315 151 0 0 0 0.046689998
3.4070001 0.273 0.324 151 0 0 0 0.046700001
3.4089999 0.28 0.333 151 0 0 0 0.046709999
3.4070001 0.287 0.34200001 151 0 0 0 0.046720002
3.4059999 0.294 0.35100001 151 0 0 0 0.046730001
3.4030001 0.30000001 0.359 151 0 0 0 0.046739999
3.405 0.30700001 0.368 151 0 0 0 0.046750002
3.408 0.31400001 0.37799999 151 0 0 0 0.04676
3.402 0.32100001 0.38600001 151 0 0 0 0.046769999
3.408 0.32800001 0.39500001 151 0 0 0 0.046780001
3.405 0.33399999 0.40400001 151 0 0 0 0.04679
3.404 0.34099999 0.41299999 151 0 0 0 0.046799999
3.4030001 0.34799999 0.42199999 151 0 0 0 0.046810001
3.401 0.354 0.43000001 151 0 0 0 0.04682
3.4070001 0.361 0.44 151 0 0 0 0.046829998
3.405 0.368 0.449 151 0 0 0 0.046840001
3.402 0.37400001 0.45699999 151 0 0 0 0.04685
3.401 0.38100001 0.46599999 151 0 0 0 0.046859998
3.3989999 0.38699999 0.47499999 150 0 0 0 0.046870001
3.402 0.39399999 0.484 151 0 0 0 0.046879999
3.401 0.40000001 0.493 151 0 0 0 0.046890002
3.398 0.40700001 0.50199997 151 0 0 0 0.0469
3.3970001 0.41299999 0.51099998 150 0 0 0 0.046909999
3.4030001 0.421 0.52100003 150 0 0 0 0.046920002
3.402 0.42699999 0.52999997 150 0 0 0 0.04693
3.402 0.433 0.53899997 151 0 0 0 0.046939999
3.398 0.43900001 0.54799998 150 0 0 0 0.046950001
3.3970001 0.44600001 0.55699998 150 0 0 0 0.04696
3.395 0.45199999 0.56599998 150 0 0 0 0.046969999
3.3989999 0.45899999 0.57599998 150 0 0 0 0.046980001
3.3959999 0.465 0.58499998 150 0 0 0 0.04699
3.398 0.472 0.59399998 150 0 0 0 0.046999998
3.398 0.47799999 0.60299999 150 0 0 0 0.047010001
3.3970001 0.484 0.61199999 150 0 0 0 0.047019999
3.3959999 0.491 0.62199998 150 0 0 0 0.047029998
3.3940001 0.49700001 0.63099998 150 0 0 0 0.047040001
3.3940001 0.50300002 0.63999999 150 0 0 0 0.047049999
3.395 0.50999999 0.64999998 150 0 0 0 0.047060002
3.395 0.51599997 0.65899998 150 0 0 0 0.04707
3.392 0.52200001 0.66799998 151 0 0 0 0.047079999
3.3840001 0.52700001 0.676 150 0 0 0 0.047090001
3.349 0.52700001 0.67799997 150 0 0 0 0.0471
3.332 0.53100002 0.68400002 150 0 0 0 0.047109999
3.329 0.53600001 0.69300002 150 0 0 0 0.047120001
3.3299999 0.54299998 0.70300001 150 0 0 0 0.04713
3.3299999 0.54900002 0.71200001 150 0 0 0 0.047139999
3.316 0.55199999 0.71799999 150 0 0 0 0.047150001
3.2980001 0.55500001 0.72399998 150 0 0 0 0.04716
3.2920001 0.56 0.73199999 151 0 0 0 0.047169998
3.2950001 0.56699997 0.74199998 150 0 0 0 0.047180001
3.2950001 0.57300001 0.75099999 150 0 0 0 0.047189999
3.2939999 0.57800001 0.76099998 150 0 0 0 0.047200002
3.2950001 0.58399999 0.76999998 150 0 0 0 0.04721
3.29 0.58899999 0.77899998 151 0 0 0 0.047219999
3.2909999 0.59500003 0.78799999 150 0 0 0 0.047230002
3.2809999 0.59899998 0.796 53 0 0 0 0.04724
3.2639999 0.602 0.801 31 0 0 0 0.047249999
3.24 0.60299999 0.80400002 30 0 0 0 0.047260001
3.2119999 0.60299999 0.80699998 30 0 0 0 0.04727
3.171 0.60100001 0.80599999 29 0 0 0 0.047279999
3.1289999 0.59899998 0.80400002 30 0 0 0 0.047290001
3.0829999 0.59500003 0.801 30 0 0 0 0.0473
3.04 0.59200001 0.79900002 30 0 0 0 0.047309998
2.9909999 0.588 0.79500002 33 0 0 0 0.047320001
2.9449999 0.583 0.79100001 31 0 0 0 0.04733
2.9000001 0.579 0.78799999 31 0 0 0 0.047339998
2.848 0.574 0.78200001 30 0 0 0 0.047350001
2.79 0.56699997 0.77399999 27 0 0 0 0.047359999
2.757 0.565 0.773 26 0 0 0 0.047370002
2.727 0.56300002 0.773 26 0 0 0 0.04738
2.6930001 0.56099999 0.77200001 25 0 0 0 0.047389999
2.6619999 0.55800003 0.77100003 26 0 0 0 0.047400001
2.6270001 0.55500001 0.76800001 25 0 0 0 0.04741
2.5999999 0.55400002 0.76800001 25 0 0 0 0.047419999
2.5650001 0.55000001 0.76499999 25 0 0 0 0.047430001
2.5439999 0.55000001 0.76700002 24 0 0 0 0.04744
2.5139999 0.54699999 0.76499999 23 0 0 0 0.047449999
2.4820001 0.54400003 0.76300001 23 0 0 0 0.047460001
2.461 0.54400003 0.764 23 0 0 0 0.04747
2.434 0.54100001 0.76300001 22 0 0 0 0.047479998
2.404 0.53899997 0.76099998 21 0 0 0 0.047490001
2.378 0.53600001 0.75999999 22 0 0 0 0.047499999
2.358 0.53600001 0.76099998 29 0 0 0 0.047510002
2.3299999 0.53299999 0.759 30 0 0 0 0.04752
2.283 0.52499998 0.75099999 89 0 0 0 0.047529999
2.2720001 0.52600002 0.75400001 150 0 0 0 0.047540002
2.2690001 0.52899998 0.75999999 150 0 0 0 0.04755
2.266 0.53200001 0.76599997 151 0 0 0 0.047559999
2.266 0.53500003 0.773 151 0 0 0 0.047570001
2.2709999 0.53899997 0.78200001 151 0 0 0 0.04758
2.27 0.542 0.78799999 151 0 0 0 0.047589999
2.266 0.54500002 0.79400003 151 0 0 0 0.047600001
2.2579999 0.546 0.79799998 150 0 0 0 0.04761
2.2509999 0.54799998 0.80299997 150 0 0 0 0.047619998
2.2390001 0.54799998 0.80500001 150 0 0 0 0.047630001
2.233 0.55000001 0.81 150 0 0 0 0.04764
2.2360001 0.55299997 0.81800002 151 0 0 0 0.047649998
2.2360001 0.55599999 0.82499999 151 0 0 0 0.047660001
2.2379999 0.56 0.833 151 0 0 0 0.047669999
2.2349999 0.56199998 0.83899999 151 0 0 0 0.047680002
2.234 0.565 0.84500003 151 0 0 0 0.04769
2.2309999 0.56699997 0.85100001 151 0 0 0 0.047699999
2.233 0.56999999 0.85900003 151 0 0 0 0.047710001
2.234 0.574 0.86699998 150 0 0 0 0.04772
2.2320001 0.57599998 0.87300003 150 0 0 0 0.047729999
2.2320001 0.579 0.88 150 0 0 0 0.047740001
2.2379999 0.583 0.889 151 0 0 0 0.04775
2.2320001 0.58399999 0.89399999 151 0 0 0 0.047759999
2.2290001 0.58600003 0.89999998 150 0 0 0 0.047770001
2.233 0.58999997 0.90799999 150 0 0 0 0.04778
2.2309999 0.59200001 0.91500002 150 0 0 0 0.047789998
2.233 0.59500003 0.92199999 150 0 0 0 0.047800001
2.2320001 0.597 0.92900002 150 0 0 0 0.047809999
2.2349999 0.60100001 0.93699998 150 0 0 0 0.047820002
2.2320001 0.60299999 0.94300002 150 0 0 0 0.047830001
2.233 0.60500002 0.94999999 150 0 0 0 0.047839999
2.234 0.60799998 0.958 150 0 0 0 0.047850002
2.234 0.61000001 0.96499997 150 0 0 0 0.04786
2.234 0.61299998 0.972 150 0 0 0 0.047869999
2.237 0.616 0.98000002 150 0 0 0 0.047880001
2.2420001 0.61900002 0.98900002 150 0 0 0 0.04789
2.2420001 0.62199998 0.99599999 150 0 0 0 0.047899999
2.2390001 0.62300003 1.002 150 0 0 0 0.047910001
2.244 0.62699997 1.011 150 0 0 0 0.04792
2.2420001 0.62800002 1.017 150 0 0 0 0.047929998
2.2420001 0.63 1.024 150 0 0 0 0.047940001
2.243 0.63300002 1.0319999 150 0 0 0 0.04795
2.24 0.634 1.0369999 150 0 0 0 0.047959998
2.24 0.63599998 1.044 150 0 0 0 0.047970001
2.243 0.63800001 1.053 150 0 0 0 0.047979999
2.24 0.639 1.058 150 0 0 0 0.047990002
2.2409999 0.64200002 1.066 150 0 0 0 0.048
2.24 0.64300001 1.072 150 0 0 0 0.048009999
2.2379999 0.64399999 1.0779999 150 0 0 0 0.048020002
2.2390001 0.64600003 1.086 150 0 0 0 0.04803
2.243 0.64899999 1.094 150 0 0 0 0.048039999
2.2420001 0.64999998 1.1 150 0 0 0 0.048050001
2.243 0.65200001 1.108 150 0 0 0 0.04806
2.2449999 0.65399998 1.115 150 0 0 0 0.048069999
2.243 0.65499997 1.122 150 0 0 0 0.048080001
2.2479999 0.65799999 1.131 150 0 0 0 0.04809
2.2850001 0.67000002 1.156 151 0 0 0 0.048099998
2.3 0.67500001 1.17 151 0 0 0 0.048110001
2.3110001 0.68000001 1.183 151 0 0 0 0.048119999
2.323 0.685 1.196 151 0 0 0 0.048129998
2.3410001 0.69099998 1.212 151 0 0 0 0.048140001
2.358 0.69700003 1.228 152 0 0 0 0.048149999
2.372 0.70200002 1.242 152 0 0 0 0.048160002
2.385 0.708 1.256 151 0 0 0 0.04817
2.4100001 0.71600002 1.276 151 0 0 0 0.048179999
2.431 0.72299999 1.294 151 0 0 0 0.048190001
2.4649999 0.73400003 1.319 151 0 0 0 0.0482
2.4860001 0.741 1.337 151 0 0 0 0.048209999
2.526 0.75400001 1.3660001 151 0 0 0 0.048220001
2.556 0.76300001 1.39 150 0 0 0 0.04823
2.598 0.77600002 1.419 150 0 0 0 0.048239999
2.6400001 0.78899997 1.45 150 0 0 0 0.048250001
2.677 0.801 1.478 150 0 0 0 0.04826
2.7119999 0.81199998 1.5039999 150 0 0 0 0.048269998
2.714 0.81300002 1.513 150 0 0 0 0.048280001
2.71 0.81199998 1.518 150 0 0 0 0.048289999
2.7049999 0.81099999 1.522 150 0 0 0 0.048300002
2.6589999 0.79699999 1.503 150 0 0 0 0.04831
2.539 0.76099998 1.442 150 0 0 0 0.048319999
2.4449999 0.73299998 1.395 150 0 0 0 0.048330002
2.3870001 0.71600002 1.368 150 0 0 0 0.04834
2.3399999 0.70099998 1.347 150 0 0 0 0.048349999
2.3010001 0.69 1.33 150 0 0 0 0.048360001
2.2149999 0.66399997 1.286 150 0 0 0 0.04837
2.1830001 0.65399998 1.273 100 0 0 0 0.048379999
2.174 0.65100002 1.272 107 0 0 0 0.048390001
2.1659999 0.648 1.273 111 0 0 0 0.0484
2.1530001 0.64399999 1.27 115 0 0 0 0.048409998
2.148 0.64200002 1.273 119 0 0 0 0.048420001
2.1359999 0.63800001 1.271 115 0 0 0 0.04843
2.1270001 0.634 1.27 121 0 0 0 0.048439998
2.1240001 0.63200003 1.272 125 0 0 0 0.048450001
2.1170001 0.63 1.273 130 0 0 0 0.048459999
2.1110001 0.62699997 1.274 116 0 0 0 0.048470002
2.1040001 0.62400001 1.274 122 0 0 0 0.04848
2.096 0.62099999 1.274 129 0 0 0 0.048489999
2.085 0.61699998 1.272 119 0 0 0 0.048500001
2.072 0.61199999 1.268 112 0 0 0 0.04851
2.0669999 0.60900003 1.268 102 0 0 0 0.048519999
2.0550001 0.60399997 1.265 102 0 0 0 0.048530001
2.046 0.60100001 1.263 101 0 0 0 0.04854
2.04 0.59799999 1.2640001 100 0 0 0 0.048549999
2.039 0.59600002 1.267 106 0 0 0 0.048560001
2.029 0.59200001 1.2640001 105 0 0 0 0.04857
2.0239999 0.58899999 1.265 105 0 0 0 0.048579998
2.02 0.58600003 1.265 108 0 0 0 0.048590001
2.0109999 0.58200002 1.263 107 0 0 0 0.048599999
2.006 0.579 1.263 114 0 0 0 0.048610002
2.0009999 0.57599998 1.263 110 0 0 0 0.04862
1.997 0.57300001 1.2640001 110 0 0 0 0.048629999
1.992 0.56999999 1.263 115 0 0 0 0.048640002
1.988 0.56699997 1.2640001 114 0 0 0 0.04865
1.985 0.565 1.2640001 122 0 0 0 0.048659999
1.982 0.56199998 1.265 119 0 0 0 0.048670001
1.978 0.55900002 1.265 121 0 0 0 0.04868
1.972 0.55500001 1.2640001 119 0 0 0 0.048689999
1.97 0.55299997 1.265 117 0 0 0 0.048700001
1.967 0.55000001 1.265 117 0 0 0 0.04871
1.96 0.546 1.263 115 0 0 0 0.048719998
1.9630001 0.54400003 1.266 87 0 0 0 0.048730001
1.962 0.542 1.268 49 0 0 0 0.04874
1.972 0.542 1.276 34 0 0 0 0.048749998
1.984 0.54299998 1.286 34 0 0 0 0.048760001
1.9910001 0.54299998 1.2920001 53 0 0 0 0.048769999
1.992 0.54100001 1.294 123 0 0 0 0.048780002
1.993 0.53899997 1.2970001 150 0 0 0 0.04879
1.988 0.53500003 1.295 144 0 0 0 0.048799999
1.987 0.53200001 1.295 132 0 0 0 0.048810001
1.984 0.52899998 1.294 121 0 0 0 0.04882
1.9910001 0.528 1.3 122 0 0 0 0.048829999
1.983 0.523 1.296 110 0 0 0 0.048840001
1.984 0.52100003 1.2970001 87 0 0 0 0.04885
1.984 0.51800001 1.298 48 0 0 0 0.048859999
1.998 0.51899999 1.308 31 0 0 0 0.048870001
2.0239999 0.523 1.325 23 0 0 0 0.04888
2.082 0.53500003 1.364 21 0 0 0 0.048889998
2.1240001 0.542 1.392 21 0 0 0 0.048900001
2.1429999 0.54400003 1.404 22 0 0 0 0.048909999
2.158 0.54500002 1.415 22 0 0 0 0.048920002
2.1730001 0.54500002 1.425 22 0 0 0 0.048930001
2.194 0.54699999 1.438 18 0 0 0 0.048939999
2.2160001 0.54900002 1.452 15 0 0 0 0.048950002
2.24 0.551 1.4680001 14 0 0 0 0.04896
2.2650001 0.55400002 1.483 14 0 0 0 0.048969999
2.2839999 0.55500001 1.4960001 13 0 0 0 0.048980001
2.302 0.55599999 1.506 12 0 0 0 0.04899
2.325 0.55800003 1.521 11 0 0 0 0.048999999
2.3399999 0.55699998 1.53 11 0 0 0 0.049010001
2.362 0.55900002 1.543 12 0 0 0 0.04902
2.381 0.55900002 1.554 11 0 0 0 0.049029998
2.3989999 0.56 1.5650001 12 0 0 0 0.049040001
2.421 0.56099999 1.577 13 0 0 0 0.04905
2.4400001 0.56099999 1.5880001 18 0 0 0 0.049059998
2.448 0.55900002 1.592 29 0 0 0 0.049070001
2.45 0.55500001 1.591 57 0 0 0 0.049079999
2.451 0.551 1.59 120 0 0 0 0.049090002
2.4579999 0.54799998 1.592 136 0 0 0 0.0491
2.4579999 0.54400003 1.59 128 0 0 0 0.049109999
2.4619999 0.54000002 1.59 119 0 0 0 0.049120001
2.4679999 0.537 1.592 111 0 0 0 0.04913
2.47 0.53399998 1.591 107 0 0 0 0.049139999
2.477 0.53100002 1.592 102 0 0 0 0.049150001
2.4860001 0.528 1.596 104 0 0 0 0.04916
2.4860001 0.52399999 1.592 100 0 0 0 0.049169999
2.49 0.51999998 1.592 106 0 0 0 0.049180001
2.4949999 0.51700002 1.592 99 0 0 0 0.04919
2.4990001 0.51300001 1.591 107 0 0 0 0.049199998
2.5079999 0.51099998 1.594 104 0 0 0 0.049210001
2.51 0.50700003 1.591 100 0 0 0 0.049219999
2.52 0.50400001 1.594 94 0 0 0 0.049229998
2.527 0.50099999 1.594 107 0 0 0 0.049240001
2.5350001 0.498 1.596 98 0 0 0 0.049249999
2.5369999 0.49399999 1.5930001 97 0 0 0 0.049260002
2.5450001 0.491 1.594 105 0 0 0 0.04927
2.55 0.48699999 1.5930001 93 0 0 0 0.049279999
2.559 0.484 1.594 102 0 0 0 0.049290001
2.563 0.48100001 1.592 100 0 0 0 0.0493
2.569 0.477 1.591 100 0 0 0 0.049309999
2.5769999 0.47400001 1.592 106 0 0 0 0.049320001
2.5869999 0.47099999 1.5930001 97 0 0 0 0.04933
2.5899999 0.46700001 1.59 101 0 0 0 0.049339999
2.6010001 0.46399999 1.592 94 0 0 0 0.049350001
2.6110001 0.46200001 1.5930001 108 0 0 0 0.04936
2.615 0.45699999 1.59 93 0 0 0 0.049369998
2.628 0.45500001 1.592 98 0 0 0 0.049380001
2.641 0.45300001 1.595 92 0 0 0 0.049389999
2.6470001 0.449 1.5930001 88 0 0 0 0.049400002
2.654 0.44499999 1.591 100 0 0 0 0.04941
2.6670001 0.44299999 1.594 93 0 0 0 0.049419999
2.675 0.44 1.5930001 91 0 0 0 0.049430002
2.688 0.43700001 1.594 90 0 0 0 0.04944
2.698 0.43399999 1.594 91 0 0 0 0.049449999
2.707 0.43099999 1.5930001 95 0 0 0 0.049460001
2.7190001 0.428 1.594 83 0 0 0 0.04947
2.7290001 0.42500001 1.5930001 82 0 0 0 0.049479999
2.7360001 0.421 1.591 80 0 0 0 0.049490001
2.7509999 0.41800001 1.5930001 81 0 0 0 0.0495
2.7679999 0.41600001 1.596 80 0 0 0 0.049509998
2.776 0.41299999 1.594 82 0 0 0 0.049520001
2.7869999 0.41 1.5930001 83 0 0 0 0.049529999
2.8 0.40700001 1.594 82 0 0 0 0.049539998
2.812 0.40400001 1.5930001 81 0 0 0 0.049550001
2.8239999 0.40099999 1.5930001 76 0 0 0 0.049559999
2.8380001 0.398 1.594 81 0 0 0 0.049570002
2.8499999 0.39500001 1.5930001 82 0 0 0 0.04958
2.859 0.39199999 1.591 81 0 0 0 0.049589999
2.8770001 0.389 1.5930001 83 0 0 0 0.049600001
2.891 0.38699999 1.5930001 84 0 0 0 0.04961
