# .PCD v0.7 - Point Cloud Data file format
VERSION 0.7
FIELDS x y z intensity normal_x normal_y normal_z curvature
SIZE 4 4 4 4 4 4 4 4
TYPE F F F F F F F F
COUNT 1 1 1 1 1 1 1 1
WIDTH 1034
HEIGHT 1
VIEWPOINT 0 0 0 1 0 0 0
POINTS 1034
DATA ascii
3.4170001 0.098999999 -0.163 151 0 0 0 0.056290001
3.414 0.104 -0.17200001 152 0 0 0 0.056299999
3.4119999 0.11 -0.18099999 152 0 0 0 0.056310002
3.4100001 0.116 -0.19 152 0 0 0 0.05632
3.4119999 0.122 -0.2 152 0 0 0 0.056329999
3.4130001 0.12800001 -0.20900001 151 0 0 0 0.056340002
3.4119999 0.134 -0.219 151 0 0 0 0.05635
3.405 0.14 -0.227 151 0 0 0 0.056359999
3.404 0.146 -0.237 151 0 0 0 0.056370001
3.408 0.152 -0.24600001 151 0 0 0 0.05638
3.4070001 0.15800001 -0.255 151 0 0 0 0.056389999
3.404 0.164 -0.264 151 0 0 0 0.056400001
3.4030001 0.17 -0.27399999 151 0 0 0 0.05641
3.4000001 0.176 -0.28299999 150 0 0 0 0.056419998
3.402 0.182 -0.292 150 0 0 0 0.056430001
3.405 0.189 -0.301 150 0 0 0 0.056439999
3.404 0.19499999 -0.31 150 0 0 0 0.056449998
3.3989999 0.20100001 -0.31900001 150 0 0 0 0.056460001
3.4070001 0.207 -0.329 150 0 0 0 0.056469999
3.401 0.213 -0.338 150 0 0 0 0.056480002
3.4000001 0.219 -0.347 150 0 0 0 0.05649
3.398 0.226 -0.35600001 150 0 0 0 0.056499999
3.4000001 0.23199999 -0.36500001 150 0 0 0 0.056510001
3.3959999 0.23800001 -0.37400001 150 0 0 0 0.05652
3.3940001 0.244 -0.38299999 150 0 0 0 0.056529999
3.398 0.25099999 -0.39199999 150 0 0 0 0.056540001
3.3989999 0.257 -0.40200001 150 0 0 0 0.05655
3.3989999 0.264 -0.41100001 150 0 0 0 0.056559999
3.3929999 0.27000001 -0.419 150 0 0 0 0.056570001
3.391 0.27599999 -0.428 150 0 0 0 0.05658
3.395 0.28299999 -0.43799999 150 0 0 0 0.056589998
3.392 0.289 -0.44600001 150 0 0 0 0.056600001
3.3929999 0.29499999 -0.456 150 0 0 0 0.056609999
3.391 0.30199999 -0.46399999 150 0 0 0 0.056620002
3.3900001 0.308 -0.47299999 150 0 0 0 0.05663
3.388 0.315 -0.48199999 150 0 0 0 0.056639999
3.3900001 0.32100001 -0.491 150 0 0 0 0.056650002
3.3929999 0.32800001 -0.50099999 150 0 0 0 0.05666
3.395 0.33500001 -0.50999999 150 0 0 0 0.056669999
3.3900001 0.34099999 -0.51800001 150 0 0 0 0.056680001
3.388 0.34799999 -0.52700001 150 0 0 0 0.05669
3.3889999 0.354 -0.53600001 150 0 0 0 0.056699999
3.3889999 0.361 -0.54500002 150 0 0 0 0.056710001
3.395 0.368 -0.55500001 150 0 0 0 0.05672
3.3900001 0.375 -0.56300002 150 0 0 0 0.056729998
3.382 0.38100001 -0.57099998 150 0 0 0 0.056740001
3.3900001 0.38800001 -0.58099997 150 0 0 0 0.05675
3.3889999 0.39500001 -0.58999997 150 0 0 0 0.056759998
3.388 0.40200001 -0.59899998 150 0 0 0 0.056770001
3.3859999 0.40799999 -0.60699999 150 0 0 0 0.056779999
3.3840001 0.41499999 -0.616 150 0 0 0 0.056790002
3.381 0.42199999 -0.62400001 150 0 0 0 0.0568
3.3840001 0.42899999 -0.634 150 0 0 0 0.056809999
3.3840001 0.43599999 -0.64200002 150 0 0 0 0.056820001
3.3840001 0.44299999 -0.65100002 150 0 0 0 0.05683
3.381 0.449 -0.66000003 150 0 0 0 0.056839999
3.3789999 0.456 -0.66799998 150 0 0 0 0.056850001
3.3789999 0.463 -0.67699999 150 0 0 0 0.05686
3.3800001 0.47 -0.68599999 150 0 0 0 0.056869999
3.3789999 0.477 -0.69400001 150 0 0 0 0.056880001
3.378 0.484 -0.70300001 150 0 0 0 0.05689
3.3759999 0.491 -0.71200001 150 0 0 0 0.056899998
3.3599999 0.49599999 -0.71700001 150 0 0 0 0.056910001
3.3199999 0.49700001 -0.71700001 150 0 0 0 0.056919999
3.3080001 0.50199997 -0.72299999 150 0 0 0 0.056930002
3.3050001 0.509 -0.73100001 150 0 0 0 0.056940001
3.306 0.51599997 -0.73900002 150 0 0 0 0.056949999
3.2820001 0.51999998 -0.74299997 150 0 0 0 0.056960002
3.2679999 0.52499998 -0.74800003 150 0 0 0 0.05697
3.2739999 0.53299999 -0.75800002 150 0 0 0 0.056979999
3.2679999 0.53899997 -0.76499999 150 0 0 0 0.056990001
3.2679999 0.546 -0.773 150 0 0 0 0.057
3.2650001 0.55299997 -0.78100002 150 0 0 0 0.057009999
3.2609999 0.55900002 -0.78799999 123 0 0 0 0.057020001
3.2390001 0.56300002 -0.79100001 29 0 0 0 0.05703
3.1889999 0.56099999 -0.787 20 0 0 0 0.057039998
3.1340001 0.55900002 -0.78100002 24 0 0 0 0.057050001
3.079 0.55599999 -0.77499998 26 0 0 0 0.05706
3.0480001 0.55699998 -0.77499998 26 0 0 0 0.057069998
3.0090001 0.55599999 -0.773 26 0 0 0 0.057080001
2.9200001 0.546 -0.75700003 23 0 0 0 0.057089999
2.8310001 0.53600001 -0.741 14 0 0 0 0.057100002
2.773 0.53200001 -0.73299998 10 0 0 0 0.05711
2.7190001 0.528 -0.72600001 9 0 0 0 0.057119999
2.6670001 0.523 -0.71799999 8 0 0 0 0.057130001
2.6170001 0.51999998 -0.71100003 8 0 0 0 0.05714
2.5739999 0.51700002 -0.70599997 8 0 0 0 0.057149999
2.5280001 0.514 -0.69999999 7 0 0 0 0.057160001
2.4860001 0.51099998 -0.69400001 7 0 0 0 0.05717
2.45 0.509 -0.69099998 7 0 0 0 0.057179999
2.405 0.50599998 -0.68400002 8 0 0 0 0.057190001
2.372 0.50400001 -0.68000001 7 0 0 0 0.0572
2.336 0.50199997 -0.67500001 8 0 0 0 0.057209998
2.2820001 0.49599999 -0.66500002 16 0 0 0 0.057220001
2.2490001 0.49399999 -0.66100001 140 0 0 0 0.057229999
2.2460001 0.49900001 -0.66600001 151 0 0 0 0.057240002
2.2479999 0.505 -0.67199999 151 0 0 0 0.057250001
2.2490001 0.50999999 -0.67799997 151 0 0 0 0.057259999
2.2309999 0.51200002 -0.67799997 150 0 0 0 0.057270002
2.2179999 0.514 -0.67900002 150 0 0 0 0.05728
2.2149999 0.51899999 -0.68300003 150 0 0 0 0.057289999
2.2160001 0.52399999 -0.68900001 150 0 0 0 0.057300001
2.22 0.53100002 -0.69599998 150 0 0 0 0.05731
2.2179999 0.53600001 -0.69999999 151 0 0 0 0.057319999
2.2160001 0.54100001 -0.70499998 150 0 0 0 0.057330001
2.2149999 0.546 -0.70999998 151 0 0 0 0.05734
2.2130001 0.551 -0.71399999 151 0 0 0 0.057349999
2.2149999 0.55699998 -0.72000003 151 0 0 0 0.057360001
2.21 0.56099999 -0.72399998 151 0 0 0 0.05737
2.2130001 0.56800002 -0.73000002 150 0 0 0 0.057379998
2.2179999 0.574 -0.736 150 0 0 0 0.057390001
2.22 0.58099997 -0.74199998 151 0 0 0 0.057399999
2.221 0.58600003 -0.74800003 151 0 0 0 0.057410002
2.2190001 0.59100002 -0.75199997 151 0 0 0 0.05742
2.2179999 0.597 -0.75700003 151 0 0 0 0.057429999
2.22 0.60299999 -0.76200002 151 0 0 0 0.057440002
2.214 0.60699999 -0.76599997 150 0 0 0 0.05745
2.2249999 0.616 -0.77399999 151 0 0 0 0.057459999
2.256 0.63 -0.79000002 150 0 0 0 0.057470001
2.3329999 0.65799999 -0.82200003 101 0 0 0 0.05748
2.4119999 0.68599999 -0.85500002 25 0 0 0 0.057489999
2.3940001 0.68699998 -0.85399997 24 0 0 0 0.057500001
2.378 0.68900001 -0.85399997 24 0 0 0 0.05751
2.3599999 0.69 -0.852 24 0 0 0 0.057519998
2.352 0.69300002 -0.85399997 25 0 0 0 0.057530001
2.2709999 0.676 -0.82999998 108 0 0 0 0.057539999
2.3180001 0.69599998 -0.852 149 0 0 0 0.057549998
2.3139999 0.69999999 -0.85500002 121 0 0 0 0.057560001
1.4809999 0.45199999 -0.551 8 0 0 0 0.057569999
1.464 0.45100001 -0.54699999 8 0 0 0 0.057580002
1.451 0.45100001 -0.54500002 8 0 0 0 0.05759
1.434 0.449 -0.542 8 0 0 0 0.057599999
1.418 0.44800001 -0.53899997 8 0 0 0 0.057610001
1.404 0.447 -0.53600001 8 0 0 0 0.05762
1.3890001 0.44600001 -0.53299999 8 0 0 0 0.057629999
1.375 0.44499999 -0.53100002 2 0 0 0 0.057640001
1.36 0.44400001 -0.528 2 0 0 0 0.05765
1.345 0.44299999 -0.52499998 8 0 0 0 0.057659999
1.33 0.44100001 -0.52100003 10 0 0 0 0.057670001
1.309 0.43799999 -0.51599997 51 0 0 0 0.05768
1.29 0.435 -0.51099998 150 0 0 0 0.057689998
1.278 0.43399999 -0.50800002 150 0 0 0 0.057700001
1.277 0.43799999 -0.50999999 150 0 0 0 0.057709999
1.277 0.44100001 -0.51300001 150 0 0 0 0.057720002
1.278 0.44499999 -0.51599997 150 0 0 0 0.05773
1.281 0.449 -0.51899999 150 0 0 0 0.057739999
1.278 0.45199999 -0.51999998 150 0 0 0 0.057750002
1.278 0.45500001 -0.52200001 150 0 0 0 0.05776
1.277 0.458 -0.52399999 150 0 0 0 0.057769999
1.276 0.461 -0.52600002 150 0 0 0 0.057780001
1.275 0.46399999 -0.528 150 0 0 0 0.05779
1.274 0.46799999 -0.52999997 150 0 0 0 0.057799999
1.273 0.47 -0.53100002 150 0 0 0 0.057810001
1.276 0.47499999 -0.53500003 150 0 0 0 0.05782
1.279 0.47999999 -0.53799999 121 0 0 0 0.057829998
1.284 0.48500001 -0.542 51 0 0 0 0.057840001
1.255 0.477 -0.53200001 38 0 0 0 0.05785
1.238 0.47400001 -0.52700001 53 0 0 0 0.057859998
1.225 0.47299999 -0.523 65 0 0 0 0.057870001
1.216 0.47299999 -0.52100003 67 0 0 0 0.057879999
1.201 0.47 -0.51599997 61 0 0 0 0.057890002
1.197 0.47099999 -0.51599997 61 0 0 0 0.0579
1.186 0.47 -0.51300001 63 0 0 0 0.057909999
1.177 0.47 -0.51099998 62 0 0 0 0.057920001
1.168 0.46900001 -0.509 68 0 0 0 0.05793
1.155 0.46700001 -0.505 68 0 0 0 0.057939999
1.151 0.46900001 -0.50400001 69 0 0 0 0.057950001
1.1440001 0.46900001 -0.50300002 71 0 0 0 0.05796
1.1339999 0.46799999 -0.5 70 0 0 0 0.057969999
1.124 0.46599999 -0.49700001 87 0 0 0 0.057980001
1.114 0.465 -0.49399999 70 0 0 0 0.05799
1.108 0.46599999 -0.493 68 0 0 0 0.057999998
1.1 0.465 -0.49000001 79 0 0 0 0.058010001
1.09 0.46399999 -0.48699999 82 0 0 0 0.058019999
1.0829999 0.46399999 -0.48500001 83 0 0 0 0.058030002
1.073 0.46200001 -0.48199999 87 0 0 0 0.05804
1.068 0.463 -0.48100001 86 0 0 0 0.058049999
1.063 0.463 -0.47999999 91 0 0 0 0.058060002
1.054 0.46200001 -0.47600001 79 0 0 0 0.05807
1.0470001 0.461 -0.47400001 81 0 0 0 0.058079999
1.036 0.45899999 -0.47 75 0 0 0 0.058090001
1.0319999 0.46000001 -0.46900001 73 0 0 0 0.0581
1.026 0.46000001 -0.46700001 72 0 0 0 0.058109999
1.0190001 0.45899999 -0.465 67 0 0 0 0.058120001
1.015 0.46000001 -0.46399999 70 0 0 0 0.05813
1.006 0.45899999 -0.461 71 0 0 0 0.058139998
1.001 0.45899999 -0.45899999 75 0 0 0 0.058150001
0.99599999 0.45899999 -0.458 76 0 0 0 0.05816
0.99000001 0.458 -0.45500001 70 0 0 0 0.058169998
0.98299998 0.458 -0.45300001 68 0 0 0 0.058180001
0.97399998 0.456 -0.449 64 0 0 0 0.058189999
0.96799999 0.45500001 -0.447 64 0 0 0 0.058200002
0.96499997 0.456 -0.44600001 61 0 0 0 0.05821
0.96200001 0.45699999 -0.44499999 65 0 0 0 0.058219999
0.95300001 0.454 -0.44100001 64 0 0 0 0.058230001
0.94999999 0.45500001 -0.44100001 64 0 0 0 0.05824
0.94499999 0.45500001 -0.43900001 58 0 0 0 0.058249999
0.93599999 0.45300001 -0.435 49 0 0 0 0.058260001
0.935 0.454 -0.43399999 46 0 0 0 0.05827
0.92699999 0.45199999 -0.43099999 48 0 0 0 0.058279999
0.92699999 0.454 -0.43099999 48 0 0 0 0.058290001
0.912 0.449 -0.42399999 54 0 0 0 0.0583
0.90399998 0.447 -0.421 60 0 0 0 0.058309998
0.90100002 0.447 -0.419 61 0 0 0 0.058320001
0.898 0.44800001 -0.41800001 61 0 0 0 0.058329999
0.89099997 0.44600001 -0.41499999 67 0 0 0 0.058340002
0.88999999 0.447 -0.414 87 0 0 0 0.058350001
0.88999999 0.449 -0.414 91 0 0 0 0.058359999
0.889 0.44999999 -0.414 79 0 0 0 0.058370002
0.89099997 0.45300001 -0.41499999 65 0 0 0 0.05838
0.89499998 0.456 -0.41600001 63 0 0 0 0.058389999
0.89099997 0.456 -0.414 53 0 0 0 0.058400001
0.89399999 0.45899999 -0.41499999 44 0 0 0 0.05841
0.89399999 0.461 -0.41499999 38 0 0 0 0.058419999
0.89399999 0.46200001 -0.41499999 33 0 0 0 0.058430001
0.89700001 0.465 -0.41600001 27 0 0 0 0.05844
0.89499998 0.465 -0.414 27 0 0 0 0.058449998
0.89600003 0.46700001 -0.41499999 26 0 0 0 0.058460001
0.89399999 0.46799999 -0.41299999 28 0 0 0 0.05847
0.91399997 0.47999999 -0.42199999 45 0 0 0 0.058479998
0.958 0.50400001 -0.442 72 0 0 0 0.058490001
0.986 0.51999998 -0.454 112 0 0 0 0.058499999
1.0089999 0.53399998 -0.46399999 140 0 0 0 0.058510002
1.0319999 0.54799998 -0.47400001 150 0 0 0 0.05852
1.053 0.56 -0.48300001 150 0 0 0 0.058529999
1.073 0.57200003 -0.491 150 0 0 0 0.058540002
1.094 0.58399999 -0.5 150 0 0 0 0.05855
1.113 0.59600002 -0.50800002 126 0 0 0 0.058559999
1.136 0.61000001 -0.51700002 108 0 0 0 0.058570001
1.1390001 0.61299998 -0.51800001 84 0 0 0 0.05858
1.1339999 0.611 -0.514 60 0 0 0 0.058589999
1.123 0.60699999 -0.50800002 43 0 0 0 0.058600001
1.109 0.60000002 -0.50099999 26 0 0 0 0.05861
1.082 0.58700001 -0.48699999 19 0 0 0 0.058619998
1.04 0.56400001 -0.46700001 18 0 0 0 0.058630001
0.99800003 0.542 -0.447 22 0 0 0 0.058639999
0.96899998 0.528 -0.433 25 0 0 0 0.058649998
0.95300001 0.51899999 -0.42500001 27 0 0 0 0.058660001
0.93099999 0.50800002 -0.414 23 0 0 0 0.058669999
0.91399997 0.5 -0.405 26 0 0 0 0.058680002
0.90399998 0.495 -0.39899999 20 0 0 0 0.05869
0.89499998 0.49000001 -0.39399999 21 0 0 0 0.058699999
0.89399999 0.491 -0.39300001 19 0 0 0 0.058710001
0.89999998 0.49399999 -0.39399999 17 0 0 0 0.05872
0.89700001 0.493 -0.39199999 16 0 0 0 0.058729999
0.89300001 0.491 -0.38800001 19 0 0 0 0.058740001
0.898 0.49399999 -0.389 16 0 0 0 0.05875
0.90100002 0.49599999 -0.389 13 0 0 0 0.058759999
0.90700001 0.49900001 -0.38999999 10 0 0 0 0.058770001
0.90600002 0.49900001 -0.389 9 0 0 0 0.05878
0.91100001 0.50300002 -0.389 9 0 0 0 0.058789998
0.90499997 0.49900001 -0.38499999 7 0 0 0 0.058800001
0.90600002 0.5 -0.384 7 0 0 0 0.058809999
0.91000003 0.50199997 -0.384 8 0 0 0 0.058820002
0.90899998 0.50099999 -0.382 8 0 0 0 0.05883
0.91000003 0.50199997 -0.38100001 8 0 0 0 0.058839999
0.91100001 0.50199997 -0.38 7 0 0 0 0.058850002
0.91000003 0.50199997 -0.37799999 8 0 0 0 0.05886
0.90700001 0.5 -0.375 7 0 0 0 0.058869999
0.90700001 0.5 -0.373 7 0 0 0 0.058880001
0.91000003 0.50099999 -0.37200001 7 0 0 0 0.05889
0.91399997 0.50300002 -0.373 7 0 0 0 0.058899999
0.91500002 0.50300002 -0.37099999 7 0 0 0 0.058910001
0.91500002 0.50300002 -0.36899999 7 0 0 0 0.05892
0.91399997 0.50300002 -0.36700001 8 0 0 0 0.058929998
0.917 0.50300002 -0.366 7 0 0 0 0.058940001
0.917 0.50300002 -0.36500001 7 0 0 0 0.05895
0.92000002 0.50400001 -0.36399999 7 0 0 0 0.058959998
0.92000002 0.50400001 -0.36199999 7 0 0 0 0.058970001
0.92400002 0.505 -0.36199999 7 0 0 0 0.058979999
0.92400002 0.505 -0.36000001 8 0 0 0 0.058990002
0.92500001 0.505 -0.35800001 8 0 0 0 0.059
0.93000001 0.50700003 -0.35800001 8 0 0 0 0.059009999
0.935 0.509 -0.35800001 8 0 0 0 0.059020001
0.93300003 0.50599998 -0.35499999 7 0 0 0 0.05903
0.93199998 0.505 -0.35299999 7 0 0 0 0.059039999
0.93599999 0.50700003 -0.35299999 7 0 0 0 0.059050001
0.935 0.505 -0.34999999 8 0 0 0 0.05906
0.93800002 0.50599998 -0.34900001 8 0 0 0 0.059069999
0.94199997 0.50700003 -0.34900001 7 0 0 0 0.059080001
0.94300002 0.50700003 -0.347 7 0 0 0 0.05909
0.93800002 0.50300002 -0.34299999 7 0 0 0 0.059099998
0.93400002 0.5 -0.33899999 7 0 0 0 0.059110001
0.935 0.49900001 -0.338 7 0 0 0 0.059119999
0.92799997 0.49399999 -0.333 7 0 0 0 0.059130002
0.926 0.49200001 -0.33000001 8 0 0 0 0.05914
0.91900003 0.48699999 -0.32600001 8 0 0 0 0.059149999
0.91500002 0.484 -0.322 8 0 0 0 0.059160002
0.90700001 0.47799999 -0.317 8 0 0 0 0.05917
0.90799999 0.477 -0.315 9 0 0 0 0.059179999
0.90899998 0.477 -0.31400001 8 0 0 0 0.059190001
0.903 0.472 -0.31 8 0 0 0 0.0592
0.90700001 0.47299999 -0.30899999 8 0 0 0 0.059209999
0.90799999 0.472 -0.30700001 9 0 0 0 0.059220001
0.90600002 0.47 -0.30399999 8 0 0 0 0.05923
0.91100001 0.47099999 -0.30399999 9 0 0 0 0.059239998
0.90799999 0.46799999 -0.301 13 0 0 0 0.059250001
0.90600002 0.465 -0.29800001 12 0 0 0 0.05926
0.90600002 0.46399999 -0.296 15 0 0 0 0.059269998
0.90700001 0.463 -0.294 16 0 0 0 0.059280001
0.90399998 0.46000001 -0.29100001 20 0 0 0 0.059289999
0.90399998 0.458 -0.289 20 0 0 0 0.059300002
0.91100001 0.46000001 -0.289 15 0 0 0 0.05931
0.91000003 0.458 -0.28600001 10 0 0 0 0.059319999
0.91000003 0.456 -0.28400001 7 0 0 0 0.059330001
0.912 0.45500001 -0.28200001 5 0 0 0 0.05934
0.903 0.449 -0.278 4 0 0 0 0.059349999
0.91100001 0.45100001 -0.278 0 0 0 0 0.059360001
0 0 0 0 0 0 0 0.05937
0 0 0 0 0 0 0 0.059379999
0 0 0 0 0 0 0 0.059390001
0 0 0 0 0 0 0 0.0594
0 0 0 0 0 0 0 0.059409998
3.036 1.4680001 -0.884 2 0 0 0 0.059420001
3.0780001 1.482 -0.889 3 0 0 0 0.059429999
3.056 1.465 -0.87599999 0 0 0 0 0.059440002
3.0739999 1.467 -0.87400001 2 0 0 0 0.059450001
3.095 1.47 -0.87199998 2 0 0 0 0.059459999
3.0810001 1.457 -0.861 2 0 0 0 0.059470002
3.0899999 1.454 -0.85699999 3 0 0 0 0.05948
3.105 1.454 -0.85299999 3 0 0 0 0.059489999
3.1129999 1.451 -0.84799999 3 0 0 0 0.059500001
3.115 1.4450001 -0.84200001 3 0 0 0 0.05951
3.1170001 1.439 -0.83499998 4 0 0 0 0.059519999
3.0940001 1.421 -0.82200003 5 0 0 0 0.059530001
3.092 1.413 -0.81400001 5 0 0 0 0.05954
3.095 1.4069999 -0.80800003 5 0 0 0 0.059549998
3.0940001 1.399 -0.80000001 5 0 0 0 0.059560001
3.112 1.4 -0.79799998 3 0 0 0 0.05957
3.118 1.395 -0.792 3 0 0 0 0.059579998
3.1159999 1.387 -0.78500003 2 0 0 0 0.059590001
3.1359999 1.388 -0.78299999 1 0 0 0 0.059599999
3.168 1.395 -0.78299999 2 0 0 0 0.059610002
3.1960001 1.399 -0.78299999 3 0 0 0 0.05962
3.2119999 1.398 -0.77999997 4 0 0 0 0.059629999
3.2030001 1.386 -0.77100003 5 0 0 0 0.059640002
3.2019999 1.378 -0.76300001 5 0 0 0 0.05965
3.201 1.369 -0.75599998 4 0 0 0 0.059659999
3.204 1.362 -0.74900001 4 0 0 0 0.059670001
3.2309999 1.3660001 -0.74900001 3 0 0 0 0.05968
3.2320001 1.358 -0.74199998 3 0 0 0 0.059689999
3.234 1.351 -0.73500001 5 0 0 0 0.059700001
3.2290001 1.34 -0.727 6 0 0 0 0.05971
3.234 1.334 -0.72100002 5 0 0 0 0.059719998
3.257 1.335 -0.71899998 3 0 0 0 0.059730001
3.2709999 1.332 -0.71499997 3 0 0 0 0.059739999
3.2850001 1.329 -0.71100003 3 0 0 0 0.059749998
3.2980001 1.326 -0.70700002 5 0 0 0 0.059760001
3.303 1.319 -0.70099998 6 0 0 0 0.059769999
3.302 1.3099999 -0.69400001 6 0 0 0 0.059780002
3.306 1.303 -0.68800002 6 0 0 0 0.05979
3.302 1.2920001 -0.68000001 5 0 0 0 0.059799999
1.2359999 0.47999999 -0.252 1 0 0 0 0.059810001
1.252 0.48300001 -0.252 0 0 0 0 0.05982
1.2819999 0.491 -0.25600001 6 0 0 0 0.059829999
1.296 0.493 -0.25600001 13 0 0 0 0.059840001
1.29 0.48699999 -0.252 67 0 0 0 0.05985
1.289 0.48300001 -0.249 150 0 0 0 0.059859999
1.288 0.479 -0.24600001 150 0 0 0 0.059870001
1.2869999 0.47499999 -0.243 150 0 0 0 0.05988
1.288 0.472 -0.241 150 0 0 0 0.059889998
1.288 0.46900001 -0.23899999 150 0 0 0 0.059900001
1.29 0.46599999 -0.236 150 0 0 0 0.059909999
1.288 0.46200001 -0.233 150 0 0 0 0.059920002
1.293 0.46000001 -0.23199999 150 0 0 0 0.05993
1.289 0.45500001 -0.229 150 0 0 0 0.059939999
1.284 0.44999999 -0.22499999 150 0 0 0 0.059950002
1.291 0.44800001 -0.22400001 150 0 0 0 0.05996
1.2920001 0.44499999 -0.221 150 0 0 0 0.059969999
1.298 0.44299999 -0.22 59 0 0 0 0.059980001
1.3200001 0.447 -0.221 9 0 0 0 0.05999
1.332 0.447 -0.22 1 0 0 0 0.059999999
1.352 0.44999999 -0.221 1 0 0 0 0.060010001
1.35 0.44600001 -0.21799999 1 0 0 0 0.06002
1.369 0.44800001 -0.219 1 0 0 0 0.060029998
1.398 0.454 -0.221 1 0 0 0 0.060040001
1.419 0.45699999 -0.222 1 0 0 0 0.06005
1.429 0.456 -0.22 1 0 0 0 0.060059998
1.45 0.458 -0.221 1 0 0 0 0.060070001
1.4630001 0.458 -0.22 1 0 0 0 0.060079999
1.484 0.461 -0.221 1 0 0 0 0.060090002
2.52 0.77499998 -0.37 150 0 0 0 0.0601
2.323 0.708 -0.33700001 150 0 0 0 0.060109999
2.4630001 0.74400002 -0.35299999 123 0 0 0 0.060120001
2.4790001 0.741 -0.35100001 150 0 0 0 0.06013
2.4820001 0.73500001 -0.347 150 0 0 0 0.060139999
2.484 0.72799999 -0.34299999 150 0 0 0 0.060150001
2.4849999 0.72100002 -0.33899999 150 0 0 0 0.06016
2.401 0.69 -0.32300001 150 0 0 0 0.060169999
2.2620001 0.64300001 -0.30000001 151 0 0 0 0.060180001
2.2249999 0.62599999 -0.29100001 151 0 0 0 0.06019
2.224 0.62 -0.287 151 0 0 0 0.060199998
2.223 0.61299998 -0.28299999 151 0 0 0 0.060210001
2.2249999 0.60699999 -0.28 151 0 0 0 0.060219999
2.2219999 0.60000002 -0.27599999 151 0 0 0 0.060230002
2.224 0.59399998 -0.27200001 151 0 0 0 0.06024
2.22 0.58600003 -0.26800001 151 0 0 0 0.060249999
2.2160001 0.579 -0.264 151 0 0 0 0.060260002
2.2179999 0.57300001 -0.25999999 151 0 0 0 0.06027
2.22 0.56699997 -0.257 151 0 0 0 0.060279999
2.2219999 0.56099999 -0.25299999 151 0 0 0 0.060290001
2.2160001 0.55299997 -0.249 151 0 0 0 0.0603
2.2179999 0.54699999 -0.24600001 151 0 0 0 0.060309999
2.227 0.54299998 -0.243 151 0 0 0 0.060320001
2.221 0.53500003 -0.23899999 151 0 0 0 0.06033
2.2219999 0.528 -0.235 151 0 0 0 0.060339998
2.2390001 0.52600002 -0.233 151 0 0 0 0.060350001
2.237 0.51899999 -0.23 152 0 0 0 0.06036
2.2379999 0.51200002 -0.226 152 0 0 0 0.060369998
2.256 0.50999999 -0.22400001 151 0 0 0 0.060380001
2.273 0.50700003 -0.222 97 0 0 0 0.060389999
2.3699999 0.52100003 -0.228 27 0 0 0 0.060400002
2.4130001 0.52399999 -0.229 26 0 0 0 0.06041
2.464 0.528 -0.23 25 0 0 0 0.060419999
2.517 0.53100002 -0.23100001 24 0 0 0 0.060430001
2.5769999 0.537 -0.23199999 24 0 0 0 0.06044
2.6429999 0.542 -0.234 26 0 0 0 0.060449999
2.707 0.54799998 -0.236 26 0 0 0 0.060460001
2.7850001 0.55500001 -0.23800001 27 0 0 0 0.06047
2.872 0.56400001 -0.241 29 0 0 0 0.060479999
2.928 0.56599998 -0.242 28 0 0 0 0.060490001
3.0150001 0.574 -0.245 29 0 0 0 0.0605
3.095 0.57999998 -0.24600001 28 0 0 0 0.060509998
3.1570001 0.58200002 -0.24699999 28 0 0 0 0.060520001
3.21 0.583 -0.24600001 27 0 0 0 0.060529999
3.2490001 0.57999998 -0.244 31 0 0 0 0.060540002
3.2809999 0.57599998 -0.242 150 0 0 0 0.060550001
3.276 0.56599998 -0.237 153 0 0 0 0.060559999
3.283 0.55699998 -0.233 153 0 0 0 0.060570002
3.277 0.546 -0.228 153 0 0 0 0.06058
3.286 0.53799999 -0.22400001 152 0 0 0 0.060589999
3.3139999 0.53299999 -0.221 152 0 0 0 0.060600001
3.319 0.52399999 -0.21600001 152 0 0 0 0.06061
3.3139999 0.51300001 -0.211 151 0 0 0 0.060619999
3.3610001 0.50999999 -0.20999999 152 0 0 0 0.060630001
3.3859999 0.50400001 -0.207 152 0 0 0 0.06064
3.3840001 0.49399999 -0.20200001 152 0 0 0 0.060649998
3.3829999 0.48300001 -0.197 152 0 0 0 0.060660001
3.3870001 0.47400001 -0.193 152 0 0 0 0.06067
3.3840001 0.463 -0.18799999 151 0 0 0 0.060679998
3.391 0.454 -0.184 152 0 0 0 0.060690001
3.3900001 0.44400001 -0.17900001 152 0 0 0 0.060699999
3.391 0.43399999 -0.175 152 0 0 0 0.060710002
3.382 0.42300001 -0.169 153 0 0 0 0.06072
3.375 0.412 -0.16500001 154 0 0 0 0.060729999
3.372 0.40099999 -0.16 154 0 0 0 0.060740001
3.3729999 0.391 -0.156 154 0 0 0 0.06075
3.3640001 0.38 -0.15099999 154 0 0 0 0.060759999
3.3640001 0.37 -0.146 155 0 0 0 0.060770001
3.362 0.36000001 -0.142 155 0 0 0 0.06078
3.3629999 0.34999999 -0.138 156 0 0 0 0.060789999
3.3540001 0.33899999 -0.133 158 0 0 0 0.060800001
3.3540001 0.329 -0.12899999 158 0 0 0 0.06081
3.349 0.31799999 -0.124 159 0 0 0 0.060819998
3.348 0.308 -0.12 161 0 0 0 0.060830001
3.3510001 0.29800001 -0.116 162 0 0 0 0.060839999
3.358 0.289 -0.112 163 0 0 0 0.060849998
3.3540001 0.27900001 -0.107 163 0 0 0 0.060860001
3.3570001 0.26899999 -0.103 163 0 0 0 0.060869999
3.3499999 0.25799999 -0.098999999 164 0 0 0 0.060880002
3.3570001 0.248 -0.094999999 164 0 0 0 0.06089
3.3570001 0.23800001 -0.090999998 163 0 0 0 0.060899999
3.3570001 0.228 -0.086999997 163 0 0 0 0.060910001
3.3629999 0.219 -0.082999997 164 0 0 0 0.06092
3.3540001 0.208 -0.078000002 164 0 0 0 0.060929999
3.362 0.198 -0.075000003 163 0 0 0 0.060940001
3.359 0.18799999 -0.071000002 162 0 0 0 0.06095
3.3610001 0.178 -0.067000002 162 0 0 0 0.060959999
3.3599999 0.168 -0.061999999 162 0 0 0 0.060970001
3.3670001 0.15800001 -0.059 161 0 0 0 0.06098
3.3699999 0.148 -0.055 159 0 0 0 0.060989998
3.368 0.138 -0.050999999 157 0 0 0 0.061000001
3.3789999 0.12800001 -0.046999998 157 0 0 0 0.061009999
3.3829999 0.118 -0.043000001 156 0 0 0 0.061020002
3.3829999 0.108 -0.039000001 156 0 0 0 0.06103
3.3959999 0.097999997 -0.035 154 0 0 0 0.061039999
3.3900001 0.086999997 -0.030999999 154 0 0 0 0.061050002
3.398 0.077 -0.028000001 154 0 0 0 0.06106
3.4070001 0.067000002 -0.024 154 0 0 0 0.061069999
3.418 0.057 -0.02 153 0 0 0 0.061080001
3.418 0.046 -0.016000001 153 0 0 0 0.06109
3.4230001 0.035999998 -0.012 152 0 0 0 0.061099999
3.424 0.026000001 -0.0089999996 151 0 0 0 0.061110001
3.421 0.015 -0.0049999999 151 0 0 0 0.06112
3.421 0.0049999999 -0.001 151 0 0 0 0.061129998
3.418 -0.0049999999 0.0020000001 151 0 0 0 0.061140001
3.4200001 -0.015 0.0060000001 151 0 0 0 0.061149999
3.421 -0.025 0.0089999996 151 0 0 0 0.061159998
3.428 -0.035999998 0.013 151 0 0 0 0.061170001
3.428 -0.046 0.017000001 151 0 0 0 0.061179999
3.427 -0.057 0.02 151 0 0 0 0.061190002
3.4330001 -0.068000004 0.024 151 0 0 0 0.0612
3.4319999 -0.078000002 0.028000001 151 0 0 0 0.061209999
3.4319999 -0.088 0.030999999 151 0 0 0 0.061220001
3.4319999 -0.098999999 0.035 151 0 0 0 0.06123
3.4319999 -0.11 0.039000001 151 0 0 0 0.061239999
3.434 -0.12 0.041999999 151 0 0 0 0.061250001
3.4389999 -0.131 0.046 151 0 0 0 0.06126
3.438 -0.141 0.048999999 151 0 0 0 0.061269999
3.4400001 -0.152 0.052999999 151 0 0 0 0.061280001
3.4349999 -0.162 0.056000002 151 0 0 0 0.06129
3.421 -0.17200001 0.059999999 154 0 0 0 0.061299998
3.3729999 -0.18000001 0.061999999 150 0 0 0 0.061310001
3.369 -0.19 0.066 152 0 0 0 0.061319999
3.3729999 -0.20100001 0.068999998 152 0 0 0 0.061330002
3.3510001 -0.20999999 0.071999997 151 0 0 0 0.06134
3.3399999 -0.22 0.075000003 152 0 0 0 0.061349999
3.3410001 -0.23 0.078000002 152 0 0 0 0.061360002
3.345 -0.241 0.082000002 151 0 0 0 0.06137
3.346 -0.25099999 0.085000001 152 0 0 0 0.061379999
3.283 -0.257 0.086999997 62 0 0 0 0.061390001
3.2379999 -0.26300001 0.089000002 152 0 0 0 0.0614
3.2309999 -0.273 0.090999998 151 0 0 0 0.061409999
3.233 -0.28299999 0.094999999 151 0 0 0 0.061420001
3.2390001 -0.29300001 0.097999997 151 0 0 0 0.06143
3.2349999 -0.303 0.101 151 0 0 0 0.061439998
3.2320001 -0.31299999 0.104 152 0 0 0 0.061450001
3.21 -0.32100001 0.106 150 0 0 0 0.06146
3.2090001 -0.331 0.109 151 0 0 0 0.061469998
3.211 -0.34099999 0.112 151 0 0 0 0.061480001
3.211 -0.35100001 0.115 151 0 0 0 0.061489999
3.214 -0.36199999 0.118 151 0 0 0 0.061500002
3.053 -0.35299999 0.115 151 0 0 0 0.06151
2.7909999 -0.331 0.107 150 0 0 0 0.061519999
2.5599999 -0.31200001 0.101 29 0 0 0 0.061530001
2.5079999 -0.31400001 0.101 29 0 0 0 0.06154
2.4489999 -0.31400001 0.101 22 0 0 0 0.061549999
2.4030001 -0.31600001 0.101 18 0 0 0 0.061560001
2.3710001 -0.31900001 0.102 22 0 0 0 0.06157
2.3610001 -0.32499999 0.103 24 0 0 0 0.061579999
2.362 -0.333 0.105 21 0 0 0 0.061590001
2.368 -0.34099999 0.108 22 0 0 0 0.0616
2.368 -0.34799999 0.11 21 0 0 0 0.061609998
2.368 -0.35600001 0.112 23 0 0 0 0.061620001
2.3729999 -0.36399999 0.114 23 0 0 0 0.061629999
2.3729999 -0.37200001 0.116 20 0 0 0 0.061640002
2.372 -0.37900001 0.118 14 0 0 0 0.061650001
2.372 -0.38699999 0.12 9 0 0 0 0.061659999
2.3800001 -0.396 0.122 3 0 0 0 0.061670002
2.3940001 -0.40599999 0.125 1 0 0 0 0.06168
2.3840001 -0.412 0.126 0 0 0 0 0.061689999
2.391 -0.41999999 0.12899999 0 0 0 0 0.061700001
0 0 0 0 0 0 0 0.06171
0 0 0 0 0 0 0 0.061719999
0 0 0 0 0 0 0 0.061730001
0 0 0 0 0 0 0 0.06174
0 0 0 0 0 0 0 0.061749998
0 0 0 0 0 0 0 0.061760001
0 0 0 0 0 0 0 0.06177
0 0 0 0 0 0 0 0.061779998
0 0 0 0 0 0 0 0.061790001
0 0 0 0 0 0 0 0.061799999
0 0 0 0 0 0 0 0.061810002
0 0 0 0 0 0 0 0.06182
0 0 0 0 0 0 0 0.061829999
0 0 0 0 0 0 0 0.061840001
0 0 0 0 0 0 0 0.06185
0 0 0 0 0 0 0 0.061859999
0 0 0 0 0 0 0 0.061870001
0 0 0 0 0 0 0 0.06188
0 0 0 0 0 0 0 0.061889999
0 0 0 0 0 0 0 0.061900001
0 0 0 0 0 0 0 0.06191
0 0 0 0 0 0 0 0.061919998
0 0 0 0 0 0 0 0.061930001
0 0 0 0 0 0 0 0.061939999
0 0 0 0 0 0 0 0.061949998
0 0 0 0 0 0 0 0.061960001
0 0 0 0 0 0 0 0.061969999
0 0 0 0 0 0 0 0.061980002
0 0 0 0 0 0 0 0.06199
0 0 0 0 0 0 0 0.061999999
0 0 0 0 0 0 0 0.062010001
0 0 0 0 0 0 0 0.06202
0 0 0 0 0 0 0 0.062029999
0 0 0 0 0 0 0 0.062040001
0 0 0 0 0 0 0 0.06205
0 0 0 0 0 0 0 0.062059999
0 0 0 0 0 0 0 0.062070001
0 0 0 0 0 0 0 0.06208
0 0 0 0 0 0 0 0.062089998
0 0 0 0 0 0 0 0.062100001
0 0 0 0 0 0 0 0.062109999
0 0 0 0 0 0 0 0.062120002
0 0 0 0 0 0 0 0.06213
0 0 0 0 0 0 0 0.062139999
0 0 0 0 0 0 0 0.062150002
0 0 0 0 0 0 0 0.06216
0 0 0 0 0 0 0 0.062169999
0 0 0 0 0 0 0 0.062180001
0 0 0 0 0 0 0 0.06219
0 0 0 0 0 0 0 0.062199999
0 0 0 0 0 0 0 0.062210001
0 0 0 0 0 0 0 0.06222
0 0 0 0 0 0 0 0.062229998
0 0 0 0 0 0 0 0.062240001
0 0 0 0 0 0 0 0.062249999
2.6619999 -0.96100003 0.23100001 0 0 0 0 0.062259998
0 0 0 0 0 0 0 0.062270001
4.625 -1.702 0.405 81 0 0 0 0.062279999
4.4850001 -1.665 0.39500001 144 0 0 0 0.062290002
4.3709998 -1.638 0.38600001 150 0 0 0 0.0623
4.2849998 -1.6210001 0.38 150 0 0 0 0.062309999
4.1719999 -1.592 0.37099999 127 0 0 0 0.062320001
3.9319999 -1.5140001 0.34999999 79 0 0 0 0.06233
3.846 -1.494 0.34400001 40 0 0 0 0.062339999
3.799 -1.488 0.34 12 0 0 0 0.062350001
3.381 -1.336 0.30399999 4 0 0 0 0.06236
4.007 -1.597 0.361 43 0 0 0 0.062369999
3.5109999 -1.411 0.317 14 0 0 0 0.062380001
3.812 -1.546 0.345 12 0 0 0 0.06239
4.2919998 -1.755 0.389 150 0 0 0 0.062399998
4.5289998 -1.867 0.412 150 0 0 0 0.062410001
4.658 -1.936 0.42399999 74 0 0 0 0.062419999
2.4489999 -1.026 0.223 0 0 0 0 0.062430002
2.4820001 -1.049 0.227 0 0 0 0 0.06244
2.437 -1.038 0.223 0 0 0 0 0.062449999
0 0 0 0 0 0 0 0.062460002
0 0 0 0 0 0 0 0.06247
0 0 0 0 0 0 0 0.062479999
2.428 -1.067 0.223 0 0 0 0 0.062490001
2.4400001 -1.081 0.22400001 0 0 0 0 0.0625
2.438 -1.0880001 0.22400001 0 0 0 0 0.062509999
2.447 -1.1 0.22499999 0 0 0 0 0.062519997
2.4330001 -1.102 0.22400001 0 0 0 0 0.062530003
2.437 -1.112 0.22400001 0 0 0 0 0.062540002
2.52 -1.159 0.23199999 0 0 0 0 0.062550001
2.517 -1.166 0.23100001 0 0 0 0 0.06256
2.5309999 -1.181 0.233 0 0 0 0 0.062569998
2.4949999 -1.1720001 0.229 0 0 0 0 0.062579997
2.4860001 -1.177 0.228 0 0 0 0 0.062590003
2.4949999 -1.189 0.229 0 0 0 0 0.062600002
2.487 -1.194 0.228 0 0 0 0 0.06261
2.447 -1.183 0.22400001 0 0 0 0 0.062619999
2.4979999 -1.216 0.228 0 0 0 0 0.062629998
2.5150001 -1.233 0.23 0 0 0 0 0.062639996
4.6939998 -2.316 0.428 50 0 0 0 0.062650003
2.46 -1.222 0.22400001 0 0 0 0 0.062660001
2.4389999 -1.22 0.222 0 0 0 0 0.06267
2.4849999 -1.251 0.22499999 0 0 0 0 0.062679999
2.507 -1.27 0.227 0 0 0 0 0.062689997
2.4579999 -1.2539999 0.222 0 0 0 0 0.062700003
2.529 -1.298 0.227 0 0 0 0 0.062710002
2.4460001 -1.263 0.219 0 0 0 0 0.062720001
2.427 -1.262 0.21699999 0 0 0 0 0.062729999
2.415 -1.263 0.215 0 0 0 0 0.062739998
2.477 -1.303 0.22 0 0 0 0 0.062749997
2.4030001 -1.272 0.213 0 0 0 0 0.062760003
2.424 -1.291 0.214 0 0 0 0 0.062770002
2.5280001 -1.355 0.222 0 0 0 0 0.06278
2.5209999 -1.359 0.22 0 0 0 0 0.062789999
2.424 -1.314 0.211 0 0 0 0 0.062799998
2.4749999 -1.35 0.215 0 0 0 0 0.062809996
2.4809999 -1.3609999 0.214 0 0 0 0 0.062820002
2.47 -1.363 0.212 0 0 0 0 0.062830001
2.5090001 -1.392 0.214 0 0 0 0 0.06284
2.451 -1.368 0.208 0 0 0 0 0.062849998
2.8629999 -1.607 0.242 0 0 0 0 0.062859997
3.017 -1.702 0.25299999 0 0 0 0 0.062870003
3.02 -1.7130001 0.252 0 0 0 0 0.062880002
2.484 -1.4170001 0.206 0 0 0 0 0.062890001
2.546 -1.46 0.20999999 0 0 0 0 0.062899999
3.0320001 -1.748 0.248 0 0 0 0 0.062909998
4.184 -2.424 0.34 19 0 0 0 0.062919997
4.1719999 -2.4300001 0.33700001 11 0 0 0 0.062930003
2.904 -1.7 0.233 0 0 0 0 0.062940001
3.095 -1.821 0.24600001 0 0 0 0 0.06295
3.0580001 -1.808 0.241 0 0 0 0 0.062959999
4.0120001 -2.3840001 0.31299999 5 0 0 0 0.062969998
4.0349998 -2.4089999 0.31299999 6 0 0 0 0.062980004
3.9619999 -2.3770001 0.30399999 6 0 0 0 0.062990002
3.0320001 -1.827 0.23 0 0 0 0 0.063000001
3.8959999 -2.359 0.29300001 6 0 0 0 0.06301
4.026 -2.4489999 0.30000001 9 0 0 0 0.063019998
4.0029998 -2.4460001 0.29499999 11 0 0 0 0.063029997
4 -2.4549999 0.292 18 0 0 0 0.063040003
3.9920001 -2.461 0.28799999 16 0 0 0 0.063050002
2.9849999 -1.848 0.213 0 0 0 0 0.063060001
3.9979999 -2.4860001 0.28200001 10 0 0 0 0.063069999
4 -2.497 0.27900001 12 0 0 0 0.063079998
4.0089998 -2.5139999 0.27599999 7 0 0 0 0.063089997
3.7060001 -2.3329999 0.252 6 0 0 0 0.063100003
3.9879999 -2.52 0.26699999 6 0 0 0 0.063110001
3.984 -2.5280001 0.26300001 6 0 0 0 0.06312
3.9879999 -2.54 0.25999999 6 0 0 0 0.063129999
0 0 0 0 0 0 0 0.063139997
3.9749999 -2.5510001 0.25099999 5 0 0 0 0.063150004
3.983 -2.5650001 0.248 4 0 0 0 0.063160002
3.9719999 -2.5669999 0.243 2 0 0 0 0.063170001
4.0110002 -2.602 0.242 1 0 0 0 0.06318
0 0 0 0 0 0 0 0.063189998
1.258 -0.82200003 0.072999999 2 0 0 0 0.063199997
1.262 -0.82700002 0.071999997 4 0 0 0 0.063210003
1.26 -0.82800001 0.07 5 0 0 0 0.063220002
1.253 -0.82599998 0.068999998 6 0 0 0 0.06323
1.256 -0.83099997 0.067000002 6 0 0 0 0.063239999
1.249 -0.829 0.066 6 0 0 0 0.063249998
1.252 -0.833 0.064000003 7 0 0 0 0.063259996
1.251 -0.83499998 0.063000001 7 0 0 0 0.063270003
1.26 -0.84299999 0.061999999 7 0 0 0 0.063280001
1.251 -0.83899999 0.059999999 7 0 0 0 0.06329
1.253 -0.84299999 0.059 6 0 0 0 0.063299999
1.25 -0.84399998 0.057 5 0 0 0 0.063309997
1.252 -0.847 0.056000002 6 0 0 0 0.063320003
1.253 -0.84899998 0.054000001 6 0 0 0 0.063330002
1.25 -0.85000002 0.052000001 6 0 0 0 0.063340001
1.248 -0.85000002 0.050999999 6 0 0 0 0.063349999
1.247 -0.852 0.048999999 6 0 0 0 0.063359998
1.245 -0.852 0.046999998 5 0 0 0 0.063369997
1.247 -0.85500002 0.046 5 0 0 0 0.063380003
1.243 -0.85399997 0.044 5 0 0 0 0.063390002
1.243 -0.85600001 0.043000001 5 0 0 0 0.0634
1.242 -0.85699999 0.041000001 5 0 0 0 0.063409999
1.2410001 -0.85799998 0.039000001 5 0 0 0 0.063419998
1.242 -0.86000001 0.037999999 5 0 0 0 0.063429996
1.24 -0.86000001 0.035999998 5 0 0 0 0.063440003
1.239 -0.86000001 0.034000002 5 0 0 0 0.063450001
1.242 -0.86400002 0.033 5 0 0 0 0.06346
1.2359999 -0.861 0.030999999 5 0 0 0 0.063469999
1.239 -0.86400002 0.028999999 5 0 0 0 0.063479997
1.2359999 -0.86299998 0.027000001 4 0 0 0 0.063490003
1.238 -0.866 0.026000001 5 0 0 0 0.063500002
1.2359999 -0.86500001 0.024 5 0 0 0 0.063510001
1.235 -0.86500001 0.022 6 0 0 0 0.063519999
1.237 -0.86799997 0.021 7 0 0 0 0.063529998
1.232 -0.86500001 0.018999999 6 0 0 0 0.063539997
1.232 -0.86500001 0.017000001 6 0 0 0 0.063550003
1.232 -0.86500001 0.015 6 0 0 0 0.063560002
1.23 -0.86500001 0.014 7 0 0 0 0.06357
1.227 -0.86299998 0.012 7 0 0 0 0.063579999
1.227 -0.86400002 0.0099999998 6 0 0 0 0.063589998
1.227 -0.86400002 0.0080000004 7 0 0 0 0.063600004
1.227 -0.86400002 0.0070000002 7 0 0 0 0.063610002
1.226 -0.86400002 0.0049999999 6 0 0 0 0.063620001
1.23 -0.86699998 0.003 6 0 0 0 0.06363
1.227 -0.86500001 0.001 6 0 0 0 0.063639998
1.228 -0.86500001 0 6 0 0 0 0.063649997
1.225 -0.86299998 -0.001 5 0 0 0 0.063660003
1.225 -0.86299998 -0.003 5 0 0 0 0.063670002
1.226 -0.86299998 -0.0049999999 5 0 0 0 0.063680001
1.226 -0.86299998 -0.0060000001 5 0 0 0 0.063689999
1.224 -0.86199999 -0.0080000004 5 0 0 0 0.063699998
1.223 -0.86000001 -0.0099999998 5 0 0 0 0.063709997
1.226 -0.86199999 -0.012 5 0 0 0 0.063720003
1.221 -0.85799998 -0.013 4 0 0 0 0.063730001
1.221 -0.85799998 -0.015 4 0 0 0 0.06374
1.222 -0.85699999 -0.017000001 4 0 0 0 0.063749999
1.217 -0.85299999 -0.017999999 5 0 0 0 0.063759997
1.222 -0.85600001 -0.02 4 0 0 0 0.063770004
1.22 -0.85399997 -0.022 4 0 0 0 0.063780002
1.221 -0.85399997 -0.023 4 0 0 0 0.063790001
1.219 -0.85100001 -0.025 5 0 0 0 0.0638
1.219 -0.85000002 -0.027000001 5 0 0 0 0.063809998
1.2180001 -0.84799999 -0.028999999 5 0 0 0 0.063819997
1.2180001 -0.847 -0.029999999 5 0 0 0 0.063830003
1.216 -0.84399998 -0.032000002 4 0 0 0 0.063840002
1.211 -0.83999997 -0.033 2 0 0 0 0.063850001
1.206 -0.83499998 -0.035 2 0 0 0 0.063859999
1.191 -0.82300001 -0.035999998 1 0 0 0 0.063869998
1.188 -0.81900001 -0.037 1 0 0 0 0.063879997
1.161 -0.79900002 -0.037999999 1 0 0 0 0.063890003
1.071 -0.73500001 -0.035999998 0 0 0 0 0.063900001
0.986 -0.676 -0.035 0 0 0 0 0.06391
0.95200002 -0.65100002 -0.035 0 0 0 0 0.063919999
0.93599999 -0.639 -0.035 0 0 0 0 0.063929997
0.98799998 -0.67299998 -0.039000001 0 0 0 0 0.063940004
1.123 -0.76300001 -0.045000002 0 0 0 0 0.063950002
1.148 -0.778 -0.048 0 0 0 0 0.063960001
1.192 -0.80599999 -0.050999999 1 0 0 0 0.06397
1.1900001 -0.80199999 -0.052000001 1 0 0 0 0.063979998
1.205 -0.81 -0.054000001 1 0 0 0 0.063989997
1.204 -0.80800003 -0.056000002 2 0 0 0 0.064000003
1.209 -0.80900002 -0.057 3 0 0 0 0.064010002
1.2029999 -0.80199999 -0.059 4 0 0 0 0.06402
1.207 -0.80299997 -0.059999999 4 0 0 0 0.064029999
1.173 -0.778 -0.059999999 1 0 0 0 0.064039998
0 0 0 0 0 0 0 0.064049996
0.85900003 -0.56599998 -0.046 0 0 0 0 0.064060003
0.73299998 -0.48199999 -0.039999999 0 0 0 0 0.064070001
0.69400001 -0.454 -0.037999999 0 0 0 0 0.06408
0.70200002 -0.458 -0.039000001 0 0 0 0 0.064089999
0.69300002 -0.44999999 -0.039999999 0 0 0 0 0.064099997
0.685 -0.44400001 -0.039999999 0 0 0 0 0.064110003
0.68699998 -0.44400001 -0.041000001 0 0 0 0 0.064120002
0.69400001 -0.44600001 -0.041999999 0 0 0 0 0.064130001
0.69999999 -0.449 -0.043000001 0 0 0 0 0.064139999
0.69300002 -0.44299999 -0.043000001 0 0 0 0 0.064149998
0.69599998 -0.44299999 -0.044 0 0 0 0 0.064159997
0.71499997 -0.45300001 -0.046 0 0 0 0 0.064170003
0.71899998 -0.454 -0.046999998 0 0 0 0 0.064180002
0.72000003 -0.45199999 -0.046999998 0 0 0 0 0.06419
0.70999998 -0.44499999 -0.046999998 0 0 0 0 0.064199999
0.71899998 -0.44800001 -0.048999999 0 0 0 0 0.064209998
0.71799999 -0.44600001 -0.048999999 0 0 0 0 0.064219996
0.72299999 -0.447 -0.050000001 0 0 0 0 0.064230002
0.72100002 -0.44400001 -0.050999999 0 0 0 0 0.064240001
0.72399998 -0.44400001 -0.050999999 0 0 0 0 0.06425
0.72899997 -0.44499999 -0.052000001 0 0 0 0 0.064259999
0.73400003 -0.44600001 -0.052999999 0 0 0 0 0.064269997
0.73900002 -0.447 -0.054000001 0 0 0 0 0.064280003
0.736 -0.44299999 -0.054000001 0 0 0 0 0.064290002
0.741 -0.44400001 -0.055 0 0 0 0 0.064300001
0.74400002 -0.44400001 -0.056000002 0 0 0 0 0.064309999
0.74299997 -0.44100001 -0.057 0 0 0 0 0.064319998
0.74299997 -0.43900001 -0.057 0 0 0 0 0.064329997
0.76599997 -0.44999999 -0.059 0 0 0 0 0.064340003
0.74800003 -0.43700001 -0.057999998 0 0 0 0 0.064350002
0.764 -0.44499999 -0.059999999 0 0 0 0 0.06436
0.764 -0.442 -0.061000001 0 0 0 0 0.064369999
0.76999998 -0.44299999 -0.061999999 0 0 0 0 0.064379998
0.773 -0.44299999 -0.061999999 0 0 0 0 0.064390004
0.77600002 -0.442 -0.063000001 0 0 0 0 0.064400002
0.77399999 -0.43900001 -0.063000001 0 0 0 0 0.064410001
0.77899998 -0.43900001 -0.064000003 0 0 0 0 0.06442
0.78399998 -0.43900001 -0.064999998 0 0 0 0 0.064429998
0.778 -0.43399999 -0.064999998 0 0 0 0 0.064439997
0.78500003 -0.435 -0.066 0 0 0 0 0.064450003
0.80199999 -0.442 -0.067000002 0 0 0 0 0.064460002
0.80299997 -0.44 -0.068000004 0 0 0 0 0.064470001
0.81199998 -0.442 -0.068999998 0 0 0 0 0.064479999
0.78799999 -0.42699999 -0.067000002 0 0 0 0 0.064489998
0.79299998 -0.42699999 -0.068000004 0 0 0 0 0.064499997
0.801 -0.42899999 -0.068999998 0 0 0 0 0.064510003
0.80599999 -0.42899999 -0.07 0 0 0 0 0.064520001
0.81999999 -0.433 -0.071000002 0 0 0 0 0.06453
0.80800003 -0.42399999 -0.07 0 0 0 0 0.064539999
0.81999999 -0.428 -0.071999997 0 0 0 0 0.064549997
0.81199998 -0.421 -0.071000002 0 0 0 0 0.064560004
0.83499998 -0.43099999 -0.072999999 0 0 0 0 0.064570002
0.85100001 -0.43599999 -0.075000003 0 0 0 0 0.064580001
0.86400002 -0.44 -0.075999998 0 0 0 0 0.06459
0.88099998 -0.44600001 -0.078000002 0 0 0 0 0.064599998
0.88499999 -0.44499999 -0.079000004 0 0 0 0 0.064609997
0.898 -0.44800001 -0.079999998 0 0 0 0 0.064620003
0.90499997 -0.449 -0.081 0 0 0 0 0.064630002
0.92299998 -0.45500001 -0.082999997 0 0 0 0 0.06464
0.96100003 -0.47 -0.086000003 0 0 0 0 0.064649999
0.99000001 -0.48100001 -0.089000002 0 0 0 0 0.064659998
1.04 -0.50199997 -0.093999997 1 0 0 0 0.064669997
1.101 -0.528 -0.098999999 1 0 0 0 0.064680003
1.104 -0.52499998 -0.1 1 0 0 0 0.064690001
1.133 -0.53500003 -0.102 1 0 0 0 0.0647
0.94700003 -0.44400001 -0.085000001 1 0 0 0 0.064709999
0.98699999 -0.46000001 -0.089000002 2 0 0 0 0.064719997
1.0369999 -0.479 -0.093999997 4 0 0 0 0.064730003
1.048 -0.48100001 -0.094999999 4 0 0 0 0.064740002
0 0 0 0 0 0 0 0.064750001
2.342 -1.059 -0.212 150 0 0 0 0.06476
2.358 -1.058 -0.214 150 0 0 0 0.064769998
2.362 -1.052 -0.214 150 0 0 0 0.064779997
2.362 -1.044 -0.214 150 0 0 0 0.064790003
2.395 -1.051 -0.21699999 56 0 0 0 0.064800002
2.372 -1.033 -0.215 73 0 0 0 0.06481
2.382 -1.029 -0.215 37 0 0 0 0.064819999
2.408 -1.0319999 -0.21699999 30 0 0 0 0.064829998
2.3929999 -1.017 -0.21600001 20 0 0 0 0.064839996
2.4070001 -1.015 -0.21699999 3 0 0 0 0.064850003
2.4100001 -1.008 -0.21699999 3 0 0 0 0.064860001
2.401 -0.99599999 -0.21600001 20 0 0 0 0.06487
2.4000001 -0.98799998 -0.215 21 0 0 0 0.064879999
2.404 -0.98100001 -0.215 24 0 0 0 0.064889997
2.404 -0.97299999 -0.215 23 0 0 0 0.064900003
2.4059999 -0.96499997 -0.214 19 0 0 0 0.064910002
2.4030001 -0.95599997 -0.214 14 0 0 0 0.064920001
2.404 -0.94800001 -0.213 14 0 0 0 0.064929999
2.3989999 -0.93800002 -0.212 17 0 0 0 0.064939998
2.398 -0.92900002 -0.211 19 0 0 0 0.064949997
2.402 -0.92299998 -0.211 20 0 0 0 0.064960003
2.3989999 -0.91299999 -0.20999999 23 0 0 0 0.064970002
2.3989999 -0.90499997 -0.20999999 23 0 0 0 0.06498
2.4000001 -0.898 -0.20900001 21 0 0 0 0.064989999
2.3989999 -0.889 -0.208 21 0 0 0 0.064999998
2.3959999 -0.88 -0.207 23 0 0 0 0.065009996
2.3970001 -0.87199998 -0.206 23 0 0 0 0.065020002
2.3940001 -0.86299998 -0.205 24 0 0 0 0.065030001
2.395 -0.85500002 -0.205 25 0 0 0 0.06504
2.391 -0.84600002 -0.20299999 28 0 0 0 0.065049998
2.3940001 -0.838 -0.20299999 27 0 0 0 0.065059997
2.395 -0.83099997 -0.20200001 26 0 0 0 0.065070003
2.395 -0.82200003 -0.20100001 25 0 0 0 0.065080002
2.392 -0.81300002 -0.2 24 0 0 0 0.065090001
2.3929999 -0.80500001 -0.199 26 0 0 0 0.065099999
2.3940001 -0.79799998 -0.198 25 0 0 0 0.065109998
2.392 -0.78899997 -0.197 23 0 0 0 0.065119997
2.3929999 -0.78200001 -0.19599999 21 0 0 0 0.065130003
2.3929999 -0.773 -0.19499999 19 0 0 0 0.065140001
2.3970001 -0.76700002 -0.19400001 18 0 0 0 0.06515
2.398 -0.759 -0.193 18 0 0 0 0.065159999
2.4000001 -0.75099999 -0.192 18 0 0 0 0.065169998
2.3989999 -0.74299997 -0.191 17 0 0 0 0.065180004
2.401 -0.736 -0.19 16 0 0 0 0.065190002
2.4030001 -0.72799999 -0.189 17 0 0 0 0.065200001
2.402 -0.72000003 -0.18799999 16 0 0 0 0.06521
2.3970001 -0.70999998 -0.186 18 0 0 0 0.065219998
2.3970001 -0.70200002 -0.185 18 0 0 0 0.065229997
2.395 -0.69400001 -0.183 18 0 0 0 0.065240003
2.3870001 -0.68300003 -0.18099999 18 0 0 0 0.065250002
2.388 -0.676 -0.18000001 18 0 0 0 0.065260001
2.3840001 -0.667 -0.178 18 0 0 0 0.065269999
2.382 -0.65799999 -0.177 21 0 0 0 0.065279998
2.3859999 -0.65100002 -0.176 22 0 0 0 0.065289997
2.3800001 -0.64200002 -0.17399999 21 0 0 0 0.065300003
2.381 -0.634 -0.17299999 24 0 0 0 0.065310001
2.3789999 -0.62599999 -0.171 24 0 0 0 0.06532
2.385 -0.62 -0.17 23 0 0 0 0.065329999
2.3789999 -0.61000001 -0.168 21 0 0 0 0.065339997
2.3789999 -0.602 -0.167 18 0 0 0 0.065350004
2.381 -0.59500003 -0.16500001 18 0 0 0 0.065360002
2.381 -0.58700001 -0.164 20 0 0 0 0.065370001
2.378 -0.57800001 -0.162 20 0 0 0 0.06538
2.381 -0.57099998 -0.161 18 0 0 0 0.065389998
2.3770001 -0.56199998 -0.15899999 21 0 0 0 0.065399997
2.3789999 -0.55500001 -0.15700001 23 0 0 0 0.065410003
2.3759999 -0.54699999 -0.156 22 0 0 0 0.065420002
2.3770001 -0.53899997 -0.154 19 0 0 0 0.06543
2.3710001 -0.52999997 -0.152 17 0 0 0 0.065439999
2.3759999 -0.523 -0.15099999 17 0 0 0 0.065449998
2.375 -0.51599997 -0.149 21 0 0 0 0.065459996
2.3740001 -0.50800002 -0.147 22 0 0 0 0.065470003
2.3759999 -0.5 -0.146 21 0 0 0 0.065480001
2.372 -0.49200001 -0.14399999 20 0 0 0 0.06549
2.378 -0.48500001 -0.142 17 0 0 0 0.065499999
2.375 -0.477 -0.14 18 0 0 0 0.065509997
2.3789999 -0.47 -0.139 14 0 0 0 0.065520003
2.372 -0.461 -0.13699999 14 0 0 0 0.065530002
2.375 -0.454 -0.13500001 16 0 0 0 0.065540001
2.3710001 -0.44600001 -0.133 19 0 0 0 0.065549999
2.3740001 -0.43799999 -0.131 21 0 0 0 0.065559998
2.372 -0.43099999 -0.12899999 20 0 0 0 0.065569997
2.3670001 -0.42199999 -0.127 23 0 0 0 0.065580003
2.372 -0.41499999 -0.126 22 0 0 0 0.065590002
2.368 -0.40700001 -0.124 19 0 0 0 0.0656
2.3659999 -0.39899999 -0.122 20 0 0 0 0.065609999
2.3640001 -0.391 -0.12 21 0 0 0 0.065619998
2.3659999 -0.384 -0.118 21 0 0 0 0.065629996
2.3610001 -0.37599999 -0.116 18 0 0 0 0.065640002
2.3659999 -0.36899999 -0.114 17 0 0 0 0.065650001
2.368 -0.36199999 -0.112 17 0 0 0 0.06566
2.365 -0.354 -0.11 16 0 0 0 0.065669999
2.3659999 -0.34599999 -0.108 18 0 0 0 0.065679997
2.3659999 -0.33899999 -0.106 17 0 0 0 0.065690003
2.3599999 -0.331 -0.104 18 0 0 0 0.065700002
2.372 -0.32499999 -0.102 19 0 0 0 0.065710001
2.4070001 -0.322 -0.102 19 0 0 0 0.065719999
2.454 -0.31999999 -0.102 23 0 0 0 0.065729998
2.516 -0.31999999 -0.102 27 0 0 0 0.065739997
2.5580001 -0.31799999 -0.101 25 0 0 0 0.065750003
2.819 -0.34099999 -0.109 97 0 0 0 0.065760002
3.066 -0.36199999 -0.116 150 0 0 0 0.06577
3.2030001 -0.368 -0.119 150 0 0 0 0.065779999
3.211 -0.359 -0.116 150 0 0 0 0.065789998
3.2090001 -0.34799999 -0.113 150 0 0 0 0.065800004
3.2060001 -0.338 -0.11 150 0 0 0 0.065810002
3.207 -0.32800001 -0.107 150 0 0 0 0.065820001
3.2290001 -0.31999999 -0.105 151 0 0 0 0.06583
3.237 -0.31099999 -0.102 151 0 0 0 0.065839998
3.2379999 -0.301 -0.098999999 151 0 0 0 0.065849997
3.237 -0.29100001 -0.096000001 151 0 0 0 0.065860003
3.234 -0.28 -0.093000002 151 0 0 0 0.065870002
3.2349999 -0.27000001 -0.090000004 152 0 0 0 0.065880001
3.2460001 -0.26100001 -0.086999997 150 0 0 0 0.065889999
3.3399999 -0.259 -0.086000003 150 0 0 0 0.065899998
3.346 -0.249 -0.082999997 152 0 0 0 0.065909997
3.3440001 -0.23800001 -0.079999998 152 0 0 0 0.065920003
3.348 -0.228 -0.077 152 0 0 0 0.065930001
3.342 -0.21699999 -0.074000001 151 0 0 0 0.06594
3.369 -0.208 -0.071000002 151 0 0 0 0.065949999
3.3699999 -0.198 -0.067000002 151 0 0 0 0.065959997
3.3699999 -0.18799999 -0.064000003 151 0 0 0 0.065970004
3.4119999 -0.18000001 -0.061999999 152 0 0 0 0.065980002
3.4200001 -0.169 -0.057999998 153 0 0 0 0.065990001
3.4360001 -0.16 -0.055 150 0 0 0 0.066
3.4330001 -0.149 -0.050999999 150 0 0 0 0.066009998
3.4349999 -0.138 -0.048 150 0 0 0 0.066019997
3.4319999 -0.12800001 -0.044 150 0 0 0 0.066030003
3.4319999 -0.117 -0.041000001 150 0 0 0 0.066040002
3.4300001 -0.107 -0.037 150 0 0 0 0.06605
3.431 -0.096000001 -0.034000002 150 0 0 0 0.066059999
3.431 -0.086000003 -0.029999999 150 0 0 0 0.066069998
3.4319999 -0.075000003 -0.027000001 150 0 0 0 0.066079997
3.4289999 -0.064000003 -0.023 150 0 0 0 0.066090003
3.4289999 -0.054000001 -0.018999999 150 0 0 0 0.066100001
3.428 -0.044 -0.016000001 150 0 0 0 0.06611
3.4189999 -0.033 -0.012 150 0 0 0 0.066119999
3.4230001 -0.022 -0.0080000004 150 0 0 0 0.066129997
3.4189999 -0.012 -0.0040000002 151 0 0 0 0.066140004
3.414 -0.0020000001 -0.001 150 0 0 0 0.066150002
3.418 0.0080000004 0.0020000001 151 0 0 0 0.066160001
3.418 0.017999999 0.0060000001 151 0 0 0 0.06617
3.421 0.028999999 0.0099999998 151 0 0 0 0.066179998
3.418 0.039000001 0.013 152 0 0 0 0.066189997
3.4200001 0.048999999 0.017000001 152 0 0 0 0.066200003
3.4230001 0.059999999 0.021 152 0 0 0 0.066210002
3.4119999 0.07 0.025 153 0 0 0 0.06622
3.4059999 0.079999998 0.028999999 153 0 0 0 0.066229999
3.4059999 0.090999998 0.032000002 153 0 0 0 0.066239998
3.4030001 0.101 0.035999998 153 0 0 0 0.066249996
3.3940001 0.111 0.039999999 154 0 0 0 0.066260003
3.3940001 0.121 0.044 154 0 0 0 0.066270001
3.3889999 0.131 0.048 154 0 0 0 0.06628
3.385 0.141 0.052000001 154 0 0 0 0.066289999
3.3800001 0.15099999 0.056000002 155 0 0 0 0.066299997
3.3800001 0.162 0.059999999 155 0 0 0 0.066310003
3.3800001 0.17200001 0.063000001 155 0 0 0 0.066320002
3.3800001 0.182 0.068000004 156 0 0 0 0.066330001
3.3789999 0.192 0.071999997 156 0 0 0 0.066339999
3.378 0.20200001 0.075000003 155 0 0 0 0.066349998
3.378 0.212 0.079999998 155 0 0 0 0.066359997
3.3759999 0.223 0.083999999 155 0 0 0 0.066370003
3.3740001 0.233 0.088 155 0 0 0 0.066380002
3.3789999 0.243 0.092 154 0 0 0 0.06639
3.3789999 0.25299999 0.096000001 154 0 0 0 0.066399999
3.378 0.26300001 0.1 154 0 0 0 0.066409998
3.3770001 0.273 0.104 154 0 0 0 0.066419996
3.375 0.28299999 0.108 154 0 0 0 0.066430002
3.385 0.29499999 0.113 154 0 0 0 0.066440001
3.3870001 0.30500001 0.117 154 0 0 0 0.06645
3.388 0.315 0.122 154 0 0 0 0.066459998
3.4000001 0.32699999 0.126 153 0 0 0 0.066469997
3.404 0.33700001 0.131 152 0 0 0 0.066480003
3.398 0.347 0.13500001 152 0 0 0 0.066490002
3.402 0.35699999 0.139 152 0 0 0 0.066500001
3.3929999 0.366 0.14300001 151 0 0 0 0.066509999
3.392 0.377 0.148 152 0 0 0 0.066519998
3.3929999 0.38699999 0.152 151 0 0 0 0.066529997
3.392 0.39700001 0.15700001 151 0 0 0 0.066540003
3.3900001 0.40700001 0.161 151 0 0 0 0.066550002
3.3940001 0.417 0.16599999 151 0 0 0 0.06656
3.388 0.42699999 0.17 151 0 0 0 0.066569999
3.3870001 0.43700001 0.17399999 150 0 0 0 0.066579998
3.3900001 0.447 0.17900001 151 0 0 0 0.066590004
3.3940001 0.458 0.184 151 0 0 0 0.066600002
3.3870001 0.46700001 0.18799999 150 0 0 0 0.066610001
3.388 0.477 0.193 151 0 0 0 0.06662
