# .PCD v0.7 - Point Cloud Data file format
VERSION 0.7
FIELDS x y z intensity normal_x normal_y normal_z curvature
SIZE 4 4 4 4 4 4 4 4
TYPE F F F F F F F F
COUNT 1 1 1 1 1 1 1 1
WIDTH 1097
HEIGHT 1
VIEWPOINT 0 0 0 1 0 0 0
POINTS 1097
DATA ascii
2.7739999 -0.69099998 0.2 150 0 0 0 0.02245
2.513 -0.634 0.183 30 0 0 0 0.022460001
2.4579999 -0.62800002 0.18000001 31 0 0 0 0.022469999
2.4030001 -0.62199998 0.178 23 0 0 0 0.02248
2.346 -0.61500001 0.175 20 0 0 0 0.02249
2.3210001 -0.616 0.175 20 0 0 0 0.022500001
2.323 -0.625 0.176 3 0 0 0 0.02251
2.329 -0.634 0.178 1 0 0 0 0.02252
2.316 -0.63800001 0.17900001 2 0 0 0 0.022530001
2.316 -0.64600003 0.18000001 2 0 0 0 0.022539999
2.316 -0.653 0.18099999 1 0 0 0 0.02255
2.299 -0.65600002 0.18099999 1 0 0 0 0.02256
2.339 -0.67500001 0.186 1 0 0 0 0.022569999
2.3010001 -0.67199999 0.184 1 0 0 0 0.02258
2.322 -0.68599999 0.18700001 0 0 0 0 0.02259
2.322 -0.69400001 0.18799999 0 0 0 0 0.022600001
2.335 -0.70499998 0.191 0 0 0 0 0.022609999
0 0 0 0 0 0 0 0.02262
2.3239999 -0.71700001 0.192 0 0 0 0 0.02263
2.3329999 -0.72799999 0.19400001 0 0 0 0 0.022639999
0 0 0 0 0 0 0 0.02265
0 0 0 0 0 0 0 0.02266
0 0 0 0 0 0 0 0.022670001
0 0 0 0 0 0 0 0.022679999
0 0 0 0 0 0 0 0.02269
0 0 0 0 0 0 0 0.022700001
0 0 0 0 0 0 0 0.022709999
0 0 0 0 0 0 0 0.02272
0 0 0 0 0 0 0 0.02273
0 0 0 0 0 0 0 0.022740001
0 0 0 0 0 0 0 0.02275
0 0 0 0 0 0 0 0.02276
0 0 0 0 0 0 0 0.022770001
0 0 0 0 0 0 0 0.022779999
0 0 0 0 0 0 0 0.02279
0 0 0 0 0 0 0 0.0228
0 0 0 0 0 0 0 0.022810001
0 0 0 0 0 0 0 0.02282
0 0 0 0 0 0 0 0.02283
0 0 0 0 0 0 0 0.022840001
0 0 0 0 0 0 0 0.022849999
0 0 0 0 0 0 0 0.02286
0 0 0 0 0 0 0 0.02287
0 0 0 0 0 0 0 0.022879999
0 0 0 0 0 0 0 0.02289
0 0 0 0 0 0 0 0.0229
0 0 0 0 0 0 0 0.022910001
0 0 0 0 0 0 0 0.022919999
0 0 0 0 0 0 0 0.02293
0 0 0 0 0 0 0 0.022940001
0 0 0 0 0 0 0 0.022949999
0 0 0 0 0 0 0 0.02296
0 0 0 0 0 0 0 0.02297
2.329 -0.995 0.221 0 0 0 0 0.022980001
2.339 -1.008 0.222 0 0 0 0 0.02299
0 0 0 0 0 0 0 0.023
0 0 0 0 0 0 0 0.023010001
0 0 0 0 0 0 0 0.023019999
0 0 0 0 0 0 0 0.02303
0 0 0 0 0 0 0 0.02304
0 0 0 0 0 0 0 0.023050001
0 0 0 0 0 0 0 0.02306
0 0 0 0 0 0 0 0.02307
0 0 0 0 0 0 0 0.023080001
0 0 0 0 0 0 0 0.023089999
0 0 0 0 0 0 0 0.0231
0 0 0 0 0 0 0 0.02311
0 0 0 0 0 0 0 0.023119999
0 0 0 0 0 0 0 0.02313
0 0 0 0 0 0 0 0.02314
0 0 0 0 0 0 0 0.023150001
0 0 0 0 0 0 0 0.023159999
0 0 0 0 0 0 0 0.02317
0 0 0 0 0 0 0 0.02318
3.9619999 -1.974 0.375 2 0 0 0 0.023189999
0 0 0 0 0 0 0 0.0232
3.9030001 -1.971 0.36899999 43 0 0 0 0.02321
3.9000001 -1.982 0.368 7 0 0 0 0.023220001
0 0 0 0 0 0 0 0.023229999
3.3959999 -1.748 0.31799999 8 0 0 0 0.02324
4.0929999 -2.1199999 0.38299999 116 0 0 0 0.023250001
3.763 -1.962 0.35100001 16 0 0 0 0.023259999
3.7149999 -1.949 0.345 8 0 0 0 0.02327
3.3640001 -1.776 0.31200001 4 0 0 0 0.02328
3.359 -1.784 0.31 4 0 0 0 0.023290001
3.823 -2.0420001 0.352 4 0 0 0 0.0233
3.7869999 -2.036 0.347 6 0 0 0 0.02331
4.256 -2.3010001 0.389 13 0 0 0 0.023320001
4.3400002 -2.3610001 0.39500001 22 0 0 0 0.023329999
4.21 -2.303 0.382 78 0 0 0 0.02334
4.3169999 -2.3759999 0.38999999 85 0 0 0 0.02335
3.3340001 -1.845 0.29899999 7 0 0 0 0.023360001
3.3699999 -1.875 0.301 5 0 0 0 0.02337
3.4059999 -1.906 0.303 8 0 0 0 0.02338
3.3410001 -1.88 0.296 8 0 0 0 0.023390001
4.3569999 -2.4649999 0.384 15 0 0 0 0.023399999
0 0 0 0 0 0 0 0.02341
4.3670001 -2.497 0.38 56 0 0 0 0.02342
0 0 0 0 0 0 0 0.023429999
2.313 -1.337 0.199 0 0 0 0 0.02344
2.2780001 -1.323 0.19400001 0 0 0 0 0.02345
2.346 -1.37 0.199 0 0 0 0 0.023460001
2.313 -1.357 0.19499999 0 0 0 0 0.023469999
2.3010001 -1.357 0.192 0 0 0 0 0.02348
2.233 -1.323 0.185 0 0 0 0 0.023490001
0 0 0 0 0 0 0 0.023499999
0 0 0 0 0 0 0 0.02351
0 0 0 0 0 0 0 0.02352
0 0 0 0 0 0 0 0.023530001
4.3839998 -2.6600001 0.34799999 40 0 0 0 0.023539999
4.3730001 -2.665 0.34400001 41 0 0 0 0.02355
4.3649998 -2.6719999 0.34 37 0 0 0 0.023560001
4.3449998 -2.6719999 0.33500001 110 0 0 0 0.023569999
4.3600001 -2.6930001 0.333 39 0 0 0 0.02358
0 0 0 0 0 0 0 0.02359
0 0 0 0 0 0 0 0.023600001
0 0 0 0 0 0 0 0.02361
0 0 0 0 0 0 0 0.02362
1.181 -0.745 0.085000001 0 0 0 0 0.023630001
1.1720001 -0.74199998 0.082999997 0 0 0 0 0.023639999
1.171 -0.74400002 0.082000002 0 0 0 0 0.02365
1.146 -0.73100001 0.079000004 0 0 0 0 0.02366
4.349 -2.7850001 0.29800001 5 0 0 0 0.023669999
0 0 0 0 0 0 0 0.02368
0 0 0 0 0 0 0 0.02369
0 0 0 0 0 0 0 0.023700001
1.163 -0.75599998 0.075000003 1 0 0 0 0.023709999
1.158 -0.755 0.072999999 1 0 0 0 0.02372
1.156 -0.75599998 0.071999997 2 0 0 0 0.02373
1.1569999 -0.759 0.071000002 2 0 0 0 0.023739999
1.161 -0.76499999 0.07 2 0 0 0 0.02375
1.159 -0.76499999 0.068000004 2 0 0 0 0.02376
1.1569999 -0.76599997 0.067000002 2 0 0 0 0.023770001
1.153 -0.76599997 0.064999998 2 0 0 0 0.023779999
1.1569999 -0.77100003 0.064000003 3 0 0 0 0.02379
1.156 -0.773 0.063000001 3 0 0 0 0.023800001
1.156 -0.77499998 0.061999999 3 0 0 0 0.023809999
1.1569999 -0.77700001 0.059999999 3 0 0 0 0.02382
1.1569999 -0.77899998 0.059 3 0 0 0 0.02383
1.1569999 -0.78100002 0.057999998 2 0 0 0 0.023840001
1.158 -0.78399998 0.056000002 2 0 0 0 0.02385
1.154 -0.78299999 0.055 2 0 0 0 0.02386
1.151 -0.78299999 0.052999999 2 0 0 0 0.023870001
1.151 -0.78500003 0.052000001 2 0 0 0 0.023879999
1.152 -0.787 0.050000001 2 0 0 0 0.02389
1.152 -0.78899997 0.048999999 2 0 0 0 0.0239
1.149 -0.78899997 0.046999998 2 0 0 0 0.023910001
1.148 -0.79000002 0.046 2 0 0 0 0.02392
1.148 -0.79100001 0.044 2 0 0 0 0.02393
1.15 -0.79400003 0.043000001 2 0 0 0 0.023940001
1.149 -0.79400003 0.041000001 2 0 0 0 0.023949999
1.149 -0.796 0.039999999 2 0 0 0 0.02396
1.148 -0.796 0.037999999 2 0 0 0 0.02397
1.147 -0.79699999 0.037 2 0 0 0 0.023979999
1.151 -0.801 0.035 2 0 0 0 0.02399
1.146 -0.79900002 0.034000002 2 0 0 0 0.024
1.1390001 -0.79500002 0.032000002 2 0 0 0 0.024010001
1.141 -0.79699999 0.029999999 2 0 0 0 0.024019999
1.142 -0.79900002 0.028999999 2 0 0 0 0.02403
1.142 -0.79900002 0.027000001 2 0 0 0 0.024040001
1.145 -0.80199999 0.026000001 2 0 0 0 0.024049999
1.14 -0.79900002 0.024 2 0 0 0 0.02406
1.143 -0.80199999 0.022 2 0 0 0 0.02407
1.14 -0.801 0.021 2 0 0 0 0.024080001
1.1390001 -0.801 0.018999999 2 0 0 0 0.024089999
1.14 -0.80199999 0.017999999 2 0 0 0 0.0241
1.1390001 -0.801 0.016000001 2 0 0 0 0.024110001
1.135 -0.79900002 0.014 2 0 0 0 0.024119999
1.137 -0.801 0.013 2 0 0 0 0.02413
1.138 -0.80199999 0.011 2 0 0 0 0.02414
1.135 -0.80000001 0.0099999998 2 0 0 0 0.024150001
1.133 -0.79900002 0.0080000004 2 0 0 0 0.02416
1.133 -0.79900002 0.0060000001 2 0 0 0 0.02417
1.135 -0.80000001 0.0049999999 2 0 0 0 0.024180001
1.133 -0.79799998 0.003 2 0 0 0 0.024189999
1.135 -0.80000001 0.001 2 0 0 0 0.0242
1.13 -0.796 0 2 0 0 0 0.02421
1.132 -0.79699999 -0.001 2 0 0 0 0.024219999
1.131 -0.796 -0.0020000001 2 0 0 0 0.02423
1.128 -0.79299998 -0.0040000002 2 0 0 0 0.02424
1.13 -0.79400003 -0.0060000001 2 0 0 0 0.024250001
1.133 -0.796 -0.0070000002 2 0 0 0 0.024259999
1.126 -0.79000002 -0.0089999996 2 0 0 0 0.02427
1.128 -0.79100001 -0.0099999998 2 0 0 0 0.02428
1.126 -0.78899997 -0.012 2 0 0 0 0.024289999
1.127 -0.78899997 -0.014 2 0 0 0 0.0243
1.1210001 -0.78399998 -0.015 2 0 0 0 0.02431
1.124 -0.78500003 -0.017000001 2 0 0 0 0.024320001
1.125 -0.78399998 -0.017999999 2 0 0 0 0.024329999
1.119 -0.77999997 -0.02 2 0 0 0 0.02434
1.1160001 -0.77600002 -0.021 2 0 0 0 0.024350001
1.12 -0.778 -0.023 3 0 0 0 0.024359999
1.118 -0.77600002 -0.024 4 0 0 0 0.02437
1.114 -0.77100003 -0.026000001 3 0 0 0 0.02438
1.1160001 -0.77200001 -0.027000001 1 0 0 0 0.024390001
1.0930001 -0.75400001 -0.028000001 2 0 0 0 0.0244
1.064 -0.73299998 -0.028999999 4 0 0 0 0.02441
1.027 -0.70599997 -0.028999999 2 0 0 0 0.024420001
1.08 -0.741 -0.032000002 1 0 0 0 0.024429999
1.043 -0.71399999 -0.032000002 1 0 0 0 0.02444
1.044 -0.71399999 -0.034000002 1 0 0 0 0.02445
1.068 -0.72799999 -0.035999998 1 0 0 0 0.024460001
1.0880001 -0.74000001 -0.037999999 1 0 0 0 0.02447
1.0930001 -0.74199998 -0.039000001 0 0 0 0 0.02448
1.021 -0.69099998 -0.037999999 0 0 0 0 0.024490001
0.94 -0.63499999 -0.035999998 0 0 0 0 0.024499999
0.87 -0.58600003 -0.034000002 0 0 0 0 0.02451
0.83600003 -0.56099999 -0.034000002 0 0 0 0 0.02452
0.801 -0.53600001 -0.033 0 0 0 0 0.024529999
0.78200001 -0.52200001 -0.034000002 0 0 0 0 0.02454
0.78799999 -0.52499998 -0.035 0 0 0 0 0.02455
0.78899997 -0.52399999 -0.035999998 0 0 0 0 0.024560001
0.80299997 -0.53100002 -0.037 0 0 0 0 0.024569999
0.787 -0.51999998 -0.037 0 0 0 0 0.02458
0.79799998 -0.52499998 -0.039000001 0 0 0 0 0.024590001
0.79699999 -0.523 -0.039999999 0 0 0 0 0.024599999
0.79500002 -0.51899999 -0.039999999 0 0 0 0 0.02461
0.80599999 -0.52499998 -0.041999999 0 0 0 0 0.02462
0.80599999 -0.523 -0.043000001 0 0 0 0 0.024630001
0.80400002 -0.51999998 -0.043000001 0 0 0 0 0.024639999
0.81099999 -0.523 -0.045000002 0 0 0 0 0.02465
0.81300002 -0.52200001 -0.046 0 0 0 0 0.024660001
0.81800002 -0.523 -0.046999998 0 0 0 0 0.024669999
0.81599998 -0.51999998 -0.046999998 0 0 0 0 0.02468
0.82099998 -0.52200001 -0.048 0 0 0 0 0.02469
0.838 -0.52999997 -0.050000001 0 0 0 0 0.024700001
0.84399998 -0.53200001 -0.050999999 0 0 0 0 0.02471
0.84500003 -0.52999997 -0.052000001 0 0 0 0 0.02472
0.84399998 -0.52700001 -0.052999999 0 0 0 0 0.024730001
0.85100001 -0.52899998 -0.054000001 0 0 0 0 0.024739999
0.85000002 -0.52700001 -0.055 0 0 0 0 0.02475
0.861 -0.53100002 -0.056000002 0 0 0 0 0.02476
0.87599999 -0.53799999 -0.057999998 0 0 0 0 0.024769999
0.88800001 -0.54299998 -0.059 0 0 0 0 0.02478
0.89300001 -0.54400003 -0.059999999 0 0 0 0 0.02479
0.88099998 -0.53399998 -0.059999999 0 0 0 0 0.024800001
0.89099997 -0.53799999 -0.061999999 0 0 0 0 0.024809999
0.88099998 -0.52899998 -0.061999999 0 0 0 0 0.02482
0.88800001 -0.53100002 -0.063000001 0 0 0 0 0.02483
0.89700001 -0.53299999 -0.064000003 0 0 0 0 0.024839999
0.89899999 -0.53200001 -0.064999998 0 0 0 0 0.02485
0.90399998 -0.53299999 -0.066 0 0 0 0 0.02486
0.90600002 -0.53100002 -0.067000002 0 0 0 0 0.024870001
0.93199998 -0.54400003 -0.068999998 0 0 0 0 0.024879999
0.94499999 -0.54900002 -0.071000002 0 0 0 0 0.02489
0.98299998 -0.56699997 -0.074000001 0 0 0 0 0.024900001
2.1949999 -1.261 -0.168 111 0 0 0 0.024909999
2.197 -1.255 -0.169 150 0 0 0 0.02492
2.197 -1.248 -0.17 150 0 0 0 0.02493
2.2490001 -1.271 -0.175 43 0 0 0 0.024940001
2.2620001 -1.272 -0.178 23 0 0 0 0.02495
2.2650001 -1.266 -0.17900001 21 0 0 0 0.02496
2.2609999 -1.257 -0.18000001 21 0 0 0 0.024970001
2.2620001 -1.251 -0.18099999 18 0 0 0 0.024979999
2.2639999 -1.245 -0.182 14 0 0 0 0.02499
2.2639999 -1.237 -0.183 17 0 0 0 0.025
2.2639999 -1.23 -0.184 20 0 0 0 0.025010001
2.263 -1.223 -0.185 21 0 0 0 0.02502
2.266 -1.217 -0.186 21 0 0 0 0.02503
2.2620001 -1.2079999 -0.18700001 23 0 0 0 0.025040001
2.2650001 -1.202 -0.18799999 23 0 0 0 0.025049999
2.27 -1.197 -0.189 21 0 0 0 0.02506
2.2679999 -1.189 -0.19 21 0 0 0 0.02507
2.267 -1.181 -0.19 23 0 0 0 0.025079999
2.27 -1.175 -0.191 23 0 0 0 0.02509
2.2690001 -1.1670001 -0.192 24 0 0 0 0.0251
2.267 -1.159 -0.192 25 0 0 0 0.025110001
2.27 -1.153 -0.193 26 0 0 0 0.025119999
2.267 -1.1440001 -0.193 29 0 0 0 0.02513
2.2650001 -1.135 -0.19400001 28 0 0 0 0.025140001
2.2679999 -1.1289999 -0.19499999 27 0 0 0 0.025149999
2.2650001 -1.12 -0.19499999 26 0 0 0 0.02516
2.27 -1.115 -0.19599999 25 0 0 0 0.02517
2.27 -1.107 -0.19599999 25 0 0 0 0.025180001
2.2690001 -1.099 -0.19599999 22 0 0 0 0.025189999
2.27 -1.092 -0.197 25 0 0 0 0.0252
2.2709999 -1.085 -0.197 25 0 0 0 0.025210001
2.2720001 -1.0779999 -0.197 21 0 0 0 0.025219999
2.2739999 -1.071 -0.198 18 0 0 0 0.02523
2.2809999 -1.067 -0.199 19 0 0 0 0.02524
2.2750001 -1.056 -0.198 23 0 0 0 0.025250001
2.2739999 -1.048 -0.198 20 0 0 0 0.02526
2.2709999 -1.039 -0.198 18 0 0 0 0.02527
2.279 -1.035 -0.199 22 0 0 0 0.025280001
2.2780001 -1.027 -0.199 24 0 0 0 0.025289999
2.2739999 -1.017 -0.198 23 0 0 0 0.0253
2.277 -1.011 -0.199 21 0 0 0 0.02531
2.2750001 -1.002 -0.198 22 0 0 0 0.025319999
2.279 -0.99599999 -0.199 23 0 0 0 0.02533
2.2809999 -0.98900002 -0.199 26 0 0 0 0.02534
2.277 -0.98000002 -0.198 24 0 0 0 0.025350001
2.28 -0.97399998 -0.198 21 0 0 0 0.025359999
2.276 -0.96399999 -0.198 19 0 0 0 0.02537
2.2780001 -0.95700002 -0.198 22 0 0 0 0.02538
2.279 -0.94999999 -0.197 22 0 0 0 0.025389999
2.2839999 -0.94400001 -0.197 23 0 0 0 0.0254
2.283 -0.93599999 -0.197 24 0 0 0 0.02541
2.2839999 -0.92799997 -0.197 23 0 0 0 0.025420001
2.286 -0.921 -0.197 21 0 0 0 0.025429999
2.283 -0.912 -0.19599999 17 0 0 0 0.02544
2.29 -0.90799999 -0.19599999 18 0 0 0 0.025450001
2.289 -0.89899999 -0.19599999 21 0 0 0 0.025459999
2.2850001 -0.88999999 -0.19499999 23 0 0 0 0.02547
2.2839999 -0.88200003 -0.19400001 24 0 0 0 0.02548
2.286 -0.875 -0.19400001 27 0 0 0 0.025490001
2.2839999 -0.866 -0.193 29 0 0 0 0.0255
2.2880001 -0.86000001 -0.193 28 0 0 0 0.02551
2.29 -0.85299999 -0.192 26 0 0 0 0.025520001
2.286 -0.84399998 -0.191 23 0 0 0 0.025529999
2.2920001 -0.838 -0.191 20 0 0 0 0.02554
2.2920001 -0.82999998 -0.191 17 0 0 0 0.02555
2.2850001 -0.81999999 -0.189 21 0 0 0 0.025560001
2.289 -0.81300002 -0.189 20 0 0 0 0.02557
2.2950001 -0.80800003 -0.189 19 0 0 0 0.02558
2.2909999 -0.79900002 -0.18700001 24 0 0 0 0.025590001
2.2920001 -0.79100001 -0.18700001 26 0 0 0 0.025599999
2.299 -0.78600001 -0.186 24 0 0 0 0.02561
2.2980001 -0.778 -0.185 23 0 0 0 0.02562
2.302 -0.77100003 -0.185 23 0 0 0 0.025629999
2.2969999 -0.76200002 -0.184 22 0 0 0 0.02564
2.303 -0.75599998 -0.183 21 0 0 0 0.02565
2.306 -0.74900001 -0.182 20 0 0 0 0.025660001
2.3080001 -0.74199998 -0.182 19 0 0 0 0.025669999
2.3099999 -0.73500001 -0.18099999 17 0 0 0 0.02568
2.3139999 -0.72799999 -0.18000001 16 0 0 0 0.025690001
2.3110001 -0.72000003 -0.17900001 16 0 0 0 0.025699999
2.312 -0.71200001 -0.178 16 0 0 0 0.02571
2.3069999 -0.70300001 -0.176 16 0 0 0 0.02572
2.3069999 -0.69599998 -0.175 16 0 0 0 0.025730001
2.3069999 -0.68800002 -0.17399999 16 0 0 0 0.025739999
2.3099999 -0.68099999 -0.17299999 16 0 0 0 0.02575
2.3050001 -0.67199999 -0.17200001 18 0 0 0 0.025760001
2.3050001 -0.66399997 -0.17 18 0 0 0 0.025769999
2.3069999 -0.65700001 -0.169 17 0 0 0 0.02578
2.3039999 -0.648 -0.168 19 0 0 0 0.02579
2.3 -0.63999999 -0.16599999 19 0 0 0 0.025800001
2.2980001 -0.63099998 -0.16500001 22 0 0 0 0.02581
2.3199999 -0.63 -0.16500001 22 0 0 0 0.02582
2.3570001 -0.63200003 -0.167 20 0 0 0 0.025830001
2.4119999 -0.639 -0.169 28 0 0 0 0.025839999
2.4530001 -0.64099997 -0.171 23 0 0 0 0.02585
2.484 -0.64099997 -0.171 22 0 0 0 0.02586
2.77 -0.70599997 -0.189 150 0 0 0 0.025869999
3.0810001 -0.77499998 -0.20900001 150 0 0 0 0.02588
3.1359999 -0.77899998 -0.211 150 0 0 0 0.02589
3.1359999 -0.76800001 -0.20900001 150 0 0 0 0.025900001
3.1370001 -0.75800002 -0.207 150 0 0 0 0.025909999
3.141 -0.74900001 -0.205 150 0 0 0 0.02592
3.142 -0.73900002 -0.20299999 150 0 0 0 0.02593
3.1670001 -0.73400003 -0.20299999 151 0 0 0 0.025939999
3.1719999 -0.72500002 -0.20100001 151 0 0 0 0.02595
3.1730001 -0.71499997 -0.199 151 0 0 0 0.02596
3.171 -0.704 -0.197 151 0 0 0 0.025970001
3.171 -0.69300002 -0.19499999 150 0 0 0 0.025979999
3.171 -0.68300003 -0.192 150 0 0 0 0.02599
3.2379999 -0.68699998 -0.19400001 54 0 0 0 0.026000001
3.286 -0.68699998 -0.19499999 151 0 0 0 0.026009999
3.283 -0.67500001 -0.192 151 0 0 0 0.02602
3.286 -0.66500002 -0.19 152 0 0 0 0.02603
3.2839999 -0.65399998 -0.18799999 152 0 0 0 0.026040001
3.3010001 -0.64700001 -0.186 150 0 0 0 0.02605
3.3169999 -0.639 -0.185 151 0 0 0 0.02606
3.316 -0.62900001 -0.182 151 0 0 0 0.026070001
3.3180001 -0.61799997 -0.18000001 150 0 0 0 0.026079999
3.388 -0.62 -0.18099999 152 0 0 0 0.02609
3.382 -0.60799998 -0.178 150 0 0 0 0.0261
3.3800001 -0.597 -0.176 150 0 0 0 0.026110001
3.388 -0.588 -0.17399999 150 0 0 0 0.02612
3.3900001 -0.57700002 -0.171 150 0 0 0 0.02613
3.385 -0.56599998 -0.168 150 0 0 0 0.026140001
3.3870001 -0.55500001 -0.16599999 150 0 0 0 0.026149999
3.3889999 -0.54400003 -0.163 150 0 0 0 0.02616
3.3889999 -0.53399998 -0.16 150 0 0 0 0.02617
3.391 -0.523 -0.15800001 150 0 0 0 0.026179999
3.3900001 -0.51200002 -0.155 150 0 0 0 0.02619
3.391 -0.50199997 -0.152 150 0 0 0 0.0262
3.3889999 -0.49000001 -0.149 150 0 0 0 0.026210001
3.3889999 -0.47999999 -0.147 150 0 0 0 0.026219999
3.3889999 -0.46900001 -0.14399999 150 0 0 0 0.02623
3.391 -0.45899999 -0.141 150 0 0 0 0.026240001
3.3870001 -0.447 -0.138 150 0 0 0 0.026249999
3.3929999 -0.43700001 -0.13500001 151 0 0 0 0.02626
3.3940001 -0.42699999 -0.133 151 0 0 0 0.02627
3.392 -0.41600001 -0.13 150 0 0 0 0.026280001
3.3940001 -0.405 -0.127 151 0 0 0 0.026289999
3.3929999 -0.39399999 -0.124 151 0 0 0 0.0263
3.3929999 -0.384 -0.121 151 0 0 0 0.026310001
3.398 -0.37400001 -0.118 152 0 0 0 0.026319999
3.3970001 -0.36300001 -0.115 152 0 0 0 0.02633
3.4030001 -0.35299999 -0.112 152 0 0 0 0.02634
3.3989999 -0.34200001 -0.109 152 0 0 0 0.026350001
3.3900001 -0.33000001 -0.106 153 0 0 0 0.02636
3.3829999 -0.31900001 -0.102 154 0 0 0 0.02637
3.3840001 -0.308 -0.098999999 154 0 0 0 0.026380001
3.375 -0.29699999 -0.096000001 154 0 0 0 0.026389999
3.3710001 -0.28600001 -0.093000002 155 0 0 0 0.0264
3.368 -0.27599999 -0.089000002 156 0 0 0 0.02641
3.372 -0.26499999 -0.086000003 156 0 0 0 0.026419999
3.3629999 -0.25400001 -0.082999997 157 0 0 0 0.02643
3.3629999 -0.244 -0.079999998 158 0 0 0 0.02644
3.3610001 -0.233 -0.077 159 0 0 0 0.026450001
3.359 -0.223 -0.072999999 159 0 0 0 0.026459999
3.355 -0.212 -0.07 160 0 0 0 0.02647
3.3570001 -0.20200001 -0.067000002 160 0 0 0 0.02648
3.359 -0.191 -0.064000003 161 0 0 0 0.026489999
3.358 -0.18099999 -0.059999999 163 0 0 0 0.0265
3.3570001 -0.17 -0.057 163 0 0 0 0.02651
3.359 -0.16 -0.054000001 164 0 0 0 0.026520001
3.3670001 -0.15000001 -0.050999999 163 0 0 0 0.026529999
3.3640001 -0.14 -0.046999998 162 0 0 0 0.02654
3.365 -0.12899999 -0.044 162 0 0 0 0.026550001
3.3659999 -0.119 -0.039999999 163 0 0 0 0.026559999
3.365 -0.109 -0.037 161 0 0 0 0.02657
3.369 -0.097999997 -0.034000002 160 0 0 0 0.02658
3.369 -0.088 -0.029999999 160 0 0 0 0.026590001
3.3670001 -0.078000002 -0.027000001 159 0 0 0 0.0266
3.3670001 -0.067000002 -0.023 158 0 0 0 0.02661
3.3740001 -0.057 -0.02 158 0 0 0 0.026620001
3.385 -0.046999998 -0.016000001 156 0 0 0 0.026629999
3.3829999 -0.035999998 -0.013 155 0 0 0 0.02664
3.3859999 -0.026000001 -0.0089999996 155 0 0 0 0.02665
3.404 -0.016000001 -0.0060000001 154 0 0 0 0.026660001
3.4119999 -0.0049999999 -0.0020000001 153 0 0 0 0.02667
3.415 0.0040000002 0.001 153 0 0 0 0.02668
3.4119999 0.015 0.0040000002 153 0 0 0 0.026690001
3.4200001 0.025 0.0080000004 152 0 0 0 0.026699999
3.418 0.035 0.012 152 0 0 0 0.02671
3.4230001 0.046 0.015 152 0 0 0 0.02672
3.4230001 0.056000002 0.018999999 152 0 0 0 0.026729999
3.404 0.067000002 0.023 154 0 0 0 0.02674
3.378 0.075999998 0.026000001 153 0 0 0 0.02675
3.3610001 0.086000003 0.029999999 152 0 0 0 0.026760001
3.3629999 0.096000001 0.034000002 152 0 0 0 0.026769999
3.3380001 0.106 0.037 151 0 0 0 0.02678
3.309 0.115 0.041000001 154 0 0 0 0.02679
3.302 0.125 0.044 154 0 0 0 0.026799999
3.3 0.134 0.048 154 0 0 0 0.02681
3.3199999 0.145 0.052000001 154 0 0 0 0.02682
3.3199999 0.155 0.056000002 64 0 0 0 0.026830001
3.283 0.164 0.059 25 0 0 0 0.026839999
3.2219999 0.17 0.061999999 25 0 0 0 0.02685
3.152 0.176 0.064000003 25 0 0 0 0.026860001
3.082 0.182 0.066 25 0 0 0 0.026869999
2.994 0.185 0.068000004 25 0 0 0 0.02688
2.9549999 0.192 0.07 26 0 0 0 0.02689
2.8989999 0.197 0.071999997 27 0 0 0 0.026900001
2.8039999 0.199 0.072999999 27 0 0 0 0.02691
2.7049999 0.2 0.074000001 26 0 0 0 0.02692
2.631 0.20299999 0.075000003 23 0 0 0 0.026930001
2.5599999 0.205 0.075999998 20 0 0 0 0.026939999
2.503 0.208 0.078000002 21 0 0 0 0.02695
2.4419999 0.20999999 0.079000004 19 0 0 0 0.02696
2.391 0.213 0.079999998 18 0 0 0 0.026969999
2.3110001 0.213 0.079999998 150 0 0 0 0.02698
2.2950001 0.21799999 0.082000002 151 0 0 0 0.02699
2.2939999 0.22499999 0.085000001 151 0 0 0 0.027000001
2.293 0.23199999 0.088 151 0 0 0 0.027009999
2.2839999 0.23800001 0.090999998 150 0 0 0 0.02702
2.2809999 0.244 0.093000002 151 0 0 0 0.02703
2.2809999 0.25099999 0.096000001 151 0 0 0 0.027039999
2.2820001 0.25799999 0.098999999 151 0 0 0 0.02705
2.279 0.26499999 0.102 151 0 0 0 0.02706
2.2869999 0.273 0.105 151 0 0 0 0.027070001
2.28 0.27900001 0.108 151 0 0 0 0.027079999
2.2780001 0.285 0.111 151 0 0 0 0.02709
2.2839999 0.29300001 0.114 151 0 0 0 0.027100001
2.2869999 0.30000001 0.117 151 0 0 0 0.027109999
2.2939999 0.308 0.121 151 0 0 0 0.02712
2.293 0.315 0.124 151 0 0 0 0.02713
2.2920001 0.32100001 0.127 151 0 0 0 0.027140001
2.29 0.32800001 0.13 151 0 0 0 0.02715
2.29 0.33500001 0.133 151 0 0 0 0.02716
2.3010001 0.34299999 0.13600001 150 0 0 0 0.027170001
2.392 0.36399999 0.145 150 0 0 0 0.027179999
2.5599999 0.39700001 0.15899999 150 0 0 0 0.02719
2.5580001 0.405 0.162 150 0 0 0 0.0272
2.5580001 0.412 0.16599999 150 0 0 0 0.027210001
2.559 0.41999999 0.169 150 0 0 0 0.02722
2.51 0.41999999 0.17 150 0 0 0 0.02723
2.3759999 0.40400001 0.164 150 0 0 0 0.027240001
2.5840001 0.447 0.182 106 0 0 0 0.027249999
1.541 0.271 0.11 1 0 0 0 0.02726
1.495 0.26800001 0.109 1 0 0 0 0.02727
1.46 0.266 0.109 0 0 0 0 0.027279999
1.456 0.26899999 0.111 1 0 0 0 0.02729
1.429 0.26899999 0.111 0 0 0 0 0.0273
1.4220001 0.27200001 0.112 0 0 0 0 0.027310001
1.409 0.273 0.113 0 0 0 0 0.027319999
1.388 0.273 0.113 0 0 0 0 0.02733
1.377 0.27500001 0.115 1 0 0 0 0.02734
1.359 0.27599999 0.115 10 0 0 0 0.027349999
1.355 0.27900001 0.117 41 0 0 0 0.02736
1.344 0.28099999 0.118 77 0 0 0 0.02737
1.349 0.28600001 0.12 77 0 0 0 0.027380001
1.346 0.289 0.122 83 0 0 0 0.027389999
1.348 0.29300001 0.124 78 0 0 0 0.0274
1.347 0.29699999 0.126 82 0 0 0 0.027410001
1.348 0.301 0.12800001 88 0 0 0 0.027419999
1.349 0.30599999 0.131 88 0 0 0 0.02743
1.351 0.31 0.133 85 0 0 0 0.02744
1.352 0.31400001 0.13500001 88 0 0 0 0.027450001
1.347 0.317 0.13699999 99 0 0 0 0.02746
1.353 0.32300001 0.14 36 0 0 0 0.02747
1.355 0.32699999 0.142 8 0 0 0 0.027480001
1.341 0.32800001 0.142 5 0 0 0 0.027489999
1.3150001 0.32499999 0.142 0 0 0 0 0.0275
3.4790001 0.87099999 0.382 1 0 0 0 0.02751
3.484 0.88300002 0.38800001 3 0 0 0 0.027519999
3.4579999 0.88599998 0.391 5 0 0 0 0.02753
3.461 0.89700001 0.39700001 5 0 0 0 0.02754
3.46 0.90700001 0.40200001 5 0 0 0 0.027550001
3.461 0.91799998 0.40799999 3 0 0 0 0.027559999
3.4230001 0.91799998 0.40900001 2 0 0 0 0.02757
3.4260001 0.92799997 0.41499999 3 0 0 0 0.02758
3.4230001 0.93800002 0.421 3 0 0 0 0.027589999
3.414 0.94499999 0.42500001 3 0 0 0 0.0276
3.398 0.95099998 0.42899999 3 0 0 0 0.02761
3.392 0.95899999 0.43399999 3 0 0 0 0.027620001
3.385 0.96700001 0.43900001 4 0 0 0 0.027629999
3.3840001 0.977 0.44499999 4 0 0 0 0.02764
3.382 0.986 0.44999999 4 0 0 0 0.027650001
3.3789999 0.995 0.456 3 0 0 0 0.027659999
3.3710001 1.002 0.461 2 0 0 0 0.02767
3.3210001 0.99699998 0.46000001 0 0 0 0 0.02768
3.2920001 0.99800003 0.461 0 0 0 0 0.027690001
3.256 0.99599999 0.46200001 1 0 0 0 0.0277
3.2650001 1.0089999 0.46900001 2 0 0 0 0.02771
3.277 1.022 0.477 2 0 0 0 0.027720001
3.266 1.028 0.48100001 3 0 0 0 0.027729999
3.2620001 1.036 0.486 3 0 0 0 0.02774
3.279 1.051 0.495 3 0 0 0 0.02775
3.2869999 1.063 0.50199997 3 0 0 0 0.027760001
3.2750001 1.068 0.50599998 2 0 0 0 0.02777
3.2539999 1.071 0.509 2 0 0 0 0.02778
3.2520001 1.08 0.51499999 2 0 0 0 0.027790001
3.2409999 1.085 0.51899999 2 0 0 0 0.027799999
3.2490001 1.097 0.52700001 2 0 0 0 0.02781
3.2360001 1.102 0.53100002 2 0 0 0 0.02782
3.2520001 1.1160001 0.54000002 2 0 0 0 0.027829999
3.273 1.133 0.54900002 1 0 0 0 0.02784
0.97600001 0.34 0.16500001 0 0 0 0 0.02785
0.96799999 0.34 0.16599999 0 0 0 0 0.027860001
0.98000002 0.347 0.17 6 0 0 0 0.027869999
0.97399998 0.34799999 0.171 6 0 0 0 0.02788
0.97500002 0.35100001 0.17299999 6 0 0 0 0.02789
0.97500002 0.354 0.175 5 0 0 0 0.027899999
0.96700001 0.35299999 0.175 0 0 0 0 0.02791
0 0 0 0 0 0 0 0.02792
3.411 1.267 0.63200003 0 0 0 0 0.027930001
3.4030001 1.273 0.63800001 0 0 0 0 0.027939999
3.368 1.2690001 0.63800001 0 0 0 0 0.02795
3.438 1.3049999 0.65799999 0 0 0 0 0.027960001
3.4519999 1.3200001 0.66799998 0 0 0 0 0.027969999
3.4419999 1.326 0.67299998 0 0 0 0 0.02798
3.4920001 1.354 0.69 0 0 0 0 0.02799
3.471 1.3559999 0.69300002 0 0 0 0 0.028000001
3.385 1.331 0.68300003 0 0 0 0 0.02801
3.3800001 1.3380001 0.68900001 0 0 0 0 0.02802
1.515 0.60399997 0.31200001 0 0 0 0 0.028030001
1.495 0.60000002 0.31099999 0 0 0 0 0.028039999
3.313 1.3380001 0.69599998 0 0 0 0 0.02805
3.303 1.3430001 0.69999999 2 0 0 0 0.02806
1.4630001 0.59899998 0.31299999 0 0 0 0 0.028069999
1.469 0.60500002 0.31799999 2 0 0 0 0.02808
1.476 0.61199999 0.322 4 0 0 0 0.02809
1.484 0.61900002 0.32699999 2 0 0 0 0.028100001
1.625 0.68199998 0.36199999 0 0 0 0 0.028109999
3.9200001 1.655 0.88200003 20 0 0 0 0.02812
3.9200001 1.666 0.88999999 9 0 0 0 0.02813
3.944 1.686 0.90399998 2 0 0 0 0.028139999
3.2780001 1.41 0.759 4 0 0 0 0.02815
3.279 1.418 0.76599997 4 0 0 0 0.02816
3.3859999 1.473 0.79900002 4 0 0 0 0.028170001
1.3710001 0.60000002 0.32600001 0 0 0 0 0.028179999
3.9419999 1.735 0.94800001 1 0 0 0 0.02819
1.358 0.60100001 0.329 15 0 0 0 0.028200001
1.359 0.60500002 0.333 10 0 0 0 0.028209999
1.391 0.62199998 0.34299999 0 0 0 0 0.02822
3.95 1.777 0.98500001 2 0 0 0 0.02823
3.9590001 1.791 0.99599999 2 0 0 0 0.028240001
3.977 1.809 1.01 2 0 0 0 0.02825
4.0009999 1.829 1.025 1 0 0 0 0.02826
0 0 0 0 0 0 0 0.028270001
0 0 0 0 0 0 0 0.028279999
0 0 0 0 0 0 0 0.02829
0 0 0 0 0 0 0 0.0283
0 0 0 0 0 0 0 0.028310001
0 0 0 0 0 0 0 0.02832
0 0 0 0 0 0 0 0.02833
0 0 0 0 0 0 0 0.028340001
0 0 0 0 0 0 0 0.028349999
0 0 0 0 0 0 0 0.02836
0 0 0 0 0 0 0 0.02837
0 0 0 0 0 0 0 0.028379999
0 0 0 0 0 0 0 0.02839
0 0 0 0 0 0 0 0.0284
0 0 0 0 0 0 0 0.028410001
1.098 0.54100001 0.32100001 0 0 0 0 0.028419999
1.096 0.542 0.324 0 0 0 0 0.02843
1.089 0.54100001 0.324 0 0 0 0 0.02844
1.08 0.53799999 0.324 0 0 0 0 0.028449999
1.077 0.53899997 0.32499999 0 0 0 0 0.02846
1.077 0.54100001 0.32800001 0 0 0 0 0.02847
1.0779999 0.54400003 0.331 0 0 0 0 0.028480001
1.075 0.54400003 0.33199999 0 0 0 0 0.028489999
1.076 0.546 0.33500001 0 0 0 0 0.0285
1.0880001 0.55500001 0.34200001 0 0 0 0 0.028510001
1.092 0.55900002 0.345 0 0 0 0 0.028519999
1.094 0.56199998 0.34799999 0 0 0 0 0.02853
1.087 0.56 0.34900001 0 0 0 0 0.02854
1.081 0.55900002 0.34900001 0 0 0 0 0.028550001
1.076 0.55800003 0.34999999 0 0 0 0 0.02856
1.081 0.56199998 0.354 0 0 0 0 0.02857
1.082 0.565 0.35699999 0 0 0 0 0.028580001
1.081 0.56599998 0.36000001 0 0 0 0 0.028589999
1.0829999 0.56800002 0.36300001 0 0 0 0 0.0286
1.117 0.588 0.377 0 0 0 0 0.02861
1.188 0.62699997 0.403 0 0 0 0 0.028620001
1.257 0.66600001 0.43000001 1 0 0 0 0.02863
1.272 0.67500001 0.43799999 1 0 0 0 0.02864
1.291 0.68699998 0.447 1 0 0 0 0.028650001
1.304 0.69599998 0.45500001 1 0 0 0 0.028659999
1.285 0.68699998 0.45100001 15 0 0 0 0.02867
1.277 0.685 0.45100001 12 0 0 0 0.02868
1.267 0.68099999 0.44999999 12 0 0 0 0.028689999
1.262 0.68000001 0.45199999 12 0 0 0 0.0287
1.256 0.67799997 0.45199999 12 0 0 0 0.02871
1.2460001 0.67400002 0.45100001 11 0 0 0 0.028720001
0 0 0 0 0 0 0 0.028729999
0 0 0 0 0 0 0 0.02874
0 0 0 0 0 0 0 0.028750001
0 0 0 0 0 0 0 0.028759999
0 0 0 0 0 0 0 0.02877
0 0 0 0 0 0 0 0.02878
0 0 0 0 0 0 0 0.028790001
0 0 0 0 0 0 0 0.0288
0 0 0 0 0 0 0 0.02881
0 0 0 0 0 0 0 0.028820001
0 0 0 0 0 0 0 0.028829999
0 0 0 0 0 0 0 0.02884
0 0 0 0 0 0 0 0.02885
0 0 0 0 0 0 0 0.028860001
0 0 0 0 0 0 0 0.02887
0 0 0 0 0 0 0 0.02888
0 0 0 0 0 0 0 0.028890001
0 0 0 0 0 0 0 0.028899999
0 0 0 0 0 0 0 0.02891
0 0 0 0 0 0 0 0.02892
0 0 0 0 0 0 0 0.028929999
0 0 0 0 0 0 0 0.02894
0 0 0 0 0 0 0 0.02895
0 0 0 0 0 0 0 0.028960001
0 0 0 0 0 0 0 0.028969999
0 0 0 0 0 0 0 0.02898
0 0 0 0 0 0 0 0.02899
0 0 0 0 0 0 0 0.028999999
0 0 0 0 0 0 0 0.02901
0 0 0 0 0 0 0 0.02902
0 0 0 0 0 0 0 0.029030001
0 0 0 0 0 0 0 0.029039999
0 0 0 0 0 0 0 0.02905
1.082 0.60000002 0.463 0 0 0 0 0.029060001
1.077 0.597 0.46200001 0 0 0 0 0.029069999
1.073 0.59399998 0.46200001 0 0 0 0 0.02908
1.071 0.59299999 0.463 0 0 0 0 0.02909
1.063 0.588 0.461 0 0 0 0 0.029100001
1.062 0.58700001 0.46200001 0 0 0 0 0.02911
1.062 0.58600003 0.463 0 0 0 0 0.02912
1.056 0.58200002 0.46200001 0 0 0 0 0.029130001
1.053 0.57999998 0.46200001 0 0 0 0 0.029139999
1.048 0.57599998 0.461 0 0 0 0 0.02915
1.046 0.574 0.461 0 0 0 0 0.02916
1.046 0.57300001 0.46200001 0 0 0 0 0.029170001
1.04 0.56900001 0.461 0 0 0 0 0.02918
1.039 0.56800002 0.46200001 0 0 0 0 0.02919
1.038 0.56599998 0.46200001 0 0 0 0 0.029200001
1.036 0.56400001 0.463 0 0 0 0 0.029209999
1.034 0.56199998 0.463 0 0 0 0 0.02922
1.034 0.56099999 0.46399999 0 0 0 0 0.02923
1.029 0.55699998 0.46200001 0 0 0 0 0.029239999
1.028 0.55599999 0.463 0 0 0 0 0.02925
1.021 0.55000001 0.461 0 0 0 0 0.02926
1.025 0.551 0.463 0 0 0 0 0.029270001
1.024 0.54900002 0.46399999 0 0 0 0 0.029279999
1.02 0.546 0.463 0 0 0 0 0.02929
1.0190001 0.54400003 0.463 0 0 0 0 0.029300001
1.018 0.542 0.463 5 0 0 0 0.029309999
1.015 0.53899997 0.46200001 5 0 0 0 0.02932
1.015 0.537 0.463 6 0 0 0 0.02933
1.016 0.537 0.46399999 6 0 0 0 0.029340001
1.016 0.53500003 0.46399999 6 0 0 0 0.02935
1.016 0.53299999 0.465 5 0 0 0 0.02936
1.0089999 0.528 0.46200001 5 0 0 0 0.029370001
1.0140001 0.52899998 0.465 5 0 0 0 0.029379999
1.013 0.52600002 0.465 5 0 0 0 0.02939
1.012 0.52499998 0.465 5 0 0 0 0.0294
1.0089999 0.52100003 0.46399999 5 0 0 0 0.029410001
1.011 0.51999998 0.465 5 0 0 0 0.02942
1.006 0.51599997 0.463 5 0 0 0 0.02943
1.01 0.51599997 0.465 5 0 0 0 0.029440001
1.0089999 0.51300001 0.46399999 5 0 0 0 0.029449999
1.013 0.514 0.46599999 5 0 0 0 0.02946
1.0140001 0.51200002 0.46700001 5 0 0 0 0.02947
1.01 0.50800002 0.465 5 0 0 0 0.029479999
1.01 0.50599998 0.465 5 0 0 0 0.02949
1.0140001 0.50599998 0.46599999 6 0 0 0 0.0295
1.01 0.50199997 0.465 5 0 0 0 0.029510001
1.013 0.50099999 0.46599999 5 0 0 0 0.029519999
1.0089999 0.498 0.46399999 5 0 0 0 0.02953
1.01 0.49599999 0.46399999 5 0 0 0 0.02954
1.013 0.495 0.465 5 0 0 0 0.029549999
1.012 0.49200001 0.46399999 5 0 0 0 0.02956
1.013 0.49000001 0.46399999 5 0 0 0 0.02957
1.015 0.48899999 0.465 6 0 0 0 0.029580001
1.016 0.48699999 0.465 5 0 0 0 0.029589999
1.016 0.48500001 0.465 0 0 0 0 0.0296
1.02 0.484 0.46599999 6 0 0 0 0.029610001
1.0190001 0.48199999 0.465 0 0 0 0 0.029619999
1.017 0.479 0.46399999 0 0 0 0 0.02963
1.02 0.477 0.46399999 0 0 0 0 0.02964
1.017 0.47299999 0.46200001 0 0 0 0 0.029650001
1.025 0.47499999 0.465 0 0 0 0 0.02966
1.026 0.47299999 0.465 0 0 0 0 0.02967
1.027 0.47099999 0.465 0 0 0 0 0.029680001
1.027 0.46799999 0.46399999 0 0 0 0 0.029689999
1.031 0.46799999 0.465 0 0 0 0 0.0297
1.0319999 0.465 0.465 0 0 0 0 0.02971
1.034 0.46399999 0.465 0 0 0 0 0.029720001
1.035 0.461 0.46399999 0 0 0 0 0.02973
1.038 0.46000001 0.46399999 0 0 0 0 0.02974
1.039 0.458 0.46399999 0 0 0 0 0.029750001
1.044 0.45699999 0.465 0 0 0 0 0.029759999
1.048 0.456 0.46599999 0 0 0 0 0.02977
1.049 0.454 0.465 0 0 0 0 0.02978
1.053 0.45300001 0.46599999 0 0 0 0 0.029789999
1.051 0.44999999 0.46399999 0 0 0 0 0.0298
1.059 0.44999999 0.46599999 0 0 0 0 0.02981
1.0599999 0.44800001 0.465 0 0 0 0 0.029820001
1.066 0.44800001 0.46700001 0 0 0 0 0.029829999
1.063 0.44299999 0.46399999 0 0 0 0 0.02984
1.072 0.44499999 0.46700001 0 0 0 0 0.029850001
1.069 0.44100001 0.46399999 0 0 0 0 0.029859999
1.079 0.442 0.46700001 0 0 0 0 0.02987
1.0829999 0.44 0.46700001 0 0 0 0 0.02988
1.086 0.43900001 0.46700001 0 0 0 0 0.029890001
1.089 0.43700001 0.46700001 0 0 0 0 0.029899999
1.087 0.433 0.465 0 0 0 0 0.02991
1.096 0.43399999 0.46700001 0 0 0 0 0.029920001
1.1 0.433 0.46700001 0 0 0 0 0.029929999
1.103 0.43000001 0.46599999 0 0 0 0 0.02994
1.1059999 0.42899999 0.46599999 0 0 0 0 0.02995
1.1109999 0.428 0.46599999 0 0 0 0 0.029960001
1.108 0.42300001 0.463 0 0 0 0 0.02997
1.123 0.426 0.46799999 0 0 0 0 0.02998
0 0 0 0 0 0 0 0.029990001
1.04 0.389 0.43000001 0 0 0 0 0.029999999
0.99599999 0.37 0.41 13 0 0 0 0.03001
0.97000003 0.35699999 0.398 27 0 0 0 0.03002
0.954 0.34900001 0.38999999 36 0 0 0 0.030029999
0.94599998 0.34299999 0.38499999 46 0 0 0 0.03004
0.949 0.34200001 0.384 44 0 0 0 0.03005
0.94800001 0.33899999 0.382 29 0 0 0 0.030060001
0.95599997 0.33899999 0.384 15 0 0 0 0.030069999
0.97000003 0.34200001 0.38800001 4 0 0 0 0.03008
0.97600001 0.34099999 0.38800001 0 0 0 0 0.03009
0.98500001 0.34200001 0.38999999 0 0 0 0 0.030099999
0.99699998 0.34299999 0.39300001 0 0 0 0 0.03011
1 0.34099999 0.39199999 0 0 0 0 0.03012
1.0039999 0.34 0.39199999 0 0 0 0 0.030130001
1.012 0.34 0.39300001 0 0 0 0 0.030139999
1.021 0.34 0.39500001 0 0 0 0 0.03015
1.024 0.33899999 0.39399999 0 0 0 0 0.030160001
1.034 0.33899999 0.396 0 0 0 0 0.030169999
1.041 0.33899999 0.396 0 0 0 0 0.03018
1.045 0.33700001 0.396 0 0 0 0 0.03019
1.05 0.336 0.396 0 0 0 0 0.030200001
1.061 0.33700001 0.398 0 0 0 0 0.03021
1.063 0.33399999 0.396 0 0 0 0 0.03022
1.077 0.336 0.39899999 0 0 0 0 0.030230001
1.0829999 0.33500001 0.39899999 0 0 0 0 0.030239999
1.09 0.33399999 0.40000001 0 0 0 0 0.03025
1.0930001 0.33199999 0.398 0 0 0 0 0.03026
1.104 0.333 0.40000001 0 0 0 0 0.030270001
1.109 0.331 0.39899999 0 0 0 0 0.03028
1.115 0.33000001 0.39899999 0 0 0 0 0.03029
1.124 0.33000001 0.40000001 0 0 0 0 0.030300001
1.136 0.33000001 0.40200001 0 0 0 0 0.030309999
1.142 0.329 0.40200001 0 0 0 0 0.03032
1.156 0.33000001 0.40400001 0 0 0 0 0.03033
1.16 0.32800001 0.403 0 0 0 0 0.030339999
1.166 0.32699999 0.40200001 0 0 0 0 0.03035
1.181 0.32800001 0.405 0 0 0 0 0.03036
1.186 0.32699999 0.40400001 0 0 0 0 0.030370001
1.193 0.32499999 0.40400001 0 0 0 0 0.030379999
1.202 0.32499999 0.40400001 0 0 0 0 0.03039
1.217 0.32600001 0.40700001 0 0 0 0 0.030400001
1.223 0.324 0.405 0 0 0 0 0.030409999
1.2309999 0.32300001 0.40599999 0 0 0 0 0.03042
1.239 0.322 0.405 0 0 0 0 0.03043
1.2539999 0.32300001 0.40700001 0 0 0 0 0.030440001
1.271 0.324 0.41 0 0 0 0 0.030449999
1.298 0.32800001 0.41499999 0 0 0 0 0.03046
1.308 0.32699999 0.41600001 10 0 0 0 0.030470001
1.321 0.32699999 0.417 16 0 0 0 0.030479999
1.3329999 0.32600001 0.417 57 0 0 0 0.03049
1.332 0.32300001 0.414 150 0 0 0 0.0305
1.3279999 0.31799999 0.40900001 150 0 0 0 0.030510001
1.325 0.315 0.40599999 150 0 0 0 0.03052
1.327 0.31200001 0.403 150 0 0 0 0.03053
1.324 0.308 0.39899999 150 0 0 0 0.030540001
1.325 0.30500001 0.396 150 0 0 0 0.030549999
1.325 0.30199999 0.39300001 150 0 0 0 0.03056
1.321 0.29800001 0.389 150 0 0 0 0.03057
1.326 0.29499999 0.38699999 150 0 0 0 0.030579999
1.319 0.29100001 0.382 150 0 0 0 0.03059
1.3279999 0.28999999 0.38100001 150 0 0 0 0.0306
1.322 0.285 0.37599999 150 0 0 0 0.030610001
1.322 0.28200001 0.373 150 0 0 0 0.030619999
1.321 0.278 0.36899999 150 0 0 0 0.03063
1.322 0.27599999 0.366 150 0 0 0 0.03064
1.334 0.27500001 0.366 150 0 0 0 0.030649999
1.348 0.27500001 0.36700001 61 0 0 0 0.03066
1.372 0.27599999 0.37 13 0 0 0 0.03067
1.39 0.27700001 0.37200001 7 0 0 0 0.030680001
1.398 0.27500001 0.37 7 0 0 0 0.030689999
1.413 0.27500001 0.37099999 7 0 0 0 0.0307
1.423 0.273 0.37 7 0 0 0 0.030710001
1.439 0.273 0.37 8 0 0 0 0.030719999
1.45 0.27200001 0.37 8 0 0 0 0.03073
1.46 0.271 0.36899999 8 0 0 0 0.03074
1.477 0.27000001 0.36899999 8 0 0 0 0.030750001
1.49 0.26899999 0.36899999 9 0 0 0 0.03076
1.494 0.26699999 0.366 9 0 0 0 0.03077
1.503 0.26499999 0.36399999 9 0 0 0 0.030780001
1.521 0.26499999 0.36500001 9 0 0 0 0.030789999
1.533 0.26300001 0.36399999 7 0 0 0 0.0308
1.543 0.26199999 0.36199999 4 0 0 0 0.03081
1.545 0.259 0.359 1 0 0 0 0.030820001
4.132 0.68300003 0.94999999 54 0 0 0 0.03083
4.1370001 0.67500001 0.94 55 0 0 0 0.03084
4.1350002 0.66500002 0.93000001 54 0 0 0 0.030850001
4.1370001 0.65700001 0.91900003 55 0 0 0 0.030859999
4.131 0.64600003 0.90700001 55 0 0 0 0.03087
0 0 0 0 0 0 0 0.03088
0 0 0 0 0 0 0 0.030889999
0 0 0 0 0 0 0 0.0309
2.2969999 0.33899999 0.48100001 151 0 0 0 0.03091
2.293 0.33399999 0.47400001 151 0 0 0 0.030920001
2.289 0.329 0.46700001 151 0 0 0 0.030929999
2.293 0.324 0.46200001 151 0 0 0 0.03094
2.2950001 0.31999999 0.45699999 151 0 0 0 0.030950001
2.2920001 0.31400001 0.44999999 151 0 0 0 0.030959999
2.2950001 0.31 0.44499999 151 0 0 0 0.03097
2.2880001 0.30399999 0.43799999 151 0 0 0 0.03098
2.28 0.29800001 0.43000001 151 0 0 0 0.030990001
2.2809999 0.294 0.42399999 151 0 0 0 0.030999999
2.2809999 0.289 0.41800001 151 0 0 0 0.03101
2.2780001 0.28400001 0.412 151 0 0 0 0.031020001
2.2780001 0.27900001 0.40599999 151 0 0 0 0.031029999
2.279 0.27500001 0.40000001 151 0 0 0 0.03104
2.279 0.27000001 0.39399999 151 0 0 0 0.03105
2.28 0.26499999 0.389 151 0 0 0 0.031060001
2.2820001 0.26100001 0.38299999 151 0 0 0 0.03107
2.279 0.25600001 0.37599999 151 0 0 0 0.03108
2.2850001 0.252 0.37099999 151 0 0 0 0.031090001
2.2780001 0.24699999 0.36399999 151 0 0 0 0.031099999
2.277 0.242 0.35800001 150 0 0 0 0.03111
2.28 0.23800001 0.35299999 150 0 0 0 0.03112
2.2980001 0.235 0.34900001 150 0 0 0 0.031129999
2.3010001 0.23100001 0.34400001 151 0 0 0 0.03114
2.303 0.226 0.338 151 0 0 0 0.03115
2.3039999 0.222 0.33199999 151 0 0 0 0.031160001
2.3039999 0.21799999 0.32600001 151 0 0 0 0.031169999
2.3069999 0.213 0.31999999 150 0 0 0 0.03118
2.3239999 0.20999999 0.31600001 120 0 0 0 0.03119
2.3829999 0.211 0.31799999 17 0 0 0 0.031199999
2.4119999 0.20900001 0.315 15 0 0 0 0.03121
2.4360001 0.206 0.31200001 14 0 0 0 0.03122
2.4779999 0.205 0.31099999 15 0 0 0 0.031230001
2.517 0.204 0.30899999 18 0 0 0 0.031239999
2.559 0.20200001 0.308 19 0 0 0 0.03125
2.6070001 0.20100001 0.30599999 20 0 0 0 0.031259999
2.6489999 0.199 0.30399999 20 0 0 0 0.031270001
2.6960001 0.197 0.303 21 0 0 0 0.03128
2.753 0.19599999 0.30199999 22 0 0 0 0.031289998
2.786 0.193 0.29800001 22 0 0 0 0.031300001
2.8099999 0.19 0.29300001 20 0 0 0 0.03131
2.845 0.18700001 0.289 20 0 0 0 0.031319998
2.8940001 0.185 0.28600001 21 0 0 0 0.031330001
2.9660001 0.184 0.285 22 0 0 0 0.031339999
3.027 0.182 0.28299999 23 0 0 0 0.031350002
3.073 0.17900001 0.27900001 23 0 0 0 0.03136
3.1199999 0.176 0.27500001 23 0 0 0 0.031369999
3.175 0.17299999 0.271 23 0 0 0 0.031380001
3.2090001 0.169 0.26499999 23 0 0 0 0.03139
3.2420001 0.16500001 0.259 22 0 0 0 0.031399999
3.279 0.161 0.25299999 22 0 0 0 0.031410001
3.306 0.156 0.24699999 23 0 0 0 0.03142
3.3169999 0.15099999 0.23899999 64 0 0 0 0.031429999
3.3269999 0.145 0.23 151 0 0 0 0.031440001
3.329 0.139 0.221 151 0 0 0 0.03145
3.3280001 0.133 0.212 151 0 0 0 0.031459998
3.323 0.127 0.20299999 151 0 0 0 0.031470001
3.3269999 0.122 0.19400001 151 0 0 0 0.031479999
3.3280001 0.116 0.185 152 0 0 0 0.031490002
3.3269999 0.11 0.176 152 0 0 0 0.031500001
3.3310001 0.104 0.167 151 0 0 0 0.031509999
3.3410001 0.097999997 0.15899999 151 0 0 0 0.031520002
3.358 0.093000002 0.15000001 151 0 0 0 0.03153
3.359 0.086999997 0.141 151 0 0 0 0.031539999
3.3559999 0.081 0.132 151 0 0 0 0.031550001
3.3599999 0.075000003 0.123 151 0 0 0 0.03156
3.3829999 0.07 0.114 152 0 0 0 0.031569999
3.3989999 0.064999998 0.106 153 0 0 0 0.031580001
3.4170001 0.059 0.097000003 152 0 0 0 0.03159
3.4189999 0.052999999 0.088 152 0 0 0 0.031599998
3.4170001 0.046999998 0.078000002 152 0 0 0 0.031610001
3.4170001 0.041000001 0.068999998 152 0 0 0 0.03162
3.418 0.035999998 0.059 152 0 0 0 0.031629998
3.4170001 0.029999999 0.050000001 152 0 0 0 0.031640001
3.415 0.024 0.039999999 152 0 0 0 0.031649999
3.4119999 0.017999999 0.030999999 152 0 0 0 0.031660002
3.4059999 0.012 0.022 152 0 0 0 0.03167
3.404 0.0070000002 0.012 153 0 0 0 0.031679999
3.3989999 0.001 0.003 153 0 0 0 0.031690001
3.398 -0.0040000002 -0.0060000001 153 0 0 0 0.0317
3.401 -0.0089999996 -0.015 153 0 0 0 0.031709999
3.3900001 -0.015 -0.025 153 0 0 0 0.031720001
3.3900001 -0.021 -0.034000002 153 0 0 0 0.03173
3.385 -0.026000001 -0.043000001 153 0 0 0 0.031739999
3.3840001 -0.032000002 -0.052999999 154 0 0 0 0.031750001
3.3789999 -0.037 -0.061999999 155 0 0 0 0.03176
3.3800001 -0.043000001 -0.071000002 154 0 0 0 0.031769998
3.3829999 -0.048999999 -0.081 154 0 0 0 0.031780001
3.382 -0.054000001 -0.090999998 154 0 0 0 0.031789999
3.381 -0.059999999 -0.1 154 0 0 0 0.031800002
3.3789999 -0.064999998 -0.109 154 0 0 0 0.031810001
3.3800001 -0.07 -0.119 154 0 0 0 0.031819999
3.381 -0.075999998 -0.12800001 154 0 0 0 0.031830002
3.3800001 -0.081 -0.138 154 0 0 0 0.03184
3.3840001 -0.086999997 -0.148 153 0 0 0 0.031849999
3.3840001 -0.092 -0.15700001 153 0 0 0 0.031860001
3.3940001 -0.097999997 -0.167 153 0 0 0 0.03187
3.3929999 -0.103 -0.177 153 0 0 0 0.031879999
3.401 -0.109 -0.18700001 153 0 0 0 0.031890001
3.411 -0.115 -0.197 152 0 0 0 0.0319
3.4089999 -0.12 -0.207 152 0 0 0 0.031909999
3.411 -0.125 -0.21600001 152 0 0 0 0.031920001
3.4100001 -0.131 -0.226 151 0 0 0 0.03193
3.4059999 -0.13600001 -0.235 151 0 0 0 0.031939998
3.4089999 -0.141 -0.245 151 0 0 0 0.031950001
3.405 -0.147 -0.255 151 0 0 0 0.031959999
3.405 -0.152 -0.26499999 151 0 0 0 0.031970002
3.404 -0.15700001 -0.27399999 151 0 0 0 0.03198
3.4030001 -0.162 -0.28400001 151 0 0 0 0.031989999
3.4030001 -0.167 -0.294 151 0 0 0 0.032000002
3.4000001 -0.17200001 -0.303 151 0 0 0 0.03201
3.405 -0.178 -0.31400001 150 0 0 0 0.032019999
3.404 -0.183 -0.32300001 150 0 0 0 0.032030001
3.402 -0.18799999 -0.333 150 0 0 0 0.03204
3.4070001 -0.19400001 -0.34299999 150 0 0 0 0.032049999
3.405 -0.199 -0.35299999 150 0 0 0 0.032060001
3.3989999 -0.20299999 -0.36199999 150 0 0 0 0.03207
3.4030001 -0.20900001 -0.373 150 0 0 0 0.032079998
3.404 -0.214 -0.38299999 150 0 0 0 0.032090001
3.4030001 -0.219 -0.39199999 150 0 0 0 0.032099999
3.404 -0.22400001 -0.40200001 150 0 0 0 0.032109998
3.4000001 -0.229 -0.412 150 0 0 0 0.032120001
3.4030001 -0.234 -0.42199999 150 0 0 0 0.032129999
3.402 -0.23899999 -0.43200001 150 0 0 0 0.032140002
3.4030001 -0.244 -0.442 150 0 0 0 0.03215
3.402 -0.249 -0.45199999 150 0 0 0 0.032159999
3.398 -0.25299999 -0.461 150 0 0 0 0.032170001
3.401 -0.259 -0.472 150 0 0 0 0.03218
3.4000001 -0.26300001 -0.48199999 150 0 0 0 0.032189999
3.401 -0.26800001 -0.49200001 150 0 0 0 0.032200001
3.402 -0.273 -0.50199997 150 0 0 0 0.03221
3.3970001 -0.278 -0.51099998 150 0 0 0 0.032219999
3.4000001 -0.28299999 -0.52200001 150 0 0 0 0.032230001
3.402 -0.28799999 -0.53200001 150 0 0 0 0.03224
3.401 -0.29300001 -0.542 150 0 0 0 0.032249998
3.401 -0.29699999 -0.55299997 150 0 0 0 0.032260001
3.402 -0.30199999 -0.56300002 150 0 0 0 0.032269999
3.398 -0.30700001 -0.57200003 150 0 0 0 0.032280002
3.3989999 -0.31099999 -0.583 150 0 0 0 0.03229
3.4000001 -0.31600001 -0.59299999 150 0 0 0 0.032299999
3.3959999 -0.32100001 -0.60299999 150 0 0 0 0.032310002
3.4030001 -0.32600001 -0.61400002 150 0 0 0 0.03232
3.3989999 -0.33000001 -0.62400001 150 0 0 0 0.032329999
3.3989999 -0.33500001 -0.634 150 0 0 0 0.032340001
3.3959999 -0.33899999 -0.64399999 150 0 0 0 0.03235
3.398 -0.34400001 -0.65399998 150 0 0 0 0.032359999
3.395 -0.34799999 -0.66399997 150 0 0 0 0.032370001
3.3959999 -0.35299999 -0.67500001 150 0 0 0 0.03238
3.3940001 -0.35699999 -0.685 150 0 0 0 0.032389998
3.3929999 -0.36199999 -0.69499999 150 0 0 0 0.032400001
3.395 -0.366 -0.70599997 150 0 0 0 0.03241
3.392 -0.37099999 -0.71499997 150 0 0 0 0.032419998
3.3929999 -0.375 -0.72600001 150 0 0 0 0.032430001
3.3940001 -0.38 -0.73699999 150 0 0 0 0.032439999
3.391 -0.384 -0.74699998 150 0 0 0 0.032450002
3.388 -0.38800001 -0.75599998 150 0 0 0 0.03246
3.3929999 -0.39300001 -0.76800001 150 0 0 0 0.032469999
3.392 -0.39700001 -0.778 150 0 0 0 0.032480001
3.3870001 -0.40099999 -0.78799999 150 0 0 0 0.03249
3.3859999 -0.405 -0.79799998 150 0 0 0 0.032499999
3.3870001 -0.40900001 -0.80900002 150 0 0 0 0.032510001
3.3959999 -0.41499999 -0.82099998 60 0 0 0 0.03252
3.388 -0.41800001 -0.82999998 26 0 0 0 0.032529999
3.339 -0.41600001 -0.829 23 0 0 0 0.032540001
3.3080001 -0.41600001 -0.83099997 26 0 0 0 0.03255
3.2750001 -0.41600001 -0.833 26 0 0 0 0.032559998
3.2279999 -0.414 -0.83099997 25 0 0 0 0.032570001
3.1900001 -0.41299999 -0.83200002 25 0 0 0 0.032579999
3.158 -0.41299999 -0.833 25 0 0 0 0.032590002
3.1210001 -0.412 -0.833 26 0 0 0 0.032600001
3.092 -0.41100001 -0.83499998 26 0 0 0 0.032609999
3.059 -0.41100001 -0.83600003 26 0 0 0 0.032620002
3.016 -0.40799999 -0.83399999 25 0 0 0 0.03263
2.974 -0.40599999 -0.83200002 29 0 0 0 0.032639999
2.941 -0.405 -0.83200002 29 0 0 0 0.032650001
2.901 -0.403 -0.82999998 28 0 0 0 0.03266
2.8599999 -0.40000001 -0.82700002 27 0 0 0 0.032669999
2.8269999 -0.39899999 -0.82700002 25 0 0 0 0.032680001
2.7880001 -0.39700001 -0.824 24 0 0 0 0.03269
2.763 -0.396 -0.82599998 25 0 0 0 0.032699998
2.734 -0.39500001 -0.82599998 25 0 0 0 0.032710001
2.7060001 -0.39399999 -0.82599998 26 0 0 0 0.03272
2.674 -0.39199999 -0.82499999 26 0 0 0 0.032729998
2.642 -0.38999999 -0.824 25 0 0 0 0.032740001
2.6170001 -0.389 -0.824 26 0 0 0 0.032749999
2.586 -0.38800001 -0.82300001 26 0 0 0 0.032760002
2.5669999 -0.38800001 -0.82499999 26 0 0 0 0.03277
2.536 -0.38499999 -0.824 25 0 0 0 0.032779999
2.506 -0.38299999 -0.82200003 25 0 0 0 0.032790001
2.4790001 -0.382 -0.82099998 26 0 0 0 0.0328
2.4560001 -0.38100001 -0.82099998 25 0 0 0 0.032809999
2.4349999 -0.38 -0.82200003 24 0 0 0 0.032820001
2.4130001 -0.37900001 -0.82300001 25 0 0 0 0.03283
2.381 -0.37599999 -0.81999999 25 0 0 0 0.032839999
2.3610001 -0.375 -0.81999999 25 0 0 0 0.032850001
2.336 -0.37400001 -0.81900001 26 0 0 0 0.03286
2.319 -0.373 -0.82099998 25 0 0 0 0.032869998
2.2980001 -0.37200001 -0.82099998 26 0 0 0 0.032880001
2.2780001 -0.37099999 -0.82099998 25 0 0 0 0.032889999
2.2539999 -0.36899999 -0.81999999 24 0 0 0 0.032900002
2.2349999 -0.368 -0.82099998 25 0 0 0 0.032910001
2.2149999 -0.36700001 -0.82099998 25 0 0 0 0.032919999
2.1930001 -0.36500001 -0.81999999 24 0 0 0 0.032930002
2.168 -0.36300001 -0.81800002 24 0 0 0 0.03294
2.158 -0.36300001 -0.82099998 25 0 0 0 0.032949999
2.1359999 -0.361 -0.81999999 26 0 0 0 0.032960001
2.1199999 -0.36000001 -0.81999999 24 0 0 0 0.03297
2.1010001 -0.35800001 -0.81999999 23 0 0 0 0.032979999
2.0829999 -0.35699999 -0.81999999 24 0 0 0 0.032990001
2.0599999 -0.35499999 -0.81800002 24 0 0 0 0.033
2.043 -0.35299999 -0.81699997 24 0 0 0 0.033009999
2.03 -0.35299999 -0.81900001 24 0 0 0 0.033020001
2.0139999 -0.352 -0.81900001 25 0 0 0 0.03303
1.993 -0.34900001 -0.81699997 25 0 0 0 0.033039998
1.979 -0.34799999 -0.81800002 24 0 0 0 0.033050001
1.96 -0.34599999 -0.81699997 25 0 0 0 0.033059999
1.9450001 -0.345 -0.81699997 25 0 0 0 0.033070002
1.934 -0.345 -0.81900001 25 0 0 0 0.03308
1.916 -0.34299999 -0.81800002 28 0 0 0 0.033089999
1.895 -0.34 -0.815 32 0 0 0 0.033100002
1.886 -0.34 -0.81699997 33 0 0 0 0.03311
1.874 -0.33899999 -0.81900001 33 0 0 0 0.033119999
1.857 -0.33700001 -0.81699997 32 0 0 0 0.033130001
1.841 -0.33500001 -0.81599998 33 0 0 0 0.03314
1.835 -0.33500001 -0.81999999 35 0 0 0 0.033149999
1.823 -0.33399999 -0.81999999 33 0 0 0 0.033160001
1.804 -0.33199999 -0.81800002 33 0 0 0 0.03317
1.791 -0.33000001 -0.81800002 36 0 0 0 0.033179998
1.778 -0.329 -0.81800002 32 0 0 0 0.033190001
1.766 -0.32699999 -0.81800002 32 0 0 0 0.033199999
1.751 -0.32600001 -0.81699997 36 0 0 0 0.033209998
1.739 -0.324 -0.81699997 35 0 0 0 0.033220001
1.728 -0.32300001 -0.81699997 33 0 0 0 0.033229999
1.715 -0.32100001 -0.81699997 37 0 0 0 0.033240002
1.71 -0.32100001 -0.81999999 13 0 0 0 0.03325
1.692 -0.31799999 -0.81699997 36 0 0 0 0.033259999
1.684 -0.31799999 -0.81900001 13 0 0 0 0.033270001
1.678 -0.317 -0.82099998 13 0 0 0 0.03328
1.6619999 -0.315 -0.81900001 13 0 0 0 0.033289999
1.653 -0.31400001 -0.81999999 13 0 0 0 0.033300001
1.643 -0.31200001 -0.81999999 13 0 0 0 0.03331
1.635 -0.31099999 -0.82200003 13 0 0 0 0.033319999
1.622 -0.30899999 -0.81999999 13 0 0 0 0.033330001
1.61 -0.30700001 -0.81900001 13 0 0 0 0.03334
1.603 -0.30700001 -0.82099998 13 0 0 0 0.033349998
1.59 -0.30399999 -0.81900001 13 0 0 0 0.033360001
1.58 -0.303 -0.81900001 13 0 0 0 0.033369999
1.571 -0.301 -0.81999999 13 0 0 0 0.033380002
1.562 -0.30000001 -0.81999999 13 0 0 0 0.03339
1.552 -0.29800001 -0.81900001 13 0 0 0 0.033399999
1.545 -0.29699999 -0.82099998 12 0 0 0 0.033410002
