# .PCD v0.7 - Point Cloud Data file format
VERSION 0.7
FIELDS x y z intensity normal_x normal_y normal_z curvature
SIZE 4 4 4 4 4 4 4 4
TYPE F F F F F F F F
COUNT 1 1 1 1 1 1 1 1
WIDTH 1047
HEIGHT 1
VIEWPOINT 0 0 0 1 0 0 0
POINTS 1047
DATA ascii
1.627 0.54000002 -0.85900003 14 0 0 0 0.055229999
1.631 0.54100001 -0.85600001 39 0 0 0 0.055240002
1.6390001 0.54299998 -0.85600001 38 0 0 0 0.05525
1.65 0.546 -0.85699999 38 0 0 0 0.055259999
1.6569999 0.54699999 -0.85600001 36 0 0 0 0.055270001
1.669 0.55000001 -0.85699999 35 0 0 0 0.05528
1.678 0.55299997 -0.85799998 38 0 0 0 0.055289999
1.688 0.55500001 -0.85799998 38 0 0 0 0.055300001
1.699 0.55699998 -0.85799998 33 0 0 0 0.05531
1.711 0.56 -0.85900003 36 0 0 0 0.055319998
1.722 0.56300002 -0.86000001 37 0 0 0 0.055330001
1.735 0.56599998 -0.861 38 0 0 0 0.055339999
1.742 0.56699997 -0.86000001 35 0 0 0 0.055349998
1.757 0.57099998 -0.86199999 35 0 0 0 0.055360001
1.761 0.57099998 -0.85900003 35 0 0 0 0.055369999
1.777 0.574 -0.861 34 0 0 0 0.055380002
1.788 0.57700002 -0.86199999 34 0 0 0 0.05539
1.801 0.579 -0.86199999 34 0 0 0 0.055399999
1.811 0.58099997 -0.86199999 35 0 0 0 0.055410001
1.818 0.58200002 -0.85900003 34 0 0 0 0.05542
1.836 0.58600003 -0.86199999 33 0 0 0 0.055429999
1.849 0.58899999 -0.86299998 27 0 0 0 0.055440001
1.8609999 0.58999997 -0.86299998 24 0 0 0 0.05545
1.873 0.59200001 -0.86299998 23 0 0 0 0.055459999
1.886 0.59500003 -0.86400002 27 0 0 0 0.055470001
1.901 0.59799999 -0.86500001 31 0 0 0 0.05548
1.9170001 0.60100001 -0.866 32 0 0 0 0.055489998
1.927 0.602 -0.86500001 33 0 0 0 0.055500001
1.941 0.60399997 -0.86500001 33 0 0 0 0.055509999
1.955 0.60600001 -0.86500001 33 0 0 0 0.055520002
1.965 0.60699999 -0.86400002 31 0 0 0 0.05553
1.98 0.61000001 -0.86400002 32 0 0 0 0.055539999
1.997 0.61299998 -0.866 32 0 0 0 0.055550002
2.0109999 0.61500001 -0.866 32 0 0 0 0.05556
2.026 0.61699998 -0.866 30 0 0 0 0.055569999
2.0409999 0.61900002 -0.866 29 0 0 0 0.055580001
2.056 0.62099999 -0.866 31 0 0 0 0.05559
2.0739999 0.62400001 -0.86699998 31 0 0 0 0.055599999
2.0940001 0.62800002 -0.86900002 31 0 0 0 0.055610001
2.1059999 0.62900001 -0.86799997 32 0 0 0 0.05562
2.125 0.63200003 -0.86900002 33 0 0 0 0.055629998
2.145 0.63499999 -0.87099999 32 0 0 0 0.055640001
2.154 0.63499999 -0.86799997 32 0 0 0 0.05565
2.1760001 0.63800001 -0.87 32 0 0 0 0.055659998
2.1949999 0.64099997 -0.87099999 31 0 0 0 0.055670001
2.21 0.64200002 -0.87 32 0 0 0 0.055679999
2.2309999 0.64499998 -0.87099999 31 0 0 0 0.055690002
2.2509999 0.648 -0.87199998 31 0 0 0 0.0557
2.263 0.648 -0.87 31 0 0 0 0.055709999
2.2839999 0.65100002 -0.87099999 31 0 0 0 0.055720001
2.2980001 0.65200001 -0.86900002 32 0 0 0 0.05573
2.3199999 0.65499997 -0.87099999 32 0 0 0 0.055739999
2.3410001 0.65700001 -0.87099999 31 0 0 0 0.055750001
2.359 0.65899998 -0.87099999 23 0 0 0 0.05576
2.3699999 0.65799999 -0.86699998 15 0 0 0 0.055769999
2.368 0.65399998 -0.86000001 8 0 0 0 0.055780001
2.3299999 0.63999999 -0.83899999 10 0 0 0 0.05579
2.299 0.62800002 -0.81999999 18 0 0 0 0.055799998
2.2920001 0.62300003 -0.81099999 21 0 0 0 0.055810001
2.2850001 0.61699998 -0.80199999 24 0 0 0 0.055819999
2.286 0.61400002 -0.79500002 24 0 0 0 0.055830002
2.286 0.611 -0.78799999 23 0 0 0 0.055840001
2.29 0.60799998 -0.78299999 22 0 0 0 0.055849999
2.2950001 0.60500002 -0.77700001 22 0 0 0 0.055860002
2.2939999 0.60100001 -0.76999998 22 0 0 0 0.05587
2.2969999 0.59899998 -0.76499999 23 0 0 0 0.055879999
2.2969999 0.59500003 -0.75700003 21 0 0 0 0.055890001
2.296 0.59100002 -0.75 21 0 0 0 0.0559
2.3039999 0.58899999 -0.74599999 21 0 0 0 0.055909999
2.2980001 0.58399999 -0.73699999 25 0 0 0 0.055920001
2.3039999 0.58099997 -0.73199999 27 0 0 0 0.05593
2.306 0.57800001 -0.72600001 24 0 0 0 0.055939998
2.306 0.574 -0.71899998 23 0 0 0 0.055950001
2.3110001 0.57099998 -0.71399999 27 0 0 0 0.05596
2.3150001 0.56800002 -0.708 30 0 0 0 0.055969998
2.3169999 0.565 -0.70200002 31 0 0 0 0.055980001
2.319 0.56099999 -0.69599998 31 0 0 0 0.055989999
2.322 0.55800003 -0.69 30 0 0 0 0.056000002
2.319 0.55299997 -0.68300003 30 0 0 0 0.05601
2.323 0.55000001 -0.67699999 30 0 0 0 0.056019999
2.3340001 0.54799998 -0.67299998 29 0 0 0 0.056030001
2.3280001 0.54299998 -0.66500002 29 0 0 0 0.05604
2.3269999 0.53799999 -0.65799999 29 0 0 0 0.056049999
2.3340001 0.53600001 -0.653 32 0 0 0 0.056060001
2.332 0.53100002 -0.64600003 33 0 0 0 0.05607
2.3369999 0.528 -0.63999999 29 0 0 0 0.056079999
2.3399999 0.52399999 -0.634 28 0 0 0 0.056090001
2.3380001 0.51999998 -0.62699997 28 0 0 0 0.0561
2.3440001 0.51700002 -0.62199998 30 0 0 0 0.056109998
2.345 0.51300001 -0.616 30 0 0 0 0.056120001
2.346 0.509 -0.60900003 27 0 0 0 0.056129999
2.348 0.505 -0.60299999 27 0 0 0 0.056139998
2.352 0.50099999 -0.597 26 0 0 0 0.056150001
2.3529999 0.49700001 -0.59100002 24 0 0 0 0.056159999
2.352 0.49200001 -0.58399999 21 0 0 0 0.056170002
2.355 0.48800001 -0.57800001 22 0 0 0 0.05618
2.3629999 0.486 -0.57300001 24 0 0 0 0.056189999
2.3570001 0.47999999 -0.565 22 0 0 0 0.056200001
2.3659999 0.477 -0.56099999 21 0 0 0 0.05621
2.3770001 0.47499999 -0.55699998 19 0 0 0 0.056219999
2.3859999 0.472 -0.55199999 18 0 0 0 0.056230001
2.381 0.46599999 -0.54400003 23 0 0 0 0.05624
2.3740001 0.461 -0.53600001 26 0 0 0 0.056249999
2.3759999 0.456 -0.52999997 26 0 0 0 0.056260001
2.381 0.45199999 -0.52499998 25 0 0 0 0.05627
2.3840001 0.44800001 -0.51899999 21 0 0 0 0.056279998
2.3840001 0.44400001 -0.51200002 19 0 0 0 0.056290001
2.3859999 0.44 -0.50599998 20 0 0 0 0.056299999
2.3859999 0.435 -0.5 21 0 0 0 0.056310002
2.3870001 0.43000001 -0.49399999 24 0 0 0 0.05632
2.3889999 0.426 -0.48699999 27 0 0 0 0.056329999
2.3959999 0.42199999 -0.48199999 29 0 0 0 0.056340002
2.3989999 0.41800001 -0.477 28 0 0 0 0.05635
2.401 0.414 -0.47 26 0 0 0 0.056359999
2.401 0.40900001 -0.46399999 25 0 0 0 0.056370001
2.402 0.40400001 -0.458 26 0 0 0 0.05638
2.4070001 0.40000001 -0.45199999 24 0 0 0 0.056389999
2.4089999 0.396 -0.44600001 21 0 0 0 0.056400001
2.414 0.39199999 -0.44100001 23 0 0 0 0.05641
2.414 0.38699999 -0.43399999 23 0 0 0 0.056419998
2.4159999 0.382 -0.428 22 0 0 0 0.056430001
2.4200001 0.37799999 -0.42199999 20 0 0 0 0.056439999
2.4200001 0.373 -0.41600001 18 0 0 0 0.056449998
2.424 0.36899999 -0.41 22 0 0 0 0.056460001
2.428 0.36399999 -0.405 24 0 0 0 0.056469999
2.4349999 0.36000001 -0.39899999 24 0 0 0 0.056480002
2.4330001 0.35499999 -0.39300001 24 0 0 0 0.05649
2.431 0.34999999 -0.38600001 26 0 0 0 0.056499999
2.4330001 0.345 -0.38 27 0 0 0 0.056510001
2.438 0.34099999 -0.375 26 0 0 0 0.05652
2.441 0.336 -0.36899999 25 0 0 0 0.056529999
2.444 0.331 -0.36300001 24 0 0 0 0.056540001
2.4419999 0.32600001 -0.35600001 22 0 0 0 0.05655
2.4449999 0.32100001 -0.34999999 21 0 0 0 0.056559999
2.45 0.317 -0.345 22 0 0 0 0.056570001
2.4549999 0.31200001 -0.33899999 25 0 0 0 0.05658
2.4590001 0.308 -0.33399999 28 0 0 0 0.056589998
2.4590001 0.30199999 -0.32699999 26 0 0 0 0.056600001
2.4630001 0.29800001 -0.322 23 0 0 0 0.056609999
2.4630001 0.292 -0.31600001 22 0 0 0 0.056620002
2.4649999 0.28799999 -0.31 21 0 0 0 0.05663
2.4719999 0.28299999 -0.30399999 22 0 0 0 0.056639999
2.4719999 0.278 -0.29800001 24 0 0 0 0.056650002
2.473 0.273 -0.292 25 0 0 0 0.05666
2.48 0.26800001 -0.28600001 24 0 0 0 0.056669999
2.48 0.26300001 -0.28 21 0 0 0 0.056680001
2.4860001 0.25799999 -0.27500001 18 0 0 0 0.05669
2.4860001 0.25299999 -0.26899999 18 0 0 0 0.056699999
2.49 0.248 -0.26300001 23 0 0 0 0.056710001
2.4890001 0.242 -0.257 23 0 0 0 0.05672
2.4909999 0.237 -0.25099999 18 0 0 0 0.056729998
2.4979999 0.23199999 -0.245 18 0 0 0 0.056740001
2.5 0.227 -0.23899999 21 0 0 0 0.05675
2.506 0.222 -0.234 21 0 0 0 0.056759998
2.5150001 0.21799999 -0.228 18 0 0 0 0.056770001
2.523 0.213 -0.223 17 0 0 0 0.056779999
2.5150001 0.207 -0.21600001 22 0 0 0 0.056790002
2.5120001 0.20100001 -0.20999999 29 0 0 0 0.0568
2.5120001 0.19599999 -0.204 28 0 0 0 0.056809999
2.516 0.19 -0.198 26 0 0 0 0.056820001
2.5179999 0.185 -0.192 26 0 0 0 0.05683
2.5190001 0.18000001 -0.186 28 0 0 0 0.056839999
2.527 0.175 -0.18000001 29 0 0 0 0.056850001
2.526 0.169 -0.17399999 25 0 0 0 0.05686
2.53 0.164 -0.168 25 0 0 0 0.056869999
2.5380001 0.15899999 -0.163 25 0 0 0 0.056880001
2.533 0.153 -0.15700001 23 0 0 0 0.05689
2.5409999 0.148 -0.15099999 24 0 0 0 0.056899998
2.5409999 0.142 -0.145 24 0 0 0 0.056910001
2.5450001 0.13699999 -0.139 24 0 0 0 0.056919999
2.5480001 0.131 -0.133 26 0 0 0 0.056930002
2.552 0.126 -0.12800001 29 0 0 0 0.056940001
2.5539999 0.12 -0.122 27 0 0 0 0.056949999
2.552 0.114 -0.116 26 0 0 0 0.056960002
2.5550001 0.109 -0.11 24 0 0 0 0.05697
2.5650001 0.103 -0.104 22 0 0 0 0.056979999
2.5739999 0.097999997 -0.097999997 20 0 0 0 0.056990001
2.572 0.092 -0.092 18 0 0 0 0.057
2.573 0.086000003 -0.086000003 17 0 0 0 0.057009999
2.5780001 0.081 -0.079999998 16 0 0 0 0.057020001
2.5810001 0.075000003 -0.075000003 17 0 0 0 0.05703
2.579 0.068999998 -0.068999998 18 0 0 0 0.057039998
2.589 0.063000001 -0.063000001 19 0 0 0 0.057050001
2.5880001 0.057 -0.057 18 0 0 0 0.05706
2.5910001 0.052000001 -0.050999999 20 0 0 0 0.057069998
2.5929999 0.046 -0.045000002 23 0 0 0 0.057080001
2.5929999 0.039999999 -0.039000001 23 0 0 0 0.057089999
2.5999999 0.034000002 -0.033 20 0 0 0 0.057100002
2.6059999 0.028000001 -0.027000001 22 0 0 0 0.05711
2.6040001 0.022 -0.021 24 0 0 0 0.057119999
2.612 0.016000001 -0.015 20 0 0 0 0.057130001
2.576 0.0099999998 -0.0089999996 35 0 0 0 0.05714
2.619 0.0040000002 -0.0040000002 150 0 0 0 0.057149999
2.6240001 -0.001 0.001 150 0 0 0 0.057160001
1.312 -0.003 0.003 7 0 0 0 0.05717
1.313 -0.0060000001 0.0060000001 0 0 0 0 0.057179999
1.302 -0.0089999996 0.0089999996 0 0 0 0 0.057190001
1.309 -0.012 0.012 0 0 0 0 0.0572
1.318 -0.016000001 0.015 0 0 0 0 0.057209998
1.306 -0.017999999 0.017999999 0 0 0 0 0.057220001
1.309 -0.022 0.021 0 0 0 0 0.057229999
1.345 -0.025 0.025 0 0 0 0 0.057240002
1.351 -0.028999999 0.028000001 0 0 0 0 0.057250001
1.351 -0.032000002 0.030999999 0 0 0 0 0.057259999
1.357 -0.035 0.034000002 1 0 0 0 0.057270002
1.36 -0.037999999 0.037 1 0 0 0 0.05728
1.363 -0.041999999 0.039999999 1 0 0 0 0.057289999
1.369 -0.045000002 0.044 1 0 0 0 0.057300001
1.354 -0.048 0.046 0 0 0 0 0.05731
5.1609998 -0.19599999 0.18799999 1 0 0 0 0.057319999
1.41 -0.057 0.054000001 0 0 0 0 0.057330001
0 0 0 0 0 0 0 0.05734
0 0 0 0 0 0 0 0.057349999
2.622 -0.124 0.118 0 0 0 0 0.057360001
2.658 -0.132 0.126 0 0 0 0 0.05737
2.697 -0.141 0.134 0 0 0 0 0.057379998
2.7780001 -0.152 0.14399999 0 0 0 0 0.057390001
2.737 -0.156 0.148 0 0 0 0 0.057399999
2.7090001 -0.161 0.152 0 0 0 0 0.057410002
2.73 -0.169 0.15899999 0 0 0 0 0.05742
2.6989999 -0.17399999 0.163 0 0 0 0 0.057429999
2.7850001 -0.186 0.17399999 0 0 0 0 0.057440002
2.7709999 -0.192 0.17900001 0 0 0 0 0.05745
2.7639999 -0.198 0.185 0 0 0 0 0.057459999
2.753 -0.204 0.19 0 0 0 0 0.057470001
2.7820001 -0.213 0.198 0 0 0 0 0.05748
2.8380001 -0.22400001 0.208 0 0 0 0 0.057489999
5.2810001 -0.43000001 0.39899999 46 0 0 0 0.057500001
2.796 -0.235 0.21699999 0 0 0 0 0.05751
2.783 -0.23999999 0.222 0 0 0 0 0.057519998
2.7279999 -0.242 0.223 0 0 0 0 0.057530001
2.744 -0.25 0.23100001 0 0 0 0 0.057539999
2.786 -0.26100001 0.23999999 0 0 0 0 0.057549998
2.7609999 -0.266 0.244 0 0 0 0 0.057560001
2.632 -0.25999999 0.23800001 0 0 0 0 0.057569999
2.691 -0.27200001 0.249 0 0 0 0 0.057580002
2.779 -0.28799999 0.26300001 0 0 0 0 0.05759
2.777 -0.29499999 0.26899999 0 0 0 0 0.057599999
2.803 -0.30500001 0.27700001 0 0 0 0 0.057610001
2.8380001 -0.31600001 0.28600001 0 0 0 0 0.05762
3.427 -0.38999999 0.35299999 0 0 0 0 0.057629999
3.437 -0.40000001 0.36199999 0 0 0 0 0.057640001
3.4319999 -0.40799999 0.368 0 0 0 0 0.05765
3.3710001 -0.40900001 0.36899999 0 0 0 0 0.057659999
2.8139999 -0.34900001 0.31299999 0 0 0 0 0.057670001
3.428 -0.43399999 0.389 0 0 0 0 0.05768
4.7670002 -0.616 0.551 9 0 0 0 0.057689998
4.6659999 -0.61500001 0.54900002 4 0 0 0 0.057700001
3.375 -0.45300001 0.40400001 0 0 0 0 0.057709999
4.6129999 -0.63099998 0.56199998 2 0 0 0 0.057720002
3.51 -0.48899999 0.435 0 0 0 0 0.05773
4.5279999 -0.64300001 0.56999999 2 0 0 0 0.057739999
4.5900002 -0.66399997 0.58700001 3 0 0 0 0.057750002
4.6599998 -0.68599999 0.60600001 3 0 0 0 0.05776
4.5040002 -0.67500001 0.59500003 4 0 0 0 0.057769999
4.4159999 -0.67299998 0.59200001 4 0 0 0 0.057780001
4.5619998 -0.70700002 0.62099999 3 0 0 0 0.05779
4.6620002 -0.73500001 0.64399999 6 0 0 0 0.057799999
4.665 -0.74800003 0.65399998 9 0 0 0 0.057810001
4.6750002 -0.76200002 0.66500002 9 0 0 0 0.05782
4.678 -0.77499998 0.67500001 9 0 0 0 0.057829998
4.6880002 -0.78899997 0.68599999 9 0 0 0 0.057840001
4.697 -0.80299997 0.69599998 8 0 0 0 0.05785
3.5120001 -0.60900003 0.528 0 0 0 0 0.057859998
3.5510001 -0.62599999 0.54100001 0 0 0 0 0.057870001
4.7059999 -0.84200001 0.72600001 8 0 0 0 0.057879999
4.7220001 -0.85799998 0.73799998 9 0 0 0 0.057890002
4.7220001 -0.87 0.74699998 9 0 0 0 0.0579
4.7259998 -0.884 0.75700003 14 0 0 0 0.057909999
4.7340002 -0.898 0.76800001 14 0 0 0 0.057920001
4.7410002 -0.912 0.778 18 0 0 0 0.05793
4.7470002 -0.926 0.78799999 14 0 0 0 0.057939999
4.757 -0.94099998 0.79900002 14 0 0 0 0.057950001
3.438 -0.69 0.58399999 0 0 0 0 0.05796
4.7680001 -0.96899998 0.81999999 10 0 0 0 0.057969999
4.783 -0.986 0.83200002 9 0 0 0 0.057980001
4.7880001 -1 0.84200001 9 0 0 0 0.05799
2.927 -0.61900002 0.51999998 0 0 0 0 0.057999998
4.7940001 -1.028 0.861 8 0 0 0 0.058010001
4.8130002 -1.045 0.87400001 9 0 0 0 0.058019999
4.559 -1.002 0.83700001 5 0 0 0 0.058030002
2.9590001 -0.65899998 0.54900002 2 0 0 0 0.05804
0 0 0 0 0 0 0 0.058049999
4.6719999 -1.066 0.884 85 0 0 0 0.058060002
4.651 -1.075 0.889 84 0 0 0 0.05807
4.632 -1.0829999 0.89399999 86 0 0 0 0.058079999
4.6139998 -1.092 0.89899999 85 0 0 0 0.058090001
4.5939999 -1.1 0.90399998 85 0 0 0 0.0581
4.5799999 -1.11 0.91000003 87 0 0 0 0.058109999
4.5599999 -1.118 0.91399997 84 0 0 0 0.058120001
4.5409999 -1.126 0.91900003 86 0 0 0 0.05813
4.526 -1.135 0.92400002 88 0 0 0 0.058139998
4.506 -1.143 0.92799997 85 0 0 0 0.058150001
4.4899998 -1.152 0.93300003 87 0 0 0 0.05816
4.4770002 -1.161 0.93900001 87 0 0 0 0.058169998
4.4629998 -1.17 0.94400001 96 0 0 0 0.058180001
4.441 -1.178 0.94700003 94 0 0 0 0.058189999
4.4289999 -1.187 0.95300001 97 0 0 0 0.058200002
4.4120002 -1.1950001 0.95700002 96 0 0 0 0.05821
4.3909998 -1.2029999 0.95999998 100 0 0 0 0.058219999
4.3800001 -1.212 0.96600002 105 0 0 0 0.058230001
4.362 -1.22 0.96899998 99 0 0 0 0.05824
4.3410001 -1.227 0.972 99 0 0 0 0.058249999
4.3239999 -1.234 0.97600001 98 0 0 0 0.058260001
4.3070002 -1.242 0.97899997 98 0 0 0 0.05827
4.296 -1.251 0.98400003 100 0 0 0 0.058279999
4.2800002 -1.2589999 0.98799998 100 0 0 0 0.058290001
4.2620001 -1.267 0.991 101 0 0 0 0.0583
4.25 -1.276 0.99599999 103 0 0 0 0.058309998
4.2309999 -1.283 0.99800003 106 0 0 0 0.058320001
4.2160001 -1.291 1.002 103 0 0 0 0.058329999
4.2010002 -1.299 1.005 104 0 0 0 0.058340002
4.1820002 -1.3049999 1.008 99 0 0 0 0.058350001
4.1659999 -1.313 1.011 103 0 0 0 0.058359999
4.1539998 -1.321 1.015 100 0 0 0 0.058370002
4.1399999 -1.33 1.018 103 0 0 0 0.05838
4.1209998 -1.335 1.02 103 0 0 0 0.058389999
4.1069999 -1.3430001 1.024 103 0 0 0 0.058400001
4.0939999 -1.352 1.027 104 0 0 0 0.05841
4.0780001 -1.359 1.03 100 0 0 0 0.058419999
4.066 -1.367 1.033 110 0 0 0 0.058430001
4.0479999 -1.373 1.035 110 0 0 0 0.05844
4.0349998 -1.381 1.038 113 0 0 0 0.058449998
4.0190001 -1.388 1.04 112 0 0 0 0.058460001
4.0050001 -1.395 1.0420001 111 0 0 0 0.05847
3.9909999 -1.402 1.045 113 0 0 0 0.058479998
3.973 -1.408 1.046 114 0 0 0 0.058490001
3.961 -1.416 1.049 115 0 0 0 0.058499999
3.9519999 -1.425 1.053 115 0 0 0 0.058510002
3.9400001 -1.432 1.0549999 117 0 0 0 0.05852
3.9189999 -1.437 1.0549999 113 0 0 0 0.058529999
3.9119999 -1.446 1.059 114 0 0 0 0.058540002
3.895 -1.452 1.0599999 112 0 0 0 0.05855
3.882 -1.459 1.062 113 0 0 0 0.058559999
3.8759999 -1.469 1.066 118 0 0 0 0.058570001
3.862 -1.475 1.067 114 0 0 0 0.05858
3.848 -1.482 1.069 116 0 0 0 0.058589999
3.832 -1.487 1.0700001 116 0 0 0 0.058600001
3.8180001 -1.494 1.071 115 0 0 0 0.05861
3.8050001 -1.5 1.072 115 0 0 0 0.058619998
3.79 -1.506 1.073 115 0 0 0 0.058630001
3.777 -1.513 1.074 120 0 0 0 0.058639999
3.7639999 -1.5190001 1.076 123 0 0 0 0.058649998
3.757 -1.528 1.0779999 121 0 0 0 0.058660001
3.743 -1.534 1.079 119 0 0 0 0.058669999
3.7249999 -1.538 1.0779999 118 0 0 0 0.058680002
3.7130001 -1.545 1.08 121 0 0 0 0.05869
3.704 -1.552 1.081 120 0 0 0 0.058699999
3.698 -1.561 1.084 123 0 0 0 0.058710001
3.684 -1.566 1.084 125 0 0 0 0.05872
3.6670001 -1.5700001 1.0829999 126 0 0 0 0.058729999
3.6559999 -1.577 1.084 127 0 0 0 0.058740001
3.6440001 -1.5829999 1.085 124 0 0 0 0.05875
3.6289999 -1.5880001 1.084 126 0 0 0 0.058759999
3.6210001 -1.596 1.086 124 0 0 0 0.058770001
3.6099999 -1.602 1.086 130 0 0 0 0.05878
3.595 -1.6059999 1.086 127 0 0 0 0.058789998
3.5840001 -1.612 1.086 130 0 0 0 0.058800001
3.5739999 -1.619 1.087 131 0 0 0 0.058809999
3.562 -1.625 1.087 129 0 0 0 0.058820002
3.549 -1.6289999 1.086 127 0 0 0 0.05883
3.5380001 -1.635 1.086 130 0 0 0 0.058839999
3.5250001 -1.64 1.085 121 0 0 0 0.058850002
3.516 -1.646 1.086 119 0 0 0 0.05886
3.506 -1.652 1.086 118 0 0 0 0.058869999
3.494 -1.6569999 1.085 115 0 0 0 0.058880001
3.4849999 -1.663 1.085 116 0 0 0 0.05889
3.471 -1.6670001 1.084 113 0 0 0 0.058899999
3.4630001 -1.674 1.084 121 0 0 0 0.058910001
3.4530001 -1.679 1.0829999 119 0 0 0 0.05892
3.4419999 -1.684 1.082 121 0 0 0 0.058929998
3.4330001 -1.6900001 1.082 118 0 0 0 0.058940001
3.4189999 -1.693 1.08 114 0 0 0 0.05895
3.411 -1.699 1.079 112 0 0 0 0.058959998
3.3989999 -1.7029999 1.0779999 116 0 0 0 0.058970001
3.3889999 -1.7079999 1.077 114 0 0 0 0.058979999
3.382 -1.714 1.077 113 0 0 0 0.058990002
3.3710001 -1.7180001 1.075 117 0 0 0 0.059
3.359 -1.722 1.073 115 0 0 0 0.059009999
3.352 -1.728 1.073 109 0 0 0 0.059020001
3.3380001 -1.73 1.0700001 103 0 0 0 0.05903
3.335 -1.738 1.071 115 0 0 0 0.059039999
3.323 -1.7410001 1.068 115 0 0 0 0.059050001
3.316 -1.747 1.068 110 0 0 0 0.05906
3.306 -1.751 1.066 114 0 0 0 0.059069999
3.2950001 -1.7539999 1.063 112 0 0 0 0.059080001
3.289 -1.76 1.062 116 0 0 0 0.05909
3.28 -1.7640001 1.061 121 0 0 0 0.059099998
3.273 -1.7690001 1.059 121 0 0 0 0.059110001
3.2609999 -1.771 1.056 123 0 0 0 0.059119999
3.257 -1.778 1.056 126 0 0 0 0.059130002
3.2460001 -1.781 1.053 120 0 0 0 0.05914
3.234 -1.783 1.05 129 0 0 0 0.059149999
3.2309999 -1.789 1.049 131 0 0 0 0.059160002
3.2130001 -1.788 1.044 128 0 0 0 0.05917
3.2060001 -1.7920001 1.0420001 126 0 0 0 0.059179999
3.201 -1.7970001 1.04 127 0 0 0 0.059190001
3.1960001 -1.802 1.039 127 0 0 0 0.0592
3.188 -1.806 1.036 126 0 0 0 0.059209999
3.181 -1.8099999 1.034 127 0 0 0 0.059220001
3.1730001 -1.813 1.031 126 0 0 0 0.05923
3.1670001 -1.817 1.029 123 0 0 0 0.059239998
3.161 -1.821 1.026 123 0 0 0 0.059250001
3.1530001 -1.824 1.023 127 0 0 0 0.05926
3.1459999 -1.827 1.021 128 0 0 0 0.059269998
3.135 -1.8279999 1.016 125 0 0 0 0.059280001
3.132 -1.8329999 1.015 128 0 0 0 0.059289999
3.1240001 -1.835 1.012 126 0 0 0 0.059300002
3.119 -1.839 1.0089999 125 0 0 0 0.05931
3.1140001 -1.8430001 1.007 130 0 0 0 0.059319999
3.108 -1.846 1.003 126 0 0 0 0.059330001
3.1040001 -1.85 1.001 128 0 0 0 0.05934
3.1010001 -1.854 0.99900001 129 0 0 0 0.059349999
3.089 -1.853 0.99299997 122 0 0 0 0.059360001
3.0869999 -1.858 0.99199998 128 0 0 0 0.05937
3.079 -1.859 0.98699999 125 0 0 0 0.059379999
3.076 -1.863 0.98500001 126 0 0 0 0.059390001
3.072 -1.8660001 0.98199999 125 0 0 0 0.0594
3.0650001 -1.868 0.97799999 124 0 0 0 0.059409998
3.0610001 -1.87 0.97500002 127 0 0 0 0.059420001
3.0580001 -1.874 0.972 125 0 0 0 0.059429999
3.0550001 -1.877 0.96899998 128 0 0 0 0.059440002
3.046 -1.877 0.96399999 123 0 0 0 0.059450001
3.0439999 -1.881 0.96100003 124 0 0 0 0.059459999
3.039 -1.882 0.95700002 120 0 0 0 0.059470002
3.0369999 -1.886 0.954 125 0 0 0 0.05948
3.0309999 -1.886 0.94999999 122 0 0 0 0.059489999
3.0320001 -1.891 0.94700003 122 0 0 0 0.059500001
3.027 -1.892 0.94300002 120 0 0 0 0.05951
3.0209999 -1.892 0.93800002 122 0 0 0 0.059519999
3.02 -1.896 0.935 125 0 0 0 0.059530001
3.016 -1.897 0.93099999 120 0 0 0 0.05954
3.0120001 -1.898 0.92699999 120 0 0 0 0.059549998
3.013 -1.902 0.92400002 119 0 0 0 0.059560001
3.006 -1.901 0.91900003 116 0 0 0 0.05957
3.0079999 -1.905 0.91600001 119 0 0 0 0.059579998
2.9990001 -1.903 0.91000003 116 0 0 0 0.059590001
2.9979999 -1.905 0.90700001 114 0 0 0 0.059599999
2.994 -1.905 0.90200001 111 0 0 0 0.059610002
2.993 -1.9069999 0.898 106 0 0 0 0.05962
2.984 -1.904 0.89200002 107 0 0 0 0.059629999
2.9430001 -1.88 0.87599999 151 0 0 0 0.059640002
0 0 0 0 0 0 0 0.05965
0 0 0 0 0 0 0 0.059659999
0 0 0 0 0 0 0 0.059670001
1.6900001 -1.0829999 0.49399999 150 0 0 0 0.05968
1.687 -1.082 0.491 28 0 0 0 0.059689999
1.6849999 -1.082 0.48800001 30 0 0 0 0.059700001
1.675 -1.076 0.48300001 36 0 0 0 0.05971
1.673 -1.076 0.47999999 43 0 0 0 0.059719998
1.671 -1.075 0.477 53 0 0 0 0.059730001
1.67 -1.074 0.47400001 70 0 0 0 0.059739999
1.668 -1.073 0.47099999 62 0 0 0 0.059749998
1.665 -1.072 0.46799999 35 0 0 0 0.059760001
1.666 -1.072 0.46599999 20 0 0 0 0.059769999
1.671 -1.076 0.465 14 0 0 0 0.059780002
1.67 -1.075 0.46200001 9 0 0 0 0.05979
1.671 -1.076 0.46000001 9 0 0 0 0.059799999
1.676 -1.079 0.458 9 0 0 0 0.059810001
0 0 0 0 0 0 0 0.05982
0 0 0 0 0 0 0 0.059829999
0 0 0 0 0 0 0 0.059840001
2.937 -1.887 0.78399998 151 0 0 0 0.05985
0 0 0 0 0 0 0 0.059859999
2.9849999 -1.916 0.787 106 0 0 0 0.059870001
2.983 -1.913 0.78200001 115 0 0 0 0.05988
0 0 0 0 0 0 0 0.059889998
0 0 0 0 0 0 0 0.059900001
0 0 0 0 0 0 0 0.059909999
0 0 0 0 0 0 0 0.059920002
0 0 0 0 0 0 0 0.05993
0 0 0 0 0 0 0 0.059939999
1.6900001 -1.076 0.42199999 25 0 0 0 0.059950002
1.692 -1.076 0.41999999 27 0 0 0 0.05996
1.681 -1.067 0.414 30 0 0 0 0.059969999
1.681 -1.0650001 0.41100001 33 0 0 0 0.059980001
0 0 0 0 0 0 0 0.05999
0 0 0 0 0 0 0 0.059999999
0 0 0 0 0 0 0 0.060010001
0 0 0 0 0 0 0 0.06002
3.063 -1.925 0.72100002 9 0 0 0 0.060029998
1.7029999 -1.068 0.398 0 0 0 0 0.060040001
1.737 -1.087 0.40200001 0 0 0 0 0.06005
1.707 -1.066 0.39199999 0 0 0 0 0.060059998
1.698 -1.058 0.38699999 0 0 0 0 0.060070001
0 0 0 0 0 0 0 0.060079999
3.2320001 -2.0050001 0.72500002 17 0 0 0 0.060090002
3.2650001 -2.02 0.72600001 20 0 0 0 0.0601
3.2939999 -2.0339999 0.727 20 0 0 0 0.060109999
3.329 -2.05 0.72799999 21 0 0 0 0.060120001
3.359 -2.063 0.72799999 20 0 0 0 0.06013
3.3870001 -2.075 0.72799999 24 0 0 0 0.060139999
3.418 -2.0880001 0.72799999 47 0 0 0 0.060150001
3.437 -2.0929999 0.72600001 64 0 0 0 0.06016
3.4460001 -2.0929999 0.72100002 80 0 0 0 0.060169999
3.4549999 -2.092 0.71700001 85 0 0 0 0.060180001
3.46 -2.089 0.71100003 81 0 0 0 0.06019
3.4619999 -2.0840001 0.70499998 79 0 0 0 0.060199998
3.47 -2.082 0.69999999 76 0 0 0 0.060210001
3.4749999 -2.0780001 0.69499999 67 0 0 0 0.060219999
3.4820001 -2.076 0.69 70 0 0 0 0.060230002
3.4890001 -2.072 0.685 76 0 0 0 0.06024
3.4949999 -2.069 0.67900002 75 0 0 0 0.060249999
3.5009999 -2.0650001 0.67400002 75 0 0 0 0.060260002
3.5120001 -2.0639999 0.66900003 76 0 0 0 0.06027
3.5179999 -2.0599999 0.66399997 77 0 0 0 0.060279999
3.5239999 -2.056 0.65899998 75 0 0 0 0.060290001
3.5309999 -2.052 0.653 76 0 0 0 0.0603
3.543 -2.0510001 0.64899999 76 0 0 0 0.060309999
3.5469999 -2.046 0.64300001 75 0 0 0 0.060320001
3.5539999 -2.0420001 0.63800001 75 0 0 0 0.06033
3.5639999 -2.039 0.63300002 78 0 0 0 0.060339998
3.5710001 -2.0339999 0.62800002 78 0 0 0 0.060350001
3.576 -2.029 0.62199998 79 0 0 0 0.06036
3.5880001 -2.027 0.61799997 78 0 0 0 0.060369998
3.5929999 -2.0209999 0.61299998 77 0 0 0 0.060380001
3.6029999 -2.0179999 0.60799998 79 0 0 0 0.060389999
3.612 -2.0139999 0.60299999 80 0 0 0 0.060400002
3.618 -2.0090001 0.59799999 79 0 0 0 0.06041
3.632 -2.007 0.59399998 80 0 0 0 0.060419999
3.6370001 -2 0.588 80 0 0 0 0.060430001
3.6459999 -1.9960001 0.583 79 0 0 0 0.06044
3.6570001 -1.992 0.57800001 79 0 0 0 0.060449999
3.6659999 -1.988 0.57300001 79 0 0 0 0.060460001
3.674 -1.983 0.56800002 80 0 0 0 0.06047
3.687 -1.98 0.56400001 80 0 0 0 0.060479999
3.698 -1.976 0.55900002 79 0 0 0 0.060490001
3.7030001 -1.969 0.55400002 79 0 0 0 0.0605
3.7119999 -1.9630001 0.54900002 77 0 0 0 0.060509998
3.724 -1.959 0.54400003 79 0 0 0 0.060520001
3.7320001 -1.9529999 0.53899997 78 0 0 0 0.060529999
3.743 -1.949 0.53500003 79 0 0 0 0.060540002
3.7539999 -1.944 0.52999997 78 0 0 0 0.060550001
3.76 -1.936 0.52499998 76 0 0 0 0.060559999
3.776 -1.934 0.52100003 62 0 0 0 0.060570002
3.7869999 -1.929 0.51599997 62 0 0 0 0.06058
3.7950001 -1.9220001 0.51099998 63 0 0 0 0.060589999
3.803 -1.915 0.50599998 63 0 0 0 0.060600001
3.8199999 -1.913 0.50199997 64 0 0 0 0.06061
3.8340001 -1.909 0.498 67 0 0 0 0.060619999
3.839 -1.9 0.493 68 0 0 0 0.060630001
3.8529999 -1.896 0.48899999 69 0 0 0 0.06064
3.8599999 -1.888 0.48300001 69 0 0 0 0.060649998
3.8759999 -1.8839999 0.479 70 0 0 0 0.060660001
3.888 -1.8789999 0.47499999 69 0 0 0 0.06067
3.9030001 -1.874 0.47099999 71 0 0 0 0.060679998
3.911 -1.8660001 0.46599999 71 0 0 0 0.060690001
3.9200001 -1.859 0.461 71 0 0 0 0.060699999
3.931 -1.852 0.456 70 0 0 0 0.060710002
3.9419999 -1.846 0.45199999 70 0 0 0 0.06072
3.957 -1.841 0.44800001 72 0 0 0 0.060729999
3.97 -1.835 0.44299999 72 0 0 0 0.060740001
3.9790001 -1.827 0.43900001 71 0 0 0 0.06075
3.9909999 -1.8200001 0.43399999 71 0 0 0 0.060759999
4.007 -1.8150001 0.43000001 71 0 0 0 0.060770001
4.0190001 -1.808 0.426 73 0 0 0 0.06078
4.039 -1.804 0.42199999 72 0 0 0 0.060789999
4.046 -1.795 0.41800001 70 0 0 0 0.060800001
4.0640001 -1.79 0.414 71 0 0 0 0.06081
4.079 -1.784 0.41 63 0 0 0 0.060819998
4.086 -1.775 0.405 70 0 0 0 0.060830001
4.0999999 -1.768 0.40099999 71 0 0 0 0.060839999
4.1199999 -1.7640001 0.39700001 70 0 0 0 0.060849998
4.1269999 -1.7539999 0.39300001 71 0 0 0 0.060860001
4.1430001 -1.747 0.389 70 0 0 0 0.060869999
4.1669998 -1.744 0.38600001 72 0 0 0 0.060880002
4.1750002 -1.735 0.38100001 70 0 0 0 0.06089
4.1900001 -1.727 0.377 71 0 0 0 0.060899999
4.2049999 -1.72 0.373 71 0 0 0 0.060910001
4.2179999 -1.712 0.36899999 70 0 0 0 0.06092
4.2360001 -1.706 0.36500001 71 0 0 0 0.060929999
4.2529998 -1.699 0.36199999 70 0 0 0 0.060940001
4.2709999 -1.693 0.35800001 69 0 0 0 0.06095
4.2820001 -1.683 0.354 70 0 0 0 0.060959999
4.302 -1.677 0.34999999 70 0 0 0 0.060970001
4.3119998 -1.668 0.34599999 70 0 0 0 0.06098
4.3340001 -1.6619999 0.34200001 69 0 0 0 0.060989998
4.3470001 -1.654 0.338 71 0 0 0 0.061000001
4.3610001 -1.645 0.33399999 70 0 0 0 0.061009999
4.3800001 -1.638 0.331 64 0 0 0 0.061020002
4.3990002 -1.631 0.32699999 70 0 0 0 0.06103
4.4089999 -1.62 0.32300001 68 0 0 0 0.061039999
4.4229999 -1.6109999 0.31900001 70 0 0 0 0.061050002
4.4289999 -1.599 0.315 69 0 0 0 0.06106
4.4549999 -1.594 0.31200001 64 0 0 0 0.061069999
4.4590001 -1.581 0.30700001 9 0 0 0 0.061080001
4.381 -1.539 0.29699999 1 0 0 0 0.06109
4.2729998 -1.487 0.285 32 0 0 0 0.061099999
4.276 -1.474 0.28099999 59 0 0 0 0.061110001
4.369 -1.492 0.28200001 32 0 0 0 0.06112
4.4260001 -1.498 0.28099999 6 0 0 0 0.061129998
4.4970002 -1.507 0.28099999 4 0 0 0 0.061140001
4.4990001 -1.493 0.27700001 0 0 0 0 0.061149999
4.6110001 -1.515 0.27900001 41 0 0 0 0.061159998
4.4359999 -1.443 0.264 150 0 0 0 0.061170001
4.5089998 -1.452 0.264 90 0 0 0 0.061179999
4.625 -1.475 0.266 18 0 0 0 0.061190002
4.3860002 -1.3839999 0.248 7 0 0 0 0.0612
4.4099998 -1.377 0.24600001 10 0 0 0 0.061209999
4.3920002 -1.358 0.241 106 0 0 0 0.061220001
4.3509998 -1.331 0.234 88 0 0 0 0.06123
4.3439999 -1.314 0.23 86 0 0 0 0.061239999
4.3319998 -1.2970001 0.22499999 85 0 0 0 0.061250001
4.3249998 -1.281 0.221 86 0 0 0 0.06126
4.3210001 -1.265 0.21699999 87 0 0 0 0.061269999
4.3099999 -1.248 0.212 88 0 0 0 0.061280001
4.302 -1.232 0.208 81 0 0 0 0.06129
4.2950001 -1.216 0.204 82 0 0 0 0.061299998
4.2870002 -1.2 0.2 81 0 0 0 0.061310001
4.2800002 -1.184 0.19599999 86 0 0 0 0.061319999
4.2719998 -1.1670001 0.192 86 0 0 0 0.061330002
4.263 -1.151 0.18799999 81 0 0 0 0.06134
4.2480001 -1.133 0.184 82 0 0 0 0.061349999
4.2389998 -1.117 0.18000001 74 0 0 0 0.061360002
4.2280002 -1.1 0.176 79 0 0 0 0.06137
4.223 -1.085 0.17299999 100 0 0 0 0.061379999
4.224 -1.072 0.169 120 0 0 0 0.061390001
4.223 -1.058 0.16599999 150 0 0 0 0.0614
4.2309999 -1.046 0.163 119 0 0 0 0.061409999
4.3140001 -1.053 0.163 82 0 0 0 0.061420001
4.375 -1.053 0.162 87 0 0 0 0.06143
4.3829999 -1.041 0.15899999 116 0 0 0 0.061439998
0 0 0 0 0 0 0 0.061450001
2.9679999 -0.685 0.103 150 0 0 0 0.06146
2.9389999 -0.66900003 0.1 14 0 0 0 0.061469998
2.8659999 -0.64300001 0.094999999 150 0 0 0 0.061480001
2.8800001 -0.63700002 0.093999997 41 0 0 0 0.061489999
1.4859999 -0.324 0.046999998 1 0 0 0 0.061500002
1.4859999 -0.31900001 0.046 2 0 0 0 0.06151
1.4859999 -0.31400001 0.045000002 2 0 0 0 0.061519999
1.485 -0.30899999 0.044 2 0 0 0 0.061530001
1.484 -0.30399999 0.043000001 2 0 0 0 0.06154
1.482 -0.29899999 0.041999999 2 0 0 0 0.061549999
1.483 -0.294 0.041000001 1 0 0 0 0.061560001
1.48 -0.289 0.039999999 1 0 0 0 0.06157
1.476 -0.28299999 0.039000001 1 0 0 0 0.061579999
1.477 -0.278 0.037999999 1 0 0 0 0.061590001
1.467 -0.27200001 0.037 1 0 0 0 0.0616
1.467 -0.26699999 0.035999998 1 0 0 0 0.061609998
1.467 -0.26199999 0.035 1 0 0 0 0.061620001
1.4680001 -0.25799999 0.034000002 1 0 0 0 0.061629999
1.466 -0.25299999 0.033 1 0 0 0 0.061640002
1.462 -0.24699999 0.032000002 1 0 0 0 0.061650001
1.466 -0.243 0.030999999 1 0 0 0 0.061659999
1.4630001 -0.23800001 0.029999999 1 0 0 0 0.061670002
1.4630001 -0.233 0.029999999 1 0 0 0 0.06168
1.459 -0.228 0.028999999 1 0 0 0 0.061689999
1.45 -0.222 0.028000001 1 0 0 0 0.061700001
1.454 -0.21799999 0.027000001 1 0 0 0 0.06171
1.452 -0.212 0.026000001 1 0 0 0 0.061719999
1.449 -0.207 0.025 1 0 0 0 0.061730001
1.446 -0.20200001 0.025 1 0 0 0 0.06174
1.447 -0.198 0.024 1 0 0 0 0.061749998
1.441 -0.192 0.023 1 0 0 0 0.061760001
1.441 -0.18799999 0.022 1 0 0 0 0.06177
1.438 -0.183 0.021 1 0 0 0 0.061779998
1.4349999 -0.178 0.021 1 0 0 0 0.061790001
1.433 -0.17299999 0.02 1 0 0 0 0.061799999
1.426 -0.167 0.018999999 1 0 0 0 0.061810002
1.424 -0.162 0.017999999 1 0 0 0 0.06182
1.419 -0.15700001 0.017999999 1 0 0 0 0.061829999
1.414 -0.152 0.017000001 1 0 0 0 0.061840001
1.419 -0.148 0.016000001 1 0 0 0 0.06185
1.411 -0.14300001 0.016000001 1 0 0 0 0.061859999
1.4119999 -0.138 0.015 1 0 0 0 0.061870001
1.409 -0.133 0.014 1 0 0 0 0.06188
1.409 -0.12899999 0.014 1 0 0 0 0.061889999
1.4069999 -0.124 0.013 1 0 0 0 0.061900001
1.403 -0.119 0.012 1 0 0 0 0.06191
1.398 -0.114 0.012 1 0 0 0 0.061919998
1.395 -0.11 0.011 1 0 0 0 0.061930001
1.388 -0.105 0.0099999998 1 0 0 0 0.061939999
1.386 -0.1 0.0099999998 1 0 0 0 0.061949998
1.387 -0.096000001 0.0089999996 1 0 0 0 0.061960001
1.3839999 -0.090999998 0.0089999996 0 0 0 0 0.061969999
1.382 -0.086000003 0.0080000004 0 0 0 0 0.061980002
1.375 -0.081 0.0080000004 0 0 0 0 0.06199
1.372 -0.077 0.0070000002 0 0 0 0 0.061999999
1.365 -0.071999997 0.0070000002 0 0 0 0 0.062010001
1.337 -0.066 0.0060000001 0 0 0 0 0.06202
1.342 -0.061999999 0.0049999999 0 0 0 0 0.062029999
1.3279999 -0.057 0.0049999999 0 0 0 0 0.062040001
1.3200001 -0.052999999 0.0040000002 0 0 0 0 0.06205
1.321 -0.048 0.0040000002 0 0 0 0 0.062059999
1.323 -0.044 0.0040000002 0 0 0 0 0.062070001
1.325 -0.039999999 0.003 0 0 0 0 0.06208
1.3150001 -0.035 0.003 0 0 0 0 0.062089998
1.3150001 -0.030999999 0.0020000001 0 0 0 0 0.062100001
1.307 -0.027000001 0.0020000001 0 0 0 0 0.062109999
1.296 -0.022 0.001 0 0 0 0 0.062120002
1.299 -0.017999999 0.001 0 0 0 0 0.06213
1.313 -0.014 0.001 0 0 0 0 0.062139999
1.308 -0.0099999998 0 1 0 0 0 0.062150002
2.622 -0.012 0 150 0 0 0 0.06216
2.6199999 -0.0040000002 0 150 0 0 0 0.062169999
2.602 0.0040000002 0 3 0 0 0 0.062180001
2.6070001 0.012 -0.001 19 0 0 0 0.06219
2.6040001 0.021 -0.0020000001 17 0 0 0 0.062199999
2.602 0.028999999 -0.0020000001 19 0 0 0 0.062210001
2.596 0.037999999 -0.003 18 0 0 0 0.06222
2.592 0.046 -0.0040000002 15 0 0 0 0.062229998
2.5899999 0.054000001 -0.0040000002 16 0 0 0 0.062240001
2.5880001 0.061999999 -0.0049999999 16 0 0 0 0.062249999
2.579 0.071000002 -0.0049999999 14 0 0 0 0.062259998
2.5769999 0.079000004 -0.0060000001 14 0 0 0 0.062270001
2.5710001 0.086999997 -0.0070000002 16 0 0 0 0.062279999
2.566 0.094999999 -0.0070000002 17 0 0 0 0.062290002
2.5569999 0.103 -0.0080000004 18 0 0 0 0.0623
2.5580001 0.111 -0.0080000004 20 0 0 0 0.062309999
2.5580001 0.12 -0.0089999996 19 0 0 0 0.062320001
2.55 0.12800001 -0.0089999996 14 0 0 0 0.06233
2.5480001 0.13600001 -0.0099999998 14 0 0 0 0.062339999
2.543 0.14399999 -0.0099999998 14 0 0 0 0.062350001
2.54 0.152 -0.0099999998 16 0 0 0 0.06236
2.533 0.16 -0.011 16 0 0 0 0.062369999
2.5309999 0.168 -0.011 18 0 0 0 0.062380001
2.523 0.175 -0.012 19 0 0 0 0.06239
2.5220001 0.183 -0.012 18 0 0 0 0.062399998
2.5190001 0.191 -0.012 18 0 0 0 0.062410001
2.5109999 0.199 -0.013 18 0 0 0 0.062419999
2.5109999 0.207 -0.013 19 0 0 0 0.062430002
2.5090001 0.215 -0.013 18 0 0 0 0.06244
2.5050001 0.223 -0.014 17 0 0 0 0.062449999
2.5009999 0.23 -0.014 15 0 0 0 0.062460002
2.494 0.23800001 -0.014 14 0 0 0 0.06247
2.4949999 0.24600001 -0.014 15 0 0 0 0.062479999
2.4849999 0.25299999 -0.015 15 0 0 0 0.062490001
2.484 0.26100001 -0.015 17 0 0 0 0.0625
2.4820001 0.26899999 -0.015 18 0 0 0 0.062509999
2.473 0.27599999 -0.015 17 0 0 0 0.062519997
2.4690001 0.28400001 -0.015 18 0 0 0 0.062530003
2.4690001 0.292 -0.016000001 20 0 0 0 0.062540002
2.4590001 0.29899999 -0.016000001 18 0 0 0 0.062550001
2.461 0.30700001 -0.016000001 18 0 0 0 0.06256
2.4549999 0.31400001 -0.016000001 15 0 0 0 0.062569998
2.4560001 0.322 -0.016000001 13 0 0 0 0.062579997
2.45 0.33000001 -0.016000001 16 0 0 0 0.062590003
2.448 0.338 -0.016000001 18 0 0 0 0.062600002
2.4389999 0.34400001 -0.016000001 19 0 0 0 0.06261
2.4349999 0.352 -0.016000001 20 0 0 0 0.062619999
2.4400001 0.36000001 -0.016000001 16 0 0 0 0.062629998
2.4319999 0.36700001 -0.016000001 15 0 0 0 0.062639996
2.4300001 0.375 -0.016000001 14 0 0 0 0.062650003
2.4230001 0.382 -0.016000001 16 0 0 0 0.062660001
2.424 0.38999999 -0.016000001 16 0 0 0 0.06267
2.4159999 0.39700001 -0.016000001 13 0 0 0 0.062679999
2.4159999 0.405 -0.016000001 16 0 0 0 0.062689997
2.4089999 0.41100001 -0.016000001 18 0 0 0 0.062700003
2.4030001 0.41800001 -0.016000001 19 0 0 0 0.062710002
2.405 0.426 -0.016000001 18 0 0 0 0.062720001
2.398 0.433 -0.016000001 16 0 0 0 0.062729999
2.4000001 0.44100001 -0.015 13 0 0 0 0.062739998
2.3940001 0.44800001 -0.015 16 0 0 0 0.062749997
2.3840001 0.454 -0.015 19 0 0 0 0.062760003
2.3870001 0.463 -0.015 21 0 0 0 0.062770002
2.3800001 0.46900001 -0.015 21 0 0 0 0.06278
2.378 0.477 -0.014 19 0 0 0 0.062789999
2.3789999 0.48500001 -0.014 17 0 0 0 0.062799998
2.372 0.491 -0.014 14 0 0 0 0.062809996
2.3699999 0.49900001 -0.014 12 0 0 0 0.062820002
2.3659999 0.50599998 -0.013 14 0 0 0 0.062830001
2.362 0.51300001 -0.013 16 0 0 0 0.06284
2.359 0.51999998 -0.013 17 0 0 0 0.062849998
2.3559999 0.52700001 -0.012 16 0 0 0 0.062859997
2.3529999 0.53399998 -0.012 18 0 0 0 0.062870003
2.345 0.54000002 -0.012 22 0 0 0 0.062880002
2.3440001 0.54799998 -0.011 20 0 0 0 0.062890001
2.335 0.55299997 -0.011 20 0 0 0 0.062899999
2.3380001 0.56199998 -0.0099999998 21 0 0 0 0.062909998
2.3310001 0.56800002 -0.0099999998 20 0 0 0 0.062919997
2.332 0.57599998 -0.0089999996 19 0 0 0 0.062930003
2.3239999 0.58200002 -0.0089999996 16 0 0 0 0.062940001
2.3269999 0.58999997 -0.0080000004 16 0 0 0 0.06295
2.3180001 0.59600002 -0.0080000004 17 0 0 0 0.062959999
2.312 0.602 -0.0070000002 18 0 0 0 0.062969998
2.3080001 0.60900003 -0.0070000002 18 0 0 0 0.062980004
2.3080001 0.616 -0.0060000001 20 0 0 0 0.062990002
2.306 0.62300003 -0.0060000001 22 0 0 0 0.063000001
2.3269999 0.63700002 -0.0049999999 24 0 0 0 0.06301
2.352 0.65200001 -0.0040000002 17 0 0 0 0.063019998
2.4070001 0.67500001 -0.0040000002 23 0 0 0 0.063029997
2.471 0.70099998 -0.003 29 0 0 0 0.063040003
2.513 0.722 -0.003 27 0 0 0 0.063050002
2.8369999 0.824 -0.0020000001 150 0 0 0 0.063060001
3.102 0.912 -0.001 150 0 0 0 0.063069999
3.099 0.921 0 150 0 0 0 0.063079998
3.0929999 0.93000001 0 150 0 0 0 0.063089997
3.0869999 0.93800002 0.001 150 0 0 0 0.063100003
3.0869999 0.949 0.0020000001 150 0 0 0 0.063110001
3.0899999 0.95999998 0.003 150 0 0 0 0.06312
3.109 0.977 0.0040000002 151 0 0 0 0.063129999
3.099 0.98400003 0.0049999999 150 0 0 0 0.063139997
3.095 0.99299997 0.0060000001 150 0 0 0 0.063150004
3.0910001 1.002 0.0070000002 150 0 0 0 0.063160002
3.089 1.012 0.0089999996 151 0 0 0 0.063170001
3.092 1.024 0.0099999998 150 0 0 0 0.06318
3.177 1.062 0.012 96 0 0 0 0.063189998
3.1819999 1.074 0.013 152 0 0 0 0.063199997
3.174 1.082 0.015 150 0 0 0 0.063210003
3.171 1.092 0.016000001 151 0 0 0 0.063220002
3.168 1.102 0.017000001 151 0 0 0 0.06323
3.1860001 1.119 0.018999999 150 0 0 0 0.063239999
3.191 1.131 0.021 151 0 0 0 0.063249998
3.1789999 1.138 0.022 150 0 0 0 0.063259996
3.1849999 1.151 0.024 150 0 0 0 0.063270003
3.2390001 1.181 0.026000001 153 0 0 0 0.063280001
3.2349999 1.191 0.028000001 150 0 0 0 0.06329
3.2290001 1.199 0.028999999 150 0 0 0 0.063299999
3.2219999 1.2079999 0.030999999 150 0 0 0 0.063309997
3.2190001 1.217 0.033 150 0 0 0 0.063320003
3.2149999 1.227 0.035 150 0 0 0 0.063330002
3.211 1.2359999 0.035999998 150 0 0 0 0.063340001
3.2079999 1.245 0.037999999 150 0 0 0 0.063349999
3.1989999 1.253 0.039999999 150 0 0 0 0.063359998
3.197 1.263 0.041999999 150 0 0 0 0.063369997
3.1930001 1.272 0.044 150 0 0 0 0.063380003
3.1849999 1.279 0.046 150 0 0 0 0.063390002
3.181 1.288 0.048 150 0 0 0 0.0634
3.1830001 1.3 0.050000001 150 0 0 0 0.063409999
3.1760001 1.308 0.052000001 150 0 0 0 0.063419998
3.1719999 1.317 0.054000001 150 0 0 0 0.063429996
3.165 1.324 0.056000002 150 0 0 0 0.063440003
3.161 1.3329999 0.057999998 150 0 0 0 0.063450001
3.152 1.34 0.059999999 150 0 0 0 0.06346
3.148 1.349 0.063000001 150 0 0 0 0.063469999
3.145 1.358 0.064999998 150 0 0 0 0.063479997
3.1440001 1.368 0.067000002 150 0 0 0 0.063490003
3.1400001 1.377 0.07 150 0 0 0 0.063500002
3.1329999 1.3839999 0.071999997 150 0 0 0 0.063510001
3.131 1.393 0.074000001 150 0 0 0 0.063519999
3.1270001 1.402 0.077 150 0 0 0 0.063529998
3.1199999 1.409 0.079000004 150 0 0 0 0.063539997
3.115 1.4170001 0.081 150 0 0 0 0.063550003
3.1110001 1.426 0.083999999 150 0 0 0 0.063560002
3.1070001 1.434 0.086000003 150 0 0 0 0.06357
3.1059999 1.444 0.089000002 150 0 0 0 0.063579999
3.099 1.451 0.092 150 0 0 0 0.063589998
3.096 1.459 0.093999997 151 0 0 0 0.063600004
3.0880001 1.465 0.097000003 151 0 0 0 0.063610002
3.0880001 1.476 0.1 150 0 0 0 0.063620001
3.0840001 1.483 0.102 150 0 0 0 0.06363
3.0799999 1.4910001 0.105 150 0 0 0 0.063639998
3.079 1.501 0.108 150 0 0 0 0.063649997
3.073 1.508 0.111 151 0 0 0 0.063660003
3.0699999 1.516 0.114 150 0 0 0 0.063670002
3.0639999 1.524 0.117 151 0 0 0 0.063680001
3.0599999 1.531 0.12 150 0 0 0 0.063689999
3.056 1.538 0.122 150 0 0 0 0.063699998
3.0539999 1.548 0.126 150 0 0 0 0.063709997
3.049 1.5549999 0.12899999 150 0 0 0 0.063720003
3.046 1.562 0.132 150 0 0 0 0.063730001
3.0420001 1.5700001 0.13500001 150 0 0 0 0.06374
3.0369999 1.577 0.138 150 0 0 0 0.063749999
3.0339999 1.585 0.141 150 0 0 0 0.063759997
3.0309999 1.592 0.14399999 150 0 0 0 0.063770004
3.026 1.599 0.147 150 0 0 0 0.063780002
3.0190001 1.605 0.15000001 150 0 0 0 0.063790001
3.0179999 1.613 0.154 150 0 0 0 0.0638
3.013 1.62 0.15700001 150 0 0 0 0.063809998
3.013 1.628 0.161 150 0 0 0 0.063819997
3.01 1.636 0.164 150 0 0 0 0.063830003
3.0039999 1.642 0.167 150 0 0 0 0.063840002
3.003 1.65 0.171 150 0 0 0 0.063850001
2.9990001 1.6569999 0.17399999 150 0 0 0 0.063859999
2.9949999 1.663 0.178 150 0 0 0 0.063869998
2.9920001 1.67 0.18099999 150 0 0 0 0.063879997
2.993 1.6799999 0.185 150 0 0 0 0.063890003
2.984 1.683 0.18799999 133 0 0 0 0.063900001
2.98 1.689 0.192 150 0 0 0 0.06391
2.977 1.696 0.19499999 150 0 0 0 0.063919999
2.9749999 1.7029999 0.199 150 0 0 0 0.063929997
2.971 1.709 0.20299999 150 0 0 0 0.063940004
2.97 1.717 0.207 150 0 0 0 0.063950002
2.9660001 1.723 0.20999999 150 0 0 0 0.063960001
2.9619999 1.729 0.214 150 0 0 0 0.06397
2.9590001 1.735 0.21799999 150 0 0 0 0.063979998
2.957 1.742 0.222 150 0 0 0 0.063989997
2.947 1.743 0.22499999 150 0 0 0 0.064000003
2.948 1.752 0.229 150 0 0 0 0.064010002
2.9489999 1.76 0.233 150 0 0 0 0.06402
2.9430001 1.7640001 0.237 150 0 0 0 0.064029999
2.9430001 1.771 0.241 150 0 0 0 0.064039998
2.9400001 1.777 0.245 150 0 0 0 0.064049996
2.9360001 1.7819999 0.249 150 0 0 0 0.064060003
2.9330001 1.7869999 0.25299999 150 0 0 0 0.064070001
2.9319999 1.793 0.257 150 0 0 0 0.06408
2.928 1.798 0.26100001 150 0 0 0 0.064089999
2.9200001 1.8 0.26499999 150 0 0 0 0.064099997
2.8840001 1.785 0.266 150 0 0 0 0.064110003
2.862 1.778 0.26800001 150 0 0 0 0.064120002
2.8570001 1.781 0.27200001 150 0 0 0 0.064130001
2.859 1.789 0.27700001 150 0 0 0 0.064139999
2.852 1.791 0.28 150 0 0 0 0.064149998
2.8499999 1.795 0.28400001 150 0 0 0 0.064159997
2.8280001 1.788 0.287 150 0 0 0 0.064170003
2.823 1.79 0.28999999 150 0 0 0 0.064180002
2.8169999 1.793 0.294 150 0 0 0 0.06419
2.816 1.798 0.29800001 150 0 0 0 0.064199999
2.816 1.803 0.303 150 0 0 0 0.064209998
2.8110001 1.806 0.30700001 150 0 0 0 0.064219996
2.809 1.809 0.31099999 150 0 0 0 0.064230002
2.809 1.8150001 0.315 150 0 0 0 0.064240001
2.806 1.818 0.31900001 150 0 0 0 0.06425
2.802 1.8200001 0.32300001 150 0 0 0 0.064259999
2.802 1.825 0.32800001 92 0 0 0 0.064269997
2.7920001 1.823 0.331 48 0 0 0 0.064280003
2.7820001 1.822 0.33399999 28 0 0 0 0.064290002
2.7690001 1.817 0.33700001 20 0 0 0 0.064300001
2.75 1.809 0.33899999 17 0 0 0 0.064309999
2.7349999 1.804 0.34200001 18 0 0 0 0.064319998
2.7190001 1.7970001 0.34400001 20 0 0 0 0.064329997
2.7030001 1.79 0.34599999 20 0 0 0 0.064340003
2.6830001 1.781 0.34799999 20 0 0 0 0.064350002
2.664 1.772 0.34999999 22 0 0 0 0.06436
2.642 1.761 0.35100001 22 0 0 0 0.064369999
2.612 1.744 0.352 22 0 0 0 0.064379998
2.5899999 1.732 0.35299999 24 0 0 0 0.064390004
2.5680001 1.72 0.354 23 0 0 0 0.064400002
2.5539999 1.714 0.35600001 26 0 0 0 0.064410001
2.5409999 1.7079999 0.35800001 26 0 0 0 0.06442
2.5190001 1.6950001 0.359 24 0 0 0 0.064429998
2.503 1.687 0.361 24 0 0 0 0.064439997
2.48 1.674 0.36199999 25 0 0 0 0.064450003
2.4690001 1.669 0.36399999 24 0 0 0 0.064460002
2.4549999 1.661 0.366 24 0 0 0 0.064470001
2.441 1.654 0.368 26 0 0 0 0.064479999
2.431 1.648 0.37 26 0 0 0 0.064489998
2.4219999 1.6440001 0.37200001 27 0 0 0 0.064499997
2.411 1.638 0.37400001 27 0 0 0 0.064510003
2.4030001 1.6339999 0.377 27 0 0 0 0.064520001
2.392 1.627 0.37900001 27 0 0 0 0.06453
2.3889999 1.626 0.382 27 0 0 0 0.064539999
2.382 1.623 0.38499999 26 0 0 0 0.064549997
2.375 1.619 0.38699999 27 0 0 0 0.064560004
2.372 1.617 0.38999999 27 0 0 0 0.064570002
2.3659999 1.613 0.39300001 27 0 0 0 0.064580001
2.3629999 1.612 0.396 27 0 0 0 0.06459
2.359 1.609 0.39899999 27 0 0 0 0.064599998
2.3570001 1.608 0.40200001 27 0 0 0 0.064609997
2.355 1.607 0.405 27 0 0 0 0.064620003
2.3559999 1.608 0.40799999 27 0 0 0 0.064630002
2.3540001 1.6059999 0.412 27 0 0 0 0.06464
2.3559999 1.607 0.41499999 26 0 0 0 0.064649999
2.359 1.609 0.419 26 0 0 0 0.064659998
2.3670001 1.614 0.42399999 25 0 0 0 0.064669997
2.368 1.613 0.42699999 25 0 0 0 0.064680003
2.372 1.615 0.43099999 26 0 0 0 0.064690001
2.381 1.62 0.43599999 24 0 0 0 0.0647
2.395 1.6289999 0.442 27 0 0 0 0.064709999
2.402 1.632 0.44600001 27 0 0 0 0.064719997
2.411 1.636 0.45100001 27 0 0 0 0.064730003
2.4219999 1.643 0.456 24 0 0 0 0.064740002
2.434 1.649 0.46200001 28 0 0 0 0.064750001
2.4389999 1.651 0.46599999 24 0 0 0 0.06476
2.457 1.661 0.472 26 0 0 0 0.064769998
2.4660001 1.665 0.477 25 0 0 0 0.064779997
2.4749999 1.669 0.48199999 24 0 0 0 0.064790003
2.49 1.677 0.48800001 27 0 0 0 0.064800002
2.507 1.686 0.49399999 30 0 0 0 0.06481
2.527 1.696 0.50099999 28 0 0 0 0.064819999
2.549 1.7079999 0.50800002 27 0 0 0 0.064829998
2.572 1.721 0.51599997 25 0 0 0 0.064839996
2.599 1.7359999 0.52399999 25 0 0 0 0.064850003
2.6240001 1.749 0.53200001 23 0 0 0 0.064860001
2.6429999 1.758 0.53799999 22 0 0 0 0.06487
2.6670001 1.77 0.546 21 0 0 0 0.064879999
2.6900001 1.7819999 0.55400002 20 0 0 0 0.064889997
2.707 1.789 0.56 20 0 0 0 0.064900003
2.7320001 1.802 0.56699997 20 0 0 0 0.064910002
2.75 1.809 0.574 20 0 0 0 0.064920001
2.77 1.818 0.58099997 22 0 0 0 0.064929999
2.7869999 1.825 0.58700001 36 0 0 0 0.064939998
2.803 1.831 0.59299999 58 0 0 0 0.064949997
2.8050001 1.827 0.59500003 150 0 0 0 0.064960003
2.8110001 1.826 0.59899998 150 0 0 0 0.064970002
2.813 1.822 0.602 150 0 0 0 0.06498
2.8150001 1.818 0.60500002 150 0 0 0 0.064989999
2.8180001 1.8150001 0.60699999 150 0 0 0 0.064999998
2.8199999 1.811 0.61000001 150 0 0 0 0.065009996
2.8210001 1.806 0.61199999 150 0 0 0 0.065020002
2.8239999 1.802 0.61500001 150 0 0 0 0.065030001
2.8269999 1.798 0.61699998 150 0 0 0 0.06504
2.8310001 1.795 0.62 150 0 0 0 0.065049998
2.842 1.796 0.62400001 150 0 0 0 0.065059997
2.8610001 1.801 0.63 150 0 0 0 0.065070003
2.8659999 1.798 0.63300002 150 0 0 0 0.065080002
2.869 1.793 0.63499999 150 0 0 0 0.065090001
2.875 1.791 0.63800001 150 0 0 0 0.065099999
2.878 1.786 0.63999999 150 0 0 0 0.065109998
2.908 1.798 0.648 150 0 0 0 0.065119997
2.934 1.807 0.65499997 150 0 0 0 0.065130003
2.938 1.803 0.65700001 150 0 0 0 0.065140001
2.937 1.795 0.65799999 150 0 0 0 0.06515
2.9400001 1.789 0.66000003 150 0 0 0 0.065159999
2.9430001 1.784 0.662 150 0 0 0 0.065169998
2.9460001 1.778 0.66399997 150 0 0 0 0.065180004
2.951 1.773 0.66600001 150 0 0 0 0.065190002
2.9519999 1.766 0.667 150 0 0 0 0.065200001
2.9549999 1.76 0.66799998 150 0 0 0 0.06521
2.9579999 1.755 0.67000002 150 0 0 0 0.065219998
2.9619999 1.749 0.671 150 0 0 0 0.065229997
2.9649999 1.742 0.67299998 150 0 0 0 0.065240003
2.97 1.737 0.67400002 150 0 0 0 0.065250002
2.9719999 1.73 0.67500001 150 0 0 0 0.065260001
2.9749999 1.724 0.676 150 0 0 0 0.065269999
2.9779999 1.7180001 0.67699999 150 0 0 0 0.065279998
2.9820001 1.711 0.67799997 150 0 0 0 0.065289997
2.9849999 1.704 0.67900002 150 0 0 0 0.065300003
2.9879999 1.698 0.68000001 150 0 0 0 0.065310001
2.9920001 1.692 0.68099999 150 0 0 0 0.06532
2.9949999 1.684 0.68099999 150 0 0 0 0.065329999
2.9979999 1.677 0.68199998 150 0 0 0 0.065339997
3.0079999 1.674 0.68400002 150 0 0 0 0.065350004
3.0050001 1.664 0.68300003 150 0 0 0 0.065360002
3.0090001 1.6569999 0.68400002 150 0 0 0 0.065370001
3.013 1.65 0.68400002 150 0 0 0 0.06538
3.016 1.643 0.685 150 0 0 0 0.065389998
3.02 1.636 0.685 150 0 0 0 0.065399997
3.0209999 1.627 0.685 150 0 0 0 0.065410003
3.027 1.6210001 0.685 150 0 0 0 0.065420002
3.029 1.613 0.685 150 0 0 0 0.06543
3.0350001 1.6059999 0.68599999 150 0 0 0 0.065439999
3.0369999 1.598 0.685 150 0 0 0 0.065449998
3.0420001 1.592 0.68599999 150 0 0 0 0.065459996
3.046 1.584 0.685 150 0 0 0 0.065470003
3.052 1.5779999 0.68599999 150 0 0 0 0.065480001
3.0539999 1.569 0.685 150 0 0 0 0.06549
3.0599999 1.563 0.685 150 0 0 0 0.065499999
3.0599999 1.553 0.68400002 150 0 0 0 0.065509997
3.0680001 1.548 0.685 150 0 0 0 0.065520003
3.072 1.54 0.68400002 150 0 0 0 0.065530002
3.0739999 1.531 0.68300003 150 0 0 0 0.065540001
3.0769999 1.522 0.68300003 150 0 0 0 0.065549999
3.0840001 1.516 0.68300003 150 0 0 0 0.065559998
3.086 1.507 0.68099999 150 0 0 0 0.065569997
3.089 1.499 0.68099999 150 0 0 0 0.065580003
3.096 1.492 0.68000001 150 0 0 0 0.065590002
3.098 1.483 0.67900002 150 0 0 0 0.0656
3.102 1.475 0.67799997 150 0 0 0 0.065609999
3.1059999 1.467 0.67699999 150 0 0 0 0.065619998
3.112 1.46 0.67699999 150 0 0 0 0.065629996
3.1129999 1.45 0.67500001 150 0 0 0 0.065640002
3.1199999 1.443 0.67500001 150 0 0 0 0.065650001
3.122 1.434 0.67299998 150 0 0 0 0.06566
3.128 1.426 0.67199999 150 0 0 0 0.065669999
3.1329999 1.419 0.671 150 0 0 0 0.065679997
3.1359999 1.41 0.66900003 150 0 0 0 0.065690003
