# .PCD v0.7 - Point Cloud Data file format
VERSION 0.7
FIELDS x y z intensity normal_x normal_y normal_z curvature
SIZE 4 4 4 4 4 4 4 4
TYPE F F F F F F F F
COUNT 1 1 1 1 1 1 1 1
WIDTH 1019
HEIGHT 1
VIEWPOINT 0 0 0 1 0 0 0
POINTS 1019
DATA ascii
1.475 -0.182 -0.141 0 0 0 0 0.044440001
1.523 -0.192 -0.149 0 0 0 0 0.04445
1.5829999 -0.20299999 -0.15800001 0 0 0 0 0.044459999
1.651 -0.21600001 -0.168 0 0 0 0 0.044470001
1.8789999 -0.25099999 -0.19499999 0 0 0 0 0.04448
2.039 -0.27700001 -0.21699999 0 0 0 0 0.044489998
2.7920001 -0.38699999 -0.303 4 0 0 0 0.044500001
2.7190001 -0.38299999 -0.301 36 0 0 0 0.044509999
2.7539999 -0.39500001 -0.31099999 26 0 0 0 0.044520002
2.7679999 -0.40400001 -0.31799999 39 0 0 0 0.044530001
2.7579999 -0.40900001 -0.32300001 44 0 0 0 0.044539999
2.7309999 -0.412 -0.32600001 40 0 0 0 0.044550002
2.7320001 -0.419 -0.33199999 44 0 0 0 0.04456
2.7460001 -0.428 -0.34 64 0 0 0 0.044569999
2.77 -0.43900001 -0.34900001 108 0 0 0 0.044580001
2.7609999 -0.44400001 -0.354 132 0 0 0 0.04459
2.7449999 -0.44800001 -0.35800001 143 0 0 0 0.044599999
2.727 -0.45199999 -0.36199999 150 0 0 0 0.044610001
2.711 -0.456 -0.366 150 0 0 0 0.04462
2.698 -0.46000001 -0.37 150 0 0 0 0.044629999
2.6800001 -0.46399999 -0.37400001 150 0 0 0 0.044640001
2.6589999 -0.46700001 -0.377 150 0 0 0 0.04465
2.645 -0.47099999 -0.38100001 150 0 0 0 0.044659998
2.6240001 -0.47299999 -0.384 150 0 0 0 0.044670001
2.6140001 -0.47799999 -0.38800001 150 0 0 0 0.044679999
2.6010001 -0.48199999 -0.39199999 150 0 0 0 0.044690002
2.6070001 -0.48899999 -0.39899999 110 0 0 0 0.0447
2.4119999 -0.458 -0.375 8 0 0 0 0.044709999
1.776 -0.34200001 -0.28 0 0 0 0 0.044720002
1.777 -0.34599999 -0.28400001 0 0 0 0 0.04473
1.796 -0.354 -0.29100001 0 0 0 0 0.044739999
1.825 -0.36399999 -0.30000001 0 0 0 0 0.044750001
2.359 -0.477 -0.39399999 15 0 0 0 0.04476
2.3840001 -0.48800001 -0.40400001 49 0 0 0 0.044769999
2.3770001 -0.49200001 -0.40799999 72 0 0 0 0.044780001
2.3699999 -0.49599999 -0.41299999 150 0 0 0 0.04479
2.378 -0.50300002 -0.41999999 150 0 0 0 0.044799998
2.4389999 -0.52200001 -0.43599999 150 0 0 0 0.044810001
2.454 -0.53100002 -0.44499999 150 0 0 0 0.044819999
2.378 -0.51999998 -0.43700001 150 0 0 0 0.044829998
2.382 -0.52700001 -0.44299999 150 0 0 0 0.044840001
2.381 -0.53200001 -0.449 150 0 0 0 0.044849999
2.381 -0.53799999 -0.454 150 0 0 0 0.044860002
2.385 -0.54400003 -0.461 150 0 0 0 0.04487
2.3870001 -0.55000001 -0.46700001 150 0 0 0 0.044879999
2.3870001 -0.55599999 -0.47299999 150 0 0 0 0.044890001
2.388 -0.56199998 -0.479 150 0 0 0 0.0449
2.3900001 -0.56800002 -0.48500001 150 0 0 0 0.044909999
2.385 -0.57200003 -0.49000001 150 0 0 0 0.044920001
2.395 -0.57999998 -0.498 150 0 0 0 0.04493
2.3929999 -0.58499998 -0.50400001 150 0 0 0 0.044939999
2.3970001 -0.59200001 -0.50999999 150 0 0 0 0.044950001
2.3970001 -0.597 -0.51599997 150 0 0 0 0.04496
2.3989999 -0.60299999 -0.523 150 0 0 0 0.044969998
2.4070001 -0.611 -0.53100002 150 0 0 0 0.044980001
2.404 -0.61500001 -0.53600001 150 0 0 0 0.044989999
2.404 -0.62099999 -0.542 150 0 0 0 0.045000002
2.404 -0.62699997 -0.54799998 150 0 0 0 0.04501
2.4100001 -0.634 -0.55599999 150 0 0 0 0.045019999
2.408 -0.63800001 -0.56099999 150 0 0 0 0.045030002
2.4119999 -0.64499998 -0.56800002 150 0 0 0 0.04504
2.4119999 -0.64999998 -0.57499999 150 0 0 0 0.045049999
2.4119999 -0.65600002 -0.58099997 150 0 0 0 0.045060001
2.411 -0.66100001 -0.58700001 150 0 0 0 0.04507
2.4119999 -0.667 -0.59299999 150 0 0 0 0.045079999
2.395 -0.667 -0.59500003 29 0 0 0 0.045090001
2.3699999 -0.66500002 -0.59500003 24 0 0 0 0.0451
2.345 -0.66399997 -0.59500003 23 0 0 0 0.045109998
2.3280001 -0.66399997 -0.597 23 0 0 0 0.045120001
2.3050001 -0.662 -0.597 17 0 0 0 0.04513
2.257 -0.65399998 -0.59100002 14 0 0 0 0.045139998
2.221 -0.648 -0.58700001 14 0 0 0 0.045150001
2.2179999 -0.65200001 -0.59200001 11 0 0 0 0.045159999
2.2130001 -0.65499997 -0.597 14 0 0 0 0.045170002
2.188 -0.65200001 -0.59500003 19 0 0 0 0.04518
2.171 -0.65200001 -0.597 22 0 0 0 0.045189999
2.155 -0.65200001 -0.59799999 24 0 0 0 0.045200001
2.135 -0.64999998 -0.59799999 23 0 0 0 0.04521
2.115 -0.648 -0.59799999 23 0 0 0 0.045219999
2.1010001 -0.64899999 -0.60000002 28 0 0 0 0.045230001
2.0780001 -0.64600003 -0.59899998 28 0 0 0 0.04524
2.0580001 -0.64399999 -0.59899998 28 0 0 0 0.045249999
2.0450001 -0.64399999 -0.60100001 28 0 0 0 0.045260001
2.026 -0.64200002 -0.60100001 29 0 0 0 0.04527
2.013 -0.64200002 -0.602 31 0 0 0 0.045279998
2.0009999 -0.64200002 -0.60399997 32 0 0 0 0.045290001
1.979 -0.639 -0.60299999 32 0 0 0 0.045299999
1.9630001 -0.63800001 -0.60299999 30 0 0 0 0.045310002
1.946 -0.63599998 -0.60299999 29 0 0 0 0.04532
1.933 -0.63599998 -0.60500002 31 0 0 0 0.045329999
1.916 -0.634 -0.60500002 30 0 0 0 0.045340002
1.899 -0.63300002 -0.60500002 31 0 0 0 0.04535
1.882 -0.63 -0.60500002 34 0 0 0 0.045359999
1.873 -0.63099998 -0.60699999 34 0 0 0 0.045370001
1.852 -0.62699997 -0.60500002 33 0 0 0 0.04538
1.842 -0.62699997 -0.60699999 33 0 0 0 0.045389999
1.827 -0.62599999 -0.60699999 31 0 0 0 0.045400001
1.808 -0.62300003 -0.60600001 38 0 0 0 0.04541
1.8 -0.62300003 -0.60799998 26 0 0 0 0.045419998
1.7920001 -0.62400001 -0.611 25 0 0 0 0.045430001
1.7869999 -0.625 -0.61400002 72 0 0 0 0.04544
1.7869999 -0.62900001 -0.61900002 90 0 0 0 0.045449998
1.812 -0.64099997 -0.63300002 125 0 0 0 0.045460001
1.887 -0.671 -0.66399997 150 0 0 0 0.045469999
1.95 -0.69599998 -0.69199997 62 0 0 0 0.045480002
1.962 -0.704 -0.70200002 26 0 0 0 0.04549
2.0139999 -0.72600001 -0.72600001 22 0 0 0 0.045499999
2.0450001 -0.741 -0.74299997 24 0 0 0 0.045510001
2.0339999 -0.741 -0.745 30 0 0 0 0.04552
2.0190001 -0.73799998 -0.745 38 0 0 0 0.045529999
2.0090001 -0.73799998 -0.74699998 46 0 0 0 0.045540001
1.994 -0.736 -0.74699998 42 0 0 0 0.04555
1.98 -0.73400003 -0.74800003 40 0 0 0 0.045559999
1.9630001 -0.73100001 -0.74699998 50 0 0 0 0.045570001
1.951 -0.73000002 -0.74800003 56 0 0 0 0.04558
1.9349999 -0.727 -0.74699998 48 0 0 0 0.045589998
1.925 -0.72600001 -0.74900001 70 0 0 0 0.045600001
1.911 -0.72299999 -0.74900001 78 0 0 0 0.045609999
1.901 -0.722 -0.75 69 0 0 0 0.045620002
1.875 -0.71499997 -0.745 28 0 0 0 0.045630001
1.862 -0.713 -0.745 18 0 0 0 0.045639999
1.858 -0.71499997 -0.74900001 18 0 0 0 0.045650002
1.849 -0.71399999 -0.75099999 15 0 0 0 0.04566
1.8279999 -0.708 -0.74699998 14 0 0 0 0.045669999
1.824 -0.70899999 -0.75099999 19 0 0 0 0.045680001
1.814 -0.708 -0.75199997 27 0 0 0 0.04569
1.802 -0.70499998 -0.75199997 35 0 0 0 0.045699999
1.7920001 -0.704 -0.75300002 34 0 0 0 0.045710001
1.777 -0.69999999 -0.75099999 37 0 0 0 0.04572
1.771 -0.69999999 -0.75400001 49 0 0 0 0.045729998
1.7640001 -0.699 -0.75599998 58 0 0 0 0.045740001
1.748 -0.69499999 -0.75400001 62 0 0 0 0.04575
1.738 -0.69300002 -0.75400001 57 0 0 0 0.045759998
1.73 -0.69199997 -0.75599998 46 0 0 0 0.045770001
1.7180001 -0.68900001 -0.755 41 0 0 0 0.045779999
1.709 -0.68800002 -0.75599998 50 0 0 0 0.045790002
1.697 -0.685 -0.75599998 47 0 0 0 0.0458
1.689 -0.68300003 -0.75700003 34 0 0 0 0.045809999
1.679 -0.68099999 -0.75599998 44 0 0 0 0.045820002
1.6670001 -0.67799997 -0.75599998 77 0 0 0 0.04583
1.66 -0.67699999 -0.75700003 93 0 0 0 0.045839999
1.652 -0.67500001 -0.75800002 99 0 0 0 0.045850001
1.6390001 -0.671 -0.75599998 23 0 0 0 0.04586
1.631 -0.66900003 -0.75700003 28 0 0 0 0.045869999
1.62 -0.66600001 -0.75599998 30 0 0 0 0.045880001
1.618 -0.66600001 -0.759 29 0 0 0 0.04589
1.608 -0.66399997 -0.759 29 0 0 0 0.045899998
1.601 -0.662 -0.75999999 23 0 0 0 0.045910001
1.591 -0.65899998 -0.759 19 0 0 0 0.045919999
1.5779999 -0.65499997 -0.75700003 18 0 0 0 0.045929998
1.576 -0.65499997 -0.75999999 17 0 0 0 0.045940001
1.571 -0.65399998 -0.76200002 17 0 0 0 0.045949999
1.563 -0.65200001 -0.76200002 17 0 0 0 0.045960002
1.552 -0.648 -0.76099998 17 0 0 0 0.04597
1.552 -0.64899999 -0.76499999 16 0 0 0 0.045979999
1.543 -0.64600003 -0.76300001 15 0 0 0 0.045990001
1.533 -0.64200002 -0.76200002 15 0 0 0 0.046
1.529 -0.64099997 -0.764 13 0 0 0 0.046009999
1.518 -0.63700002 -0.76200002 6 0 0 0 0.046020001
1.51 -0.634 -0.76200002 4 0 0 0 0.04603
1.501 -0.63099998 -0.76099998 7 0 0 0 0.046039999
1.498 -0.63 -0.76300001 13 0 0 0 0.046050001
1.4910001 -0.62800002 -0.76300001 17 0 0 0 0.04606
1.485 -0.62599999 -0.76300001 21 0 0 0 0.046069998
1.475 -0.62199998 -0.76200002 24 0 0 0 0.046080001
1.4680001 -0.61900002 -0.76099998 27 0 0 0 0.046089999
1.464 -0.61799997 -0.76200002 32 0 0 0 0.046100002
1.454 -0.61400002 -0.76099998 40 0 0 0 0.04611
1.449 -0.61199999 -0.76099998 47 0 0 0 0.046119999
1.447 -0.611 -0.76300001 49 0 0 0 0.046130002
1.438 -0.60699999 -0.76200002 66 0 0 0 0.04614
1.437 -0.60699999 -0.764 67 0 0 0 0.046149999
1.434 -0.60500002 -0.76499999 69 0 0 0 0.046160001
1.423 -0.60000002 -0.76200002 58 0 0 0 0.04617
1.416 -0.597 -0.76099998 53 0 0 0 0.046179999
1.413 -0.59600002 -0.76200002 49 0 0 0 0.046190001
1.406 -0.59299999 -0.76099998 38 0 0 0 0.0462
1.403 -0.59100002 -0.76200002 27 0 0 0 0.046209998
1.405 -0.59100002 -0.76599997 18 0 0 0 0.046220001
1.404 -0.59100002 -0.76800001 13 0 0 0 0.04623
1.395 -0.58600003 -0.76499999 11 0 0 0 0.046239998
1.392 -0.58399999 -0.76599997 11 0 0 0 0.046250001
1.3839999 -0.57999998 -0.764 11 0 0 0 0.046259999
1.383 -0.579 -0.76599997 11 0 0 0 0.046270002
1.382 -0.57800001 -0.76800001 13 0 0 0 0.04628
1.3710001 -0.57300001 -0.764 15 0 0 0 0.046289999
1.37 -0.57200003 -0.76499999 18 0 0 0 0.046300001
1.363 -0.56800002 -0.76300001 23 0 0 0 0.04631
1.354 -0.56300002 -0.76099998 27 0 0 0 0.046319999
1.358 -0.56400001 -0.76499999 33 0 0 0 0.046330001
1.353 -0.56099999 -0.764 27 0 0 0 0.04634
1.352 -0.56 -0.76499999 28 0 0 0 0.046349999
1.349 -0.55699998 -0.76499999 29 0 0 0 0.046360001
1.344 -0.55400002 -0.764 30 0 0 0 0.04637
1.344 -0.55299997 -0.76499999 32 0 0 0 0.046379998
1.341 -0.55000001 -0.76499999 34 0 0 0 0.046390001
1.3380001 -0.54799998 -0.76499999 38 0 0 0 0.046399999
1.3380001 -0.54699999 -0.76700002 37 0 0 0 0.046410002
1.335 -0.54400003 -0.76700002 27 0 0 0 0.04642
1.332 -0.542 -0.76599997 25 0 0 0 0.046429999
1.33 -0.53899997 -0.76599997 23 0 0 0 0.046440002
1.325 -0.53600001 -0.76499999 24 0 0 0 0.04645
1.325 -0.53399998 -0.76599997 24 0 0 0 0.046459999
1.322 -0.53200001 -0.76499999 26 0 0 0 0.046470001
1.324 -0.53100002 -0.76700002 25 0 0 0 0.04648
1.3200001 -0.52700001 -0.76599997 24 0 0 0 0.046489999
1.321 -0.52600002 -0.76700002 22 0 0 0 0.046500001
1.321 -0.52499998 -0.76800001 19 0 0 0 0.04651
1.321 -0.523 -0.76899999 17 0 0 0 0.046519998
1.323 -0.52200001 -0.77100003 15 0 0 0 0.046530001
1.324 -0.51999998 -0.77200001 14 0 0 0 0.04654
1.319 -0.51700002 -0.76999998 13 0 0 0 0.046549998
1.321 -0.51499999 -0.77100003 13 0 0 0 0.046560001
1.3200001 -0.51300001 -0.77100003 12 0 0 0 0.046569999
1.3200001 -0.51099998 -0.77200001 12 0 0 0 0.046580002
1.318 -0.50800002 -0.77100003 12 0 0 0 0.04659
1.322 -0.50800002 -0.773 12 0 0 0 0.046599999
1.321 -0.50599998 -0.773 13 0 0 0 0.046610001
1.318 -0.50199997 -0.77200001 13 0 0 0 0.04662
1.316 -0.5 -0.77100003 13 0 0 0 0.046629999
1.325 -0.50099999 -0.77600002 14 0 0 0 0.046640001
1.321 -0.49700001 -0.773 14 0 0 0 0.04665
1.324 -0.49599999 -0.77499998 12 0 0 0 0.046659999
1.3200001 -0.49200001 -0.773 12 0 0 0 0.046670001
1.324 -0.491 -0.77499998 12 0 0 0 0.04668
1.326 -0.49000001 -0.77600002 12 0 0 0 0.046689998
1.324 -0.48699999 -0.77399999 11 0 0 0 0.046700001
1.324 -0.484 -0.77399999 11 0 0 0 0.046709999
1.324 -0.48199999 -0.773 11 0 0 0 0.046720002
1.324 -0.479 -0.773 12 0 0 0 0.046730001
1.323 -0.47600001 -0.77200001 13 0 0 0 0.046739999
1.323 -0.47400001 -0.77100003 15 0 0 0 0.046750002
1.326 -0.472 -0.77200001 16 0 0 0 0.04676
1.325 -0.47 -0.77100003 17 0 0 0 0.046769999
1.324 -0.46700001 -0.76899999 18 0 0 0 0.046780001
1.326 -0.465 -0.76999998 18 0 0 0 0.04679
1.326 -0.46200001 -0.76899999 22 0 0 0 0.046799999
1.33 -0.461 -0.76999998 22 0 0 0 0.046810001
1.332 -0.45899999 -0.76999998 22 0 0 0 0.04682
1.3329999 -0.45699999 -0.76899999 22 0 0 0 0.046829998
1.334 -0.454 -0.76899999 23 0 0 0 0.046840001
1.335 -0.45199999 -0.76800001 24 0 0 0 0.04685
1.3380001 -0.44999999 -0.76899999 31 0 0 0 0.046859998
1.337 -0.447 -0.76599997 45 0 0 0 0.046870001
1.3430001 -0.44600001 -0.76899999 43 0 0 0 0.046879999
1.345 -0.44400001 -0.76800001 27 0 0 0 0.046890002
1.349 -0.44299999 -0.76899999 23 0 0 0 0.0469
1.353 -0.44100001 -0.76999998 20 0 0 0 0.046909999
1.359 -0.44 -0.77200001 17 0 0 0 0.046920002
1.363 -0.43799999 -0.77200001 17 0 0 0 0.04693
1.3660001 -0.43700001 -0.77200001 18 0 0 0 0.046939999
1.3660001 -0.43399999 -0.76999998 20 0 0 0 0.046950001
1.3710001 -0.43200001 -0.77100003 22 0 0 0 0.04696
1.376 -0.43099999 -0.77200001 32 0 0 0 0.046969999
1.3710001 -0.426 -0.76800001 62 0 0 0 0.046980001
1.378 -0.42500001 -0.76899999 49 0 0 0 0.04699
1.381 -0.42300001 -0.76899999 48 0 0 0 0.046999998
1.387 -0.42199999 -0.76999998 25 0 0 0 0.047010001
1.391 -0.421 -0.76999998 18 0 0 0 0.047019999
1.404 -0.421 -0.77499998 13 0 0 0 0.047029998
1.404 -0.41800001 -0.773 11 0 0 0 0.047040001
1.4119999 -0.41800001 -0.77499998 11 0 0 0 0.047049999
1.4170001 -0.41600001 -0.77499998 11 0 0 0 0.047060002
1.4220001 -0.414 -0.77600002 15 0 0 0 0.04707
1.42 -0.41100001 -0.77200001 19 0 0 0 0.047079999
1.4220001 -0.40799999 -0.76999998 24 0 0 0 0.047090001
1.427 -0.40599999 -0.77100003 19 0 0 0 0.0471
1.433 -0.405 -0.77100003 18 0 0 0 0.047109999
1.4400001 -0.40400001 -0.77200001 16 0 0 0 0.047120001
1.444 -0.40200001 -0.77100003 16 0 0 0 0.04713
1.45 -0.40000001 -0.77100003 17 0 0 0 0.047139999
1.452 -0.398 -0.76999998 19 0 0 0 0.047150001
1.4579999 -0.396 -0.76999998 17 0 0 0 0.04716
1.465 -0.39399999 -0.77100003 16 0 0 0 0.047169998
1.472 -0.39300001 -0.77200001 15 0 0 0 0.047180001
1.475 -0.391 -0.76999998 17 0 0 0 0.047189999
1.482 -0.389 -0.76999998 25 0 0 0 0.047200002
1.492 -0.389 -0.77200001 37 0 0 0 0.04721
1.488 -0.38499999 -0.76700002 47 0 0 0 0.047219999
1.502 -0.38499999 -0.77100003 35 0 0 0 0.047230002
1.506 -0.38299999 -0.76999998 27 0 0 0 0.04724
1.516 -0.382 -0.77100003 27 0 0 0 0.047249999
1.524 -0.38100001 -0.77200001 37 0 0 0 0.047260001
1.525 -0.377 -0.76899999 28 0 0 0 0.04727
1.5369999 -0.377 -0.77100003 22 0 0 0 0.047279999
1.5470001 -0.37599999 -0.773 27 0 0 0 0.047290001
1.549 -0.373 -0.76999998 30 0 0 0 0.0473
1.559 -0.373 -0.77200001 27 0 0 0 0.047309998
1.569 -0.37099999 -0.773 27 0 0 0 0.047320001
1.574 -0.36899999 -0.77100003 26 0 0 0 0.04733
1.579 -0.36700001 -0.76999998 25 0 0 0 0.047339998
1.587 -0.366 -0.76999998 27 0 0 0 0.047350001
1.599 -0.36500001 -0.77200001 19 0 0 0 0.047359999
1.601 -0.36199999 -0.76899999 4 0 0 0 0.047370002
1.608 -0.36000001 -0.76800001 0 0 0 0 0.04738
1.579 -0.35100001 -0.75099999 0 0 0 0 0.047389999
1.586 -0.34900001 -0.75 0 0 0 0 0.047400001
1.598 -0.34799999 -0.75199997 0 0 0 0 0.04741
1.641 -0.354 -0.76800001 2 0 0 0 0.047419999
1.661 -0.35499999 -0.773 13 0 0 0 0.047430001
1.6619999 -0.352 -0.76800001 52 0 0 0 0.04744
1.673 -0.35100001 -0.76899999 88 0 0 0 0.047449999
1.683 -0.34900001 -0.76999998 55 0 0 0 0.047460001
1.699 -0.34900001 -0.77200001 27 0 0 0 0.04747
1.709 -0.34799999 -0.77200001 35 0 0 0 0.047479998
1.717 -0.34599999 -0.77100003 43 0 0 0 0.047490001
1.727 -0.34400001 -0.77100003 41 0 0 0 0.047499999
1.737 -0.34299999 -0.77100003 46 0 0 0 0.047510002
1.743 -0.34099999 -0.76899999 45 0 0 0 0.04752
1.753 -0.33899999 -0.76899999 12 0 0 0 0.047529999
1.766 -0.338 -0.76899999 36 0 0 0 0.047540002
1.777 -0.33700001 -0.76899999 51 0 0 0 0.04755
1.788 -0.336 -0.76899999 55 0 0 0 0.047559999
1.795 -0.333 -0.76700002 83 0 0 0 0.047570001
1.809 -0.33199999 -0.76800001 20 0 0 0 0.04758
1.8200001 -0.331 -0.76700002 84 0 0 0 0.047589999
1.8279999 -0.329 -0.76599997 60 0 0 0 0.047600001
1.846 -0.329 -0.76800001 71 0 0 0 0.04761
1.858 -0.32699999 -0.76800001 16 0 0 0 0.047619998
1.869 -0.32600001 -0.76700002 33 0 0 0 0.047630001
1.886 -0.32499999 -0.76899999 28 0 0 0 0.04764
1.9 -0.324 -0.76899999 33 0 0 0 0.047649998
1.9119999 -0.32300001 -0.76899999 30 0 0 0 0.047660001
1.927 -0.32100001 -0.76899999 37 0 0 0 0.047669999
1.936 -0.31900001 -0.76700002 57 0 0 0 0.047680002
1.946 -0.317 -0.76499999 69 0 0 0 0.04769
1.964 -0.317 -0.76700002 33 0 0 0 0.047699999
1.978 -0.31600001 -0.76599997 27 0 0 0 0.047710001
1.992 -0.31400001 -0.76599997 26 0 0 0 0.04772
2.0090001 -0.31299999 -0.76700002 24 0 0 0 0.047729999
2.0239999 -0.31200001 -0.76700002 32 0 0 0 0.047740001
2.036 -0.31 -0.76499999 72 0 0 0 0.04775
2.05 -0.30899999 -0.764 81 0 0 0 0.047759999
2.0599999 -0.30700001 -0.76200002 40 0 0 0 0.047770001
2.0829999 -0.30700001 -0.76499999 79 0 0 0 0.04778
2.0940001 -0.30500001 -0.76300001 138 0 0 0 0.047789998
2.1110001 -0.30399999 -0.76300001 63 0 0 0 0.047800001
2.128 -0.30199999 -0.76200002 30 0 0 0 0.047809999
2.1500001 -0.30199999 -0.764 29 0 0 0 0.047820002
2.1689999 -0.301 -0.764 36 0 0 0 0.047830001
2.1860001 -0.30000001 -0.764 50 0 0 0 0.047839999
2.2 -0.29800001 -0.76200002 33 0 0 0 0.047850002
2.2079999 -0.29499999 -0.75800002 15 0 0 0 0.04786
2.2130001 -0.292 -0.75300002 3 0 0 0 0.047869999
2.1930001 -0.28600001 -0.74000001 1 0 0 0 0.047880001
2.2 -0.28299999 -0.736 0 0 0 0 0.04789
2.175 -0.27700001 -0.72100002 0 0 0 0 0.047899999
2.1719999 -0.273 -0.713 0 0 0 0 0.047910001
2.2390001 -0.27700001 -0.72799999 0 0 0 0 0.04792
2.3559999 -0.28799999 -0.75999999 5 0 0 0 0.047929998
2.381 -0.28799999 -0.75999999 23 0 0 0 0.047940001
2.402 -0.28600001 -0.75999999 30 0 0 0 0.04795
2.4300001 -0.28600001 -0.76099998 25 0 0 0 0.047959998
2.447 -0.28400001 -0.759 26 0 0 0 0.047970001
2.4760001 -0.28400001 -0.76099998 24 0 0 0 0.047979999
2.4979999 -0.28200001 -0.75999999 23 0 0 0 0.047990002
2.5220001 -0.28099999 -0.759 30 0 0 0 0.048
2.539 -0.27900001 -0.75700003 35 0 0 0 0.048009999
2.562 -0.278 -0.75599998 32 0 0 0 0.048020002
2.5829999 -0.27599999 -0.75400001 36 0 0 0 0.04803
2.6110001 -0.27500001 -0.75400001 37 0 0 0 0.048039999
2.6389999 -0.27500001 -0.755 30 0 0 0 0.048050001
2.671 -0.27399999 -0.75599998 35 0 0 0 0.04806
2.694 -0.27200001 -0.75400001 54 0 0 0 0.048069999
2.7190001 -0.271 -0.75300002 43 0 0 0 0.048080001
2.743 -0.26899999 -0.75099999 29 0 0 0 0.04809
2.776 -0.26899999 -0.75199997 26 0 0 0 0.048099998
2.8069999 -0.26800001 -0.75199997 22 0 0 0 0.048110001
2.8380001 -0.26699999 -0.75099999 20 0 0 0 0.048119999
2.8800001 -0.26699999 -0.75300002 21 0 0 0 0.048129998
2.908 -0.26499999 -0.75199997 26 0 0 0 0.048140001
2.9430001 -0.264 -0.75199997 46 0 0 0 0.048149999
2.9690001 -0.26199999 -0.75 51 0 0 0 0.048160002
3.029 -0.264 -0.75599998 41 0 0 0 0.04817
3.049 -0.26100001 -0.75099999 59 0 0 0 0.048179999
3.046 -0.257 -0.741 75 0 0 0 0.048190001
3.043 -0.252 -0.73100001 150 0 0 0 0.0482
3.046 -0.249 -0.722 150 0 0 0 0.048209999
3.0380001 -0.244 -0.71100003 150 0 0 0 0.048220001
3.043 -0.23999999 -0.70300001 150 0 0 0 0.04823
3.039 -0.236 -0.69300002 150 0 0 0 0.048239999
3.039 -0.23199999 -0.68300003 150 0 0 0 0.048250001
3.0350001 -0.228 -0.67299998 150 0 0 0 0.04826
3.0380001 -0.22400001 -0.66399997 150 0 0 0 0.048269998
3.0369999 -0.22 -0.65499997 150 0 0 0 0.048280001
3.0239999 -0.215 -0.64300001 150 0 0 0 0.048289999
2.9460001 -0.206 -0.61699998 31 0 0 0 0.048300002
2.846 -0.19499999 -0.58700001 23 0 0 0 0.04831
2.9519999 -0.199 -0.60000002 29 0 0 0 0.048319999
2.9590001 -0.19599999 -0.59200001 52 0 0 0 0.048330002
2.954 -0.192 -0.58200002 68 0 0 0 0.04834
2.9909999 -0.191 -0.57999998 150 0 0 0 0.048349999
2.973 -0.186 -0.56800002 73 0 0 0 0.048360001
2.967 -0.182 -0.55699998 33 0 0 0 0.04837
2.9260001 -0.176 -0.54100001 22 0 0 0 0.048379999
2.9319999 -0.17299999 -0.53299999 22 0 0 0 0.048390001
2.9530001 -0.17 -0.52700001 24 0 0 0 0.0484
2.948 -0.16599999 -0.51700002 24 0 0 0 0.048409998
2.9100001 -0.161 -0.50199997 2 0 0 0 0.048420001
2.648 -0.14300001 -0.44800001 2 0 0 0 0.04843
2.652 -0.14 -0.44100001 2 0 0 0 0.048439998
2.642 -0.13699999 -0.43099999 2 0 0 0 0.048450001
2.6129999 -0.132 -0.41800001 1 0 0 0 0.048459999
2.619 -0.13 -0.41100001 3 0 0 0 0.048470002
2.6270001 -0.127 -0.40400001 7 0 0 0 0.04848
2.635 -0.124 -0.39700001 12 0 0 0 0.048489999
2.6389999 -0.122 -0.38999999 9 0 0 0 0.048500001
2.631 -0.118 -0.38100001 5 0 0 0 0.04851
2.6340001 -0.116 -0.373 5 0 0 0 0.048519999
2.635 -0.113 -0.36500001 4 0 0 0 0.048530001
2.642 -0.11 -0.35800001 4 0 0 0 0.04854
2.6589999 -0.108 -0.352 7 0 0 0 0.048549999
2.6619999 -0.105 -0.34400001 7 0 0 0 0.048560001
2.6589999 -0.102 -0.33500001 11 0 0 0 0.04857
2.654 -0.098999999 -0.32600001 13 0 0 0 0.048579998
2.6659999 -0.097000003 -0.31999999 14 0 0 0 0.048590001
2.6719999 -0.093999997 -0.31200001 16 0 0 0 0.048599999
2.6719999 -0.090999998 -0.30399999 16 0 0 0 0.048610002
2.6800001 -0.089000002 -0.29699999 16 0 0 0 0.04862
2.6760001 -0.086000003 -0.28799999 16 0 0 0 0.048629999
2.6730001 -0.082999997 -0.27900001 12 0 0 0 0.048640002
2.7090001 -0.081 -0.27500001 17 0 0 0 0.04865
2.905 -0.083999999 -0.28600001 56 0 0 0 0.048659999
2.938 -0.082000002 -0.28 34 0 0 0 0.048670001
2.915 -0.079000004 -0.26899999 35 0 0 0 0.04868
2.872 -0.075000003 -0.25600001 29 0 0 0 0.048689999
2.369 -0.059 -0.20299999 1 0 0 0 0.048700001
2.197 -0.052999999 -0.182 0 0 0 0 0.04871
2.1670001 -0.050000001 -0.17299999 0 0 0 0 0.048719998
2.187 -0.048 -0.167 0 0 0 0 0.048730001
2.184 -0.046 -0.16 0 0 0 0 0.04874
2.1930001 -0.044 -0.154 0 0 0 0 0.048749998
2.21 -0.041999999 -0.149 0 0 0 0 0.048760001
2.2090001 -0.039999999 -0.142 0 0 0 0 0.048769999
2.2360001 -0.037999999 -0.13600001 0 0 0 0 0.048780002
2.2360001 -0.035999998 -0.13 0 0 0 0 0.04879
2.2690001 -0.035 -0.124 0 0 0 0 0.048799999
2.263 -0.033 -0.117 0 0 0 0 0.048810001
2.273 -0.030999999 -0.11 0 0 0 0 0.04882
2.28 -0.028999999 -0.104 0 0 0 0 0.048829999
2.296 -0.027000001 -0.097000003 0 0 0 0 0.048840001
2.306 -0.025 -0.090999998 1 0 0 0 0.04885
2.3180001 -0.023 -0.083999999 0 0 0 0 0.048859999
2.3239999 -0.021 -0.077 1 0 0 0 0.048870001
2.881 -0.023 -0.086000003 29 0 0 0 0.04888
2.987 -0.021 -0.079999998 150 0 0 0 0.048889998
3.052 -0.018999999 -0.072999999 151 0 0 0 0.048900001
3.0669999 -0.017000001 -0.063000001 151 0 0 0 0.048909999
3.0799999 -0.014 -0.054000001 151 0 0 0 0.048920002
3.102 -0.011 -0.045000002 150 0 0 0 0.048930001
3.122 -0.0089999996 -0.035 150 0 0 0 0.048939999
3.165 -0.0060000001 -0.026000001 150 0 0 0 0.048950002
3.2279999 -0.0040000002 -0.016000001 150 0 0 0 0.04896
3.355 -0.001 -0.0070000002 139 0 0 0 0.048969999
3.3900001 0.001 0.003 93 0 0 0 0.048980001
3.3529999 0.0040000002 0.014 96 0 0 0 0.04899
3.3050001 0.0060000001 0.024 150 0 0 0 0.048999999
3.3080001 0.0089999996 0.034000002 150 0 0 0 0.049010001
3.431 0.012 0.046 132 0 0 0 0.04902
3.5190001 0.016000001 0.057999998 46 0 0 0 0.049029998
3.5320001 0.017999999 0.07 32 0 0 0 0.049040001
3.618 0.022 0.082999997 38 0 0 0 0.04905
3.6329999 0.025 0.093999997 35 0 0 0 0.049059998
3.5320001 0.027000001 0.103 18 0 0 0 0.049070001
3.523 0.029999999 0.114 4 0 0 0 0.049079999
3.5829999 0.033 0.127 0 0 0 0 0.049090002
4.473 0.045000002 0.17299999 0 0 0 0 0.0491
4.4380002 0.048 0.185 0 0 0 0 0.049109999
4.487 0.052000001 0.20100001 0 0 0 0 0.049120001
4.4819999 0.055 0.215 0 0 0 0 0.04913
4.4629998 0.057999998 0.229 1 0 0 0 0.049139999
4.4619999 0.061999999 0.243 0 0 0 0 0.049150001
0 0 0 0 0 0 0 0.04916
4.4419999 0.068000004 0.27000001 0 0 0 0 0.049169999
4.4510002 0.071000002 0.28400001 2 0 0 0 0.049180001
4.467 0.075000003 0.29899999 12 0 0 0 0.04919
4.447 0.078000002 0.31200001 42 0 0 0 0.049199998
4.4439998 0.081 0.32600001 67 0 0 0 0.049210001
4.4390001 0.083999999 0.34 120 0 0 0 0.049219999
4.4310002 0.086999997 0.35299999 150 0 0 0 0.049229998
4.4380002 0.090000004 0.368 150 0 0 0 0.049240001
4.4369998 0.093000002 0.382 150 0 0 0 0.049249999
4.4359999 0.096000001 0.396 150 0 0 0 0.049260002
4.4369998 0.098999999 0.41 150 0 0 0 0.04927
4.4400001 0.102 0.42399999 111 0 0 0 0.049279999
4.4419999 0.105 0.43900001 68 0 0 0 0.049290001
4.4460001 0.108 0.45300001 42 0 0 0 0.0493
4.4450002 0.111 0.46700001 22 0 0 0 0.049309999
4.427 0.114 0.47999999 63 0 0 0 0.049320001
4.4159999 0.116 0.49200001 150 0 0 0 0.04933
4.408 0.119 0.50599998 150 0 0 0 0.049339999
4.4060001 0.122 0.51999998 150 0 0 0 0.049350001
4.4130001 0.125 0.53500003 150 0 0 0 0.04936
4.427 0.12800001 0.55000001 50 0 0 0 0.049369998
4.448 0.131 0.56699997 2 0 0 0 0.049380001
4.4580002 0.134 0.583 0 0 0 0 0.049389999
4.4699998 0.138 0.59899998 0 0 0 0 0.049400002
4.4619999 0.14 0.61199999 0 0 0 0 0.04941
4.4520001 0.142 0.625 0 0 0 0 0.049419999
4.4640002 0.145 0.64099997 0 0 0 0 0.049430002
4.4219999 0.147 0.64899999 0 0 0 0 0.04944
4.4559999 0.15000001 0.66900003 0 0 0 0 0.049449999
4.4439998 0.153 0.68199998 0 0 0 0 0.049460001
4.4499998 0.155 0.69700003 0 0 0 0 0.04947
4.441 0.15700001 0.70999998 0 0 0 0 0.049479999
0 0 0 0 0 0 0 0.049490001
4.4180002 0.162 0.73500001 0 0 0 0 0.0495
4.4330001 0.16500001 0.75199997 0 0 0 0 0.049509998
4.4460001 0.167 0.76899999 0 0 0 0 0.049520001
0 0 0 0 0 0 0 0.049529999
0 0 0 0 0 0 0 0.049539998
4.4130001 0.17299999 0.80599999 0 0 0 0 0.049550001
4.421 0.176 0.82200003 1 0 0 0 0.049559999
4.4050002 0.177 0.833 0 0 0 0 0.049570002
0 0 0 0 0 0 0 0.04958
0 0 0 0 0 0 0 0.049589999
4.3969998 0.184 0.875 0 0 0 0 0.049600001
4.401 0.186 0.88999999 1 0 0 0 0.04961
4.3899999 0.18700001 0.90200001 0 0 0 0 0.049619999
0 0 0 0 0 0 0 0.049630001
0 0 0 0 0 0 0 0.04964
4.3959999 0.19400001 0.94700003 0 0 0 0 0.049649999
4.3829999 0.19499999 0.958 1 0 0 0 0.049660001
4.3850002 0.197 0.97399998 0 0 0 0 0.04967
0 0 0 0 0 0 0 0.049679998
0 0 0 0 0 0 0 0.049690001
4.3740001 0.20200001 1.0140001 0 0 0 0 0.049699999
4.368 0.204 1.027 1 0 0 0 0.049710002
4.368 0.206 1.0420001 0 0 0 0 0.04972
0 0 0 0 0 0 0 0.049729999
0 0 0 0 0 0 0 0.049740002
4.3600001 0.20999999 1.084 0 0 0 0 0.04975
4.3520002 0.212 1.096 1 0 0 0 0.049759999
4.3670001 0.214 1.114 0 0 0 0 0.049770001
0 0 0 0 0 0 0 0.04978
0 0 0 0 0 0 0 0.049789999
4.3579998 0.21799999 1.156 0 0 0 0 0.049800001
4.349 0.219 1.168 1 0 0 0 0.04981
4.3390002 0.22 1.1799999 0 0 0 0 0.049819998
0 0 0 0 0 0 0 0.049830001
0 0 0 0 0 0 0 0.04984
4.3449998 0.22400001 1.225 0 0 0 0 0.049849998
4.3379998 0.22499999 1.237 1 0 0 0 0.049860001
4.3340001 0.226 1.251 0 0 0 0 0.049869999
0 0 0 0 0 0 0 0.049880002
0 0 0 0 0 0 0 0.04989
4.25 0.22499999 1.27 0 0 0 0 0.049899999
3.483 0.185 1.052 37 0 0 0 0.049910001
3.4630001 0.185 1.058 15 0 0 0 0.04992
3.566 0.191 1.102 0 0 0 0 0.049929999
0 0 0 0 0 0 0 0.049940001
4.3210001 0.234 1.364 0 0 0 0 0.04995
4.2919998 0.233 1.37 0 0 0 0 0.049959999
4.302 0.235 1.387 0 0 0 0 0.049970001
4.3239999 0.236 1.409 0 0 0 0 0.04998
4.3130002 0.237 1.42 0 0 0 0 0.049989998
4.3060002 0.237 1.432 0 0 0 0 0.050000001
4.2940001 0.237 1.443 0 0 0 0 0.050009999
0 0 0 0 0 0 0 0.050020002
4.2480001 0.236 1.456 0 0 0 0 0.050030001
4.3179998 0.23999999 1.495 1 0 0 0 0.050039999
4.303 0.23999999 1.5039999 0 0 0 0 0.050050002
4.289 0.23899999 1.5140001 0 0 0 0 0.05006
0 0 0 0 0 0 0 0.050069999
4.3039999 0.241 1.549 0 0 0 0 0.050080001
4.388 0.24600001 1.594 8 0 0 0 0.05009
4.744 0.266 1.74 50 0 0 0 0.050099999
4.7350001 0.266 1.753 82 0 0 0 0.050110001
4.7010002 0.26499999 1.756 83 0 0 0 0.05012
4.664 0.26300001 1.758 79 0 0 0 0.050129998
4.6300001 0.26100001 1.761 79 0 0 0 0.050140001
4.5929999 0.259 1.763 78 0 0 0 0.05015
4.5500002 0.25600001 1.762 75 0 0 0 0.050159998
4.5149999 0.25400001 1.763 75 0 0 0 0.050170001
4.487 0.25299999 1.768 74 0 0 0 0.050179999
4.4489999 0.25 1.768 73 0 0 0 0.050190002
4.408 0.248 1.767 75 0 0 0 0.0502
4.381 0.24600001 1.771 70 0 0 0 0.050209999
4.3319998 0.243 1.766 60 0 0 0 0.050220001
4.3000002 0.241 1.768 75 0 0 0 0.05023
4.2610002 0.23800001 1.766 84 0 0 0 0.050239999
4.2249999 0.236 1.766 87 0 0 0 0.050250001
4.191 0.233 1.766 89 0 0 0 0.05026
4.151 0.23100001 1.763 89 0 0 0 0.050269999
4.1220002 0.228 1.765 89 0 0 0 0.050280001
4.0840001 0.226 1.762 91 0 0 0 0.05029
4.046 0.223 1.76 89 0 0 0 0.050299998
4.0159998 0.22 1.76 90 0 0 0 0.050310001
3.9820001 0.21799999 1.7589999 88 0 0 0 0.050319999
3.9519999 0.215 1.7589999 89 0 0 0 0.050330002
3.382 0.183 1.517 151 0 0 0 0.050340001
3.145 0.17 1.421 152 0 0 0 0.050349999
3.0450001 0.164 1.386 151 0 0 0 0.050360002
2.994 0.16 1.373 150 0 0 0 0.05037
2.9790001 0.15800001 1.376 150 0 0 0 0.050379999
2.9749999 0.15700001 1.385 150 0 0 0 0.050390001
2.96 0.156 1.388 150 0 0 0 0.0504
2.944 0.154 1.39 150 0 0 0 0.050409999
2.941 0.153 1.399 150 0 0 0 0.050420001
2.938 0.152 1.4069999 150 0 0 0 0.05043
2.9400001 0.15099999 1.418 150 0 0 0 0.050439999
2.9400001 0.15000001 1.427 150 0 0 0 0.050450001
2.9389999 0.149 1.437 150 0 0 0 0.05046
2.9389999 0.147 1.447 150 0 0 0 0.050469998
2.941 0.146 1.457 150 0 0 0 0.050480001
2.938 0.145 1.466 150 0 0 0 0.050489999
2.9419999 0.14399999 1.477 150 0 0 0 0.050500002
2.9419999 0.142 1.487 150 0 0 0 0.05051
2.941 0.141 1.4960001 150 0 0 0 0.050519999
2.947 0.14 1.5089999 150 0 0 0 0.050530002
2.9430001 0.138 1.516 150 0 0 0 0.05054
2.9449999 0.13699999 1.527 150 0 0 0 0.050549999
2.9449999 0.13500001 1.536 150 0 0 0 0.050560001
2.941 0.133 1.544 150 0 0 0 0.05057
2.9419999 0.132 1.554 150 0 0 0 0.050579999
2.9389999 0.13 1.562 150 0 0 0 0.050590001
2.944 0.12800001 1.574 150 0 0 0 0.0506
2.944 0.127 1.5829999 150 0 0 0 0.050609998
2.9430001 0.125 1.592 150 0 0 0 0.050620001
2.944 0.123 1.602 150 0 0 0 0.050629999
2.947 0.121 1.613 150 0 0 0 0.050639998
2.9449999 0.119 1.6210001 150 0 0 0 0.050650001
2.947 0.117 1.631 150 0 0 0 0.050659999
2.9430001 0.115 1.638 150 0 0 0 0.050670002
2.9449999 0.113 1.648 150 0 0 0 0.05068
2.938 0.111 1.654 150 0 0 0 0.050689999
2.911 0.107 1.647 150 0 0 0 0.050700001
2.891 0.104 1.6440001 150 0 0 0 0.05071
2.8759999 0.102 1.645 150 0 0 0 0.050719999
2.869 0.098999999 1.65 150 0 0 0 0.050730001
2.8759999 0.097000003 1.6619999 150 0 0 0 0.05074
2.8729999 0.094999999 1.669 150 0 0 0 0.050749999
2.8610001 0.092 1.67 150 0 0 0 0.050760001
2.8469999 0.089000002 1.67 121 0 0 0 0.05077
2.8299999 0.086000003 1.669 114 0 0 0 0.050779998
2.819 0.082999997 1.67 112 0 0 0 0.050790001
2.8050001 0.079999998 1.67 115 0 0 0 0.050799999
2.7909999 0.078000002 1.67 101 0 0 0 0.050810002
2.776 0.074000001 1.668 101 0 0 0 0.05082
2.763 0.071999997 1.668 105 0 0 0 0.050829999
2.7539999 0.068999998 1.67 112 0 0 0 0.050840002
2.737 0.066 1.6670001 113 0 0 0 0.05085
2.7249999 0.063000001 1.6670001 114 0 0 0 0.050859999
2.714 0.059999999 1.668 115 0 0 0 0.050870001
2.697 0.057 1.665 111 0 0 0 0.05088
2.6860001 0.054000001 1.665 111 0 0 0 0.050889999
2.675 0.050999999 1.665 116 0 0 0 0.050900001
2.664 0.048 1.665 127 0 0 0 0.05091
2.655 0.045000002 1.666 136 0 0 0 0.050919998
2.641 0.041999999 1.664 126 0 0 0 0.050930001
2.631 0.039000001 1.664 117 0 0 0 0.05094
2.625 0.035 1.6670001 130 0 0 0 0.050949998
2.612 0.033 1.665 130 0 0 0 0.050960001
2.602 0.028999999 1.665 138 0 0 0 0.050969999
2.5929999 0.026000001 1.665 137 0 0 0 0.050980002
2.582 0.023 1.664 130 0 0 0 0.05099
2.5680001 0.02 1.661 133 0 0 0 0.050999999
2.5639999 0.017000001 1.664 131 0 0 0 0.051010001
2.5550001 0.014 1.664 139 0 0 0 0.05102
2.552 0.011 1.6670001 137 0 0 0 0.051029999
2.54 0.0080000004 1.664 141 0 0 0 0.051040001
2.527 0.0040000002 1.661 127 0 0 0 0.05105
2.5209999 0.001 1.663 138 0 0 0 0.051059999
2.516 -0.001 1.664 145 0 0 0 0.051070001
2.507 -0.0040000002 1.663 137 0 0 0 0.05108
2.497 -0.0070000002 1.661 138 0 0 0 0.051089998
2.4920001 -0.011 1.663 150 0 0 0 0.051100001
2.484 -0.014 1.6619999 139 0 0 0 0.051109999
2.4749999 -0.017000001 1.66 142 0 0 0 0.051120002
2.4719999 -0.02 1.663 150 0 0 0 0.051130001
2.4649999 -0.023 1.6619999 140 0 0 0 0.051139999
2.46 -0.026000001 1.663 144 0 0 0 0.051150002
2.454 -0.029999999 1.663 150 0 0 0 0.05116
2.4460001 -0.033 1.661 148 0 0 0 0.051169999
2.4400001 -0.035999998 1.661 146 0 0 0 0.051180001
2.4349999 -0.039000001 1.661 149 0 0 0 0.05119
2.434 -0.043000001 1.664 146 0 0 0 0.051199999
2.4289999 -0.046 1.664 139 0 0 0 0.051210001
2.421 -0.048999999 1.6619999 145 0 0 0 0.05122
2.418 -0.052999999 1.663 142 0 0 0 0.051229998
2.411 -0.056000002 1.661 139 0 0 0 0.051240001
2.4100001 -0.059 1.663 142 0 0 0 0.05125
2.4059999 -0.061999999 1.663 130 0 0 0 0.051259998
2.405 -0.066 1.664 140 0 0 0 0.051270001
2.395 -0.068999998 1.66 140 0 0 0 0.051279999
2.3970001 -0.071999997 1.664 138 0 0 0 0.051290002
2.3929999 -0.075999998 1.663 133 0 0 0 0.0513
2.392 -0.079000004 1.665 136 0 0 0 0.051309999
2.388 -0.082000002 1.664 125 0 0 0 0.051320001
2.3900001 -0.086000003 1.6670001 133 0 0 0 0.05133
2.3829999 -0.089000002 1.664 138 0 0 0 0.051339999
2.3770001 -0.092 1.661 132 0 0 0 0.051350001
2.381 -0.096000001 1.666 144 0 0 0 0.05136
2.3710001 -0.098999999 1.66 139 0 0 0 0.051369999
2.3729999 -0.102 1.6619999 149 0 0 0 0.051380001
2.3699999 -0.106 1.661 149 0 0 0 0.05139
2.372 -0.11 1.664 150 0 0 0 0.051399998
2.369 -0.113 1.6619999 141 0 0 0 0.051410001
2.369 -0.116 1.663 146 0 0 0 0.051419999
2.368 -0.12 1.663 150 0 0 0 0.051430002
2.368 -0.123 1.663 145 0 0 0 0.051440001
2.368 -0.126 1.663 144 0 0 0 0.051449999
2.3699999 -0.13 1.665 148 0 0 0 0.051460002
2.3670001 -0.133 1.663 149 0 0 0 0.05147
2.3670001 -0.13600001 1.663 144 0 0 0 0.051479999
2.3670001 -0.14 1.663 149 0 0 0 0.051490001
2.3670001 -0.14300001 1.6619999 146 0 0 0 0.0515
2.372 -0.147 1.665 136 0 0 0 0.051509999
2.3740001 -0.15000001 1.666 140 0 0 0 0.051520001
2.372 -0.153 1.664 132 0 0 0 0.05153
2.375 -0.15700001 1.665 137 0 0 0 0.051539999
2.3770001 -0.16 1.665 132 0 0 0 0.051550001
2.3800001 -0.164 1.666 129 0 0 0 0.05156
2.378 -0.167 1.664 130 0 0 0 0.051569998
2.3829999 -0.17 1.665 132 0 0 0 0.051580001
2.3840001 -0.17399999 1.664 132 0 0 0 0.051589999
2.388 -0.177 1.665 127 0 0 0 0.051600002
2.3900001 -0.18099999 1.665 135 0 0 0 0.05161
2.392 -0.184 1.664 128 0 0 0 0.051619999
2.3970001 -0.18700001 1.666 133 0 0 0 0.051630002
2.3989999 -0.191 1.665 138 0 0 0 0.05164
2.405 -0.19400001 1.6670001 137 0 0 0 0.051649999
2.4070001 -0.198 1.666 128 0 0 0 0.051660001
2.411 -0.20100001 1.666 124 0 0 0 0.05167
2.4130001 -0.204 1.664 112 0 0 0 0.051679999
2.4170001 -0.207 1.664 108 0 0 0 0.051690001
2.4200001 -0.211 1.663 116 0 0 0 0.0517
2.428 -0.214 1.666 118 0 0 0 0.051709998
2.4319999 -0.21799999 1.665 120 0 0 0 0.051720001
2.437 -0.221 1.665 127 0 0 0 0.051729999
2.441 -0.22400001 1.664 122 0 0 0 0.051739998
2.4489999 -0.228 1.666 121 0 0 0 0.051750001
2.4530001 -0.23100001 1.665 120 0 0 0 0.051759999
2.464 -0.235 1.669 126 0 0 0 0.051770002
2.4660001 -0.23800001 1.666 119 0 0 0 0.05178
2.474 -0.241 1.6670001 113 0 0 0 0.051789999
2.48 -0.245 1.6670001 114 0 0 0 0.051800001
2.4860001 -0.248 1.6670001 105 0 0 0 0.05181
2.4920001 -0.25099999 1.666 102 0 0 0 0.051819999
2.5050001 -0.255 1.67 96 0 0 0 0.051830001
2.5079999 -0.25799999 1.6670001 95 0 0 0 0.05184
2.5150001 -0.26100001 1.6670001 93 0 0 0 0.051849999
2.529 -0.26499999 1.671 100 0 0 0 0.051860001
2.5369999 -0.26899999 1.6720001 96 0 0 0 0.05187
2.5450001 -0.27200001 1.6720001 99 0 0 0 0.051879998
2.549 -0.27500001 1.669 91 0 0 0 0.051890001
2.562 -0.27900001 1.6720001 87 0 0 0 0.051899999
2.573 -0.28200001 1.673 96 0 0 0 0.051910002
2.5780001 -0.285 1.671 89 0 0 0 0.05192
2.5880001 -0.28799999 1.671 93 0 0 0 0.051929999
2.595 -0.29100001 1.67 91 0 0 0 0.051940002
2.609 -0.29499999 1.673 87 0 0 0 0.05195
2.619 -0.29800001 1.673 86 0 0 0 0.051959999
2.628 -0.301 1.673 84 0 0 0 0.051970001
2.641 -0.30500001 1.675 87 0 0 0 0.05198
2.6470001 -0.308 1.6720001 86 0 0 0 0.051989999
2.6630001 -0.31099999 1.675 86 0 0 0 0.052000001
2.6730001 -0.315 1.675 87 0 0 0 0.05201
2.6849999 -0.31799999 1.676 90 0 0 0 0.052019998
2.6930001 -0.32100001 1.674 88 0 0 0 0.052030001
2.7049999 -0.324 1.674 84 0 0 0 0.05204
2.721 -0.32800001 1.676 84 0 0 0 0.052049998
2.7349999 -0.331 1.678 84 0 0 0 0.052060001
2.744 -0.33399999 1.676 85 0 0 0 0.052069999
2.76 -0.33700001 1.679 81 0 0 0 0.052080002
2.7750001 -0.34099999 1.6799999 84 0 0 0 0.05209
2.786 -0.34400001 1.678 85 0 0 0 0.052099999
2.7980001 -0.347 1.678 84 0 0 0 0.052110001
2.8080001 -0.34900001 1.676 81 0 0 0 0.05212
2.8269999 -0.35299999 1.6799999 84 0 0 0 0.052129999
2.8440001 -0.35699999 1.681 86 0 0 0 0.052140001
2.852 -0.359 1.678 83 0 0 0 0.05215
2.8710001 -0.36300001 1.681 84 0 0 0 0.052159999
2.8900001 -0.366 1.683 83 0 0 0 0.052170001
2.902 -0.36899999 1.682 83 0 0 0 0.05218
2.918 -0.37200001 1.683 83 0 0 0 0.052189998
2.9349999 -0.37599999 1.683 80 0 0 0 0.052200001
2.9519999 -0.37900001 1.684 87 0 0 0 0.052209999
2.973 -0.38299999 1.687 94 0 0 0 0.052220002
2.984 -0.38499999 1.684 150 0 0 0 0.05223
2.9920001 -0.38699999 1.6799999 150 0 0 0 0.052239999
2.9879999 -0.38699999 1.668 150 0 0 0 0.052250002
2.9890001 -0.38800001 1.659 150 0 0 0 0.05226
3.006 -0.391 1.659 150 0 0 0 0.052269999
3.033 -0.39500001 1.665 150 0 0 0 0.052280001
3.056 -0.39899999 1.668 150 0 0 0 0.05229
3.0599999 -0.40000001 1.66 150 0 0 0 0.052299999
3.0639999 -0.40099999 1.653 150 0 0 0 0.052310001
3.0680001 -0.40200001 1.645 150 0 0 0 0.05232
3.0680001 -0.40200001 1.635 150 0 0 0 0.052329998
3.069 -0.403 1.626 150 0 0 0 0.052340001
3.066 -0.403 1.614 150 0 0 0 0.05235
3.066 -0.403 1.605 150 0 0 0 0.052359998
3.066 -0.403 1.595 150 0 0 0 0.052370001
3.069 -0.40400001 1.586 150 0 0 0 0.052379999
3.0680001 -0.40400001 1.576 150 0 0 0 0.052390002
3.066 -0.403 1.5650001 150 0 0 0 0.0524
3.0669999 -0.40400001 1.5549999 150 0 0 0 0.052409999
3.0680001 -0.40400001 1.546 150 0 0 0 0.052420001
3.069 -0.40400001 1.536 150 0 0 0 0.05243
3.0669999 -0.403 1.525 150 0 0 0 0.052439999
3.0710001 -0.40400001 1.517 150 0 0 0 0.052450001
3.0710001 -0.403 1.507 150 0 0 0 0.05246
3.0650001 -0.40200001 1.493 150 0 0 0 0.052469999
3.0669999 -0.40200001 1.484 150 0 0 0 0.052480001
3.0639999 -0.40099999 1.473 150 0 0 0 0.05249
3.0680001 -0.40200001 1.464 150 0 0 0 0.052499998
3.0680001 -0.40099999 1.454 150 0 0 0 0.052510001
3.066 -0.40000001 1.443 150 0 0 0 0.052519999
3.0680001 -0.40000001 1.433 150 0 0 0 0.052530002
3.0639999 -0.39899999 1.421 150 0 0 0 0.052540001
3.066 -0.398 1.4119999 150 0 0 0 0.052549999
3.0639999 -0.39700001 1.4 150 0 0 0 0.052560002
3.063 -0.39700001 1.39 150 0 0 0 0.05257
3.0599999 -0.39500001 1.378 150 0 0 0 0.052579999
3.059 -0.39399999 1.367 150 0 0 0 0.052590001
3.062 -0.39399999 1.358 150 0 0 0 0.0526
3.0639999 -0.39300001 1.349 150 0 0 0 0.052609999
3.063 -0.39199999 1.3380001 150 0 0 0 0.052620001
3.062 -0.391 1.327 150 0 0 0 0.05263
3.0610001 -0.38999999 1.316 150 0 0 0 0.052639998
3.062 -0.389 1.306 150 0 0 0 0.052650001
3.0580001 -0.38699999 1.294 150 0 0 0 0.05266
3.0599999 -0.38600001 1.285 150 0 0 0 0.052669998
3.059 -0.38499999 1.274 150 0 0 0 0.052680001
3.066 -0.38499999 1.267 150 0 0 0 0.052689999
3.0610001 -0.38299999 1.2539999 150 0 0 0 0.052700002
3.0610001 -0.38100001 1.244 150 0 0 0 0.05271
3.0610001 -0.38 1.234 150 0 0 0 0.052719999
3.0650001 -0.37900001 1.225 150 0 0 0 0.052730002
3.0610001 -0.377 1.2130001 150 0 0 0 0.05274
3.0650001 -0.37599999 1.204 150 0 0 0 0.052749999
3.0569999 -0.37400001 1.191 150 0 0 0 0.052760001
3.0599999 -0.37200001 1.182 150 0 0 0 0.05277
3.0599999 -0.37099999 1.171 150 0 0 0 0.052779999
3.059 -0.36899999 1.16 150 0 0 0 0.052790001
3.059 -0.36700001 1.15 150 0 0 0 0.0528
3.0599999 -0.366 1.14 150 0 0 0 0.052809998
3.052 -0.36300001 1.127 150 0 0 0 0.052820001
3.0539999 -0.36199999 1.117 150 0 0 0 0.052829999
3.056 -0.36000001 1.108 150 0 0 0 0.052839998
3.056 -0.35800001 1.097 150 0 0 0 0.052850001
3.059 -0.35699999 1.0880001 150 0 0 0 0.052859999
3.0550001 -0.35499999 1.077 150 0 0 0 0.052870002
3.056 -0.35299999 1.067 150 0 0 0 0.05288
3.052 -0.34999999 1.0549999 150 0 0 0 0.052889999
3.049 -0.34799999 1.044 150 0 0 0 0.052900001
3.052 -0.34599999 1.035 150 0 0 0 0.05291
3.0550001 -0.345 1.026 150 0 0 0 0.052919999
3.0480001 -0.34200001 1.013 150 0 0 0 0.052930001
3.0510001 -0.34 1.0039999 150 0 0 0 0.05294
3.0510001 -0.338 0.99400002 150 0 0 0 0.052949999
3.05 -0.336 0.98299998 150 0 0 0 0.052960001
3.0480001 -0.333 0.972 150 0 0 0 0.05297
3.049 -0.331 0.963 150 0 0 0 0.052979998
3.0439999 -0.32800001 0.95099998 150 0 0 0 0.052990001
3.049 -0.32699999 0.94199997 150 0 0 0 0.052999999
3.0450001 -0.324 0.93099999 150 0 0 0 0.053010002
3.043 -0.32100001 0.92000002 150 0 0 0 0.05302
3.0450001 -0.31900001 0.91100001 150 0 0 0 0.053029999
3.043 -0.317 0.89999998 150 0 0 0 0.053040002
3.043 -0.31400001 0.88999999 150 0 0 0 0.05305
3.039 -0.31099999 0.87900001 150 0 0 0 0.053059999
3.0420001 -0.30899999 0.87 150 0 0 0 0.053070001
3.04 -0.30700001 0.86000001 150 0 0 0 0.05308
3.036 -0.30399999 0.84799999 150 0 0 0 0.053089999
3.0350001 -0.301 0.838 150 0 0 0 0.053100001
3.0339999 -0.29899999 0.82800001 150 0 0 0 0.05311
3.0350001 -0.296 0.81800002 150 0 0 0 0.053119998
3.0380001 -0.294 0.80900002 150 0 0 0 0.053130001
3.04 -0.29100001 0.80000001 150 0 0 0 0.05314
3.0420001 -0.289 0.79000002 150 0 0 0 0.053149998
3.033 -0.285 0.778 150 0 0 0 0.053160001
3.0339999 -0.28299999 0.76899999 150 0 0 0 0.053169999
3.0320001 -0.28 0.75800002 150 0 0 0 0.053180002
3.036 -0.27700001 0.75 150 0 0 0 0.05319
3.033 -0.27399999 0.73900002 150 0 0 0 0.053199999
3.0350001 -0.27200001 0.73000002 150 0 0 0 0.053210001
3.0280001 -0.26800001 0.71799999 150 0 0 0 0.05322
3.033 -0.266 0.70999998 150 0 0 0 0.053229999
3.033 -0.26300001 0.69999999 150 0 0 0 0.053240001
3.0309999 -0.25999999 0.69 150 0 0 0 0.05325
3.027 -0.257 0.67900002 150 0 0 0 0.053259999
3.03 -0.25400001 0.67000002 150 0 0 0 0.053270001
3.026 -0.25099999 0.66000003 150 0 0 0 0.05328
3.026 -0.248 0.64999998 150 0 0 0 0.053289998
3.026 -0.245 0.63999999 150 0 0 0 0.053300001
3.03 -0.243 0.63099998 150 0 0 0 0.053309999
3.027 -0.23899999 0.62099999 150 0 0 0 0.053320002
3.0220001 -0.236 0.611 150 0 0 0 0.05333
3.023 -0.233 0.60100001 150 0 0 0 0.053339999
3.0190001 -0.23 0.59100002 150 0 0 0 0.053350002
3.0190001 -0.227 0.58099997 150 0 0 0 0.05336
3.017 -0.223 0.57099998 150 0 0 0 0.053369999
3.013 -0.22 0.56099999 150 0 0 0 0.053380001
3.0150001 -0.21699999 0.55199999 150 0 0 0 0.05339
3.0150001 -0.214 0.54299998 150 0 0 0 0.053399999
3.01 -0.211 0.53200001 150 0 0 0 0.053410001
3.007 -0.207 0.52200001 150 0 0 0 0.05342
3.0090001 -0.204 0.51300001 150 0 0 0 0.053429998
3.0090001 -0.20100001 0.50400001 150 0 0 0 0.053440001
3.0109999 -0.198 0.495 150 0 0 0 0.05345
3.0090001 -0.19499999 0.48500001 150 0 0 0 0.053459998
3.01 -0.191 0.47600001 150 0 0 0 0.053470001
3.01 -0.18799999 0.46599999 150 0 0 0 0.053479999
3.0090001 -0.185 0.45699999 150 0 0 0 0.053490002
3.0090001 -0.182 0.44800001 150 0 0 0 0.0535
3.0050001 -0.178 0.43799999 150 0 0 0 0.053509999
3.007 -0.175 0.42899999 150 0 0 0 0.053520001
3.0079999 -0.17200001 0.41999999 150 0 0 0 0.05353
3.0039999 -0.168 0.41 150 0 0 0 0.053539999
3.0050001 -0.16500001 0.40099999 150 0 0 0 0.053550001
3.007 -0.161 0.39199999 150 0 0 0 0.05356
3.0050001 -0.15800001 0.382 150 0 0 0 0.053569999
3.006 -0.155 0.373 150 0 0 0 0.053580001
3.0020001 -0.15099999 0.36300001 150 0 0 0 0.05359
2.9990001 -0.147 0.354 150 0 0 0 0.053599998
3 -0.14399999 0.345 150 0 0 0 0.053610001
2.9990001 -0.14 0.336 150 0 0 0 0.053619999
3.0009999 -0.13699999 0.32600001 150 0 0 0 0.053630002
3 -0.133 0.317 150 0 0 0 0.053640001
3.0020001 -0.13 0.308 150 0 0 0 0.053649999
3 -0.126 0.29899999 150 0 0 0 0.053660002
2.9960001 -0.123 0.289 150 0 0 0 0.05367
2.9960001 -0.119 0.28 150 0 0 0 0.053679999
2.9960001 -0.116 0.271 150 0 0 0 0.053690001
2.9979999 -0.112 0.26199999 150 0 0 0 0.0537
2.9990001 -0.108 0.25299999 150 0 0 0 0.053709999
2.993 -0.105 0.244 150 0 0 0 0.053720001
2.9960001 -0.101 0.235 150 0 0 0 0.05373
2.9960001 -0.097000003 0.226 150 0 0 0 0.053739998
2.9920001 -0.093999997 0.21699999 150 0 0 0 0.053750001
2.993 -0.090000004 0.208 150 0 0 0 0.05376
2.9920001 -0.086000003 0.199 150 0 0 0 0.053769998
2.9920001 -0.082999997 0.19 150 0 0 0 0.053780001
2.99 -0.079000004 0.18000001 150 0 0 0 0.053789999
2.9909999 -0.075000003 0.17200001 151 0 0 0 0.053800002
2.9890001 -0.071000002 0.163 150 0 0 0 0.05381
2.99 -0.068000004 0.154 151 0 0 0 0.053819999
2.9849999 -0.064000003 0.14399999 151 0 0 0 0.053830002
2.9849999 -0.059999999 0.13500001 151 0 0 0 0.05384
2.9849999 -0.056000002 0.127 151 0 0 0 0.053849999
2.984 -0.052000001 0.118 151 0 0 0 0.053860001
2.9890001 -0.048999999 0.109 150 0 0 0 0.05387
2.994 -0.045000002 0.1 150 0 0 0 0.053879999
3.0179999 -0.041000001 0.092 150 0 0 0 0.053890001
3.0239999 -0.037 0.082999997 151 0 0 0 0.0539
3.033 -0.034000002 0.075000003 151 0 0 0 0.053909998
3.0409999 -0.029999999 0.066 151 0 0 0 0.053920001
3.0469999 -0.026000001 0.057 152 0 0 0 0.053929999
3.0599999 -0.022 0.048 152 0 0 0 0.053939998
3.1210001 -0.017999999 0.039999999 150 0 0 0 0.053950001
3.2490001 -0.015 0.032000002 150 0 0 0 0.053959999
3.3180001 -0.011 0.023 91 0 0 0 0.053970002
3.3499999 -0.0060000001 0.013 44 0 0 0 0.05398
3.3959999 -0.0020000001 0.003 47 0 0 0 0.053989999
3.5 0.0020000001 -0.0060000001 61 0 0 0 0.054000001
3.5179999 0.0070000002 -0.016000001 73 0 0 0 0.05401
3.5239999 0.011 -0.027000001 71 0 0 0 0.054019999
3.526 0.016000001 -0.037 55 0 0 0 0.054030001
3.5179999 0.021 -0.046999998 38 0 0 0 0.05404
3.529 0.026000001 -0.057999998 24 0 0 0 0.054049999
3.312 0.028999999 -0.064000003 12 0 0 0 0.054060001
3.3150001 0.034000002 -0.074000001 38 0 0 0 0.05407
3.5190001 0.039999999 -0.089000002 151 0 0 0 0.054079998
3.8180001 0.048999999 -0.107 151 0 0 0 0.054090001
4.448 0.064000003 -0.138 150 0 0 0 0.054099999
4.447 0.07 -0.15099999 150 0 0 0 0.054110002
4.441 0.075999998 -0.164 150 0 0 0 0.05412
4.447 0.082000002 -0.177 150 0 0 0 0.054129999
3.793 0.075999998 -0.162 150 0 0 0 0.054140002
3.4630001 0.074000001 -0.15800001 80 0 0 0 0.05415
3.448 0.079000004 -0.167 150 0 0 0 0.054159999
3.45 0.082999997 -0.177 141 0 0 0 0.054170001
3.4460001 0.088 -0.18700001 109 0 0 0 0.05418
3.437 0.093000002 -0.197 120 0 0 0 0.054189999
3.437 0.097999997 -0.207 150 0 0 0 0.054200001
3.4289999 0.103 -0.21600001 150 0 0 0 0.05421
3.428 0.108 -0.226 150 0 0 0 0.054219998
3.4219999 0.113 -0.235 150 0 0 0 0.054230001
3.4230001 0.118 -0.24600001 150 0 0 0 0.05424
3.4330001 0.123 -0.25600001 147 0 0 0 0.054249998
3.434 0.12800001 -0.266 150 0 0 0 0.054260001
3.4360001 0.133 -0.27599999 150 0 0 0 0.054269999
3.4349999 0.139 -0.28600001 150 0 0 0 0.054280002
3.4349999 0.14399999 -0.296 150 0 0 0 0.05429
3.4360001 0.149 -0.30599999 150 0 0 0 0.054299999
3.4300001 0.154 -0.315 131 0 0 0 0.054310001
3.4189999 0.15899999 -0.324 105 0 0 0 0.05432
3.414 0.164 -0.33399999 123 0 0 0 0.054329999
3.4059999 0.168 -0.34299999 131 0 0 0 0.054340001
3.3629999 0.171 -0.34799999 150 0 0 0 0.05435
3.2980001 0.17299999 -0.35100001 150 0 0 0 0.054359999
3.2850001 0.178 -0.359 150 0 0 0 0.054370001
3.3340001 0.185 -0.37400001 150 0 0 0 0.05438
3.391 0.19400001 -0.38999999 150 0 0 0 0.054389998
3.3940001 0.199 -0.40000001 150 0 0 0 0.054400001
3.3900001 0.204 -0.40900001 150 0 0 0 0.054409999
3.3900001 0.20999999 -0.419 150 0 0 0 0.054420002
3.3840001 0.215 -0.428 150 0 0 0 0.05443
3.3840001 0.22 -0.43799999 141 0 0 0 0.054439999
3.3740001 0.22499999 -0.44600001 114 0 0 0 0.054450002
3.3740001 0.23 -0.456 132 0 0 0 0.05446
3.365 0.235 -0.46399999 150 0 0 0 0.054469999
3.3640001 0.241 -0.47400001 150 0 0 0 0.054480001
3.3629999 0.24600001 -0.48300001 150 0 0 0 0.05449
3.3659999 0.252 -0.493 150 0 0 0 0.054499999
3.359 0.257 -0.50199997 150 0 0 0 0.054510001
3.3629999 0.26199999 -0.51200002 150 0 0 0 0.05452
3.3559999 0.26699999 -0.51999998 150 0 0 0 0.054529998
3.3599999 0.273 -0.53100002 150 0 0 0 0.054540001
3.3570001 0.27900001 -0.54000002 150 0 0 0 0.05455
3.355 0.28400001 -0.54900002 150 0 0 0 0.054559998
3.3540001 0.28999999 -0.55800003 150 0 0 0 0.054570001
3.355 0.29499999 -0.56800002 150 0 0 0 0.054579999
3.355 0.301 -0.57800001 150 0 0 0 0.054590002
3.3529999 0.30700001 -0.58700001 150 0 0 0 0.0546
3.3510001 0.31200001 -0.59600002 150 0 0 0 0.054609999
3.3429999 0.317 -0.60399997 150 0 0 0 0.054620001
