# .PCD v0.7 - Point Cloud Data file format
VERSION 0.7
FIELDS x y z intensity normal_x normal_y normal_z curvature
SIZE 4 4 4 4 4 4 4 4
TYPE F F F F F F F F
COUNT 1 1 1 1 1 1 1 1
WIDTH 1047
HEIGHT 1
VIEWPOINT 0 0 0 1 0 0 0
POINTS 1047
DATA ascii
2.612 -0.183 1.677 87 0 0 0 0.02833
2.6240001 -0.186 1.678 90 0 0 0 0.028340001
2.6340001 -0.189 1.679 85 0 0 0 0.028349999
2.645 -0.193 1.679 87 0 0 0 0.02836
2.652 -0.19499999 1.677 87 0 0 0 0.02837
2.665 -0.199 1.678 85 0 0 0 0.028379999
2.6800001 -0.20200001 1.681 86 0 0 0 0.02839
2.687 -0.205 1.679 84 0 0 0 0.0284
2.6949999 -0.208 1.677 87 0 0 0 0.028410001
2.714 -0.211 1.681 86 0 0 0 0.028419999
2.7279999 -0.215 1.683 86 0 0 0 0.02843
2.7409999 -0.21799999 1.684 88 0 0 0 0.02844
2.75 -0.221 1.682 85 0 0 0 0.028449999
2.7650001 -0.22400001 1.683 84 0 0 0 0.02846
2.779 -0.227 1.684 88 0 0 0 0.02847
2.7950001 -0.23100001 1.686 99 0 0 0 0.028480001
2.803 -0.233 1.682 150 0 0 0 0.028489999
2.8080001 -0.235 1.678 150 0 0 0 0.0285
2.816 -0.23800001 1.674 150 0 0 0 0.028510001
2.8069999 -0.23899999 1.661 150 0 0 0 0.028519999
2.813 -0.241 1.656 150 0 0 0 0.02853
2.832 -0.245 1.659 150 0 0 0 0.02854
2.8599999 -0.249 1.6670001 150 0 0 0 0.028550001
2.8800001 -0.252 1.67 150 0 0 0 0.02856
2.8870001 -0.25400001 1.665 150 0 0 0 0.02857
2.885 -0.25600001 1.656 150 0 0 0 0.028580001
2.885 -0.257 1.647 150 0 0 0 0.028589999
2.8859999 -0.259 1.6390001 150 0 0 0 0.0286
2.881 -0.25999999 1.627 150 0 0 0 0.02861
2.8859999 -0.26100001 1.6210001 150 0 0 0 0.028620001
2.8859999 -0.26300001 1.612 150 0 0 0 0.02863
2.885 -0.264 1.602 150 0 0 0 0.02864
2.8870001 -0.26499999 1.594 150 0 0 0 0.028650001
2.8859999 -0.266 1.585 150 0 0 0 0.028659999
2.8840001 -0.26800001 1.575 150 0 0 0 0.02867
2.881 -0.26800001 1.564 150 0 0 0 0.02868
2.8870001 -0.27000001 1.558 150 0 0 0 0.028689999
2.8859999 -0.271 1.548 150 0 0 0 0.0287
2.8859999 -0.27200001 1.539 150 0 0 0 0.02871
2.8870001 -0.273 1.53 150 0 0 0 0.028720001
2.8859999 -0.273 1.52 150 0 0 0 0.028729999
2.8840001 -0.27399999 1.51 150 0 0 0 0.02874
2.8870001 -0.27500001 1.502 150 0 0 0 0.028750001
2.8859999 -0.27599999 1.492 150 0 0 0 0.028759999
2.8829999 -0.27599999 1.4809999 150 0 0 0 0.02877
2.885 -0.27700001 1.473 150 0 0 0 0.02878
2.881 -0.27700001 1.461 150 0 0 0 0.028790001
2.8840001 -0.278 1.4529999 150 0 0 0 0.0288
2.882 -0.278 1.443 150 0 0 0 0.02881
2.8859999 -0.27900001 1.4349999 150 0 0 0 0.028820001
2.8859999 -0.27900001 1.426 150 0 0 0 0.028829999
2.8870001 -0.28 1.4170001 150 0 0 0 0.02884
2.8889999 -0.28 1.408 150 0 0 0 0.02885
2.9070001 -0.28200001 1.406 124 0 0 0 0.028860001
2.9189999 -0.28299999 1.403 150 0 0 0 0.02887
2.9230001 -0.28400001 1.395 150 0 0 0 0.02888
2.941 -0.28600001 1.3940001 150 0 0 0 0.028890001
2.964 -0.28799999 1.3940001 150 0 0 0 0.028899999
3.0810001 -0.30000001 1.439 151 0 0 0 0.02891
3.2079999 -0.31200001 1.488 151 0 0 0 0.02892
3.8699999 -0.37599999 1.7819999 72 0 0 0 0.028929999
3.9089999 -0.38 1.786 74 0 0 0 0.02894
3.9360001 -0.38299999 1.785 71 0 0 0 0.02895
3.9690001 -0.38499999 1.7869999 73 0 0 0 0.028960001
4.0009999 -0.38800001 1.788 70 0 0 0 0.028969999
4.0359998 -0.391 1.79 71 0 0 0 0.02898
4.072 -0.39500001 1.7920001 73 0 0 0 0.02899
4.1059999 -0.39700001 1.793 74 0 0 0 0.028999999
4.1399999 -0.40000001 1.794 72 0 0 0 0.02901
4.178 -0.403 1.796 71 0 0 0 0.02902
4.211 -0.40599999 1.796 75 0 0 0 0.029030001
4.2509999 -0.40900001 1.798 73 0 0 0 0.029039999
4.2870002 -0.412 1.799 70 0 0 0 0.02905
4.3150001 -0.414 1.796 66 0 0 0 0.029060001
4.3520002 -0.41600001 1.796 59 0 0 0 0.029069999
4.3959999 -0.41999999 1.8 68 0 0 0 0.02908
4.4250002 -0.421 1.796 69 0 0 0 0.02909
4.461 -0.42399999 1.796 70 0 0 0 0.029100001
4.4949999 -0.426 1.794 71 0 0 0 0.02911
4.5320001 -0.428 1.793 72 0 0 0 0.02912
4.573 -0.43099999 1.794 73 0 0 0 0.029130001
4.6100001 -0.433 1.793 76 0 0 0 0.029139999
4.6409998 -0.435 1.79 83 0 0 0 0.02915
4.6570001 -0.435 1.78 76 0 0 0 0.02916
4.6789999 -0.435 1.772 30 0 0 0 0.029170001
4.5019999 -0.417 1.6900001 7 0 0 0 0.02918
4.2969999 -0.39700001 1.598 0 0 0 0 0.02919
4.2940001 -0.39500001 1.5829999 0 0 0 0 0.029200001
4.2969999 -0.39399999 1.569 0 0 0 0 0.029209999
0 0 0 0 0 0 0 0.02922
4.302 -0.391 1.5420001 0 0 0 0 0.02923
4.3189998 -0.391 1.533 0 0 0 0 0.029239999
4.3049998 -0.38800001 1.513 0 0 0 0 0.02925
4.3039999 -0.38600001 1.499 0 0 0 0 0.02926
4.2909999 -0.38299999 1.48 0 0 0 0 0.029270001
4.3200002 -0.384 1.475 0 0 0 0 0.029279999
4.3340001 -0.38299999 1.465 0 0 0 0 0.02929
0 0 0 0 0 0 0 0.029300001
4.3179998 -0.377 1.431 0 0 0 0 0.029309999
4.322 -0.37599999 1.418 0 0 0 0 0.02932
4.3200002 -0.373 1.402 0 0 0 0 0.02933
4.3070002 -0.37 1.3839999 0 0 0 0 0.029340001
4.3270001 -0.37 1.375 0 0 0 0 0.02935
4.3299999 -0.368 1.362 0 0 0 0 0.02936
4.3179998 -0.36399999 1.3430001 0 0 0 0 0.029370001
0 0 0 0 0 0 0 0.029379999
4.316 -0.36000001 1.314 0 0 0 0 0.02939
4.3429999 -0.36000001 1.308 0 0 0 0 0.0294
4.3499999 -0.35800001 1.295 0 0 0 0 0.029410001
3.5309999 -0.28799999 1.04 3 0 0 0 0.02942
3.5599999 -0.289 1.036 5 0 0 0 0.02943
3.539 -0.285 1.018 0 0 0 0 0.029440001
0 0 0 0 0 0 0 0.029449999
0 0 0 0 0 0 0 0.02946
4.348 -0.34200001 1.2079999 0 0 0 0 0.02947
4.3699999 -0.34099999 1.199 0 0 0 0 0.029479999
4.3540001 -0.33700001 1.181 0 0 0 0 0.02949
4.3829999 -0.33700001 1.174 0 0 0 0 0.0295
4.3559999 -0.33199999 1.152 0 0 0 0 0.029510001
4.3740001 -0.331 1.143 0 0 0 0 0.029519999
0.056000002 -0.0040000002 0.014 0 0 0 0 0.02953
0 0 0 0 0 0 0 0.02954
4.3940001 -0.32300001 1.105 0 0 0 0 0.029549999
4.3899999 -0.31999999 1.089 0 0 0 0 0.02956
4.3850002 -0.317 1.074 0 0 0 0 0.02957
4.4050002 -0.315 1.064 0 0 0 0 0.029580001
4.3959999 -0.31099999 1.0470001 0 0 0 0 0.029589999
4.388 -0.308 1.031 0 0 0 0 0.0296
0 0 0 0 0 0 0 0.029610001
4.3800001 -0.301 1.001 0 0 0 0 0.029619999
4.4109998 -0.30000001 0.99299997 0 0 0 0 0.02963
4.401 -0.296 0.977 0 0 0 0 0.02964
4.4029999 -0.29300001 0.963 0 0 0 0 0.029650001
4.4239998 -0.29100001 0.95300001 0 0 0 0 0.02966
4.4299998 -0.28799999 0.94 0 0 0 0 0.02967
0 0 0 0 0 0 0 0.029680001
0 0 0 0 0 0 0 0.029689999
4.4450002 -0.27900001 0.89999998 0 0 0 0 0.0297
4.4489999 -0.27500001 0.88700002 0 0 0 0 0.02971
4.4520001 -0.27200001 0.87300003 0 0 0 0 0.029720001
4.4250002 -0.26699999 0.85399997 0 0 0 0 0.02973
4.4460001 -0.26499999 0.84299999 0 0 0 0 0.02974
4.4439998 -0.26100001 0.829 0 0 0 0 0.029750001
0.056000002 -0.003 0.0099999998 0 0 0 0 0.029759999
4.4640002 -0.255 0.80400002 0 0 0 0 0.02977
4.441 -0.25 0.78500003 0 0 0 0 0.02978
4.4689999 -0.248 0.77600002 0 0 0 0 0.029789999
4.4780002 -0.244 0.76300001 0 0 0 0 0.0298
4.4660001 -0.23999999 0.74699998 0 0 0 0 0.02981
4.4790001 -0.237 0.73500001 0 0 0 0 0.029820001
0.07 -0.003 0.011 0 0 0 0 0.029829999
0 0 0 0 0 0 0 0.02984
4.487 -0.226 0.69300002 0 0 0 0 0.029850001
4.4910002 -0.222 0.68000001 0 0 0 0 0.029859999
4.4879999 -0.21799999 0.66500002 0 0 0 0 0.02987
4.4980001 -0.214 0.65200001 0 0 0 0 0.02988
4.5159998 -0.211 0.64099997 0 0 0 0 0.029890001
0 0 0 0 0 0 0 0.029899999
0 0 0 0 0 0 0 0.02991
4.4759998 -0.197 0.59299999 0 0 0 0 0.029920001
4.4650002 -0.193 0.57700002 41 0 0 0 0.029929999
4.4439998 -0.18799999 0.56 113 0 0 0 0.02994
4.4439998 -0.183 0.546 150 0 0 0 0.02995
4.4400001 -0.17900001 0.53200001 150 0 0 0 0.029960001
4.4499998 -0.175 0.51899999 150 0 0 0 0.02997
4.4629998 -0.17200001 0.50700003 95 0 0 0 0.02998
4.4829998 -0.168 0.495 34 0 0 0 0.029990001
4.5019999 -0.16500001 0.48300001 0 0 0 0 0.029999999
4.4980001 -0.16 0.46900001 0 0 0 0 0.03001
3.747 -0.13 0.37900001 7 0 0 0 0.03002
3.7260001 -0.125 0.36500001 35 0 0 0 0.030029999
3.704 -0.121 0.35100001 61 0 0 0 0.03004
3.694 -0.117 0.33899999 76 0 0 0 0.03005
3.691 -0.114 0.32699999 96 0 0 0 0.030060001
3.6900001 -0.11 0.31600001 101 0 0 0 0.030069999
3.6860001 -0.106 0.30399999 108 0 0 0 0.03008
3.684 -0.102 0.29300001 105 0 0 0 0.03009
3.6819999 -0.098999999 0.28099999 85 0 0 0 0.030099999
3.6789999 -0.094999999 0.26899999 79 0 0 0 0.03011
3.671 -0.090999998 0.257 75 0 0 0 0.03012
3.668 -0.086999997 0.24600001 87 0 0 0 0.030130001
3.6619999 -0.082999997 0.234 95 0 0 0 0.030139999
3.6630001 -0.079000004 0.223 102 0 0 0 0.03015
3.6589999 -0.075000003 0.212 136 0 0 0 0.030160001
3.654 -0.071999997 0.2 150 0 0 0 0.030169999
3.677 -0.068000004 0.19 150 0 0 0 0.03018
3.7049999 -0.064999998 0.18000001 150 0 0 0 0.03019
3.1930001 -0.052000001 0.145 151 0 0 0 0.030200001
3.059 -0.046999998 0.13 152 0 0 0 0.03021
3.0020001 -0.043000001 0.118 152 0 0 0 0.03022
2.9630001 -0.039000001 0.107 152 0 0 0 0.030230001
2.948 -0.035999998 0.097999997 152 0 0 0 0.030239999
2.9289999 -0.032000002 0.088 154 0 0 0 0.03025
2.9260001 -0.028999999 0.079000004 159 0 0 0 0.03026
2.9200001 -0.026000001 0.07 157 0 0 0 0.030270001
2.9289999 -0.023 0.061999999 154 0 0 0 0.03028
2.96 -0.02 0.052999999 152 0 0 0 0.03029
2.967 -0.016000001 0.044 151 0 0 0 0.030300001
2.97 -0.013 0.035 151 0 0 0 0.030309999
2.97 -0.0099999998 0.026000001 151 0 0 0 0.03032
2.971 -0.0070000002 0.017000001 151 0 0 0 0.03033
2.977 -0.003 0.0080000004 150 0 0 0 0.030339999
2.9809999 0 0 150 0 0 0 0.03035
3.0190001 0.003 -0.0089999996 54 0 0 0 0.03036
3.0829999 0.0060000001 -0.018999999 27 0 0 0 0.030370001
3.0420001 0.0099999998 -0.027000001 48 0 0 0 0.030379999
2.987 0.013 -0.035999998 97 0 0 0 0.03039
2.9330001 0.016000001 -0.044 150 0 0 0 0.030400001
2.915 0.018999999 -0.052999999 150 0 0 0 0.030409999
2.918 0.023 -0.061999999 150 0 0 0 0.03042
2.914 0.026000001 -0.07 150 0 0 0 0.03043
2.9189999 0.029999999 -0.079000004 150 0 0 0 0.030440001
2.9189999 0.033 -0.088 150 0 0 0 0.030449999
2.921 0.037 -0.097000003 150 0 0 0 0.03046
2.9230001 0.039999999 -0.106 127 0 0 0 0.030470001
2.9330001 0.044 -0.115 28 0 0 0 0.030479999
2.9690001 0.048 -0.125 13 0 0 0 0.03049
3.0510001 0.052999999 -0.138 4 0 0 0 0.0305
3.056 0.057 -0.147 4 0 0 0 0.030510001
3.062 0.061000001 -0.15700001 5 0 0 0 0.03052
3.076 0.064999998 -0.167 4 0 0 0 0.03053
3.075 0.068000004 -0.176 3 0 0 0 0.030540001
3.0699999 0.071999997 -0.185 3 0 0 0 0.030549999
3.0769999 0.075999998 -0.19499999 3 0 0 0 0.03056
3.0769999 0.079999998 -0.204 3 0 0 0 0.03057
3.1010001 0.085000001 -0.215 3 0 0 0 0.030579999
3.1210001 0.089000002 -0.22499999 3 0 0 0 0.03059
3.1359999 0.093000002 -0.236 3 0 0 0 0.0306
3.234 0.1 -0.25299999 2 0 0 0 0.030610001
3.217 0.104 -0.26100001 2 0 0 0 0.030619999
3.2160001 0.108 -0.271 2 0 0 0 0.03063
3.198 0.112 -0.27900001 2 0 0 0 0.03064
3.2130001 0.116 -0.28999999 2 0 0 0 0.030649999
3.2190001 0.121 -0.30000001 2 0 0 0 0.03066
3.2179999 0.125 -0.30899999 2 0 0 0 0.03067
3.073 0.123 -0.30500001 4 0 0 0 0.030680001
2.9619999 0.123 -0.30199999 20 0 0 0 0.030689999
2.928 0.125 -0.308 44 0 0 0 0.0307
2.9130001 0.12800001 -0.315 114 0 0 0 0.030710001
2.862 0.13 -0.31799999 150 0 0 0 0.030719999
2.723 0.127 -0.31 150 0 0 0 0.03073
2.5680001 0.124 -0.30000001 40 0 0 0 0.03074
2.483 0.123 -0.29800001 27 0 0 0 0.030750001
2.4349999 0.124 -0.29899999 28 0 0 0 0.03076
2.3889999 0.125 -0.301 27 0 0 0 0.03077
2.3469999 0.126 -0.30199999 29 0 0 0 0.030780001
2.2980001 0.126 -0.303 29 0 0 0 0.030789999
2.266 0.12800001 -0.30500001 28 0 0 0 0.0308
2.2249999 0.12800001 -0.30599999 28 0 0 0 0.03081
2.1889999 0.12899999 -0.308 28 0 0 0 0.030820001
2.1530001 0.13 -0.30899999 28 0 0 0 0.03083
2.1129999 0.131 -0.31 26 0 0 0 0.03084
2.076 0.132 -0.31099999 28 0 0 0 0.030850001
2.0450001 0.132 -0.31200001 30 0 0 0 0.030859999
2.0139999 0.133 -0.31299999 29 0 0 0 0.03087
1.984 0.134 -0.31400001 29 0 0 0 0.03088
1.947 0.13500001 -0.31400001 26 0 0 0 0.030889999
1.928 0.13600001 -0.317 12 0 0 0 0.0309
1.891 0.13600001 -0.31600001 12 0 0 0 0.03091
1.867 0.13699999 -0.31799999 12 0 0 0 0.030920001
1.835 0.138 -0.31799999 12 0 0 0 0.030929999
1.809 0.138 -0.31900001 11 0 0 0 0.03094
1.786 0.139 -0.31999999 10 0 0 0 0.030950001
1.768 0.14 -0.322 10 0 0 0 0.030959999
1.745 0.141 -0.32300001 10 0 0 0 0.03097
1.726 0.142 -0.32499999 9 0 0 0 0.03098
1.7130001 0.14399999 -0.32699999 10 0 0 0 0.030990001
1.691 0.145 -0.32800001 10 0 0 0 0.030999999
1.643 0.14300001 -0.32300001 9 0 0 0 0.03101
1.596 0.141 -0.31900001 9 0 0 0 0.031020001
1.568 0.141 -0.31799999 9 0 0 0 0.031029999
1.553 0.142 -0.31900001 8 0 0 0 0.03104
1.53 0.14300001 -0.31900001 8 0 0 0 0.03105
1.511 0.14300001 -0.31999999 8 0 0 0 0.031060001
1.494 0.14399999 -0.31999999 8 0 0 0 0.03107
1.477 0.145 -0.32100001 8 0 0 0 0.03108
1.461 0.145 -0.322 8 0 0 0 0.031090001
1.442 0.146 -0.322 8 0 0 0 0.031099999
1.428 0.147 -0.32300001 8 0 0 0 0.03111
1.4119999 0.147 -0.324 8 0 0 0 0.03112
1.401 0.149 -0.32499999 7 0 0 0 0.031129999
1.383 0.149 -0.32499999 7 0 0 0 0.03114
1.3609999 0.149 -0.324 7 0 0 0 0.03115
1.35 0.15000001 -0.32499999 7 0 0 0 0.031160001
1.3329999 0.15000001 -0.32499999 7 0 0 0 0.031169999
1.318 0.15099999 -0.32499999 7 0 0 0 0.03118
1.306 0.15099999 -0.32600001 7 0 0 0 0.03119
1.296 0.152 -0.32699999 8 0 0 0 0.031199999
1.277 0.152 -0.32600001 7 0 0 0 0.03121
1.267 0.153 -0.32699999 7 0 0 0 0.03122
1.2539999 0.154 -0.32699999 7 0 0 0 0.031230001
1.242 0.154 -0.32800001 7 0 0 0 0.031239999
1.2359999 0.156 -0.33000001 7 0 0 0 0.03125
1.211 0.155 -0.32699999 6 0 0 0 0.031259999
1.202 0.156 -0.32800001 6 0 0 0 0.031270001
1.192 0.15700001 -0.329 7 0 0 0 0.03128
1.178 0.15700001 -0.32800001 6 0 0 0 0.031289998
1.17 0.15800001 -0.329 7 0 0 0 0.031300001
1.149 0.15700001 -0.32699999 6 0 0 0 0.03131
1.1440001 0.15800001 -0.32800001 6 0 0 0 0.031319998
1.132 0.15899999 -0.32800001 6 0 0 0 0.031330001
1.123 0.16 -0.329 6 0 0 0 0.031339999
1.117 0.161 -0.33000001 6 0 0 0 0.031350002
1.103 0.161 -0.329 6 0 0 0 0.03136
1.095 0.162 -0.33000001 7 0 0 0 0.031369999
1.08 0.161 -0.329 7 0 0 0 0.031380001
1.069 0.162 -0.32800001 7 0 0 0 0.03139
1.067 0.163 -0.331 7 0 0 0 0.031399999
1.056 0.164 -0.33000001 7 0 0 0 0.031410001
1.043 0.164 -0.329 6 0 0 0 0.03142
1.038 0.16500001 -0.331 6 0 0 0 0.031429999
1.034 0.16599999 -0.33199999 6 0 0 0 0.031440001
1.026 0.167 -0.333 8 0 0 0 0.03145
1.0140001 0.167 -0.331 7 0 0 0 0.031459998
1.01 0.168 -0.333 7 0 0 0 0.031470001
0.99599999 0.168 -0.331 7 0 0 0 0.031479999
0.991 0.169 -0.333 9 0 0 0 0.031490002
0.98000002 0.169 -0.331 9 0 0 0 0.031500001
0.972 0.169 -0.33199999 10 0 0 0 0.031509999
0.96899998 0.171 -0.333 4 0 0 0 0.031520002
0.94499999 0.168 -0.32800001 3 0 0 0 0.03153
0.94099998 0.17 -0.329 3 0 0 0 0.031539999
0.935 0.17 -0.329 3 0 0 0 0.031550001
0.93000001 0.171 -0.33000001 3 0 0 0 0.03156
0.921 0.17200001 -0.329 3 0 0 0 0.031569999
0.91399997 0.17200001 -0.329 3 0 0 0 0.031580001
0.91000003 0.17299999 -0.33000001 3 0 0 0 0.03159
0.898 0.17299999 -0.32800001 3 0 0 0 0.031599998
0.89499998 0.17399999 -0.33000001 3 0 0 0 0.031610001
0.88800001 0.17399999 -0.33000001 3 0 0 0 0.03162
0.88499999 0.176 -0.331 3 0 0 0 0.031629998
0.87699997 0.176 -0.33000001 3 0 0 0 0.031640001
0.86900002 0.176 -0.33000001 3 0 0 0 0.031649999
0.866 0.177 -0.331 3 0 0 0 0.031660002
0.85699999 0.177 -0.33000001 3 0 0 0 0.03167
0.85100001 0.178 -0.33000001 3 0 0 0 0.031679999
0.85000002 0.18000001 -0.33199999 3 0 0 0 0.031690001
0.83700001 0.17900001 -0.329 2 0 0 0 0.0317
0.833 0.17900001 -0.329 2 0 0 0 0.031709999
0.83099997 0.18099999 -0.331 2 0 0 0 0.031720001
0.824 0.18099999 -0.33000001 2 0 0 0 0.03173
0.81400001 0.18099999 -0.32800001 2 0 0 0 0.031739999
0.81900001 0.183 -0.33199999 2 0 0 0 0.031750001
0.80699998 0.183 -0.329 2 0 0 0 0.03176
0.80599999 0.184 -0.331 2 0 0 0 0.031769998
0.80299997 0.185 -0.33199999 2 0 0 0 0.031780001
0.80000001 0.186 -0.333 2 0 0 0 0.031789999
0.78500003 0.185 -0.329 2 0 0 0 0.031800002
0.78799999 0.18700001 -0.33199999 2 0 0 0 0.031810001
0.77999997 0.18700001 -0.33000001 2 0 0 0 0.031819999
0.77899998 0.18799999 -0.33199999 2 0 0 0 0.031830002
0.77200001 0.18799999 -0.331 2 0 0 0 0.03184
0.76800001 0.189 -0.331 2 0 0 0 0.031849999
0.76700002 0.191 -0.33199999 2 0 0 0 0.031860001
0.75800002 0.19 -0.33000001 2 0 0 0 0.03187
0.75999999 0.193 -0.333 2 0 0 0 0.031879999
0.75700003 0.193 -0.333 2 0 0 0 0.031890001
0.75599998 0.19499999 -0.33500001 2 0 0 0 0.0319
0.75 0.19499999 -0.33399999 2 0 0 0 0.031909999
0.74599999 0.19599999 -0.33399999 2 0 0 0 0.031920001
0.74599999 0.197 -0.336 3 0 0 0 0.03193
0.74400002 0.199 -0.33700001 3 0 0 0 0.031939998
0.73799998 0.199 -0.33500001 3 0 0 0 0.031950001
0.741 0.20100001 -0.33899999 3 0 0 0 0.031959999
0.736 0.20200001 -0.338 3 0 0 0 0.031970002
0.73500001 0.20299999 -0.33899999 3 0 0 0 0.03198
0.73400003 0.205 -0.34 3 0 0 0 0.031989999
0.722 0.20299999 -0.33700001 3 0 0 0 0.032000002
0.72100002 0.204 -0.338 3 0 0 0 0.03201
0.71899998 0.205 -0.338 4 0 0 0 0.032019999
0.71100003 0.205 -0.336 5 0 0 0 0.032030001
0.713 0.207 -0.33899999 5 0 0 0 0.03204
0.71700001 0.20999999 -0.34200001 7 0 0 0 0.032049999
0.71799999 0.212 -0.34400001 7 0 0 0 0.032060001
0.71600002 0.213 -0.34400001 7 0 0 0 0.03207
0.71700001 0.215 -0.34599999 8 0 0 0 0.032079998
0.72000003 0.21799999 -0.34900001 12 0 0 0 0.032090001
0.71700001 0.219 -0.34900001 22 0 0 0 0.032099999
0.71600002 0.22 -0.34999999 35 0 0 0 0.032109998
0.713 0.221 -0.34999999 27 0 0 0 0.032120001
0.71200001 0.222 -0.35100001 31 0 0 0 0.032129999
0.71499997 0.22499999 -0.35299999 30 0 0 0 0.032140002
0.71600002 0.227 -0.35600001 34 0 0 0 0.03215
0.71399999 0.228 -0.35600001 26 0 0 0 0.032159999
0.71399999 0.229 -0.35699999 29 0 0 0 0.032170001
0.71399999 0.23100001 -0.35800001 34 0 0 0 0.03218
0.713 0.233 -0.359 31 0 0 0 0.032189999
0.71499997 0.235 -0.36199999 39 0 0 0 0.032200001
0.71399999 0.237 -0.36199999 37 0 0 0 0.03221
0.71200001 0.237 -0.36199999 65 0 0 0 0.032219999
0.71100003 0.23899999 -0.36300001 58 0 0 0 0.032230001
0.708 0.23899999 -0.36199999 58 0 0 0 0.03224
0.70899999 0.242 -0.36399999 50 0 0 0 0.032249998
0.708 0.243 -0.36500001 38 0 0 0 0.032260001
0.70300001 0.243 -0.36300001 32 0 0 0 0.032269999
0.70300001 0.244 -0.36399999 36 0 0 0 0.032280002
0.70099998 0.245 -0.36399999 44 0 0 0 0.03229
0.69999999 0.24699999 -0.36500001 51 0 0 0 0.032299999
0.70200002 0.249 -0.36700001 46 0 0 0 0.032310002
0.70300001 0.25099999 -0.368 34 0 0 0 0.03232
0.70099998 0.252 -0.368 28 0 0 0 0.032329999
0.69999999 0.25299999 -0.368 20 0 0 0 0.032340001
0.70099998 0.255 -0.37 10 0 0 0 0.03235
0.69499999 0.25400001 -0.368 5 0 0 0 0.032359999
0.68599999 0.25299999 -0.36300001 4 0 0 0 0.032370001
0.68300003 0.25299999 -0.36300001 3 0 0 0 0.03238
0.68199998 0.25400001 -0.36300001 3 0 0 0 0.032389998
0.67500001 0.25299999 -0.36000001 3 0 0 0 0.032400001
0.67400002 0.25400001 -0.36000001 3 0 0 0 0.03241
0.66600001 0.25299999 -0.35699999 3 0 0 0 0.032419998
0.66299999 0.25299999 -0.35499999 3 0 0 0 0.032430001
0.65899998 0.25299999 -0.354 3 0 0 0 0.032439999
0.65700001 0.25400001 -0.354 3 0 0 0 0.032450002
0.65499997 0.25400001 -0.35299999 3 0 0 0 0.03246
0.64999998 0.25400001 -0.35100001 2 0 0 0 0.032469999
0.64999998 0.255 -0.35100001 2 0 0 0 0.032480001
0.64399999 0.25400001 -0.34900001 2 0 0 0 0.03249
0.63999999 0.25400001 -0.347 2 0 0 0 0.032499999
0.64099997 0.25600001 -0.34799999 2 0 0 0 0.032510001
0.63800001 0.25600001 -0.34599999 2 0 0 0 0.03252
0.63300002 0.255 -0.34400001 2 0 0 0 0.032529999
0.634 0.257 -0.345 2 0 0 0 0.032540001
0.63 0.25600001 -0.34299999 2 0 0 0 0.03255
0.62300003 0.255 -0.34 2 0 0 0 0.032559998
0.62400001 0.25600001 -0.34 2 0 0 0 0.032570001
0.61799997 0.255 -0.33700001 2 0 0 0 0.032579999
0.61500001 0.255 -0.336 2 0 0 0 0.032590002
0.61699998 0.257 -0.33700001 2 0 0 0 0.032600001
0.611 0.25600001 -0.33399999 2 0 0 0 0.032609999
0.60399997 0.25400001 -0.33000001 2 0 0 0 0.032620002
0.60500002 0.255 -0.331 2 0 0 0 0.03263
0.60299999 0.25600001 -0.33000001 2 0 0 0 0.032639999
0.60399997 0.257 -0.33000001 2 0 0 0 0.032650001
0.59799999 0.25600001 -0.32699999 2 0 0 0 0.03266
0.59600002 0.25600001 -0.32600001 2 0 0 0 0.032669999
0.58999997 0.25400001 -0.32300001 1 0 0 0 0.032680001
0.58899999 0.255 -0.322 2 0 0 0 0.03269
0.58700001 0.255 -0.32100001 2 0 0 0 0.032699998
0.58600003 0.255 -0.31999999 2 0 0 0 0.032710001
0.58099997 0.25400001 -0.317 2 0 0 0 0.03272
0.57700002 0.25299999 -0.315 1 0 0 0 0.032729998
0.574 0.25299999 -0.31299999 2 0 0 0 0.032740001
0.57200003 0.25299999 -0.31099999 2 0 0 0 0.032749999
0.57300001 0.25400001 -0.31200001 2 0 0 0 0.032760002
0.56699997 0.252 -0.308 2 0 0 0 0.03277
0.56400001 0.252 -0.30599999 2 0 0 0 0.032779999
0.56199998 0.252 -0.30500001 2 0 0 0 0.032790001
0.56400001 0.25299999 -0.30500001 2 0 0 0 0.0328
0.56199998 0.25299999 -0.30399999 2 0 0 0 0.032809999
0.56 0.25299999 -0.303 2 0 0 0 0.032820001
0.56400001 0.255 -0.30399999 2 0 0 0 0.03283
0.55699998 0.25299999 -0.30000001 1 0 0 0 0.032839999
0.55900002 0.25400001 -0.301 2 0 0 0 0.032850001
0.56199998 0.25600001 -0.30199999 2 0 0 0 0.03286
0.55900002 0.25600001 -0.30000001 2 0 0 0 0.032869998
0.56099999 0.257 -0.30000001 2 0 0 0 0.032880001
0.55900002 0.257 -0.29899999 2 0 0 0 0.032889999
0.56400001 0.259 -0.30000001 2 0 0 0 0.032900002
0.56 0.25799999 -0.29800001 2 0 0 0 0.032910001
0.56300002 0.25999999 -0.29899999 2 0 0 0 0.032919999
0.56099999 0.25999999 -0.29699999 2 0 0 0 0.032930002
0.56400001 0.26100001 -0.29800001 2 0 0 0 0.03294
0.56099999 0.25999999 -0.29499999 2 0 0 0 0.032949999
0.56400001 0.26199999 -0.296 2 0 0 0 0.032960001
0.56 0.26100001 -0.294 2 0 0 0 0.03297
0.56099999 0.26199999 -0.29300001 2 0 0 0 0.032979999
0.56699997 0.26499999 -0.296 2 0 0 0 0.032990001
0.56699997 0.26499999 -0.29499999 2 0 0 0 0.033
0.55900002 0.26199999 -0.28999999 2 0 0 0 0.033009999
0.56300002 0.264 -0.29100001 2 0 0 0 0.033020001
0.56099999 0.26300001 -0.289 2 0 0 0 0.03303
0.56199998 0.264 -0.28799999 2 0 0 0 0.033039998
0.56199998 0.264 -0.28799999 2 0 0 0 0.033050001
0.56199998 0.264 -0.287 2 0 0 0 0.033059999
0.56300002 0.26499999 -0.28600001 2 0 0 0 0.033070002
0.56300002 0.26499999 -0.285 2 0 0 0 0.03308
0.56699997 0.26699999 -0.28600001 2 0 0 0 0.033089999
0.56800002 0.26699999 -0.28600001 2 0 0 0 0.033100002
0.565 0.266 -0.28299999 2 0 0 0 0.03311
0.56199998 0.26499999 -0.28099999 2 0 0 0 0.033119999
0.56800002 0.26699999 -0.28200001 2 0 0 0 0.033130001
0.565 0.266 -0.28 2 0 0 0 0.03314
0.565 0.266 -0.27900001 2 0 0 0 0.033149999
0.56599998 0.266 -0.278 2 0 0 0 0.033160001
0.56900001 0.26800001 -0.27900001 2 0 0 0 0.03317
0.56400001 0.26499999 -0.27500001 2 0 0 0 0.033179998
0.56300002 0.26499999 -0.27399999 2 0 0 0 0.033190001
0.56400001 0.26499999 -0.273 2 0 0 0 0.033199999
0.56400001 0.26499999 -0.271 2 0 0 0 0.033209998
0.56599998 0.266 -0.271 2 0 0 0 0.033220001
0.56699997 0.266 -0.27000001 2 0 0 0 0.033229999
0.56300002 0.264 -0.26699999 2 0 0 0 0.033240002
0.565 0.26499999 -0.26699999 2 0 0 0 0.03325
0.56599998 0.26499999 -0.266 2 0 0 0 0.033259999
0.55900002 0.26100001 -0.26100001 1 0 0 0 0.033270001
0.565 0.264 -0.26300001 1 0 0 0 0.03328
0.56400001 0.26300001 -0.26100001 1 0 0 0 0.033289999
0.56099999 0.26199999 -0.259 1 0 0 0 0.033300001
0.55900002 0.25999999 -0.25600001 1 0 0 0 0.03331
0.56300002 0.26199999 -0.257 1 0 0 0 0.033319999
0.56099999 0.26100001 -0.255 1 0 0 0 0.033330001
0.55900002 0.259 -0.252 1 0 0 0 0.03334
0.56199998 0.25999999 -0.252 1 0 0 0 0.033349998
0.55599999 0.257 -0.248 1 0 0 0 0.033360001
0.55699998 0.257 -0.24699999 1 0 0 0 0.033369999
0.55900002 0.257 -0.24699999 1 0 0 0 0.033380002
0.551 0.25299999 -0.242 1 0 0 0 0.03339
0.56 0.25600001 -0.244 1 0 0 0 0.033399999
0.565 0.259 -0.245 1 0 0 0 0.033410002
0.55699998 0.25400001 -0.241 1 0 0 0 0.03342
0.55699998 0.25400001 -0.23899999 1 0 0 0 0.033429999
0.56300002 0.25600001 -0.23999999 1 0 0 0 0.033440001
0.56900001 0.25799999 -0.241 1 0 0 0 0.03345
0.56699997 0.25600001 -0.23899999 1 0 0 0 0.033459999
0.56599998 0.255 -0.237 1 0 0 0 0.033470001
0.56300002 0.25299999 -0.234 1 0 0 0 0.03348
0.574 0.257 -0.237 0 0 0 0 0.033489998
0.579 0.259 -0.23800001 0 0 0 0 0.033500001
0.61500001 0.27500001 -0.25099999 0 0 0 0 0.03351
0.57700002 0.25600001 -0.234 0 0 0 0 0.033519998
0.634 0.28099999 -0.25600001 1 0 0 0 0.033530001
0.58700001 0.259 -0.235 1 0 0 0 0.033539999
0.63200003 0.27900001 -0.25099999 0 0 0 0 0.033550002
0.63300002 0.278 -0.25 0 0 0 0 0.03356
0.63499999 0.278 -0.249 0 0 0 0 0.033569999
0.63200003 0.27599999 -0.24600001 0 0 0 0 0.033580001
0.64700001 0.28099999 -0.25 1 0 0 0 0.03359
0.63999999 0.27700001 -0.24600001 1 0 0 0 0.033599999
0.639 0.27599999 -0.244 1 0 0 0 0.033610001
0.63999999 0.27500001 -0.242 1 0 0 0 0.03362
0.653 0.28 -0.24600001 0 0 0 0 0.033629999
0.64700001 0.27599999 -0.242 0 0 0 0 0.033640001
0.648 0.27599999 -0.23999999 0 0 0 0 0.03365
0.65899998 0.27900001 -0.243 0 0 0 0 0.033659998
0.64200002 0.271 -0.235 0 0 0 0 0.033670001
0.65100002 0.27399999 -0.236 0 0 0 0 0.033679999
0.65100002 0.273 -0.235 0 0 0 0 0.033690002
0.667 0.278 -0.23899999 0 0 0 0 0.0337
0.66799998 0.27700001 -0.237 0 0 0 0 0.033709999
0.66399997 0.27399999 -0.234 0 0 0 0 0.033720002
0.67000002 0.27599999 -0.234 0 0 0 0 0.03373
0.671 0.27500001 -0.233 0 0 0 0 0.033739999
0.65100002 0.266 -0.22400001 0 0 0 0 0.033750001
0.66399997 0.27000001 -0.227 0 0 0 0 0.03376
0.66100001 0.26699999 -0.22400001 0 0 0 0 0.033769999
0.68099999 0.27399999 -0.229 0 0 0 0 0.033780001
0.68199998 0.273 -0.228 0 0 0 0 0.03379
0.68900001 0.27500001 -0.228 0 0 0 0 0.033799998
0.68199998 0.271 -0.22400001 0 0 0 0 0.033810001
0.68800002 0.27200001 -0.22400001 0 0 0 0 0.03382
0.68000001 0.26699999 -0.22 0 0 0 0 0.033829998
0.67900002 0.26499999 -0.21699999 0 0 0 0 0.033840001
0.69099998 0.26899999 -0.22 0 0 0 0 0.033849999
0.699 0.27000001 -0.22 0 0 0 0 0.033860002
0.71799999 0.27599999 -0.22400001 0 0 0 0 0.03387
0.71799999 0.27500001 -0.222 0 0 0 0 0.033879999
0.70599997 0.26899999 -0.21699999 0 0 0 0 0.033890001
0.69999999 0.26499999 -0.213 0 0 0 0 0.0339
0.70999998 0.26699999 -0.214 0 0 0 0 0.033909999
0.71600002 0.26800001 -0.214 1 0 0 0 0.033920001
0.71700001 0.26699999 -0.213 1 0 0 0 0.03393
0.71499997 0.264 -0.20999999 2 0 0 0 0.033939999
0.72000003 0.26499999 -0.20999999 2 0 0 0 0.033950001
0.71799999 0.26199999 -0.208 2 0 0 0 0.03396
0.722 0.26199999 -0.207 2 0 0 0 0.033969998
0.72500002 0.26100001 -0.206 2 0 0 0 0.033980001
0.72899997 0.26199999 -0.205 2 0 0 0 0.033989999
0.74000001 0.264 -0.206 2 0 0 0 0.034000002
0.84200001 0.29800001 -0.233 6 0 0 0 0.034010001
0.97600001 0.34299999 -0.26699999 23 0 0 0 0.034019999
1.064 0.37200001 -0.28799999 40 0 0 0 0.034030002
1.126 0.391 -0.303 37 0 0 0 0.03404
1.243 0.42899999 -0.331 11 0 0 0 0.034049999
1.286 0.44100001 -0.33899999 7 0 0 0 0.034060001
1.302 0.44400001 -0.34 7 0 0 0 0.03407
1.312 0.44400001 -0.33899999 7 0 0 0 0.034079999
1.324 0.44499999 -0.33899999 7 0 0 0 0.034090001
1.3380001 0.44600001 -0.33899999 7 0 0 0 0.0341
1.346 0.44600001 -0.338 6 0 0 0 0.034109998
1.36 0.44800001 -0.338 6 0 0 0 0.034120001
1.373 0.44800001 -0.338 6 0 0 0 0.03413
1.386 0.449 -0.338 7 0 0 0 0.034139998
1.395 0.449 -0.33700001 6 0 0 0 0.034150001
1.406 0.449 -0.336 7 0 0 0 0.034159999
1.4170001 0.449 -0.33500001 7 0 0 0 0.034170002
1.431 0.44999999 -0.33500001 7 0 0 0 0.03418
1.442 0.44999999 -0.33399999 7 0 0 0 0.034189999
1.46 0.45199999 -0.33500001 8 0 0 0 0.034200002
1.47 0.45199999 -0.333 8 0 0 0 0.03421
1.483 0.45199999 -0.333 8 0 0 0 0.034219999
1.501 0.454 -0.333 8 0 0 0 0.034230001
1.512 0.454 -0.33199999 8 0 0 0 0.03424
1.523 0.45300001 -0.331 8 0 0 0 0.034249999
1.535 0.45300001 -0.33000001 8 0 0 0 0.034260001
1.557 0.456 -0.331 9 0 0 0 0.03427
1.5700001 0.456 -0.33000001 9 0 0 0 0.034279998
1.584 0.456 -0.329 9 0 0 0 0.034290001
1.603 0.45699999 -0.33000001 8 0 0 0 0.034299999
1.643 0.465 -0.33399999 9 0 0 0 0.034309998
1.679 0.47099999 -0.338 13 0 0 0 0.034320001
1.7029999 0.47299999 -0.338 17 0 0 0 0.034329999
1.7180001 0.47299999 -0.33700001 14 0 0 0 0.034340002
1.727 0.47099999 -0.33500001 13 0 0 0 0.03435
1.738 0.47 -0.333 13 0 0 0 0.034359999
1.75 0.46799999 -0.33199999 12 0 0 0 0.034370001
1.7690001 0.46900001 -0.331 12 0 0 0 0.03438
1.785 0.46900001 -0.33000001 12 0 0 0 0.034389999
1.807 0.47 -0.33000001 12 0 0 0 0.034400001
1.824 0.47 -0.33000001 11 0 0 0 0.03441
1.85 0.472 -0.33000001 39 0 0 0 0.034419999
1.878 0.47400001 -0.331 64 0 0 0 0.034430001
1.897 0.47400001 -0.33000001 150 0 0 0 0.03444
1.902 0.47 -0.32699999 150 0 0 0 0.034449998
1.891 0.463 -0.32100001 150 0 0 0 0.034460001
1.8839999 0.456 -0.315 150 0 0 0 0.034469999
1.882 0.45100001 -0.31099999 150 0 0 0 0.034480002
1.876 0.44499999 -0.30599999 150 0 0 0 0.03449
1.881 0.44100001 -0.303 150 0 0 0 0.034499999
1.88 0.43599999 -0.29800001 150 0 0 0 0.034510002
1.872 0.42899999 -0.29300001 150 0 0 0 0.03452
1.8559999 0.421 -0.287 150 0 0 0 0.034529999
1.858 0.41600001 -0.28299999 150 0 0 0 0.034540001
1.859 0.412 -0.27900001 150 0 0 0 0.03455
1.872 0.41 -0.27700001 150 0 0 0 0.034559999
1.858 0.40200001 -0.271 150 0 0 0 0.034570001
1.865 0.398 -0.26800001 150 0 0 0 0.03458
1.886 0.398 -0.26800001 150 0 0 0 0.034589998
1.872 0.38999999 -0.26199999 150 0 0 0 0.034600001
1.88 0.38699999 -0.259 150 0 0 0 0.03461
1.901 0.38600001 -0.25799999 150 0 0 0 0.034619998
1.91 0.38299999 -0.255 150 0 0 0 0.034630001
1.9119999 0.37799999 -0.25099999 150 0 0 0 0.034639999
1.916 0.37400001 -0.248 56 0 0 0 0.034650002
1.9299999 0.37099999 -0.24600001 150 0 0 0 0.03466
1.944 0.36899999 -0.244 150 0 0 0 0.034669999
1.956 0.366 -0.241 110 0 0 0 0.034680001
2.0539999 0.37900001 -0.249 150 0 0 0 0.03469
2.1949999 0.39899999 -0.26199999 150 0 0 0 0.034699999
2.5120001 0.44999999 -0.29499999 150 0 0 0 0.034710001
2.609 0.461 -0.301 150 0 0 0 0.03472
2.619 0.456 -0.29699999 150 0 0 0 0.034729999
2.6210001 0.449 -0.292 150 0 0 0 0.034740001
2.625 0.44299999 -0.287 150 0 0 0 0.03475
2.625 0.43599999 -0.28200001 151 0 0 0 0.034759998
2.6170001 0.428 -0.27599999 151 0 0 0 0.034770001
2.6199999 0.421 -0.271 150 0 0 0 0.034779999
2.6329999 0.41600001 -0.26800001 150 0 0 0 0.034790002
2.6340001 0.40900001 -0.26300001 151 0 0 0 0.0348
2.635 0.40200001 -0.25799999 151 0 0 0 0.034809999
2.6359999 0.39500001 -0.25299999 151 0 0 0 0.034820002
2.6370001 0.38800001 -0.248 151 0 0 0 0.03483
2.6370001 0.38100001 -0.243 151 0 0 0 0.034839999
2.6400001 0.375 -0.23800001 151 0 0 0 0.034850001
2.635 0.36700001 -0.23199999 151 0 0 0 0.03486
2.635 0.36000001 -0.228 151 0 0 0 0.034869999
2.638 0.35299999 -0.223 150 0 0 0 0.034880001
2.6359999 0.34599999 -0.21799999 150 0 0 0 0.03489
2.6329999 0.338 -0.213 150 0 0 0 0.034899998
2.635 0.331 -0.208 150 0 0 0 0.034910001
2.635 0.324 -0.20299999 150 0 0 0 0.03492
2.6370001 0.317 -0.198 151 0 0 0 0.034929998
2.6329999 0.31 -0.193 150 0 0 0 0.034940001
2.6340001 0.303 -0.18799999 150 0 0 0 0.034949999
2.6359999 0.296 -0.183 151 0 0 0 0.034960002
2.6389999 0.289 -0.17900001 150 0 0 0 0.03497
2.638 0.28200001 -0.17399999 150 0 0 0 0.034979999
2.651 0.27599999 -0.17 150 0 0 0 0.034990001
2.7550001 0.27900001 -0.17200001 118 0 0 0 0.035
2.7950001 0.27599999 -0.169 150 0 0 0 0.035009999
2.793 0.26800001 -0.164 150 0 0 0 0.035020001
2.7939999 0.25999999 -0.15899999 150 0 0 0 0.03503
2.8039999 0.25400001 -0.155 150 0 0 0 0.035039999
2.8329999 0.248 -0.15099999 150 0 0 0 0.035050001
2.8299999 0.23999999 -0.146 150 0 0 0 0.03506
2.812 0.23100001 -0.14 150 0 0 0 0.035069998
2.799 0.223 -0.13500001 150 0 0 0 0.035080001
2.7920001 0.214 -0.12899999 150 0 0 0 0.035089999
2.786 0.206 -0.124 150 0 0 0 0.035100002
2.8080001 0.2 -0.12 144 0 0 0 0.035110001
2.842 0.19499999 -0.117 150 0 0 0 0.035119999
2.8410001 0.18700001 -0.112 150 0 0 0 0.035130002
2.826 0.178 -0.106 150 0 0 0 0.03514
2.852 0.17200001 -0.102 150 0 0 0 0.035149999
2.8929999 0.16599999 -0.098999999 150 0 0 0 0.035160001
2.901 0.15899999 -0.093999997 150 0 0 0 0.03517
2.904 0.15099999 -0.089000002 151 0 0 0 0.035179999
2.905 0.14300001 -0.083999999 150 0 0 0 0.035190001
2.9860001 0.139 -0.082000002 21 0 0 0 0.0352
3.0840001 0.13500001 -0.079000004 6 0 0 0 0.035209998
3.0639999 0.125 -0.072999999 9 0 0 0 0.035220001
3.056 0.117 -0.068000004 10 0 0 0 0.03523
3.0639999 0.108 -0.063000001 11 0 0 0 0.035239998
3.049 0.098999999 -0.057999998 13 0 0 0 0.035250001
3.0409999 0.090999998 -0.052000001 18 0 0 0 0.035259999
3.0250001 0.082000002 -0.046999998 21 0 0 0 0.035270002
3.0090001 0.072999999 -0.041999999 15 0 0 0 0.03528
3.0139999 0.064999998 -0.037 18 0 0 0 0.035289999
3.0350001 0.057 -0.032000002 21 0 0 0 0.035300002
3.0250001 0.048 -0.027000001 14 0 0 0 0.03531
2.9260001 0.037999999 -0.022 88 0 0 0 0.035319999
2.9189999 0.029999999 -0.017000001 150 0 0 0 0.035330001
2.9189999 0.022 -0.012 151 0 0 0 0.03534
2.9189999 0.014 -0.0070000002 150 0 0 0 0.035349999
2.9820001 0.0060000001 -0.003 93 0 0 0 0.035360001
3.033 -0.0020000001 0.001 91 0 0 0 0.03537
2.9790001 -0.0099999998 0.0060000001 150 0 0 0 0.035379998
2.9749999 -0.017999999 0.011 151 0 0 0 0.035390001
2.9749999 -0.027000001 0.015 151 0 0 0 0.035399999
2.97 -0.035 0.02 152 0 0 0 0.035409998
2.97 -0.043000001 0.025 152 0 0 0 0.035420001
3.0320001 -0.052999999 0.029999999 152 0 0 0 0.035429999
0 0 0 0 0 0 0 0.035440002
4.5539999 -0.105 0.059999999 0 0 0 0 0.03545
0 0 0 0 0 0 0 0.035459999
0 0 0 0 0 0 0 0.035470001
3.589 -0.114 0.064000003 17 0 0 0 0.03548
3.582 -0.124 0.07 10 0 0 0 0.035489999
4.5440001 -0.17 0.094999999 0 0 0 0 0.035500001
4.5630002 -0.184 0.103 0 0 0 0 0.03551
4.552 -0.19599999 0.11 1 0 0 0 0.035519999
4.5079999 -0.207 0.116 14 0 0 0 0.035530001
4.4850001 -0.219 0.122 150 0 0 0 0.03554
4.4980001 -0.23199999 0.12899999 81 0 0 0 0.035549998
4.5300002 -0.24699999 0.13699999 0 0 0 0 0.035560001
0 0 0 0 0 0 0 0.035569999
0 0 0 0 0 0 0 0.035580002
4.5469999 -0.287 0.15800001 0 0 0 0 0.03559
4.5430002 -0.30000001 0.16500001 0 0 0 0 0.035599999
4.546 -0.31299999 0.17200001 0 0 0 0 0.035610002
4.5489998 -0.32699999 0.17900001 0 0 0 0 0.03562
4.5349998 -0.33899999 0.185 0 0 0 0 0.035629999
4.5050001 -0.34900001 0.19 29 0 0 0 0.035640001
4.4910002 -0.361 0.19599999 150 0 0 0 0.03565
4.493 -0.375 0.20299999 62 0 0 0 0.035659999
4.527 -0.391 0.211 1 0 0 0 0.035670001
0 0 0 0 0 0 0 0.03568
4.5029998 -0.41499999 0.22400001 0 0 0 0 0.035689998
4.5279999 -0.43000001 0.23100001 0 0 0 0 0.035700001
4.52 -0.44299999 0.23800001 1 0 0 0 0.03571
4.52 -0.456 0.244 0 0 0 0 0.035719998
4.5110002 -0.46799999 0.25 0 0 0 0 0.035730001
4.5190001 -0.48199999 0.257 0 0 0 0 0.035739999
4.4819999 -0.491 0.26100001 69 0 0 0 0.035750002
4.4710002 -0.50300002 0.26699999 150 0 0 0 0.03576
4.4899998 -0.51899999 0.27500001 20 0 0 0 0.035769999
4.5149999 -0.53500003 0.28299999 0 0 0 0 0.035780001
4.5139999 -0.54799998 0.289 0 0 0 0 0.03579
4.4920001 -0.55900002 0.294 0 0 0 0 0.035799999
4.4949999 -0.57300001 0.30000001 0 0 0 0 0.035810001
4.4980001 -0.58600003 0.30700001 0 0 0 0 0.03582
4.4840002 -0.59799999 0.31200001 0 0 0 0 0.035829999
0 0 0 0 0 0 0 0.035840001
4.4720001 -0.62300003 0.324 0 0 0 0 0.03585
4.4499998 -0.63300002 0.32800001 141 0 0 0 0.035859998
4.448 -0.64600003 0.33399999 150 0 0 0 0.035870001
4.4520001 -0.66000003 0.34099999 2 0 0 0 0.035879999
4.473 -0.676 0.34900001 1 0 0 0 0.035890002
4.4829998 -0.69099998 0.35499999 0 0 0 0 0.0359
4.4720001 -0.70300001 0.361 0 0 0 0 0.035909999
4.4650002 -0.71499997 0.366 0 0 0 0 0.035920002
4.4699998 -0.73000002 0.37200001 0 0 0 0 0.03593
0 0 0 0 0 0 0 0.035939999
4.4060001 -0.74599999 0.37900001 0 0 0 0 0.035950001
4.4109998 -0.75999999 0.38499999 63 0 0 0 0.03596
4.3969998 -0.77100003 0.38999999 150 0 0 0 0.035969999
4.4099998 -0.787 0.39700001 26 0 0 0 0.035980001
4.4310002 -0.80400002 0.40400001 0 0 0 0 0.03599
4.4120002 -0.81400001 0.40799999 1 0 0 0 0.035999998
4.4320002 -0.83099997 0.41600001 0 0 0 0 0.036010001
0 0 0 0 0 0 0 0.03602
4.4310002 -0.85799998 0.42699999 0 0 0 0 0.036029998
4.4089999 -0.86699998 0.43099999 0 0 0 0 0.036040001
4.4289999 -0.88499999 0.43799999 0 0 0 0 0.036049999
4.3670001 -0.88599998 0.43799999 9 0 0 0 0.036060002
4.3429999 -0.89399999 0.44100001 150 0 0 0 0.03607
4.3449998 -0.90799999 0.447 102 0 0 0 0.036079999
4.3779998 -0.92799997 0.45500001 0 0 0 0 0.036090001
4.3670001 -0.94 0.46000001 0 0 0 0 0.0361
4.3699999 -0.954 0.46599999 0 0 0 0 0.036109999
4.3649998 -0.96700001 0.47 0 0 0 0 0.036120001
0 0 0 0 0 0 0 0.03613
2.987 -0.68000001 0.329 23 0 0 0 0.036139999
2.977 -0.68699998 0.33199999 151 0 0 0 0.036150001
2.948 -0.68900001 0.33199999 151 0 0 0 0.03616
2.938 -0.69599998 0.33399999 151 0 0 0 0.036169998
2.9070001 -0.69800001 0.33399999 150 0 0 0 0.036180001
2.901 -0.70599997 0.33700001 151 0 0 0 0.036189999
2.898 -0.71399999 0.34 151 0 0 0 0.036200002
2.9000001 -0.72399998 0.34400001 151 0 0 0 0.036210001
2.9000001 -0.73299998 0.347 151 0 0 0 0.036219999
2.902 -0.74299997 0.35100001 151 0 0 0 0.036230002
2.905 -0.75199997 0.354 151 0 0 0 0.03624
2.8970001 -0.75999999 0.35699999 151 0 0 0 0.036249999
2.8989999 -0.76999998 0.36000001 151 0 0 0 0.036260001
2.902 -0.77999997 0.36399999 151 0 0 0 0.03627
2.9030001 -0.78899997 0.36700001 151 0 0 0 0.036279999
2.901 -0.79799998 0.37 151 0 0 0 0.036290001
2.898 -0.80599999 0.373 151 0 0 0 0.0363
2.898 -0.81599998 0.37599999 151 0 0 0 0.036309998
2.9000001 -0.82499999 0.38 151 0 0 0 0.036320001
2.898 -0.83399999 0.38299999 151 0 0 0 0.03633
2.8959999 -0.84299999 0.38499999 151 0 0 0 0.036339998
2.8989999 -0.85299999 0.389 151 0 0 0 0.036350001
2.8970001 -0.86199999 0.39199999 151 0 0 0 0.036359999
2.898 -0.87199998 0.39500001 151 0 0 0 0.036370002
2.9030001 -0.88200003 0.39899999 151 0 0 0 0.03638
2.9000001 -0.89099997 0.40099999 151 0 0 0 0.036389999
2.8959999 -0.89899999 0.40400001 151 0 0 0 0.036400001
2.8989999 -0.90899998 0.40700001 151 0 0 0 0.03641
2.8970001 -0.91799998 0.41 151 0 0 0 0.036419999
2.8989999 -0.92799997 0.41299999 151 0 0 0 0.036430001
2.9000001 -0.93800002 0.41600001 151 0 0 0 0.03644
2.8989999 -0.94700003 0.41800001 151 0 0 0 0.036449999
2.8970001 -0.95599997 0.421 151 0 0 0 0.036460001
2.9000001 -0.96700001 0.42399999 151 0 0 0 0.03647
2.901 -0.97600001 0.42699999 151 0 0 0 0.036479998
2.898 -0.98500001 0.42899999 151 0 0 0 0.036490001
2.898 -0.99400002 0.43200001 151 0 0 0 0.036499999
2.8959999 -1.003 0.43399999 151 0 0 0 0.036509998
2.8959999 -1.013 0.43700001 151 0 0 0 0.036520001
2.8989999 -1.023 0.44 151 0 0 0 0.036529999
2.9000001 -1.033 0.44299999 151 0 0 0 0.036540002
2.9000001 -1.043 0.44499999 151 0 0 0 0.03655
2.9000001 -1.052 0.44800001 151 0 0 0 0.036559999
2.898 -1.061 0.44999999 151 0 0 0 0.036570001
2.898 -1.071 0.45199999 151 0 0 0 0.03658
2.898 -1.081 0.45500001 151 0 0 0 0.036589999
2.9030001 -1.092 0.458 151 0 0 0 0.036600001
2.901 -1.101 0.46000001 151 0 0 0 0.03661
2.8970001 -1.109 0.46200001 151 0 0 0 0.036619999
2.898 -1.119 0.46399999 151 0 0 0 0.036630001
2.898 -1.1289999 0.46599999 150 0 0 0 0.03664
2.898 -1.138 0.46799999 151 0 0 0 0.036649998
2.8989999 -1.148 0.47099999 151 0 0 0 0.036660001
2.904 -1.16 0.47400001 150 0 0 0 0.036669999
2.901 -1.168 0.47499999 150 0 0 0 0.036680002
2.9030001 -1.179 0.47799999 150 0 0 0 0.03669
2.902 -1.188 0.47999999 150 0 0 0 0.036699999
2.9030001 -1.198 0.48199999 150 0 0 0 0.036710002
2.904 -1.2079999 0.484 150 0 0 0 0.03672
2.902 -1.217 0.48500001 150 0 0 0 0.036729999
2.9030001 -1.227 0.48699999 150 0 0 0 0.036740001
2.9000001 -1.2359999 0.48899999 150 0 0 0 0.03675
2.902 -1.2460001 0.491 150 0 0 0 0.036759999
2.8989999 -1.255 0.49200001 150 0 0 0 0.036770001
2.901 -1.265 0.49399999 150 0 0 0 0.03678
2.898 -1.274 0.495 150 0 0 0 0.036789998
2.901 -1.284 0.49700001 150 0 0 0 0.036800001
2.904 -1.296 0.5 150 0 0 0 0.036809999
2.8859999 -1.2970001 0.498 150 0 0 0 0.036819998
2.802 -1.2690001 0.48500001 81 0 0 0 0.036830001
2.75 -1.2539999 0.477 53 0 0 0 0.036839999
2.734 -1.256 0.47600001 54 0 0 0 0.036850002
2.714 -1.256 0.47400001 57 0 0 0 0.03686
2.7019999 -1.2589999 0.47299999 59 0 0 0 0.036869999
2.6900001 -1.262 0.472 62 0 0 0 0.036880001
2.6760001 -1.265 0.47099999 69 0 0 0 0.03689
2.6589999 -1.266 0.46900001 73 0 0 0 0.036899999
2.6429999 -1.266 0.46700001 82 0 0 0 0.036910001
2.5469999 -1.229 0.45100001 33 0 0 0 0.03692
2.3329999 -1.133 0.414 20 0 0 0 0.036929999
2.556 -1.25 0.454 26 0 0 0 0.036940001
2.7579999 -1.358 0.491 7 0 0 0 0.03695
2.8770001 -1.426 0.51300001 5 0 0 0 0.036959998
2.872 -1.433 0.51300001 5 0 0 0 0.036970001
2.8599999 -1.436 0.51200002 5 0 0 0 0.036979999
2.875 -1.4529999 0.51499999 6 0 0 0 0.036990002
2.8710001 -1.46 0.51499999 6 0 0 0 0.037
2.8559999 -1.462 0.51300001 6 0 0 0 0.037009999
2.8670001 -1.477 0.51499999 6 0 0 0 0.037020002
2.8710001 -1.488 0.51700002 6 0 0 0 0.03703
2.865 -1.494 0.51599997 7 0 0 0 0.037039999
2.8629999 -1.502 0.51599997 7 0 0 0 0.037050001
2.868 -1.5140001 0.51700002 7 0 0 0 0.03706
0 0 0 0 0 0 0 0.037069999
2.1359999 -1.141 0.38600001 0 0 0 0 0.037080001
2.108 -1.133 0.38100001 0 0 0 0 0.03709
2.0969999 -1.133 0.37900001 0 0 0 0 0.037099998
2.086 -1.1339999 0.377 0 0 0 0 0.037110001
2.0840001 -1.1390001 0.37599999 0 0 0 0 0.03712
2.0569999 -1.131 0.37200001 0 0 0 0 0.037129998
2.0409999 -1.128 0.36899999 0 0 0 0 0.037140001
2.0309999 -1.1289999 0.36700001 0 0 0 0 0.037149999
2.026 -1.132 0.366 0 0 0 0 0.037160002
2.0150001 -1.133 0.36399999 0 0 0 0 0.03717
2.0090001 -1.135 0.36199999 0 0 0 0 0.037179999
2.0039999 -1.138 0.361 0 0 0 0 0.037190001
1.9960001 -1.1390001 0.359 0 0 0 0 0.0372
1.97 -1.13 0.354 0 0 0 0 0.037209999
1.964 -1.133 0.35299999 0 0 0 0 0.037220001
1.956 -1.1339999 0.35100001 0 0 0 0 0.03723
1.949 -1.135 0.34900001 0 0 0 0 0.037239999
1.924 -1.127 0.34400001 0 0 0 0 0.037250001
1.933 -1.137 0.345 0 0 0 0 0.03726
1.92 -1.135 0.34200001 0 0 0 0 0.037269998
1.918 -1.1390001 0.34099999 0 0 0 0 0.037280001
1.896 -1.131 0.33700001 0 0 0 0 0.037289999
1.895 -1.136 0.336 0 0 0 0 0.037300002
1.885 -1.135 0.333 0 0 0 0 0.037310001
1.8789999 -1.137 0.33199999 0 0 0 0 0.037319999
1.87 -1.136 0.329 0 0 0 0 0.037330002
1.8609999 -1.135 0.32699999 0 0 0 0 0.03734
1.834 -1.123 0.32100001 0 0 0 0 0.037349999
1.852 -1.1390001 0.324 0 0 0 0 0.037360001
1.84 -1.137 0.32100001 0 0 0 0 0.03737
1.841 -1.142 0.31999999 0 0 0 0 0.037379999
1.8329999 -1.142 0.317 0 0 0 0 0.037390001
1.821 -1.1390001 0.31400001 0 0 0 0 0.0374
1.8099999 -1.136 0.31099999 0 0 0 0 0.037409998
1.804 -1.137 0.30899999 0 0 0 0 0.037420001
1.7819999 -1.127 0.30399999 0 0 0 0 0.03743
1.7869999 -1.1339999 0.30399999 0 0 0 0 0.037439998
1.778 -1.133 0.301 0 0 0 0 0.037450001
1.766 -1.1289999 0.29800001 0 0 0 0 0.037459999
1.7640001 -1.132 0.296 0 0 0 0 0.037470002
1.7589999 -1.132 0.294 0 0 0 0 0.03748
1.7460001 -1.128 0.28999999 0 0 0 0 0.037489999
1.732 -1.123 0.287 1 0 0 0 0.037500001
1.729 -1.124 0.285 1 0 0 0 0.03751
1.709 -1.114 0.28 1 0 0 0 0.037519999
1.706 -1.1160001 0.278 1 0 0 0 0.037530001
1.724 -1.131 0.28 1 0 0 0 0.03754
1.714 -1.128 0.27700001 1 0 0 0 0.037549999
1.72 -1.135 0.27599999 0 0 0 0 0.037560001
1.7869999 -1.183 0.285 0 0 0 0 0.03757
1.84 -1.221 0.292 0 0 0 0 0.037579998
1.806 -1.201 0.285 0 0 0 0 0.037590001
1.784 -1.1900001 0.27900001 0 0 0 0 0.037599999
1.763 -1.179 0.27399999 0 0 0 0 0.037610002
1.762 -1.181 0.273 0 0 0 0 0.037620001
1.788 -1.201 0.27500001 0 0 0 0 0.037629999
1.817 -1.223 0.27700001 1 0 0 0 0.037640002
1.83 -1.235 0.27700001 4 0 0 0 0.03765
1.831 -1.238 0.27500001 16 0 0 0 0.037659999
1.8279999 -1.239 0.273 26 0 0 0 0.037670001
1.825 -1.239 0.27000001 37 0 0 0 0.03768
1.819 -1.237 0.26699999 66 0 0 0 0.037689999
1.813 -1.235 0.264 71 0 0 0 0.037700001
1.8099999 -1.235 0.26199999 72 0 0 0 0.03771
1.809 -1.2359999 0.259 73 0 0 0 0.037719999
1.808 -1.238 0.257 75 0 0 0 0.037730001
1.8049999 -1.237 0.255 73 0 0 0 0.03774
1.801 -1.237 0.252 67 0 0 0 0.037749998
1.801 -1.238 0.249 67 0 0 0 0.037760001
1.799 -1.238 0.24699999 73 0 0 0 0.037769999
1.795 -1.237 0.244 67 0 0 0 0.037780002
1.793 -1.237 0.241 67 0 0 0 0.03779
1.7920001 -1.237 0.23899999 66 0 0 0 0.037799999
1.7920001 -1.239 0.236 68 0 0 0 0.037810002
1.79 -1.238 0.234 68 0 0 0 0.03782
1.79 -1.239 0.23100001 71 0 0 0 0.037829999
1.7869999 -1.238 0.229 69 0 0 0 0.037840001
1.785 -1.237 0.226 69 0 0 0 0.03785
1.785 -1.238 0.223 65 0 0 0 0.037859999
1.785 -1.239 0.221 69 0 0 0 0.037870001
1.783 -1.237 0.21799999 71 0 0 0 0.03788
1.783 -1.238 0.21600001 68 0 0 0 0.037889998
1.785 -1.239 0.213 68 0 0 0 0.037900001
1.785 -1.24 0.211 69 0 0 0 0.037909999
1.785 -1.24 0.208 69 0 0 0 0.037919998
1.786 -1.24 0.206 71 0 0 0 0.037930001
1.786 -1.24 0.20299999 72 0 0 0 0.037939999
1.783 -1.238 0.2 74 0 0 0 0.037950002
1.7869999 -1.24 0.198 72 0 0 0 0.03796
1.7869999 -1.24 0.19599999 70 0 0 0 0.037969999
1.788 -1.24 0.193 70 0 0 0 0.037980001
1.788 -1.239 0.19 69 0 0 0 0.03799
1.789 -1.239 0.18799999 73 0 0 0 0.037999999
1.789 -1.239 0.185 72 0 0 0 0.038010001
1.794 -1.2410001 0.183 70 0 0 0 0.03802
1.795 -1.2410001 0.18000001 73 0 0 0 0.038029999
1.795 -1.24 0.178 69 0 0 0 0.038040001
1.798 -1.24 0.175 71 0 0 0 0.03805
1.799 -1.24 0.17299999 69 0 0 0 0.038059998
1.802 -1.2410001 0.17 74 0 0 0 0.038070001
1.804 -1.2410001 0.168 72 0 0 0 0.038079999
1.808 -1.2410001 0.16500001 70 0 0 0 0.038090002
1.8049999 -1.238 0.162 77 0 0 0 0.0381
1.812 -1.2410001 0.16 72 0 0 0 0.038109999
1.817 -1.242 0.15800001 75 0 0 0 0.038120002
1.818 -1.2410001 0.155 71 0 0 0 0.03813
1.819 -1.24 0.153 75 0 0 0 0.038139999
1.822 -1.24 0.15000001 71 0 0 0 0.038150001
1.824 -1.238 0.147 72 0 0 0 0.03816
1.827 -1.239 0.145 73 0 0 0 0.038169999
1.834 -1.24 0.14300001 70 0 0 0 0.038180001
1.836 -1.239 0.14 71 0 0 0 0.03819
1.84 -1.239 0.138 69 0 0 0 0.038199998
1.844 -1.24 0.13500001 72 0 0 0 0.038210001
1.851 -1.2410001 0.133 66 0 0 0 0.03822
1.85 -1.238 0.13 65 0 0 0 0.038229998
1.8609999 -1.242 0.12800001 62 0 0 0 0.038240001
1.863 -1.24 0.126 63 0 0 0 0.038249999
1.87 -1.242 0.123 63 0 0 0 0.038260002
1.873 -1.2410001 0.121 58 0 0 0 0.03827
1.878 -1.2410001 0.118 62 0 0 0 0.038279999
1.885 -1.242 0.116 57 0 0 0 0.038290001
1.891 -1.242 0.114 58 0 0 0 0.0383
1.903 -1.2460001 0.112 56 0 0 0 0.038309999
1.924 -1.256 0.11 58 0 0 0 0.038320001
1.959 -1.275 0.11 64 0 0 0 0.03833
1.984 -1.2869999 0.108 50 0 0 0 0.038339999
2.0079999 -1.299 0.107 42 0 0 0 0.038350001
1.9680001 -1.2690001 0.102 62 0 0 0 0.03836
1.83 -1.176 0.092 57 0 0 0 0.038369998
0 0 0 0 0 0 0 0.038380001
1.4349999 -0.91600001 0.068000004 0 0 0 0 0.038389999
2.9760001 -0.061000001 -0.0099999998 151 0 0 0 0.040320002
2.9749999 -0.050999999 -0.0080000004 151 0 0 0 0.04033
2.9760001 -0.041000001 -0.0070000002 151 0 0 0 0.040339999
2.974 -0.032000002 -0.0049999999 151 0 0 0 0.040350001
2.9820001 -0.023 -0.0040000002 150 0 0 0 0.04036
3.0209999 -0.013 -0.0020000001 48 0 0 0 0.040369999
2.973 -0.003 -0.001 72 0 0 0 0.040380001
2.915 0.0049999999 0 150 0 0 0 0.04039
2.9200001 0.014 0.0020000001 151 0 0 0 0.040399998
2.9159999 0.024 0.003 150 0 0 0 0.040410001
2.944 0.033 0.0049999999 21 0 0 0 0.04042
3.0150001 0.044 0.0070000002 23 0 0 0 0.040429998
3.013 0.052999999 0.0089999996 23 0 0 0 0.040440001
3 0.061999999 0.0099999998 22 0 0 0 0.040449999
2.9949999 0.071999997 0.012 21 0 0 0 0.040460002
2.9860001 0.081 0.014 16 0 0 0 0.04047
2.9779999 0.090999998 0.015 12 0 0 0 0.040479999
2.983 0.1 0.017000001 18 0 0 0 0.040490001
2.9909999 0.11 0.018999999 19 0 0 0 0.0405
2.9909999 0.12 0.021 77 0 0 0 0.040509999
0 0 0 0 0 0 0 0.040520001
2.967 0.138 0.025 10 0 0 0 0.04053
2.898 0.14399999 0.026000001 80 0 0 0 0.040539999
2.8900001 0.152 0.028000001 150 0 0 0 0.040550001
2.8870001 0.161 0.028999999 150 0 0 0 0.04056
2.8610001 0.169 0.030999999 150 0 0 0 0.040569998
2.8199999 0.176 0.032000002 105 0 0 0 0.040580001
2.825 0.185 0.034000002 150 0 0 0 0.040589999
2.8410001 0.19499999 0.035999998 150 0 0 0 0.040600002
2.839 0.204 0.037999999 142 0 0 0 0.04061
2.8 0.20999999 0.039999999 95 0 0 0 0.040619999
2.7909999 0.21799999 0.041000001 150 0 0 0 0.040630002
2.7920001 0.227 0.043000001 150 0 0 0 0.04064
2.8099999 0.237 0.046 146 0 0 0 0.040649999
2.826 0.248 0.048 150 0 0 0 0.040660001
2.822 0.25600001 0.050000001 150 0 0 0 0.04067
2.8110001 0.264 0.050999999 150 0 0 0 0.040679999
2.7850001 0.271 0.052999999 150 0 0 0 0.040690001
2.79 0.28 0.055 150 0 0 0 0.0407
2.79 0.289 0.057 134 0 0 0 0.040709998
