# .PCD v0.7 - Point Cloud Data file format
VERSION 0.7
FIELDS x y z intensity normal_x normal_y normal_z curvature
SIZE 4 4 4 4 4 4 4 4
TYPE F F F F F F F F
COUNT 1 1 1 1 1 1 1 1
WIDTH 1035
HEIGHT 1
VIEWPOINT 0 0 0 1 0 0 0
POINTS 1035
DATA ascii
1.058 0.66900003 -0.103 104 0 0 0 0.034850001
1.056 0.66500002 -0.101 108 0 0 0 0.03486
1.058 0.66399997 -0.1 120 0 0 0 0.034869999
1.063 0.66500002 -0.098999999 98 0 0 0 0.034880001
1.0650001 0.66399997 -0.097000003 111 0 0 0 0.03489
1.067 0.66299999 -0.096000001 97 0 0 0 0.034899998
1.068 0.66100001 -0.093999997 93 0 0 0 0.034910001
1.066 0.65799999 -0.093000002 97 0 0 0 0.03492
1.074 0.65899998 -0.092 84 0 0 0 0.034929998
1.076 0.65799999 -0.090000004 84 0 0 0 0.034940001
1.075 0.65499997 -0.089000002 116 0 0 0 0.034949999
1.079 0.65499997 -0.088 93 0 0 0 0.034960002
1.0779999 0.65100002 -0.086000003 93 0 0 0 0.03497
1.08 0.64999998 -0.085000001 98 0 0 0 0.034979999
1.0829999 0.64899999 -0.082999997 88 0 0 0 0.034990001
1.086 0.648 -0.082000002 120 0 0 0 0.035
1.086 0.64499998 -0.081 107 0 0 0 0.035009999
1.089 0.64399999 -0.079000004 104 0 0 0 0.035020001
1.0880001 0.64099997 -0.078000002 98 0 0 0 0.03503
1.092 0.63999999 -0.077 96 0 0 0 0.035039999
1.0930001 0.63800001 -0.075000003 117 0 0 0 0.035050001
1.096 0.63599998 -0.074000001 98 0 0 0 0.03506
1.101 0.63599998 -0.072999999 62 0 0 0 0.035069998
1.098 0.63099998 -0.071000002 21 0 0 0 0.035080001
1.077 0.61699998 -0.068000004 7 0 0 0 0.035089999
1.028 0.58600003 -0.064000003 4 0 0 0 0.035100002
1.021 0.579 -0.061999999 4 0 0 0 0.035110001
1.0190001 0.57499999 -0.061000001 5 0 0 0 0.035119999
1.0089999 0.56599998 -0.059 5 0 0 0 0.035130002
1.01 0.56400001 -0.057999998 6 0 0 0 0.03514
1.002 0.55599999 -0.056000002 7 0 0 0 0.035149999
1.001 0.55299997 -0.055 9 0 0 0 0.035160001
0.99800003 0.54799998 -0.052999999 9 0 0 0 0.03517
0.99900001 0.546 -0.052000001 10 0 0 0 0.035179999
1.001 0.54400003 -0.050999999 10 0 0 0 0.035190001
1 0.54000002 -0.050000001 16 0 0 0 0.0352
0.99599999 0.53500003 -0.048999999 18 0 0 0 0.035209998
0.99299997 0.53100002 -0.046999998 18 0 0 0 0.035220001
0.99299997 0.52700001 -0.046 21 0 0 0 0.03523
0.99599999 0.52600002 -0.045000002 21 0 0 0 0.035239998
1.001 0.52600002 -0.044 22 0 0 0 0.035250001
1.003 0.52399999 -0.043000001 28 0 0 0 0.035259999
0.99599999 0.51700002 -0.041999999 46 0 0 0 0.035270002
0.995 0.51300001 -0.041000001 40 0 0 0 0.03528
1.005 0.51499999 -0.039999999 76 0 0 0 0.035289999
0.99900001 0.509 -0.039000001 36 0 0 0 0.035300002
1.01 0.51099998 -0.037999999 26 0 0 0 0.03531
1.007 0.50599998 -0.037 20 0 0 0 0.035319999
1.008 0.50400001 -0.035999998 20 0 0 0 0.035330001
1.0089999 0.50099999 -0.035 20 0 0 0 0.03534
1.0190001 0.50300002 -0.035 14 0 0 0 0.035349999
1.018 0.49900001 -0.034000002 11 0 0 0 0.035360001
1.025 0.49900001 -0.033 10 0 0 0 0.03537
1.03 0.498 -0.032000002 9 0 0 0 0.035379998
1.035 0.498 -0.030999999 8 0 0 0 0.035390001
1.038 0.495 -0.029999999 6 0 0 0 0.035399999
1.046 0.49599999 -0.029999999 6 0 0 0 0.035409998
1.056 0.49700001 -0.028999999 5 0 0 0 0.035420001
1.0599999 0.49599999 -0.028000001 4 0 0 0 0.035429999
1.095 0.50800002 -0.028000001 4 0 0 0 0.035440002
1.17 0.53899997 -0.028999999 9 0 0 0 0.03545
1.1849999 0.542 -0.028999999 37 0 0 0 0.035459999
1.191 0.54100001 -0.028000001 90 0 0 0 0.035470001
1.193 0.53799999 -0.027000001 95 0 0 0 0.03548
1.194 0.53500003 -0.026000001 102 0 0 0 0.035489999
1.198 0.53299999 -0.025 111 0 0 0 0.035500001
1.2 0.52899998 -0.024 118 0 0 0 0.03551
1.199 0.52499998 -0.023 94 0 0 0 0.035519999
1.205 0.52399999 -0.023 116 0 0 0 0.035530001
1.212 0.523 -0.022 87 0 0 0 0.03554
1.215 0.51999998 -0.021 108 0 0 0 0.035549998
1.215 0.51599997 -0.02 117 0 0 0 0.035560001
1.2180001 0.51300001 -0.018999999 99 0 0 0 0.035569999
1.219 0.509 -0.018999999 111 0 0 0 0.035580002
1.225 0.50800002 -0.017999999 117 0 0 0 0.03559
1.227 0.50400001 -0.017000001 101 0 0 0 0.035599999
1.229 0.50099999 -0.016000001 131 0 0 0 0.035610002
1.229 0.49700001 -0.015 127 0 0 0 0.03562
1.234 0.495 -0.015 112 0 0 0 0.035629999
1.24 0.493 -0.014 5 0 0 0 0.035640001
1.244 0.491 -0.013 128 0 0 0 0.03565
1.245 0.48699999 -0.013 131 0 0 0 0.035659999
1.247 0.48300001 -0.012 150 0 0 0 0.035670001
1.248 0.47999999 -0.011 143 0 0 0 0.03568
1.251 0.47600001 -0.0099999998 150 0 0 0 0.035689998
1.252 0.47299999 -0.0099999998 150 0 0 0 0.035700001
1.2589999 0.47099999 -0.0089999996 148 0 0 0 0.03571
1.258 0.46599999 -0.0080000004 150 0 0 0 0.035719998
1.262 0.46399999 -0.0080000004 137 0 0 0 0.035730001
1.266 0.461 -0.0070000002 150 0 0 0 0.035739999
1.268 0.458 -0.0070000002 150 0 0 0 0.035750002
1.276 0.456 -0.0060000001 150 0 0 0 0.03576
1.278 0.45199999 -0.0049999999 150 0 0 0 0.035769999
1.279 0.44800001 -0.0049999999 146 0 0 0 0.035780001
1.283 0.44600001 -0.0040000002 150 0 0 0 0.03579
1.291 0.44400001 -0.0040000002 150 0 0 0 0.035799999
1.291 0.44 -0.003 150 0 0 0 0.035810001
1.289 0.435 -0.003 150 0 0 0 0.03582
1.296 0.433 -0.0020000001 150 0 0 0 0.035829999
1.301 0.43000001 -0.0020000001 150 0 0 0 0.035840001
1.301 0.42500001 -0.001 150 0 0 0 0.03585
1.307 0.42300001 -0.001 150 0 0 0 0.035859998
1.303 0.417 0 150 0 0 0 0.035870001
1.312 0.41600001 0 150 0 0 0 0.035879999
1.312 0.41100001 0 150 0 0 0 0.035890002
1.317 0.40900001 0 150 0 0 0 0.0359
1.319 0.405 0.001 150 0 0 0 0.035909999
1.3200001 0.40000001 0.001 150 0 0 0 0.035920002
1.326 0.398 0.0020000001 150 0 0 0 0.03593
1.332 0.39500001 0.0020000001 150 0 0 0 0.035939999
1.3329999 0.391 0.003 150 0 0 0 0.035950001
1.339 0.38800001 0.003 150 0 0 0 0.03596
1.342 0.38499999 0.003 150 0 0 0 0.035969999
1.344 0.38100001 0.0040000002 150 0 0 0 0.035980001
1.347 0.377 0.0040000002 150 0 0 0 0.03599
1.348 0.373 0.0040000002 150 0 0 0 0.035999998
1.352 0.36899999 0.0049999999 150 0 0 0 0.036010001
1.355 0.366 0.0049999999 150 0 0 0 0.03602
1.363 0.36300001 0.0049999999 150 0 0 0 0.036029998
1.363 0.359 0.0060000001 150 0 0 0 0.036040001
1.3710001 0.35600001 0.0060000001 150 0 0 0 0.036049999
1.369 0.35100001 0.0060000001 150 0 0 0 0.036060002
1.378 0.34900001 0.0070000002 150 0 0 0 0.03607
1.378 0.34400001 0.0070000002 150 0 0 0 0.036079999
1.38 0.34 0.0070000002 150 0 0 0 0.036090001
1.388 0.33700001 0.0070000002 107 0 0 0 0.0361
1.38 0.331 0.0080000004 23 0 0 0 0.036109999
1.357 0.32100001 0.0080000004 7 0 0 0 0.036120001
1.342 0.31299999 0.0080000004 7 0 0 0 0.03613
1.337 0.30700001 0.0080000004 8 0 0 0 0.036139999
1.33 0.301 0.0080000004 9 0 0 0 0.036150001
1.322 0.29499999 0.0080000004 9 0 0 0 0.03616
1.3150001 0.289 0.0080000004 9 0 0 0 0.036169998
1.3049999 0.28200001 0.0080000004 9 0 0 0 0.036180001
1.3 0.27700001 0.0089999996 9 0 0 0 0.036189999
1.296 0.27200001 0.0089999996 9 0 0 0 0.036200002
1.295 0.26699999 0.0089999996 9 0 0 0 0.036210001
1.289 0.26199999 0.0089999996 9 0 0 0 0.036219999
1.281 0.25600001 0.0089999996 9 0 0 0 0.036230002
1.276 0.25099999 0.0089999996 9 0 0 0 0.03624
1.275 0.24600001 0.0089999996 10 0 0 0 0.036249999
1.266 0.23999999 0.0089999996 11 0 0 0 0.036260001
1.265 0.236 0.0089999996 11 0 0 0 0.03627
1.2589999 0.23100001 0.0089999996 11 0 0 0 0.036279999
1.253 0.226 0.0089999996 18 0 0 0 0.036290001
1.2539999 0.222 0.0089999996 27 0 0 0 0.0363
1.255 0.21799999 0.0089999996 23 0 0 0 0.036309998
1.256 0.214 0.0089999996 19 0 0 0 0.036320001
1.256 0.20900001 0.0089999996 18 0 0 0 0.03633
1.2640001 0.207 0.0089999996 14 0 0 0 0.036339998
1.263 0.20200001 0.0089999996 15 0 0 0 0.036350001
1.267 0.199 0.0089999996 13 0 0 0 0.036359999
1.27 0.19499999 0.0089999996 13 0 0 0 0.036370002
1.2690001 0.191 0.0089999996 12 0 0 0 0.03638
1.273 0.18700001 0.0089999996 11 0 0 0 0.036389999
1.278 0.184 0.0089999996 11 0 0 0 0.036400001
1.2819999 0.18000001 0.0089999996 12 0 0 0 0.03641
1.2819999 0.176 0.0089999996 11 0 0 0 0.036419999
1.286 0.17200001 0.0089999996 13 0 0 0 0.036430001
1.291 0.169 0.0089999996 11 0 0 0 0.03644
1.2970001 0.16500001 0.0089999996 10 0 0 0 0.036449999
1.298 0.161 0.0089999996 10 0 0 0 0.036460001
1.3049999 0.15800001 0.0089999996 10 0 0 0 0.03647
1.307 0.154 0.0089999996 11 0 0 0 0.036479998
1.308 0.15000001 0.0089999996 12 0 0 0 0.036490001
1.313 0.146 0.0089999996 13 0 0 0 0.036499999
1.317 0.142 0.0089999996 12 0 0 0 0.036509998
1.317 0.138 0.0080000004 12 0 0 0 0.036520001
1.327 0.134 0.0080000004 12 0 0 0 0.036529999
1.327 0.13 0.0080000004 13 0 0 0 0.036540002
1.331 0.126 0.0080000004 11 0 0 0 0.03655
1.34 0.123 0.0080000004 12 0 0 0 0.036559999
1.341 0.118 0.0080000004 12 0 0 0 0.036570001
1.344 0.114 0.0080000004 12 0 0 0 0.03658
1.342 0.11 0.0070000002 11 0 0 0 0.036589999
1.355 0.106 0.0070000002 0 0 0 0 0.036600001
1.3559999 0.102 0.0070000002 13 0 0 0 0.03661
1.358 0.097999997 0.0070000002 14 0 0 0 0.036619999
1.365 0.093999997 0.0070000002 0 0 0 0 0.036630001
1.369 0.090000004 0.0060000001 16 0 0 0 0.03664
1.372 0.086000003 0.0060000001 0 0 0 0 0.036649998
1.332 0.079000004 0.0060000001 27 0 0 0 0.036660001
1.288 0.071999997 0.0049999999 26 0 0 0 0.036669999
1.23 0.064999998 0.0049999999 20 0 0 0 0.036680002
1.143 0.056000002 0.0040000002 17 0 0 0 0.03669
1.153 0.052999999 0.0040000002 20 0 0 0 0.036699999
1.154 0.048999999 0.0040000002 11 0 0 0 0.036710002
1.152 0.046 0.003 4 0 0 0 0.03672
1.145 0.041999999 0.003 3 0 0 0 0.036729999
1.137 0.037999999 0.003 3 0 0 0 0.036740001
1.126 0.034000002 0.0020000001 3 0 0 0 0.03675
1.119 0.029999999 0.0020000001 3 0 0 0 0.036759999
1.118 0.026000001 0.0020000001 3 0 0 0 0.036770001
1.115 0.022 0.0020000001 4 0 0 0 0.03678
1.113 0.018999999 0.001 4 0 0 0 0.036789998
1.11 0.015 0.001 5 0 0 0 0.036800001
1.103 0.012 0.001 5 0 0 0 0.036809999
1.098 0.0080000004 0 5 0 0 0 0.036819998
1.1 0.0040000002 0 5 0 0 0 0.036830001
1.092 0.001 0 5 0 0 0 0.036839999
1.098 -0.0020000001 0 5 0 0 0 0.036850002
1.0930001 -0.0049999999 0 5 0 0 0 0.03686
1.0930001 -0.0089999996 0 5 0 0 0 0.036869999
1.091 -0.012 -0.001 5 0 0 0 0.036880001
1.097 -0.016000001 -0.001 6 0 0 0 0.03689
1.094 -0.018999999 -0.001 5 0 0 0 0.036899999
1.092 -0.023 -0.0020000001 5 0 0 0 0.036910001
1.091 -0.026000001 -0.0020000001 4 0 0 0 0.03692
1.09 -0.029999999 -0.0020000001 3 0 0 0 0.036929999
1.087 -0.033 -0.003 3 0 0 0 0.036940001
1.096 -0.037 -0.003 4 0 0 0 0.03695
1.094 -0.039999999 -0.003 4 0 0 0 0.036959998
1.104 -0.044 -0.0040000002 4 0 0 0 0.036970001
1.104 -0.048 -0.0040000002 4 0 0 0 0.036979999
1.105 -0.052000001 -0.0049999999 4 0 0 0 0.036990002
1.102 -0.055 -0.0049999999 4 0 0 0 0.037
1.105 -0.059 -0.0060000001 4 0 0 0 0.037009999
1.1059999 -0.061999999 -0.0060000001 4 0 0 0 0.037020002
1.107 -0.066 -0.0060000001 4 0 0 0 0.03703
1.109 -0.07 -0.0070000002 4 0 0 0 0.037039999
1.1109999 -0.072999999 -0.0070000002 4 0 0 0 0.037050001
1.109 -0.077 -0.0080000004 4 0 0 0 0.03706
1.114 -0.081 -0.0080000004 4 0 0 0 0.037069999
1.117 -0.083999999 -0.0089999996 4 0 0 0 0.037080001
1.123 -0.089000002 -0.0089999996 4 0 0 0 0.03709
1.123 -0.092 -0.0099999998 3 0 0 0 0.037099998
1.125 -0.096000001 -0.0099999998 3 0 0 0 0.037110001
1.131 -0.1 -0.011 3 0 0 0 0.03712
1.138 -0.104 -0.012 3 0 0 0 0.037129998
1.137 -0.108 -0.012 3 0 0 0 0.037140001
1.143 -0.112 -0.013 3 0 0 0 0.037149999
1.147 -0.116 -0.013 3 0 0 0 0.037160002
1.15 -0.12 -0.014 3 0 0 0 0.03717
1.159 -0.125 -0.014 3 0 0 0 0.037179999
1.16 -0.12899999 -0.015 3 0 0 0 0.037190001
1.165 -0.133 -0.016000001 3 0 0 0 0.0372
1.174 -0.138 -0.016000001 3 0 0 0 0.037209999
1.184 -0.14300001 -0.017000001 3 0 0 0 0.037220001
1.186 -0.147 -0.017999999 3 0 0 0 0.03723
1.196 -0.152 -0.018999999 3 0 0 0 0.037239999
1.209 -0.15800001 -0.018999999 3 0 0 0 0.037250001
1.2180001 -0.163 -0.02 4 0 0 0 0.03726
1.219 -0.167 -0.021 4 0 0 0 0.037269998
1.2309999 -0.17299999 -0.022 4 0 0 0 0.037280001
1.2359999 -0.177 -0.023 4 0 0 0 0.037289999
1.243 -0.182 -0.023 3 0 0 0 0.037300002
1.2589999 -0.189 -0.024 4 0 0 0 0.037310001
1.27 -0.19499999 -0.025 4 0 0 0 0.037319999
1.275 -0.199 -0.026000001 4 0 0 0 0.037330002
1.29 -0.206 -0.027000001 4 0 0 0 0.03734
1.3049999 -0.212 -0.028000001 5 0 0 0 0.037349999
1.3099999 -0.21799999 -0.028999999 5 0 0 0 0.037360001
1.311 -0.222 -0.029999999 5 0 0 0 0.03737
1.323 -0.228 -0.030999999 5 0 0 0 0.037379999
1.326 -0.233 -0.032000002 4 0 0 0 0.037390001
1.318 -0.236 -0.033 1 0 0 0 0.0374
1.313 -0.23899999 -0.033 0 0 0 0 0.037409998
1.135 -0.20999999 -0.029999999 0 0 0 0 0.037420001
1.056 -0.199 -0.028000001 0 0 0 0 0.03743
1.058 -0.20299999 -0.028999999 0 0 0 0 0.037439998
1.0369999 -0.20299999 -0.028999999 0 0 0 0 0.037450001
1.026 -0.204 -0.028999999 0 0 0 0 0.037459999
1.028 -0.207 -0.029999999 0 0 0 0 0.037470002
1.025 -0.20999999 -0.030999999 0 0 0 0 0.03748
1.028 -0.214 -0.032000002 0 0 0 0 0.037489999
1.016 -0.215 -0.032000002 0 0 0 0 0.037500001
0.99400002 -0.213 -0.032000002 0 0 0 0 0.03751
1.003 -0.219 -0.033 0 0 0 0 0.037519999
1.018 -0.22499999 -0.034000002 0 0 0 0 0.037530001
1.043 -0.234 -0.035999998 0 0 0 0 0.03754
1.131 -0.257 -0.039999999 0 0 0 0 0.037549999
1.133 -0.26199999 -0.041000001 0 0 0 0 0.037560001
1.176 -0.27500001 -0.043000001 0 0 0 0 0.03757
1.189 -0.28200001 -0.044 0 0 0 0 0.037579998
1.151 -0.27700001 -0.044 0 0 0 0 0.037590001
1.123 -0.27399999 -0.044 0 0 0 0 0.037599999
1.077 -0.266 -0.043000001 0 0 0 0 0.037610002
1.0140001 -0.25400001 -0.041000001 0 0 0 0 0.037620001
0.98400003 -0.25 -0.041000001 0 0 0 0 0.037629999
0.97299999 -0.25 -0.041000001 0 0 0 0 0.037640002
0.96700001 -0.252 -0.041000001 0 0 0 0 0.03765
0.96899998 -0.255 -0.041999999 0 0 0 0 0.037659999
0.95300001 -0.25400001 -0.041999999 0 0 0 0 0.037670001
0.958 -0.259 -0.043000001 0 0 0 0 0.03768
0.96700001 -0.264 -0.045000002 0 0 0 0 0.037689999
0.97299999 -0.26899999 -0.046 0 0 0 0 0.037700001
1.002 -0.28 -0.048 0 0 0 0 0.03771
1.25 -0.354 -0.061000001 0 0 0 0 0.037719999
1.521 -0.43599999 -0.075999998 1 0 0 0 0.037730001
1.5599999 -0.45199999 -0.079000004 2 0 0 0 0.03774
1.5599999 -0.45699999 -0.081 3 0 0 0 0.037749998
1.549 -0.45899999 -0.081 8 0 0 0 0.037760001
1.561 -0.46700001 -0.083999999 9 0 0 0 0.037769999
1.564 -0.47299999 -0.085000001 11 0 0 0 0.037780002
1.58 -0.48300001 -0.088 12 0 0 0 0.03779
1.5880001 -0.491 -0.090000004 13 0 0 0 0.037799999
1.6 -0.5 -0.092 17 0 0 0 0.037810002
1.597 -0.50400001 -0.093000002 29 0 0 0 0.03782
1.605 -0.51200002 -0.094999999 39 0 0 0 0.037829999
1.609 -0.51800001 -0.097000003 32 0 0 0 0.037840001
1.612 -0.52499998 -0.098999999 17 0 0 0 0.03785
1.638 -0.53799999 -0.102 15 0 0 0 0.037859999
1.653 -0.54799998 -0.105 38 0 0 0 0.037870001
1.647 -0.55199999 -0.106 135 0 0 0 0.03788
1.649 -0.55800003 -0.108 134 0 0 0 0.037889998
1.652 -0.56400001 -0.11 38 0 0 0 0.037900001
1.6670001 -0.57499999 -0.113 19 0 0 0 0.037909999
1.674 -0.583 -0.115 17 0 0 0 0.037919998
1.678 -0.58899999 -0.117 19 0 0 0 0.037930001
1.717 -0.60900003 -0.122 30 0 0 0 0.037939999
1.755 -0.62800002 -0.126 55 0 0 0 0.037950002
1.767 -0.63800001 -0.12899999 59 0 0 0 0.03796
1.771 -0.64499998 -0.131 117 0 0 0 0.037969999
1.768 -0.64999998 -0.133 150 0 0 0 0.037980001
1.772 -0.65700001 -0.13500001 126 0 0 0 0.03799
1.773 -0.66299999 -0.13699999 129 0 0 0 0.037999999
1.772 -0.66799998 -0.14 88 0 0 0 0.038010001
1.7819999 -0.67699999 -0.142 67 0 0 0 0.03802
1.785 -0.685 -0.145 62 0 0 0 0.038029999
1.79 -0.69199997 -0.147 49 0 0 0 0.038040001
1.7920001 -0.699 -0.15000001 38 0 0 0 0.03805
1.796 -0.70599997 -0.152 34 0 0 0 0.038059998
1.808 -0.71700001 -0.155 150 0 0 0 0.038070001
1.807 -0.722 -0.15700001 150 0 0 0 0.038079999
1.816 -0.73100001 -0.161 150 0 0 0 0.038090002
1.819 -0.73799998 -0.163 150 0 0 0 0.0381
1.8200001 -0.74400002 -0.16599999 150 0 0 0 0.038109999
1.827 -0.75300002 -0.168 150 0 0 0 0.038120002
1.836 -0.76200002 -0.17200001 150 0 0 0 0.03813
1.842 -0.77100003 -0.175 150 0 0 0 0.038139999
1.8430001 -0.77700001 -0.177 150 0 0 0 0.038150001
1.855 -0.78799999 -0.18099999 150 0 0 0 0.03816
1.855 -0.79400003 -0.183 150 0 0 0 0.038169999
1.862 -0.80299997 -0.18700001 150 0 0 0 0.038180001
1.8710001 -0.81199998 -0.19 136 0 0 0 0.03819
1.877 -0.81999999 -0.193 111 0 0 0 0.038199998
1.888 -0.83099997 -0.197 94 0 0 0 0.038210001
1.901 -0.84299999 -0.20100001 89 0 0 0 0.03822
1.915 -0.85500002 -0.205 96 0 0 0 0.038229998
1.9299999 -0.86799997 -0.20900001 117 0 0 0 0.038240001
1.938 -0.87699997 -0.213 118 0 0 0 0.038249999
1.951 -0.889 -0.21699999 104 0 0 0 0.038260002
1.965 -0.90200001 -0.222 94 0 0 0 0.03827
1.9529999 -0.90200001 -0.223 93 0 0 0 0.038279999
1.875 -0.87199998 -0.21699999 86 0 0 0 0.038290001
1.819 -0.85100001 -0.213 72 0 0 0 0.0383
1.8049999 -0.85000002 -0.214 135 0 0 0 0.038309999
1.7920001 -0.84899998 -0.215 150 0 0 0 0.038320001
1.791 -0.85399997 -0.21799999 150 0 0 0 0.03833
1.783 -0.85600001 -0.22 150 0 0 0 0.038339999
1.778 -0.85900003 -0.222 150 0 0 0 0.038350001
1.774 -0.86199999 -0.22400001 150 0 0 0 0.03836
1.772 -0.866 -0.227 151 0 0 0 0.038369998
1.763 -0.86699998 -0.228 151 0 0 0 0.038380001
1.766 -0.87300003 -0.23199999 151 0 0 0 0.038389999
0.57800001 -0.241 -0.17 0 0 0 0 0.040320002
0.58399999 -0.241 -0.171 1 0 0 0 0.04033
0.588 -0.241 -0.171 1 0 0 0 0.040339999
0.58899999 -0.23999999 -0.171 1 0 0 0 0.040350001
0.59100002 -0.23899999 -0.171 1 0 0 0 0.04036
0.58999997 -0.237 -0.17 1 0 0 0 0.040369999
0.588 -0.234 -0.168 1 0 0 0 0.040380001
0.58600003 -0.23199999 -0.167 1 0 0 0 0.04039
0.58600003 -0.23 -0.16599999 1 0 0 0 0.040399998
0.58600003 -0.228 -0.16500001 1 0 0 0 0.040410001
0.58700001 -0.226 -0.16500001 0 0 0 0 0.04042
0.58899999 -0.226 -0.16500001 0 0 0 0 0.040429998
0.583 -0.221 -0.162 0 0 0 0 0.040440001
0.588 -0.222 -0.163 0 0 0 0 0.040449999
0.59200001 -0.221 -0.163 0 0 0 0 0.040460002
0.58999997 -0.21799999 -0.161 0 0 0 0 0.04047
0.59200001 -0.21799999 -0.161 0 0 0 0 0.040479999
0.59100002 -0.215 -0.16 0 0 0 0 0.040490001
0.58899999 -0.213 -0.15899999 0 0 0 0 0.0405
0.59299999 -0.212 -0.15899999 0 0 0 0 0.040509999
0.60000002 -0.213 -0.16 0 0 0 0 0.040520001
0.59600002 -0.20999999 -0.15800001 0 0 0 0 0.04053
0.59799999 -0.20900001 -0.15700001 0 0 0 0 0.040539999
0.60500002 -0.20900001 -0.15800001 0 0 0 0 0.040550001
0.59299999 -0.20299999 -0.154 0 0 0 0 0.04056
0.60299999 -0.205 -0.156 0 0 0 0 0.040569998
0.60100001 -0.20200001 -0.154 0 0 0 0 0.040580001
0.60799998 -0.20299999 -0.155 0 0 0 0 0.040589999
0.60900003 -0.20100001 -0.154 0 0 0 0 0.040600002
0.60600001 -0.199 -0.153 0 0 0 0 0.04061
0.60399997 -0.19599999 -0.15099999 0 0 0 0 0.040619999
0.61199999 -0.197 -0.152 0 0 0 0 0.040630002
0.61000001 -0.19499999 -0.15099999 0 0 0 0 0.04064
0.61000001 -0.193 -0.15000001 0 0 0 0 0.040649999
0.61400002 -0.192 -0.15000001 0 0 0 0 0.040660001
0.61699998 -0.191 -0.149 0 0 0 0 0.04067
0.61699998 -0.189 -0.148 0 0 0 0 0.040679999
0.61699998 -0.18700001 -0.147 0 0 0 0 0.040690001
0.61799997 -0.186 -0.146 0 0 0 0 0.0407
0.62 -0.185 -0.146 0 0 0 0 0.040709998
0.616 -0.182 -0.14399999 0 0 0 0 0.040720001
0.62699997 -0.183 -0.145 0 0 0 0 0.04073
0.62900001 -0.182 -0.145 0 0 0 0 0.040739998
0.62800002 -0.18000001 -0.14300001 0 0 0 0 0.040750001
0.63 -0.17900001 -0.14300001 0 0 0 0 0.040759999
0.63599998 -0.178 -0.14300001 0 0 0 0 0.040770002
0.639 -0.177 -0.142 0 0 0 0 0.04078
0.63700002 -0.175 -0.141 0 0 0 0 0.040789999
0.63700002 -0.17299999 -0.14 0 0 0 0 0.040800001
0.63800001 -0.17200001 -0.139 0 0 0 0 0.04081
0.64499998 -0.171 -0.139 0 0 0 0 0.040819999
0.64499998 -0.17 -0.138 0 0 0 0 0.040830001
0.648 -0.169 -0.13699999 0 0 0 0 0.04084
0.65200001 -0.168 -0.13699999 0 0 0 0 0.040849999
0.64899999 -0.16500001 -0.13500001 0 0 0 0 0.040860001
0.653 -0.164 -0.13500001 0 0 0 0 0.04087
0.65600002 -0.163 -0.134 0 0 0 0 0.040879998
0.66100001 -0.162 -0.134 1 0 0 0 0.040890001
0.66399997 -0.161 -0.133 0 0 0 0 0.040899999
0.66500002 -0.16 -0.132 0 0 0 0 0.040910002
0.67000002 -0.15899999 -0.132 0 0 0 0 0.040920001
0.66500002 -0.156 -0.13 0 0 0 0 0.040929999
0.662 -0.153 -0.12800001 0 0 0 0 0.040940002
0.66799998 -0.153 -0.12800001 0 0 0 0 0.04095
0.653 -0.148 -0.124 0 0 0 0 0.040959999
0.69700003 -0.156 -0.131 0 0 0 0 0.040970001
0.69400001 -0.153 -0.12899999 0 0 0 0 0.04098
0.69800001 -0.152 -0.12800001 0 0 0 0 0.040989999
0.68000001 -0.146 -0.124 0 0 0 0 0.041000001
0.69499999 -0.148 -0.125 0 0 0 0 0.04101
0.69999999 -0.147 -0.125 0 0 0 0 0.041019998
0.72299999 -0.15000001 -0.127 0 0 0 0 0.041030001
0.727 -0.148 -0.127 0 0 0 0 0.04104
0.71899998 -0.145 -0.124 0 0 0 0 0.041049998
0.74800003 -0.149 -0.127 0 0 0 0 0.041060001
0.74000001 -0.145 -0.125 0 0 0 0 0.041069999
0.74400002 -0.14399999 -0.124 0 0 0 0 0.041080002
0.75400001 -0.14399999 -0.124 0 0 0 0 0.04109
0.76300001 -0.14300001 -0.124 0 0 0 0 0.041099999
0.75400001 -0.14 -0.121 0 0 0 0 0.041110002
0.78299999 -0.14300001 -0.124 0 0 0 0 0.04112
0.77899998 -0.14 -0.122 0 0 0 0 0.041129999
0.79000002 -0.14 -0.122 0 0 0 0 0.041140001
0.79799998 -0.139 -0.122 0 0 0 0 0.04115
0.79900002 -0.13699999 -0.12 0 0 0 0 0.041159999
0.81999999 -0.139 -0.122 0 0 0 0 0.041170001
0.84399998 -0.141 -0.124 0 0 0 0 0.04118
0.847 -0.139 -0.122 0 0 0 0 0.041189998
0.85600001 -0.138 -0.122 0 0 0 0 0.041200001
0.86900002 -0.138 -0.122 0 0 0 0 0.041209999
0.89899999 -0.14 -0.124 0 0 0 0 0.041219998
0.89899999 -0.138 -0.122 0 0 0 0 0.041230001
0.91000003 -0.13699999 -0.122 0 0 0 0 0.041239999
0.92699999 -0.138 -0.123 0 0 0 0 0.041250002
0.93599999 -0.13600001 -0.122 0 0 0 0 0.04126
0.958 -0.13699999 -0.123 0 0 0 0 0.041269999
0.96100003 -0.13500001 -0.121 0 0 0 0 0.041280001
0.96499997 -0.133 -0.12 0 0 0 0 0.04129
0.986 -0.134 -0.12 0 0 0 0 0.041299999
0.98100001 -0.13 -0.118 0 0 0 0 0.041310001
0.96799999 -0.126 -0.114 0 0 0 0 0.04132
0.98199999 -0.125 -0.114 0 0 0 0 0.041329999
0.99900001 -0.125 -0.113 0 0 0 0 0.041340001
1 -0.123 -0.111 0 0 0 0 0.04135
0.99400002 -0.119 -0.109 0 0 0 0 0.041359998
0.99699998 -0.117 -0.107 0 0 0 0 0.041370001
0.99699998 -0.115 -0.105 0 0 0 0 0.041379999
1.008 -0.113 -0.104 0 0 0 0 0.041390002
1.006 -0.111 -0.102 0 0 0 0 0.0414
1.022 -0.11 -0.101 0 0 0 0 0.041409999
1.0369999 -0.109 -0.1 0 0 0 0 0.041420002
1.022 -0.105 -0.097000003 0 0 0 0 0.04143
1.034 -0.104 -0.096000001 0 0 0 0 0.041439999
1.069 -0.104 -0.097000003 0 0 0 0 0.041450001
1.146 -0.109 -0.101 0 0 0 0 0.04146
1.159 -0.107 -0.1 1 0 0 0 0.041469999
1.1569999 -0.104 -0.097000003 3 0 0 0 0.041480001
1.151 -0.101 -0.093999997 4 0 0 0 0.04149
1.149 -0.097999997 -0.092 5 0 0 0 0.041499998
1.145 -0.094999999 -0.089000002 5 0 0 0 0.041510001
1.146 -0.092 -0.086000003 5 0 0 0 0.04152
1.143 -0.089000002 -0.083999999 5 0 0 0 0.041529998
1.142 -0.086000003 -0.081 5 0 0 0 0.041540001
1.14 -0.082999997 -0.079000004 4 0 0 0 0.041549999
1.135 -0.079999998 -0.075999998 4 0 0 0 0.041560002
1.135 -0.077 -0.072999999 4 0 0 0 0.04157
1.131 -0.074000001 -0.071000002 3 0 0 0 0.041579999
1.1289999 -0.071999997 -0.068000004 3 0 0 0 0.041590001
1.126 -0.068999998 -0.064999998 3 0 0 0 0.0416
1.1210001 -0.066 -0.063000001 3 0 0 0 0.041609999
1.117 -0.063000001 -0.059999999 4 0 0 0 0.041620001
1.11 -0.059999999 -0.057 4 0 0 0 0.04163
1.114 -0.057 -0.055 4 0 0 0 0.041639999
1.11 -0.054000001 -0.052000001 5 0 0 0 0.041650001
1.11 -0.052000001 -0.050000001 4 0 0 0 0.04166
1.103 -0.048999999 -0.046999998 5 0 0 0 0.041669998
1.108 -0.046 -0.045000002 5 0 0 0 0.041680001
1.107 -0.044 -0.041999999 5 0 0 0 0.041689999
1.104 -0.041000001 -0.039999999 5 0 0 0 0.041700002
1.107 -0.037999999 -0.037 5 0 0 0 0.04171
1.107 -0.035999998 -0.035 4 0 0 0 0.041719999
1.1059999 -0.033 -0.032000002 4 0 0 0 0.041730002
1.099 -0.029999999 -0.029999999 4 0 0 0 0.04174
1.1059999 -0.028000001 -0.027000001 4 0 0 0 0.041749999
1.101 -0.025 -0.025 4 0 0 0 0.041760001
1.097 -0.023 -0.022 3 0 0 0 0.04177
1.104 -0.02 -0.02 4 0 0 0 0.041779999
1.1 -0.017999999 -0.017000001 4 0 0 0 0.041790001
1.097 -0.015 -0.015 4 0 0 0 0.0418
1.098 -0.012 -0.012 5 0 0 0 0.041809998
1.1 -0.0099999998 -0.0099999998 4 0 0 0 0.041820001
1.103 -0.0070000002 -0.0070000002 4 0 0 0 0.04183
1.107 -0.0049999999 -0.0049999999 4 0 0 0 0.041839998
1.104 -0.0020000001 -0.0020000001 4 0 0 0 0.041850001
1.105 0 0 4 0 0 0 0.041859999
1.109 0.0020000001 0.0020000001 4 0 0 0 0.041870002
1.107 0.0040000002 0.0040000002 4 0 0 0 0.04188
1.104 0.0070000002 0.0070000002 3 0 0 0 0.041889999
1.112 0.0089999996 0.0089999996 3 0 0 0 0.041900001
1.115 0.012 0.012 3 0 0 0 0.04191
1.113 0.015 0.014 3 0 0 0 0.041919999
1.118 0.017000001 0.017000001 3 0 0 0 0.041930001
1.126 0.02 0.02 3 0 0 0 0.04194
1.123 0.022 0.022 3 0 0 0 0.041949999
1.128 0.025 0.025 3 0 0 0 0.041960001
1.133 0.028000001 0.028000001 3 0 0 0 0.04197
1.137 0.029999999 0.030999999 3 0 0 0 0.041979998
1.15 0.033 0.034000002 3 0 0 0 0.041990001
1.154 0.035999998 0.035999998 4 0 0 0 0.041999999
1.156 0.039000001 0.039000001 7 0 0 0 0.042010002
1.156 0.041000001 0.041999999 11 0 0 0 0.042020001
1.154 0.044 0.045000002 10 0 0 0 0.042029999
1.211 0.048999999 0.050000001 15 0 0 0 0.042040002
1.312 0.056000002 0.057 25 0 0 0 0.04205
1.381 0.061999999 0.063000001 19 0 0 0 0.042059999
1.423 0.067000002 0.068000004 9 0 0 0 0.042070001
1.433 0.07 0.071999997 9 0 0 0 0.04208
1.436 0.074000001 0.075999998 8 0 0 0 0.042089999
1.437 0.077 0.079000004 7 0 0 0 0.042100001
1.446 0.081 0.082999997 6 0 0 0 0.04211
1.446 0.083999999 0.086999997 6 0 0 0 0.042119998
1.4529999 0.086999997 0.090999998 5 0 0 0 0.042130001
1.495 0.093000002 0.097000003 6 0 0 0 0.04214
1.507 0.097000003 0.101 9 0 0 0 0.042149998
1.5089999 0.101 0.105 14 0 0 0 0.042160001
1.5039999 0.104 0.108 12 0 0 0 0.042169999
1.503 0.107 0.112 11 0 0 0 0.042180002
1.497 0.11 0.115 11 0 0 0 0.04219
1.4960001 0.113 0.119 11 0 0 0 0.042199999
1.492 0.116 0.122 12 0 0 0 0.042210001
1.489 0.119 0.125 10 0 0 0 0.04222
1.4910001 0.122 0.12899999 9 0 0 0 0.042229999
1.489 0.125 0.133 8 0 0 0 0.042240001
1.49 0.12899999 0.13600001 9 0 0 0 0.04225
1.4859999 0.131 0.14 11 0 0 0 0.042259999
1.482 0.134 0.14300001 12 0 0 0 0.042270001
1.479 0.13699999 0.146 11 0 0 0 0.04228
1.472 0.14 0.149 11 0 0 0 0.042289998
1.4680001 0.142 0.152 11 0 0 0 0.042300001
1.461 0.145 0.155 11 0 0 0 0.042309999
1.46 0.148 0.15899999 11 0 0 0 0.042319998
1.457 0.15099999 0.162 11 0 0 0 0.042330001
1.455 0.154 0.16599999 11 0 0 0 0.042339999
1.454 0.15700001 0.169 11 0 0 0 0.042350002
1.452 0.15899999 0.17299999 11 0 0 0 0.04236
1.452 0.162 0.176 9 0 0 0 0.042369999
1.457 0.16599999 0.18099999 7 0 0 0 0.042380001
1.451 0.169 0.184 7 0 0 0 0.04239
1.45 0.171 0.18700001 8 0 0 0 0.042399999
1.451 0.175 0.191 7 0 0 0 0.042410001
1.442 0.177 0.193 7 0 0 0 0.04242
1.439 0.17900001 0.197 8 0 0 0 0.042429999
1.4349999 0.182 0.2 9 0 0 0 0.042440001
1.437 0.185 0.204 8 0 0 0 0.04245
1.431 0.18700001 0.207 9 0 0 0 0.042459998
1.424 0.189 0.20900001 11 0 0 0 0.042470001
1.421 0.192 0.212 12 0 0 0 0.042479999
1.418 0.19400001 0.21600001 13 0 0 0 0.042490002
1.4170001 0.197 0.219 13 0 0 0 0.0425
1.416 0.2 0.223 13 0 0 0 0.042509999
1.411 0.20200001 0.226 14 0 0 0 0.042520002
1.408 0.204 0.229 15 0 0 0 0.04253
1.4069999 0.207 0.23199999 16 0 0 0 0.042539999
1.406 0.20999999 0.236 15 0 0 0 0.042550001
1.4 0.212 0.23899999 19 0 0 0 0.04256
1.403 0.215 0.243 16 0 0 0 0.042569999
1.398 0.21699999 0.24600001 19 0 0 0 0.042580001
1.399 0.22 0.25 19 0 0 0 0.04259
1.401 0.223 0.25400001 19 0 0 0 0.042599998
1.399 0.226 0.257 23 0 0 0 0.042610001
1.3940001 0.228 0.25999999 20 0 0 0 0.042619999
1.393 0.23 0.26300001 18 0 0 0 0.042629998
1.392 0.233 0.26699999 18 0 0 0 0.042640001
1.395 0.236 0.271 16 0 0 0 0.042649999
1.395 0.23899999 0.27500001 15 0 0 0 0.042660002
1.395 0.242 0.27900001 18 0 0 0 0.04267
1.3890001 0.244 0.28099999 20 0 0 0 0.042679999
1.391 0.24699999 0.28600001 18 0 0 0 0.042690001
1.387 0.249 0.28799999 23 0 0 0 0.0427
1.3890001 0.252 0.29300001 25 0 0 0 0.042709999
1.387 0.25400001 0.296 24 0 0 0 0.042720001
1.386 0.257 0.30000001 24 0 0 0 0.04273
1.385 0.259 0.303 29 0 0 0 0.042739999
1.381 0.26100001 0.30599999 25 0 0 0 0.042750001
1.38 0.26300001 0.31 24 0 0 0 0.04276
1.38 0.266 0.31400001 27 0 0 0 0.042769998
1.3789999 0.26899999 0.317 26 0 0 0 0.042780001
1.378 0.271 0.32100001 26 0 0 0 0.042789999
1.373 0.273 0.324 25 0 0 0 0.042800002
1.373 0.27500001 0.32800001 24 0 0 0 0.04281
1.37 0.27700001 0.331 24 0 0 0 0.042819999
1.372 0.28 0.33500001 27 0 0 0 0.042830002
1.372 0.28299999 0.33899999 27 0 0 0 0.04284
1.37 0.285 0.34200001 29 0 0 0 0.042849999
1.3660001 0.287 0.345 30 0 0 0 0.042860001
1.367 0.28999999 0.34900001 38 0 0 0 0.04287
1.363 0.29100001 0.352 33 0 0 0 0.042879999
1.364 0.294 0.35600001 35 0 0 0 0.042890001
1.377 0.29899999 0.36399999 47 0 0 0 0.0429
1.4 0.30700001 0.37400001 70 0 0 0 0.042909998
1.419 0.31400001 0.38299999 113 0 0 0 0.042920001
1.42 0.31600001 0.38699999 131 0 0 0 0.04293
1.418 0.31900001 0.391 133 0 0 0 0.042939998
1.418 0.32100001 0.39500001 150 0 0 0 0.042950001
1.415 0.32300001 0.398 134 0 0 0 0.042959999
1.414 0.32499999 0.40200001 149 0 0 0 0.042970002
1.41 0.32699999 0.405 148 0 0 0 0.04298
1.408 0.329 0.40799999 150 0 0 0 0.042989999
1.4069999 0.331 0.412 150 0 0 0 0.043000001
1.408 0.33399999 0.41600001 150 0 0 0 0.04301
1.401 0.33500001 0.419 150 0 0 0 0.043019999
1.4 0.33700001 0.42199999 150 0 0 0 0.043030001
1.401 0.33899999 0.42699999 150 0 0 0 0.04304
1.396 0.34 0.42899999 150 0 0 0 0.043049999
1.3940001 0.34200001 0.433 150 0 0 0 0.043060001
1.392 0.34400001 0.43700001 150 0 0 0 0.04307
1.391 0.34599999 0.44 150 0 0 0 0.043079998
1.39 0.34799999 0.44400001 150 0 0 0 0.043090001
1.39 0.35100001 0.44800001 150 0 0 0 0.043099999
1.386 0.352 0.45100001 150 0 0 0 0.043110002
1.385 0.354 0.45500001 150 0 0 0 0.043120001
1.382 0.35600001 0.458 150 0 0 0 0.043129999
1.381 0.35800001 0.46200001 150 0 0 0 0.043140002
1.3789999 0.359 0.46599999 150 0 0 0 0.04315
1.378 0.361 0.47 150 0 0 0 0.043159999
1.376 0.36300001 0.47299999 150 0 0 0 0.043170001
1.375 0.36500001 0.477 150 0 0 0 0.04318
1.373 0.366 0.47999999 150 0 0 0 0.043189999
1.372 0.368 0.484 150 0 0 0 0.043200001
1.37 0.37 0.48699999 150 0 0 0 0.04321
1.368 0.37099999 0.491 150 0 0 0 0.043219998
1.3660001 0.373 0.495 150 0 0 0 0.043230001
1.365 0.375 0.498 150 0 0 0 0.04324
1.363 0.37599999 0.50199997 150 0 0 0 0.043249998
1.364 0.37799999 0.50599998 150 0 0 0 0.043260001
1.36 0.37900001 0.509 150 0 0 0 0.043269999
1.358 0.38 0.51200002 150 0 0 0 0.043280002
1.359 0.38299999 0.51700002 150 0 0 0 0.04329
1.354 0.38299999 0.51899999 150 0 0 0 0.043299999
1.354 0.38499999 0.523 150 0 0 0 0.043310001
1.349 0.38600001 0.52499998 150 0 0 0 0.04332
1.352 0.38800001 0.53100002 150 0 0 0 0.043329999
1.351 0.38999999 0.53399998 150 0 0 0 0.043340001
1.348 0.391 0.537 150 0 0 0 0.04335
1.345 0.39199999 0.54000002 150 0 0 0 0.043359999
1.3430001 0.39300001 0.54400003 150 0 0 0 0.043370001
1.3430001 0.39500001 0.54799998 150 0 0 0 0.04338
1.341 0.396 0.551 150 0 0 0 0.043389998
1.341 0.39700001 0.55500001 150 0 0 0 0.043400001
1.3380001 0.398 0.55800003 150 0 0 0 0.043409999
1.337 0.39899999 0.56199998 150 0 0 0 0.043419998
1.335 0.40099999 0.565 150 0 0 0 0.043430001
1.337 0.403 0.56999999 150 0 0 0 0.043439999
1.332 0.403 0.57200003 150 0 0 0 0.043450002
1.33 0.40400001 0.57499999 150 0 0 0 0.04346
1.3279999 0.405 0.579 150 0 0 0 0.043469999
1.33 0.40700001 0.583 150 0 0 0 0.043480001
1.327 0.40700001 0.58600003 150 0 0 0 0.04349
1.327 0.40799999 0.58999997 150 0 0 0 0.043499999
1.325 0.40900001 0.59299999 150 0 0 0 0.043510001
1.326 0.41100001 0.59799999 150 0 0 0 0.04352
1.321 0.41100001 0.59899998 150 0 0 0 0.043529999
1.321 0.412 0.60299999 150 0 0 0 0.043540001
1.321 0.41299999 0.60699999 150 0 0 0 0.04355
1.319 0.414 0.611 150 0 0 0 0.043559998
1.319 0.41499999 0.61500001 150 0 0 0 0.043570001
1.319 0.41600001 0.61900002 150 0 0 0 0.043579999
1.317 0.417 0.62199998 150 0 0 0 0.043590002
1.316 0.41800001 0.625 150 0 0 0 0.0436
1.318 0.41999999 0.63 150 0 0 0 0.043609999
1.3 0.41499999 0.625 150 0 0 0 0.043620002
1.299 0.41499999 0.62800002 150 0 0 0 0.04363
1.299 0.417 0.63300002 150 0 0 0 0.043639999
1.298 0.417 0.63599998 150 0 0 0 0.043650001
1.296 0.41800001 0.639 150 0 0 0 0.04366
1.299 0.419 0.64399999 150 0 0 0 0.043669999
1.2970001 0.41999999 0.64700001 150 0 0 0 0.043680001
1.298 0.421 0.65100002 150 0 0 0 0.04369
1.298 0.421 0.65499997 150 0 0 0 0.043699998
1.293 0.421 0.65600002 150 0 0 0 0.043710001
1.294 0.42199999 0.66000003 150 0 0 0 0.043719999
1.295 0.42300001 0.66399997 150 0 0 0 0.043729998
1.29 0.42199999 0.66600001 150 0 0 0 0.043740001
1.2920001 0.42300001 0.67000002 150 0 0 0 0.043749999
1.295 0.42500001 0.67500001 150 0 0 0 0.043760002
1.289 0.42300001 0.676 150 0 0 0 0.04377
1.2869999 0.42300001 0.67799997 150 0 0 0 0.043779999
1.291 0.42500001 0.68400002 150 0 0 0 0.043790001
1.284 0.42300001 0.68400002 150 0 0 0 0.0438
1.293 0.42699999 0.69199997 150 0 0 0 0.043809999
1.296 0.428 0.69700003 150 0 0 0 0.043820001
1.29 0.426 0.69700003 150 0 0 0 0.04383
1.289 0.426 0.69999999 150 0 0 0 0.043839999
1.294 0.428 0.70599997 150 0 0 0 0.043850001
1.293 0.428 0.70899999 150 0 0 0 0.04386
1.291 0.428 0.71200001 150 0 0 0 0.043869998
1.291 0.428 0.71499997 150 0 0 0 0.043880001
1.289 0.42699999 0.71700001 150 0 0 0 0.043889999
1.288 0.42699999 0.72000003 150 0 0 0 0.043900002
1.2869999 0.42699999 0.722 150 0 0 0 0.04391
1.291 0.428 0.72799999 150 0 0 0 0.043919999
1.289 0.428 0.73000002 150 0 0 0 0.043930002
1.2920001 0.42899999 0.73500001 150 0 0 0 0.04394
1.291 0.428 0.73699999 150 0 0 0 0.043949999
1.29 0.428 0.74000001 150 0 0 0 0.043960001
1.289 0.42699999 0.74199998 150 0 0 0 0.04397
1.288 0.42699999 0.74400002 150 0 0 0 0.043979999
1.294 0.42899999 0.75099999 150 0 0 0 0.043990001
1.293 0.428 0.75300002 150 0 0 0 0.044
1.2920001 0.42699999 0.755 150 0 0 0 0.044009998
1.291 0.42699999 0.75700003 150 0 0 0 0.044020001
1.2970001 0.428 0.764 150 0 0 0 0.04403
1.294 0.42699999 0.76499999 150 0 0 0 0.044039998
1.295 0.42699999 0.76800001 150 0 0 0 0.044050001
1.294 0.426 0.76999998 150 0 0 0 0.044059999
1.293 0.42500001 0.77200001 150 0 0 0 0.044070002
1.299 0.426 0.778 150 0 0 0 0.04408
1.298 0.42500001 0.77999997 150 0 0 0 0.044089999
1.296 0.42399999 0.78100002 150 0 0 0 0.044100001
1.299 0.42399999 0.78500003 150 0 0 0 0.04411
1.301 0.42399999 0.78899997 150 0 0 0 0.044119999
1.3049999 0.42500001 0.79400003 150 0 0 0 0.044130001
1.304 0.42300001 0.79500002 150 0 0 0 0.04414
1.306 0.42300001 0.79799998 150 0 0 0 0.044149999
1.3049999 0.42199999 0.80000001 150 0 0 0 0.044160001
1.3099999 0.42199999 0.80500001 150 0 0 0 0.04417
1.3049999 0.41999999 0.80400002 150 0 0 0 0.044179998
1.304 0.419 0.80599999 150 0 0 0 0.044190001
1.307 0.419 0.80900002 150 0 0 0 0.044199999
1.311 0.419 0.81400001 150 0 0 0 0.044210002
1.312 0.41800001 0.81599998 150 0 0 0 0.044220001
1.312 0.417 0.81800002 150 0 0 0 0.044229999
1.3150001 0.41600001 0.82099998 150 0 0 0 0.044240002
1.316 0.41600001 0.82300001 150 0 0 0 0.04425
1.316 0.414 0.82499999 150 0 0 0 0.044259999
1.314 0.412 0.82499999 150 0 0 0 0.044270001
1.319 0.41299999 0.82999998 150 0 0 0 0.04428
1.319 0.41100001 0.83099997 150 0 0 0 0.044289999
1.322 0.41 0.83399999 150 0 0 0 0.044300001
1.326 0.41 0.838 150 0 0 0 0.04431
1.3279999 0.40900001 0.84100002 150 0 0 0 0.044319998
1.324 0.40599999 0.83899999 150 0 0 0 0.044330001
1.3279999 0.40599999 0.84299999 150 0 0 0 0.04434
1.332 0.40599999 0.84600002 150 0 0 0 0.044349998
1.332 0.40400001 0.847 150 0 0 0 0.044360001
1.335 0.403 0.85000002 150 0 0 0 0.044369999
1.335 0.40200001 0.85100001 150 0 0 0 0.044380002
1.335 0.40000001 0.85100001 150 0 0 0 0.04439
1.3380001 0.39899999 0.85399997 150 0 0 0 0.044399999
1.339 0.39700001 0.85500002 150 0 0 0 0.044410001
1.34 0.396 0.85699999 150 0 0 0 0.04442
1.3430001 0.39500001 0.85900003 150 0 0 0 0.044429999
1.3430001 0.39300001 0.85900003 150 0 0 0 0.044440001
1.348 0.39199999 0.86299998 150 0 0 0 0.04445
1.349 0.391 0.86299998 150 0 0 0 0.044459999
1.348 0.38800001 0.86299998 150 0 0 0 0.044470001
1.352 0.38699999 0.86500001 150 0 0 0 0.04448
1.351 0.38499999 0.86500001 150 0 0 0 0.044489998
1.353 0.384 0.866 150 0 0 0 0.044500001
1.3559999 0.382 0.86799997 150 0 0 0 0.044509999
1.355 0.38 0.86699998 150 0 0 0 0.044520002
1.358 0.37900001 0.86900002 150 0 0 0 0.044530001
1.359 0.377 0.86900002 150 0 0 0 0.044539999
1.363 0.375 0.87099999 150 0 0 0 0.044550002
1.3660001 0.37400001 0.87300003 150 0 0 0 0.04456
1.3660001 0.37200001 0.87300003 150 0 0 0 0.044569999
1.3710001 0.37099999 0.875 150 0 0 0 0.044580001
1.372 0.36899999 0.875 150 0 0 0 0.04459
1.373 0.36700001 0.875 150 0 0 0 0.044599999
1.373 0.36399999 0.87400001 150 0 0 0 0.044610001
1.376 0.36300001 0.875 150 0 0 0 0.04462
1.377 0.36000001 0.87400001 150 0 0 0 0.044629999
1.377 0.35800001 0.87400001 150 0 0 0 0.044640001
1.3839999 0.35800001 0.87699997 150 0 0 0 0.04465
1.385 0.35499999 0.87699997 150 0 0 0 0.044659998
1.386 0.35299999 0.87599999 150 0 0 0 0.044670001
1.387 0.35100001 0.875 150 0 0 0 0.044679999
1.388 0.34900001 0.875 150 0 0 0 0.044690002
1.396 0.34799999 0.87900001 150 0 0 0 0.0447
1.398 0.34599999 0.87800002 150 0 0 0 0.044709999
1.399 0.34299999 0.87699997 150 0 0 0 0.044720002
1.4 0.34099999 0.87599999 150 0 0 0 0.04473
1.404 0.34 0.87699997 150 0 0 0 0.044739999
1.405 0.33700001 0.87599999 150 0 0 0 0.044750001
1.4069999 0.33500001 0.875 150 0 0 0 0.04476
1.408 0.333 0.87400001 150 0 0 0 0.044769999
1.409 0.33000001 0.87300003 150 0 0 0 0.044780001
1.41 0.32800001 0.87199998 150 0 0 0 0.04479
1.415 0.32600001 0.87300003 150 0 0 0 0.044799998
1.416 0.324 0.87099999 150 0 0 0 0.044810001
1.415 0.32100001 0.86799997 150 0 0 0 0.044819999
1.419 0.31900001 0.86900002 150 0 0 0 0.044829998
1.421 0.317 0.86699998 150 0 0 0 0.044840001
1.425 0.315 0.86699998 150 0 0 0 0.044849999
1.429 0.31299999 0.86699998 150 0 0 0 0.044860002
1.4299999 0.31099999 0.866 150 0 0 0 0.04487
1.432 0.30899999 0.86400002 150 0 0 0 0.044879999
1.434 0.30599999 0.86299998 150 0 0 0 0.044890001
1.437 0.30399999 0.86199999 150 0 0 0 0.0449
1.439 0.30199999 0.86000001 150 0 0 0 0.044909999
1.4400001 0.30000001 0.85900003 150 0 0 0 0.044920001
1.444 0.29800001 0.85799998 150 0 0 0 0.04493
1.444 0.29499999 0.85500002 150 0 0 0 0.044939999
1.449 0.29300001 0.85500002 150 0 0 0 0.044950001
1.4529999 0.29100001 0.85399997 150 0 0 0 0.04496
1.4529999 0.28799999 0.85100001 150 0 0 0 0.044969998
1.46 0.287 0.85299999 150 0 0 0 0.044980001
1.465 0.285 0.852 150 0 0 0 0.044989999
1.466 0.28299999 0.85000002 150 0 0 0 0.045000002
1.4680001 0.28 0.84799999 150 0 0 0 0.04501
1.47 0.278 0.84500003 150 0 0 0 0.045019999
1.472 0.27599999 0.84299999 150 0 0 0 0.045030002
1.473 0.273 0.84100002 150 0 0 0 0.04504
1.475 0.271 0.83899999 150 0 0 0 0.045049999
1.479 0.26899999 0.83700001 150 0 0 0 0.045060001
1.48 0.266 0.83499998 150 0 0 0 0.04507
1.4809999 0.264 0.83099997 150 0 0 0 0.045079999
1.4809999 0.26100001 0.82800001 150 0 0 0 0.045090001
1.483 0.259 0.82499999 150 0 0 0 0.0451
1.484 0.25600001 0.82200003 150 0 0 0 0.045109998
1.4859999 0.25400001 0.81999999 150 0 0 0 0.045120001
1.489 0.252 0.81699997 150 0 0 0 0.04513
1.49 0.249 0.81400001 150 0 0 0 0.045139998
1.4960001 0.24699999 0.81300002 150 0 0 0 0.045150001
1.499 0.245 0.81099999 150 0 0 0 0.045159999
1.499 0.243 0.80800003 150 0 0 0 0.045170002
1.503 0.241 0.80599999 150 0 0 0 0.04518
1.502 0.23800001 0.801 150 0 0 0 0.045189999
1.505 0.236 0.79900002 150 0 0 0 0.045200001
1.506 0.233 0.79500002 150 0 0 0 0.04521
1.5089999 0.23100001 0.79299998 150 0 0 0 0.045219999
1.51 0.229 0.78899997 150 0 0 0 0.045230001
1.51 0.226 0.78500003 150 0 0 0 0.04524
1.5190001 0.22499999 0.78500003 150 0 0 0 0.045249999
1.517 0.222 0.77999997 150 0 0 0 0.045260001
1.5190001 0.22 0.77700001 150 0 0 0 0.04527
1.521 0.21799999 0.77399999 150 0 0 0 0.045279998
1.525 0.21600001 0.77100003 150 0 0 0 0.045290001
1.525 0.213 0.76700002 150 0 0 0 0.045299999
1.529 0.211 0.76499999 150 0 0 0 0.045310002
1.531 0.20900001 0.76099998 150 0 0 0 0.04532
1.534 0.207 0.759 150 0 0 0 0.045329999
1.5319999 0.204 0.75300002 150 0 0 0 0.045340002
1.535 0.20200001 0.75 150 0 0 0 0.04535
1.539 0.2 0.74699998 150 0 0 0 0.045359999
1.541 0.198 0.74400002 150 0 0 0 0.045370001
1.543 0.19599999 0.74000001 150 0 0 0 0.04538
1.545 0.19400001 0.73699999 150 0 0 0 0.045389999
1.5470001 0.192 0.73299998 150 0 0 0 0.045400001
1.549 0.19 0.72899997 150 0 0 0 0.04541
1.549 0.18700001 0.72500002 150 0 0 0 0.045419998
1.557 0.186 0.72399998 150 0 0 0 0.045430001
1.5549999 0.183 0.71799999 150 0 0 0 0.04544
1.557 0.18099999 0.71399999 150 0 0 0 0.045449998
1.558 0.17900001 0.70999998 150 0 0 0 0.045460001
1.561 0.177 0.70700002 150 0 0 0 0.045469999
1.563 0.175 0.70300001 150 0 0 0 0.045480002
1.568 0.17299999 0.69999999 150 0 0 0 0.04549
1.567 0.171 0.69499999 150 0 0 0 0.045499999
1.569 0.169 0.69099998 150 0 0 0 0.045510001
1.571 0.167 0.68699998 150 0 0 0 0.04552
1.574 0.16500001 0.68400002 150 0 0 0 0.045529999
1.575 0.163 0.67900002 150 0 0 0 0.045540001
1.576 0.161 0.67500001 150 0 0 0 0.04555
1.582 0.16 0.67199999 150 0 0 0 0.045559999
1.58 0.15700001 0.66600001 150 0 0 0 0.045570001
1.58 0.155 0.662 150 0 0 0 0.04558
1.584 0.153 0.65799999 150 0 0 0 0.045589998
1.587 0.152 0.65399998 150 0 0 0 0.045600001
1.586 0.149 0.64899999 150 0 0 0 0.045609999
1.59 0.148 0.64499998 150 0 0 0 0.045620002
1.5930001 0.146 0.64200002 150 0 0 0 0.045630001
1.592 0.14399999 0.63599998 150 0 0 0 0.045639999
1.594 0.142 0.63200003 150 0 0 0 0.045650002
1.599 0.14 0.62900001 150 0 0 0 0.04566
1.597 0.138 0.62300003 150 0 0 0 0.045669999
1.602 0.13699999 0.62 150 0 0 0 0.045680001
1.601 0.13500001 0.61400002 150 0 0 0 0.04569
1.6059999 0.133 0.611 150 0 0 0 0.045699999
1.605 0.131 0.60600001 150 0 0 0 0.045710001
1.604 0.12899999 0.60000002 150 0 0 0 0.04572
1.608 0.12800001 0.59600002 150 0 0 0 0.045729998
1.61 0.126 0.59200001 150 0 0 0 0.045740001
1.612 0.124 0.588 150 0 0 0 0.04575
1.61 0.122 0.58200002 150 0 0 0 0.045759998
1.613 0.12 0.57800001 150 0 0 0 0.045770001
1.615 0.119 0.57300001 150 0 0 0 0.045779999
1.614 0.117 0.56800002 150 0 0 0 0.045790002
1.618 0.115 0.56400001 150 0 0 0 0.0458
1.62 0.114 0.55900002 150 0 0 0 0.045809999
1.6210001 0.112 0.55500001 150 0 0 0 0.045820002
1.623 0.11 0.55000001 150 0 0 0 0.04583
1.625 0.109 0.54500002 150 0 0 0 0.045839999
1.626 0.107 0.54000002 150 0 0 0 0.045850001
1.627 0.106 0.53500003 150 0 0 0 0.04586
1.63 0.104 0.53100002 150 0 0 0 0.045869999
1.631 0.102 0.52600002 150 0 0 0 0.045880001
1.63 0.101 0.52100003 150 0 0 0 0.04589
1.633 0.098999999 0.51599997 150 0 0 0 0.045899998
1.636 0.097999997 0.51200002 150 0 0 0 0.045910001
1.632 0.096000001 0.505 150 0 0 0 0.045919999
1.637 0.094999999 0.50099999 150 0 0 0 0.045929998
1.638 0.093000002 0.49700001 150 0 0 0 0.045940001
1.642 0.092 0.49200001 150 0 0 0 0.045949999
1.641 0.090000004 0.48699999 150 0 0 0 0.045960002
1.64 0.089000002 0.48100001 150 0 0 0 0.04597
1.642 0.086999997 0.477 150 0 0 0 0.045979999
1.64 0.086000003 0.47099999 150 0 0 0 0.045990001
1.643 0.083999999 0.46599999 150 0 0 0 0.046
1.643 0.082999997 0.461 150 0 0 0 0.046009999
1.643 0.081 0.45500001 150 0 0 0 0.046020001
1.6440001 0.079999998 0.44999999 150 0 0 0 0.04603
1.653 0.079000004 0.447 150 0 0 0 0.046039999
1.646 0.077 0.44 150 0 0 0 0.046050001
1.648 0.075999998 0.435 150 0 0 0 0.04606
1.654 0.075000003 0.43200001 150 0 0 0 0.046069998
1.654 0.072999999 0.426 150 0 0 0 0.046080001
1.654 0.071999997 0.421 150 0 0 0 0.046089999
1.6569999 0.071000002 0.41600001 150 0 0 0 0.046100002
1.653 0.068999998 0.41 150 0 0 0 0.04611
1.653 0.068000004 0.40400001 150 0 0 0 0.046119999
1.6619999 0.067000002 0.40099999 150 0 0 0 0.046130002
1.654 0.064999998 0.39399999 150 0 0 0 0.04614
1.658 0.064000003 0.38999999 150 0 0 0 0.046149999
1.663 0.063000001 0.38499999 150 0 0 0 0.046160001
1.664 0.061999999 0.38 150 0 0 0 0.04617
1.664 0.059999999 0.375 150 0 0 0 0.046179999
1.664 0.059 0.36899999 150 0 0 0 0.046190001
1.666 0.057999998 0.36399999 150 0 0 0 0.0462
1.664 0.057 0.359 150 0 0 0 0.046209998
1.668 0.055 0.354 150 0 0 0 0.046220001
1.665 0.054000001 0.34799999 150 0 0 0 0.04623
1.668 0.052999999 0.34299999 150 0 0 0 0.046239998
1.674 0.052000001 0.33899999 150 0 0 0 0.046250001
1.665 0.050999999 0.33199999 150 0 0 0 0.046259999
1.669 0.050000001 0.32699999 150 0 0 0 0.046270002
1.6720001 0.048 0.322 150 0 0 0 0.04628
1.673 0.046999998 0.317 150 0 0 0 0.046289999
1.674 0.046 0.31200001 150 0 0 0 0.046300001
1.673 0.045000002 0.30599999 150 0 0 0 0.04631
1.673 0.044 0.301 150 0 0 0 0.046319999
1.674 0.043000001 0.296 150 0 0 0 0.046330001
1.671 0.041999999 0.28999999 150 0 0 0 0.04634
1.675 0.041000001 0.285 150 0 0 0 0.046349999
1.677 0.039999999 0.28 150 0 0 0 0.046360001
1.6720001 0.039000001 0.27399999 150 0 0 0 0.04637
1.676 0.037999999 0.26899999 150 0 0 0 0.046379998
1.673 0.037 0.26300001 150 0 0 0 0.046390001
1.669 0.035999998 0.257 150 0 0 0 0.046399999
1.67 0.035 0.252 150 0 0 0 0.046410002
1.666 0.034000002 0.24600001 150 0 0 0 0.04642
1.6619999 0.032000002 0.23999999 150 0 0 0 0.046429999
1.663 0.032000002 0.235 150 0 0 0 0.046440002
1.663 0.030999999 0.229 150 0 0 0 0.04645
1.6670001 0.029999999 0.22400001 150 0 0 0 0.046459999
1.665 0.028999999 0.219 150 0 0 0 0.046470001
1.666 0.028000001 0.213 150 0 0 0 0.04648
1.664 0.027000001 0.208 150 0 0 0 0.046489999
1.665 0.026000001 0.20299999 150 0 0 0 0.046500001
1.668 0.025 0.198 150 0 0 0 0.04651
1.668 0.024 0.192 150 0 0 0 0.046519998
1.676 0.024 0.18799999 150 0 0 0 0.046530001
1.676 0.023 0.182 150 0 0 0 0.04654
1.676 0.022 0.177 150 0 0 0 0.046549998
1.678 0.021 0.17200001 150 0 0 0 0.046560001
1.665 0.02 0.16500001 150 0 0 0 0.046569999
1.638 0.018999999 0.15700001 150 0 0 0 0.046580002
1.4960001 0.016000001 0.139 150 0 0 0 0.04659
1.2640001 0.013 0.113 64 0 0 0 0.046599999
1.1289999 0.011 0.097000003 9 0 0 0 0.046610001
1.122 0.011 0.093000002 5 0 0 0 0.04662
1.1210001 0.0099999998 0.089000002 6 0 0 0 0.046629999
1.12 0.0099999998 0.086000003 5 0 0 0 0.046640001
1.118 0.0089999996 0.082000002 4 0 0 0 0.04665
1.1109999 0.0089999996 0.078000002 3 0 0 0 0.046659999
1.107 0.0080000004 0.074000001 3 0 0 0 0.046670001
1.1059999 0.0080000004 0.07 3 0 0 0 0.04668
1.099 0.0070000002 0.066 3 0 0 0 0.046689998
1.108 0.0070000002 0.063000001 3 0 0 0 0.046700001
1.1 0.0060000001 0.059 3 0 0 0 0.046709999
1.099 0.0060000001 0.056000002 3 0 0 0 0.046720002
1.095 0.0049999999 0.052000001 3 0 0 0 0.046730001
1.092 0.0049999999 0.048 3 0 0 0 0.046739999
1.094 0.0040000002 0.045000002 3 0 0 0 0.046750002
1.099 0.0040000002 0.041999999 3 0 0 0 0.04676
1.089 0.003 0.037999999 3 0 0 0 0.046769999
1.084 0.003 0.034000002 3 0 0 0 0.046780001
1.091 0.003 0.030999999 3 0 0 0 0.04679
1.084 0.0020000001 0.027000001 3 0 0 0 0.046799999
1.09 0.0020000001 0.024 3 0 0 0 0.046810001
1.0880001 0.001 0.02 3 0 0 0 0.04682
1.084 0.001 0.017000001 4 0 0 0 0.046829998
1.089 0.001 0.013 4 0 0 0 0.046840001
1.08 0 0.0099999998 4 0 0 0 0.04685
1.084 0 0.0060000001 4 0 0 0 0.046859998
1.084 0 0.003 4 0 0 0 0.046870001
1.084 0 0 4 0 0 0 0.046879999
1.086 0 -0.003 5 0 0 0 0.046890002
1.081 0 -0.0070000002 4 0 0 0 0.0469
1.091 -0.001 -0.0099999998 5 0 0 0 0.046909999
1.089 -0.001 -0.014 4 0 0 0 0.046920002
1.084 -0.001 -0.017000001 4 0 0 0 0.04693
1.084 -0.0020000001 -0.021 4 0 0 0 0.046939999
1.0880001 -0.0020000001 -0.024 4 0 0 0 0.046950001
1.0930001 -0.0020000001 -0.028000001 4 0 0 0 0.04696
1.089 -0.003 -0.032000002 4 0 0 0 0.046969999
1.089 -0.003 -0.035 4 0 0 0 0.046980001
1.095 -0.003 -0.039000001 4 0 0 0 0.04699
1.105 -0.003 -0.043000001 4 0 0 0 0.046999998
1.104 -0.0040000002 -0.046 4 0 0 0 0.047010001
1.101 -0.0040000002 -0.050000001 5 0 0 0 0.047019999
1.099 -0.0040000002 -0.052999999 6 0 0 0 0.047029998
1.1 -0.0040000002 -0.057 7 0 0 0 0.047040001
1.099 -0.0049999999 -0.059999999 5 0 0 0 0.047049999
1.105 -0.0049999999 -0.064000003 5 0 0 0 0.047060002
1.102 -0.0049999999 -0.068000004 5 0 0 0 0.04707
1.104 -0.0049999999 -0.071000002 5 0 0 0 0.047079999
1.104 -0.0060000001 -0.075000003 5 0 0 0 0.047090001
1.101 -0.0060000001 -0.078000002 5 0 0 0 0.0471
1.104 -0.0060000001 -0.082000002 6 0 0 0 0.047109999
