# .PCD v0.7 - Point Cloud Data file format
VERSION 0.7
FIELDS x y z intensity normal_x normal_y normal_z curvature
SIZE 4 4 4 4 4 4 4 4
TYPE F F F F F F F F
COUNT 1 1 1 1 1 1 1 1
WIDTH 1047
HEIGHT 1
VIEWPOINT 0 0 0 1 0 0 0
POINTS 1047
DATA ascii
4.1700001 1.779 0.38800001 3 0 0 0 0.054710001
4.1929998 1.775 0.389 6 0 0 0 0.054719999
4.2030001 1.765 0.389 0 0 0 0 0.054730002
0 0 0 0 0 0 0 0.054740001
0 0 0 0 0 0 0 0.054749999
4.2059999 1.723 0.38699999 0 0 0 0 0.054760002
4.2220001 1.715 0.38800001 0 0 0 0 0.05477
4.2059999 1.694 0.38600001 1 0 0 0 0.054779999
4.1900001 1.674 0.38299999 50 0 0 0 0.054790001
4.1820002 1.656 0.382 150 0 0 0 0.0548
4.2020001 1.65 0.382 37 0 0 0 0.054809999
4.2480001 1.653 0.38600001 0 0 0 0 0.054820001
4.2290001 1.632 0.38299999 0 0 0 0 0.05483
4.2399998 1.6210001 0.38299999 0 0 0 0 0.054839998
4.2259998 1.602 0.38 0 0 0 0 0.054850001
4.2420001 1.5930001 0.38 0 0 0 0 0.05486
4.2459998 1.58 0.37900001 0 0 0 0 0.054869998
4.244 1.5650001 0.37799999 0 0 0 0 0.054880001
4.2189999 1.5420001 0.37400001 1 0 0 0 0.054889999
4.2069998 1.523 0.37099999 122 0 0 0 0.054900002
4.2140002 1.511 0.37 115 0 0 0 0.05491
4.2399998 1.506 0.37099999 1 0 0 0 0.054919999
4.2540002 1.4960001 0.37099999 1 0 0 0 0.054930001
0 0 0 0 0 0 0 0.05494
4.2529998 1.4680001 0.36700001 0 0 0 0 0.054949999
4.2610002 1.456 0.366 1 0 0 0 0.054960001
4.283 1.449 0.366 0 0 0 0 0.05497
4.2519999 1.424 0.36199999 0 0 0 0 0.054979999
4.1830001 1.387 0.354 0 0 0 0 0.054990001
4.2350001 1.39 0.35699999 52 0 0 0 0.055
4.2199998 1.3710001 0.354 150 0 0 0 0.055009998
4.243 1.364 0.35299999 21 0 0 0 0.055020001
0 0 0 0 0 0 0 0.055029999
0 0 0 0 0 0 0 0.055039998
4.2719998 1.33 0.34999999 0 0 0 0 0.055050001
4.2670002 1.314 0.347 1 0 0 0 0.055059999
0 0 0 0 0 0 0 0.055070002
2.934 0.884 0.235 150 0 0 0 0.05508
2.911 0.86699998 0.23199999 151 0 0 0 0.055089999
2.8970001 0.85299999 0.229 150 0 0 0 0.055100001
2.8729999 0.83700001 0.226 150 0 0 0 0.05511
2.869 0.82599998 0.22400001 151 0 0 0 0.055119999
2.8740001 0.81800002 0.223 151 0 0 0 0.055130001
2.8789999 0.81 0.222 151 0 0 0 0.05514
2.8889999 0.80299997 0.221 151 0 0 0 0.055149999
2.8870001 0.79299998 0.219 150 0 0 0 0.055160001
2.898 0.78600001 0.21799999 150 0 0 0 0.05517
2.901 0.77700001 0.21600001 150 0 0 0 0.055179998
2.905 0.76899999 0.215 151 0 0 0 0.055190001
2.9089999 0.75999999 0.213 151 0 0 0 0.055199999
2.9119999 0.75099999 0.212 150 0 0 0 0.055210002
2.918 0.74299997 0.20999999 151 0 0 0 0.05522
2.9230001 0.73500001 0.20900001 151 0 0 0 0.055229999
2.9260001 0.72600001 0.207 151 0 0 0 0.055240002
2.934 0.71799999 0.206 150 0 0 0 0.05525
2.9419999 0.71100003 0.204 150 0 0 0 0.055259999
2.944 0.70200002 0.20200001 151 0 0 0 0.055270001
2.9460001 0.69199997 0.20100001 150 0 0 0 0.05528
2.9489999 0.68300003 0.199 151 0 0 0 0.055289999
2.9579999 0.676 0.197 150 0 0 0 0.055300001
2.9619999 0.667 0.19499999 150 0 0 0 0.05531
2.9660001 0.65799999 0.19400001 151 0 0 0 0.055319998
2.97 0.64999998 0.192 150 0 0 0 0.055330001
2.9749999 0.64099997 0.19 150 0 0 0 0.055339999
2.9790001 0.63200003 0.18799999 150 0 0 0 0.055349998
2.9890001 0.625 0.186 150 0 0 0 0.055360001
2.994 0.616 0.184 150 0 0 0 0.055369999
2.997 0.60699999 0.182 151 0 0 0 0.055380002
3.0009999 0.59799999 0.18000001 151 0 0 0 0.05539
3.003 0.58899999 0.178 150 0 0 0 0.055399999
3.013 0.58099997 0.177 151 0 0 0 0.055410001
3.0179999 0.57200003 0.17399999 150 0 0 0 0.05542
3.0220001 0.56300002 0.17200001 151 0 0 0 0.055429999
3.0239999 0.55400002 0.17 151 0 0 0 0.055440001
3.033 0.546 0.168 150 0 0 0 0.05545
3.036 0.537 0.16599999 150 0 0 0 0.055459999
3.04 0.528 0.164 150 0 0 0 0.055470001
3.0469999 0.51899999 0.162 151 0 0 0 0.05548
3.049 0.50999999 0.15899999 151 0 0 0 0.055489998
3.0580001 0.50099999 0.15700001 151 0 0 0 0.055500001
3.0610001 0.49200001 0.155 151 0 0 0 0.055509999
3.0639999 0.48300001 0.152 150 0 0 0 0.055520002
3.073 0.47499999 0.15000001 151 0 0 0 0.05553
3.0810001 0.46599999 0.148 151 0 0 0 0.055539999
3.082 0.45699999 0.145 150 0 0 0 0.055550002
3.089 0.44800001 0.14300001 151 0 0 0 0.05556
3.0940001 0.43900001 0.141 151 0 0 0 0.055569999
3.1010001 0.43000001 0.138 150 0 0 0 0.055580001
3.1040001 0.41999999 0.13600001 150 0 0 0 0.05559
3.1099999 0.41100001 0.133 150 0 0 0 0.055599999
3.1129999 0.40200001 0.13 150 0 0 0 0.055610001
3.122 0.39300001 0.12800001 150 0 0 0 0.05562
2.9089999 0.35699999 0.117 151 0 0 0 0.055629998
2.365 0.28299999 0.093000002 150 0 0 0 0.055640001
2.1500001 0.25 0.082000002 10 0 0 0 0.05565
2.125 0.241 0.079000004 2 0 0 0 0.055659998
2.0420001 0.22499999 0.074000001 0 0 0 0 0.055670001
1.872 0.2 0.066 0 0 0 0 0.055679999
1.84 0.191 0.063000001 0 0 0 0 0.055690002
1.826 0.184 0.061000001 0 0 0 0 0.0557
1.806 0.176 0.059 0 0 0 0 0.055709999
1.799 0.17 0.057 0 0 0 0 0.055720001
1.794 0.164 0.055 0 0 0 0 0.05573
1.791 0.15800001 0.052999999 0 0 0 0 0.055739999
1.788 0.152 0.050999999 0 0 0 0 0.055750001
1.789 0.147 0.050000001 0 0 0 0 0.05576
1.78 0.141 0.048 0 0 0 0 0.055769999
1.783 0.13500001 0.046 0 0 0 0 0.055780001
1.775 0.12899999 0.044 0 0 0 0 0.05579
1.795 0.125 0.043000001 0 0 0 0 0.055799998
1.77 0.118 0.039999999 0 0 0 0 0.055810001
1.763 0.112 0.039000001 0 0 0 0 0.055819999
1.733 0.105 0.035999998 0 0 0 0 0.055830002
1.7589999 0.101 0.035 0 0 0 0 0.055840001
1.711 0.093000002 0.032000002 0 0 0 0 0.055849999
1.683 0.086000003 0.029999999 0 0 0 0 0.055860002
1.671 0.079999998 0.028000001 0 0 0 0 0.05587
1.646 0.074000001 0.026000001 0 0 0 0 0.055879999
1.626 0.068000004 0.024 0 0 0 0 0.055890001
1.638 0.064000003 0.022 0 0 0 0 0.0559
1.63 0.057999998 0.021 0 0 0 0 0.055909999
1.618 0.052999999 0.018999999 0 0 0 0 0.055920001
1.582 0.046999998 0.017000001 0 0 0 0 0.05593
1.562 0.041000001 0.015 0 0 0 0 0.055939998
1.58 0.037 0.013 0 0 0 0 0.055950001
1.523 0.030999999 0.011 0 0 0 0 0.05596
1.489 0.026000001 0.0089999996 0 0 0 0 0.055969998
1.513 0.022 0.0080000004 0 0 0 0 0.055980001
1.492 0.017000001 0.0060000001 0 0 0 0 0.055989999
1.513 0.012 0.0040000002 0 0 0 0 0.056000002
1.508 0.0080000004 0.003 0 0 0 0 0.05601
1.508 0.003 0.001 0 0 0 0 0.056019999
1.508 0 0 0 0 0 0 0.056030001
1.512 -0.0049999999 -0.001 0 0 0 0 0.05604
1.5089999 -0.0099999998 -0.003 0 0 0 0 0.056049999
1.52 -0.014 -0.0049999999 0 0 0 0 0.056060001
1.513 -0.018999999 -0.0060000001 0 0 0 0 0.05607
1.523 -0.023 -0.0080000004 0 0 0 0 0.056079999
1.513 -0.028000001 -0.0099999998 0 0 0 0 0.056090001
1.523 -0.033 -0.012 0 0 0 0 0.0561
1.517 -0.037 -0.013 0 0 0 0 0.056109998
1.5319999 -0.041999999 -0.015 0 0 0 0 0.056120001
1.533 -0.046999998 -0.017000001 0 0 0 0 0.056129999
1.53 -0.050999999 -0.018999999 0 0 0 0 0.056139998
1.515 -0.055 -0.02 0 0 0 0 0.056150001
1.523 -0.059999999 -0.022 0 0 0 0 0.056159999
1.512 -0.064000003 -0.024 0 0 0 0 0.056170002
1.5319999 -0.07 -0.026000001 0 0 0 0 0.05618
1.5470001 -0.075000003 -0.028000001 0 0 0 0 0.056189999
1.5549999 -0.079999998 -0.029999999 0 0 0 0 0.056200001
1.562 -0.085000001 -0.032000002 0 0 0 0 0.05621
1.556 -0.090000004 -0.034000002 0 0 0 0 0.056219999
1.551 -0.093999997 -0.035999998 0 0 0 0 0.056230001
1.595 -0.102 -0.039000001 0 0 0 0 0.05624
0 0 0 0 0 0 0 0.056249999
2.348 -0.164 -0.063000001 14 0 0 0 0.056260001
2.2809999 -0.16599999 -0.064000003 80 0 0 0 0.05627
2.224 -0.169 -0.064999998 89 0 0 0 0.056279998
2.108 -0.16599999 -0.064000003 21 0 0 0 0.056290001
1.967 -0.161 -0.061999999 12 0 0 0 0.056299999
1.941 -0.16500001 -0.064000003 11 0 0 0 0.056310002
1.918 -0.168 -0.066 12 0 0 0 0.05632
1.9069999 -0.17299999 -0.068000004 12 0 0 0 0.056329999
1.902 -0.178 -0.07 13 0 0 0 0.056340002
1.896 -0.184 -0.071999997 12 0 0 0 0.05635
1.882 -0.18799999 -0.074000001 11 0 0 0 0.056359999
1.877 -0.193 -0.075999998 12 0 0 0 0.056370001
1.877 -0.199 -0.079000004 11 0 0 0 0.05638
1.878 -0.204 -0.081 12 0 0 0 0.056389999
1.893 -0.212 -0.085000001 12 0 0 0 0.056400001
1.911 -0.219 -0.088 12 0 0 0 0.05641
1.926 -0.227 -0.090999998 14 0 0 0 0.056419998
1.926 -0.233 -0.093999997 14 0 0 0 0.056430001
1.911 -0.237 -0.096000001 11 0 0 0 0.056439999
1.927 -0.244 -0.098999999 11 0 0 0 0.056449998
1.923 -0.249 -0.101 11 0 0 0 0.056460001
1.92 -0.255 -0.104 12 0 0 0 0.056469999
1.851 -0.25099999 -0.103 29 0 0 0 0.056480002
1.823 -0.25299999 -0.103 10 0 0 0 0.05649
1.818 -0.257 -0.106 21 0 0 0 0.056499999
1.783 -0.25799999 -0.106 17 0 0 0 0.056510001
1.767 -0.26100001 -0.108 4 0 0 0 0.05652
1.75 -0.26300001 -0.109 2 0 0 0 0.056529999
1.742 -0.26699999 -0.111 2 0 0 0 0.056540001
1.715 -0.26800001 -0.112 1 0 0 0 0.05655
1.71 -0.273 -0.114 1 0 0 0 0.056559999
1.682 -0.273 -0.114 1 0 0 0 0.056570001
1.666 -0.27500001 -0.116 2 0 0 0 0.05658
1.669 -0.28099999 -0.118 4 0 0 0 0.056589998
1.678 -0.287 -0.121 3 0 0 0 0.056600001
1.684 -0.294 -0.124 4 0 0 0 0.056609999
1.683 -0.29800001 -0.127 4 0 0 0 0.056620002
1.689 -0.30399999 -0.13 4 0 0 0 0.05663
1.694 -0.31 -0.132 4 0 0 0 0.056639999
1.6950001 -0.31600001 -0.13500001 4 0 0 0 0.056650002
1.696 -0.32100001 -0.138 4 0 0 0 0.05666
1.701 -0.32699999 -0.141 4 0 0 0 0.056669999
1.701 -0.33199999 -0.14300001 4 0 0 0 0.056680001
1.706 -0.338 -0.146 4 0 0 0 0.05669
1.7079999 -0.34299999 -0.149 4 0 0 0 0.056699999
1.706 -0.34799999 -0.15099999 6 0 0 0 0.056710001
1.709 -0.354 -0.154 5 0 0 0 0.05672
1.717 -0.36000001 -0.15800001 4 0 0 0 0.056729998
1.743 -0.37099999 -0.163 8 0 0 0 0.056740001
1.835 -0.396 -0.17399999 14 0 0 0 0.05675
1.7869999 -0.391 -0.17200001 12 0 0 0 0.056759998
1.852 -0.41 -0.182 2 0 0 0 0.056770001
1.817 -0.40799999 -0.18099999 2 0 0 0 0.056779999
1.601 -0.36399999 -0.162 7 0 0 0 0.056790002
1.5700001 -0.36199999 -0.161 7 0 0 0 0.0568
1.568 -0.366 -0.164 3 0 0 0 0.056809999
1.576 -0.37200001 -0.167 1 0 0 0 0.056820001
1.575 -0.377 -0.17 1 0 0 0 0.05683
1.591 -0.38499999 -0.17399999 0 0 0 0 0.056839999
1.596 -0.391 -0.177 0 0 0 0 0.056850001
1.598 -0.396 -0.18000001 0 0 0 0 0.05686
1.595 -0.40000001 -0.182 0 0 0 0 0.056869999
1.614 -0.41 -0.18700001 0 0 0 0 0.056880001
1.604 -0.412 -0.189 0 0 0 0 0.05689
1.614 -0.419 -0.192 0 0 0 0 0.056899998
1.6210001 -0.426 -0.19599999 0 0 0 0 0.056910001
1.623 -0.43099999 -0.199 0 0 0 0 0.056919999
1.631 -0.43799999 -0.20299999 0 0 0 0 0.056930002
1.6210001 -0.44 -0.204 0 0 0 0 0.056940001
1.586 -0.435 -0.20299999 0 0 0 0 0.056949999
1.581 -0.43799999 -0.205 1 0 0 0 0.056960002
1.5779999 -0.442 -0.207 1 0 0 0 0.05697
1.559 -0.44100001 -0.207 1 0 0 0 0.056979999
1.531 -0.43799999 -0.206 1 0 0 0 0.056990001
1.557 -0.44999999 -0.213 1 0 0 0 0.057
1.586 -0.46200001 -0.219 1 0 0 0 0.057009999
1.591 -0.46900001 -0.223 1 0 0 0 0.057020001
1.5549999 -0.463 -0.221 1 0 0 0 0.05703
1.459 -0.43799999 -0.20999999 3 0 0 0 0.057039998
1.45 -0.43900001 -0.211 7 0 0 0 0.057050001
1.449 -0.44299999 -0.213 7 0 0 0 0.05706
1.454 -0.449 -0.21699999 8 0 0 0 0.057069998
1.457 -0.454 -0.22 8 0 0 0 0.057080001
1.461 -0.46000001 -0.223 8 0 0 0 0.057089999
1.4220001 -0.45199999 -0.22 13 0 0 0 0.057100002
1.3660001 -0.43799999 -0.214 20 0 0 0 0.05711
1.2920001 -0.41800001 -0.205 17 0 0 0 0.057119999
1.235 -0.403 -0.198 9 0 0 0 0.057130001
1.238 -0.40700001 -0.20100001 9 0 0 0 0.05714
1.233 -0.40900001 -0.20200001 7 0 0 0 0.057149999
1.237 -0.414 -0.205 4 0 0 0 0.057160001
1.202 -0.405 -0.20200001 0 0 0 0 0.05717
1.174 -0.39899999 -0.2 0 0 0 0 0.057179999
1.16 -0.398 -0.199 0 0 0 0 0.057190001
1.17 -0.40400001 -0.20299999 0 0 0 0 0.0572
1.165 -0.40599999 -0.205 0 0 0 0 0.057209998
1.199 -0.421 -0.213 0 0 0 0 0.057220001
1.23 -0.43599999 -0.221 1 0 0 0 0.057229999
1.2410001 -0.44299999 -0.22499999 5 0 0 0 0.057240002
1.235 -0.44400001 -0.227 8 0 0 0 0.057250001
1.239 -0.449 -0.23 8 0 0 0 0.057259999
1.239 -0.45199999 -0.233 6 0 0 0 0.057270002
1.237 -0.45500001 -0.235 1 0 0 0 0.05728
1.206 -0.447 -0.23100001 0 0 0 0 0.057289999
1.2029999 -0.449 -0.233 0 0 0 0 0.057300001
1.194 -0.449 -0.234 1 0 0 0 0.05731
1.189 -0.45100001 -0.235 1 0 0 0 0.057319999
1.1799999 -0.44999999 -0.236 4 0 0 0 0.057330001
1.1670001 -0.44800001 -0.236 5 0 0 0 0.05734
1.168 -0.45199999 -0.23899999 5 0 0 0 0.057349999
1.164 -0.454 -0.23999999 5 0 0 0 0.057360001
1.1619999 -0.456 -0.242 5 0 0 0 0.05737
1.16 -0.458 -0.244 5 0 0 0 0.057379998
1.168 -0.46399999 -0.248 6 0 0 0 0.057390001
1.187 -0.47499999 -0.255 9 0 0 0 0.057399999
1.21 -0.48699999 -0.26199999 9 0 0 0 0.057410002
1.24 -0.50300002 -0.27200001 10 0 0 0 0.05742
1.2589999 -0.514 -0.27900001 8 0 0 0 0.057429999
1.211 -0.49700001 -0.27000001 5 0 0 0 0.057440002
1.151 -0.47600001 -0.25999999 5 0 0 0 0.05745
1.135 -0.472 -0.259 6 0 0 0 0.057459999
1.1289999 -0.472 -0.25999999 7 0 0 0 0.057470001
1.125 -0.47400001 -0.26100001 7 0 0 0 0.05748
1.122 -0.47499999 -0.26300001 7 0 0 0 0.057489999
1.125 -0.479 -0.266 7 0 0 0 0.057500001
1.124 -0.48199999 -0.26899999 7 0 0 0 0.05751
1.125 -0.48500001 -0.271 7 0 0 0 0.057519998
1.135 -0.49200001 -0.27599999 7 0 0 0 0.057530001
1.137 -0.49599999 -0.27900001 7 0 0 0 0.057539999
1.138 -0.49900001 -0.28200001 7 0 0 0 0.057549998
1.138 -0.50199997 -0.285 7 0 0 0 0.057560001
1.141 -0.50599998 -0.28799999 7 0 0 0 0.057569999
1.143 -0.50999999 -0.29100001 8 0 0 0 0.057580002
1.1440001 -0.51200002 -0.294 8 0 0 0 0.05759
1.1440001 -0.51499999 -0.29699999 8 0 0 0 0.057599999
1.147 -0.51899999 -0.30000001 8 0 0 0 0.057610001
1.147 -0.52200001 -0.303 8 0 0 0 0.05762
1.151 -0.52700001 -0.30599999 8 0 0 0 0.057629999
1.153 -0.52999997 -0.31 8 0 0 0 0.057640001
1.153 -0.53299999 -0.31200001 6 0 0 0 0.05765
1.122 -0.52100003 -0.30599999 0 0 0 0 0.057659999
1.068 -0.498 -0.294 0 0 0 0 0.057670001
1.066 -0.5 -0.296 0 0 0 0 0.05768
1.066 -0.50199997 -0.29899999 0 0 0 0 0.057689998
1.063 -0.50300002 -0.30000001 0 0 0 0 0.057700001
1.062 -0.505 -0.303 0 0 0 0 0.057709999
1.058 -0.505 -0.30399999 0 0 0 0 0.057720002
1.059 -0.50800002 -0.30700001 0 0 0 0 0.05773
1.071 -0.51599997 -0.31299999 0 0 0 0 0.057739999
1.104 -0.53399998 -0.32499999 0 0 0 0 0.057750002
1.141 -0.55400002 -0.338 0 0 0 0 0.05776
1.148 -0.56 -0.34299999 0 0 0 0 0.057769999
1.138 -0.55699998 -0.34299999 0 0 0 0 0.057780001
1.1210001 -0.55199999 -0.34099999 0 0 0 0 0.05779
1.1339999 -0.56 -0.347 1 0 0 0 0.057799999
1.125 -0.55699998 -0.347 1 0 0 0 0.057810001
1.119 -0.55699998 -0.34799999 3 0 0 0 0.05782
1.1160001 -0.55699998 -0.34999999 5 0 0 0 0.057829998
1.103 -0.55299997 -0.34799999 5 0 0 0 0.057840001
1.085 -0.546 -0.345 4 0 0 0 0.05785
1.069 -0.54000002 -0.34200001 5 0 0 0 0.057859998
1.052 -0.53299999 -0.33899999 6 0 0 0 0.057870001
1.0420001 -0.52999997 -0.33899999 7 0 0 0 0.057879999
1.0369999 -0.52899998 -0.34 8 0 0 0 0.057890002
1.029 -0.52700001 -0.33899999 8 0 0 0 0.0579
1.027 -0.528 -0.34099999 10 0 0 0 0.057909999
1.024 -0.528 -0.34299999 10 0 0 0 0.057920001
1.025 -0.52999997 -0.345 10 0 0 0 0.05793
1.024 -0.53100002 -0.347 10 0 0 0 0.057939999
1.027 -0.53399998 -0.35100001 9 0 0 0 0.057950001
1.02 -0.53200001 -0.35100001 10 0 0 0 0.05796
1.0190001 -0.53299999 -0.35299999 10 0 0 0 0.057969999
1.017 -0.53299999 -0.35499999 9 0 0 0 0.057980001
1.016 -0.53399998 -0.35699999 10 0 0 0 0.05799
1.0140001 -0.53500003 -0.35800001 9 0 0 0 0.057999998
1.016 -0.537 -0.361 9 0 0 0 0.058010001
1.0190001 -0.54000002 -0.36399999 8 0 0 0 0.058019999
1.023 -0.54299998 -0.368 7 0 0 0 0.058030002
1.028 -0.54699999 -0.37200001 7 0 0 0 0.05804
1.029 -0.54900002 -0.375 7 0 0 0 0.058049999
1.033 -0.55199999 -0.37900001 7 0 0 0 0.058060002
1.036 -0.55500001 -0.382 7 0 0 0 0.05807
1.035 -0.55599999 -0.384 7 0 0 0 0.058079999
1.038 -0.55800003 -0.38800001 7 0 0 0 0.058090001
1.04 -0.56 -0.391 8 0 0 0 0.0581
1.036 -0.55900002 -0.39199999 8 0 0 0 0.058109999
1.038 -0.56099999 -0.39500001 8 0 0 0 0.058120001
1.04 -0.56300002 -0.39700001 8 0 0 0 0.05813
1.04 -0.56400001 -0.40000001 8 0 0 0 0.058139998
1.039 -0.565 -0.40200001 8 0 0 0 0.058150001
1.039 -0.565 -0.40400001 8 0 0 0 0.05816
1.043 -0.56800002 -0.40700001 8 0 0 0 0.058169998
1.043 -0.56900001 -0.41 9 0 0 0 0.058180001
1.043 -0.56900001 -0.412 9 0 0 0 0.058189999
1.043 -0.56999999 -0.414 9 0 0 0 0.058200002
1.043 -0.57099998 -0.41600001 9 0 0 0 0.05821
1.045 -0.57200003 -0.419 9 0 0 0 0.058219999
1.044 -0.57200003 -0.421 9 0 0 0 0.058230001
1.045 -0.57300001 -0.42300001 9 0 0 0 0.05824
1.045 -0.574 -0.426 9 0 0 0 0.058249999
1.0420001 -0.57200003 -0.426 9 0 0 0 0.058260001
1.046 -0.57499999 -0.43000001 9 0 0 0 0.05827
1.046 -0.57499999 -0.43200001 9 0 0 0 0.058279999
1.044 -0.574 -0.433 10 0 0 0 0.058290001
1.046 -0.57499999 -0.435 9 0 0 0 0.0583
1.045 -0.57499999 -0.43700001 9 0 0 0 0.058309998
1.044 -0.57499999 -0.43900001 10 0 0 0 0.058320001
1.044 -0.574 -0.44 9 0 0 0 0.058329999
1.044 -0.57499999 -0.442 9 0 0 0 0.058340002
1.043 -0.574 -0.44299999 9 0 0 0 0.058350001
1.0420001 -0.57300001 -0.44499999 10 0 0 0 0.058359999
1.043 -0.574 -0.447 9 0 0 0 0.058370002
1.046 -0.57499999 -0.44999999 9 0 0 0 0.05838
1.046 -0.57499999 -0.45199999 8 0 0 0 0.058389999
1.045 -0.574 -0.45300001 7 0 0 0 0.058400001
1.04 -0.57099998 -0.45199999 6 0 0 0 0.05841
1.045 -0.57300001 -0.456 6 0 0 0 0.058419999
1.041 -0.57099998 -0.456 3 0 0 0 0.058430001
1.041 -0.56999999 -0.45699999 2 0 0 0 0.05844
1.041 -0.56999999 -0.45899999 3 0 0 0 0.058449998
1.043 -0.56999999 -0.461 5 0 0 0 0.058460001
1.04 -0.56800002 -0.461 6 0 0 0 0.05847
1.0369999 -0.56599998 -0.461 6 0 0 0 0.058479998
1.038 -0.565 -0.463 7 0 0 0 0.058490001
1.0319999 -0.56099999 -0.461 8 0 0 0 0.058499999
1.0319999 -0.56099999 -0.463 9 0 0 0 0.058510002
1.033 -0.56 -0.46399999 9 0 0 0 0.05852
1.028 -0.55699998 -0.463 10 0 0 0 0.058529999
1.024 -0.55299997 -0.46200001 10 0 0 0 0.058540002
1.023 -0.55199999 -0.463 10 0 0 0 0.05855
1.02 -0.54900002 -0.463 9 0 0 0 0.058559999
1.015 -0.546 -0.46200001 9 0 0 0 0.058570001
1.017 -0.54500002 -0.463 10 0 0 0 0.05858
1.015 -0.54400003 -0.46399999 10 0 0 0 0.058589999
1.011 -0.54000002 -0.463 11 0 0 0 0.058600001
1.0140001 -0.54000002 -0.465 12 0 0 0 0.05861
1.0089999 -0.537 -0.463 12 0 0 0 0.058619998
1.011 -0.53600001 -0.465 13 0 0 0 0.058630001
1.011 -0.53500003 -0.46599999 14 0 0 0 0.058639999
1.012 -0.53399998 -0.46700001 15 0 0 0 0.058649998
1.012 -0.53299999 -0.46799999 16 0 0 0 0.058660001
1.01 -0.52999997 -0.46700001 18 0 0 0 0.058669999
1.01 -0.52899998 -0.46799999 19 0 0 0 0.058680002
1.01 -0.52700001 -0.46900001 20 0 0 0 0.05869
1.018 -0.52999997 -0.47299999 18 0 0 0 0.058699999
1.013 -0.52600002 -0.47099999 21 0 0 0 0.058710001
1.013 -0.52399999 -0.47099999 20 0 0 0 0.05872
1.022 -0.52700001 -0.47600001 17 0 0 0 0.058729999
1.026 -0.52700001 -0.47799999 14 0 0 0 0.058740001
1.029 -0.52700001 -0.479 11 0 0 0 0.05875
1.031 -0.52600002 -0.48100001 8 0 0 0 0.058759999
1.0319999 -0.52499998 -0.48199999 6 0 0 0 0.058770001
1.043 -0.52899998 -0.48699999 1 0 0 0 0.05878
1.0369999 -0.52399999 -0.484 0 0 0 0 0.058789998
1.084 -0.546 -0.50599998 0 0 0 0 0.058800001
1.103 -0.55299997 -0.51499999 0 0 0 0 0.058809999
1.114 -0.55599999 -0.51999998 0 0 0 0 0.058820002
1.105 -0.54900002 -0.51599997 0 0 0 0 0.05883
1.103 -0.546 -0.51499999 0 0 0 0 0.058839999
1.1109999 -0.54799998 -0.51899999 0 0 0 0 0.058850002
1.123 -0.55199999 -0.52499998 1 0 0 0 0.05886
1.133 -0.55400002 -0.52899998 1 0 0 0 0.058869999
1.1619999 -0.56599998 -0.542 1 0 0 0 0.058880001
1.1670001 -0.56599998 -0.54400003 6 0 0 0 0.05889
1.166 -0.56300002 -0.54299998 9 0 0 0 0.058899999
1.163 -0.55900002 -0.542 12 0 0 0 0.058910001
1.16 -0.55500001 -0.54000002 13 0 0 0 0.05892
1.1569999 -0.551 -0.53799999 14 0 0 0 0.058929998
1.1569999 -0.54799998 -0.537 14 0 0 0 0.058940001
1.153 -0.54400003 -0.53500003 13 0 0 0 0.05895
1.153 -0.54100001 -0.53500003 13 0 0 0 0.058959998
1.149 -0.53600001 -0.53200001 12 0 0 0 0.058970001
1.148 -0.53299999 -0.53100002 13 0 0 0 0.058979999
1.146 -0.52999997 -0.52899998 13 0 0 0 0.058990002
1.141 -0.52499998 -0.52700001 13 0 0 0 0.059
1.141 -0.52200001 -0.52499998 13 0 0 0 0.059009999
1.14 -0.51899999 -0.52399999 13 0 0 0 0.059020001
1.137 -0.51499999 -0.52200001 13 0 0 0 0.05903
1.135 -0.51099998 -0.51999998 13 0 0 0 0.059039999
1.133 -0.50700003 -0.51800001 13 0 0 0 0.059050001
1.133 -0.50400001 -0.51700002 14 0 0 0 0.05906
1.125 -0.498 -0.51300001 14 0 0 0 0.059069999
1.127 -0.49599999 -0.51200002 14 0 0 0 0.059080001
1.124 -0.49200001 -0.50999999 14 0 0 0 0.05909
1.119 -0.48699999 -0.50700003 13 0 0 0 0.059099998
1.114 -0.48199999 -0.50400001 14 0 0 0 0.059110001
1.1160001 -0.47999999 -0.50300002 15 0 0 0 0.059119999
1.118 -0.47799999 -0.50300002 17 0 0 0 0.059130002
1.12 -0.47600001 -0.50199997 19 0 0 0 0.05914
1.118 -0.472 -0.50099999 18 0 0 0 0.059149999
1.128 -0.47299999 -0.50400001 18 0 0 0 0.059160002
1.148 -0.479 -0.51099998 22 0 0 0 0.05917
1.1720001 -0.486 -0.51999998 19 0 0 0 0.059179999
1.1950001 -0.49200001 -0.52899998 12 0 0 0 0.059190001
1.214 -0.49700001 -0.53600001 7 0 0 0 0.0592
1.217 -0.495 -0.53500003 1 0 0 0 0.059209999
1.207 -0.48699999 -0.52999997 1 0 0 0 0.059220001
1.22 -0.48899999 -0.53299999 0 0 0 0 0.05923
1.249 -0.498 -0.54500002 1 0 0 0 0.059239998
1.26 -0.49900001 -0.54699999 1 0 0 0 0.059250001
1.265 -0.49700001 -0.54799998 9 0 0 0 0.05926
1.2539999 -0.49000001 -0.54100001 16 0 0 0 0.059269998
1.25 -0.48500001 -0.53799999 18 0 0 0 0.059280001
1.249 -0.48100001 -0.53500003 19 0 0 0 0.059289999
1.247 -0.477 -0.53299999 21 0 0 0 0.059300002
1.243 -0.472 -0.52899998 20 0 0 0 0.05931
1.24 -0.46700001 -0.52600002 19 0 0 0 0.059319999
1.2410001 -0.465 -0.52399999 21 0 0 0 0.059330001
1.238 -0.46000001 -0.52100003 21 0 0 0 0.05934
1.2359999 -0.456 -0.51800001 20 0 0 0 0.059349999
1.229 -0.44999999 -0.51300001 20 0 0 0 0.059360001
1.2309999 -0.44800001 -0.51200002 21 0 0 0 0.05937
1.226 -0.44299999 -0.50800002 21 0 0 0 0.059379999
1.228 -0.44 -0.50599998 19 0 0 0 0.059390001
1.226 -0.43599999 -0.50300002 20 0 0 0 0.0594
1.22 -0.43000001 -0.498 21 0 0 0 0.059409998
1.22 -0.42699999 -0.49599999 24 0 0 0 0.059420001
1.214 -0.42199999 -0.49200001 23 0 0 0 0.059429999
1.216 -0.419 -0.49000001 16 0 0 0 0.059440002
1.221 -0.41800001 -0.49000001 15 0 0 0 0.059450001
1.225 -0.41600001 -0.48899999 16 0 0 0 0.059459999
1.227 -0.41299999 -0.48800001 30 0 0 0 0.059470002
1.227 -0.41 -0.486 47 0 0 0 0.05948
1.2309999 -0.40799999 -0.48500001 63 0 0 0 0.059489999
1.248 -0.41 -0.48899999 58 0 0 0 0.059500001
1.271 -0.41499999 -0.49599999 44 0 0 0 0.05951
1.2869999 -0.41600001 -0.49900001 40 0 0 0 0.059519999
1.303 -0.41800001 -0.50199997 38 0 0 0 0.059530001
1.299 -0.41299999 -0.498 45 0 0 0 0.05954
1.295 -0.40799999 -0.49399999 53 0 0 0 0.059549998
1.2920001 -0.40400001 -0.491 72 0 0 0 0.059560001
1.2970001 -0.40200001 -0.49000001 76 0 0 0 0.05957
1.309 -0.403 -0.49200001 58 0 0 0 0.059579998
1.314 -0.40099999 -0.491 64 0 0 0 0.059590001
1.327 -0.40099999 -0.493 104 0 0 0 0.059599999
1.326 -0.39700001 -0.49000001 150 0 0 0 0.059610002
1.332 -0.396 -0.48899999 129 0 0 0 0.05962
1.332 -0.39199999 -0.486 69 0 0 0 0.059629999
1.335 -0.389 -0.484 53 0 0 0 0.059640002
1.331 -0.38499999 -0.47999999 53 0 0 0 0.05965
1.336 -0.38299999 -0.479 54 0 0 0 0.059659999
1.3430001 -0.38100001 -0.47799999 50 0 0 0 0.059670001
1.345 -0.37900001 -0.47600001 52 0 0 0 0.05968
1.354 -0.37799999 -0.47600001 49 0 0 0 0.059689999
1.359 -0.37599999 -0.47499999 53 0 0 0 0.059700001
1.3609999 -0.373 -0.47299999 54 0 0 0 0.05971
1.363 -0.36899999 -0.47 57 0 0 0 0.059719998
1.364 -0.366 -0.46799999 59 0 0 0 0.059730001
1.374 -0.366 -0.46799999 56 0 0 0 0.059739999
1.383 -0.36399999 -0.46799999 52 0 0 0 0.059749998
1.3789999 -0.36000001 -0.463 55 0 0 0 0.059760001
1.388 -0.359 -0.463 53 0 0 0 0.059769999
1.3890001 -0.35600001 -0.46000001 56 0 0 0 0.059780002
1.398 -0.354 -0.46000001 49 0 0 0 0.05979
1.401 -0.352 -0.458 53 0 0 0 0.059799999
1.404 -0.34900001 -0.45500001 59 0 0 0 0.059810001
1.405 -0.34599999 -0.45199999 54 0 0 0 0.05982
1.413 -0.34400001 -0.45100001 56 0 0 0 0.059829999
1.414 -0.34099999 -0.449 46 0 0 0 0.059840001
1.4170001 -0.338 -0.44600001 44 0 0 0 0.05985
1.423 -0.336 -0.44499999 60 0 0 0 0.059859999
1.426 -0.333 -0.442 62 0 0 0 0.059870001
1.4349999 -0.33199999 -0.44100001 64 0 0 0 0.05988
1.438 -0.329 -0.43900001 69 0 0 0 0.059889998
1.447 -0.32800001 -0.43799999 70 0 0 0 0.059900001
1.449 -0.32499999 -0.435 67 0 0 0 0.059909999
1.451 -0.322 -0.43200001 77 0 0 0 0.059920002
1.455 -0.31900001 -0.43000001 71 0 0 0 0.05993
1.46 -0.317 -0.428 69 0 0 0 0.059939999
1.462 -0.31400001 -0.42500001 69 0 0 0 0.059950002
1.469 -0.31200001 -0.42300001 76 0 0 0 0.05996
1.472 -0.30899999 -0.41999999 79 0 0 0 0.059969999
1.473 -0.30599999 -0.417 92 0 0 0 0.059980001
1.482 -0.30399999 -0.41600001 95 0 0 0 0.05999
1.485 -0.301 -0.41299999 96 0 0 0 0.059999999
1.489 -0.29899999 -0.41100001 88 0 0 0 0.060010001
1.493 -0.296 -0.40799999 71 0 0 0 0.06002
1.501 -0.294 -0.40599999 37 0 0 0 0.060029998
1.502 -0.29100001 -0.403 59 0 0 0 0.060040001
1.505 -0.28799999 -0.40000001 84 0 0 0 0.06005
1.51 -0.28600001 -0.39700001 55 0 0 0 0.060059998
1.5140001 -0.28299999 -0.39500001 22 0 0 0 0.060070001
1.526 -0.28200001 -0.39399999 31 0 0 0 0.060079999
1.528 -0.27900001 -0.38999999 73 0 0 0 0.060090002
1.529 -0.27500001 -0.38699999 83 0 0 0 0.0601
1.536 -0.273 -0.38499999 98 0 0 0 0.060109999
1.539 -0.27000001 -0.382 90 0 0 0 0.060120001
1.543 -0.26800001 -0.37900001 19 0 0 0 0.06013
1.548 -0.26499999 -0.37599999 15 0 0 0 0.060139999
1.556 -0.26300001 -0.37400001 18 0 0 0 0.060150001
1.5599999 -0.25999999 -0.37099999 99 0 0 0 0.06016
1.564 -0.257 -0.368 25 0 0 0 0.060169999
1.566 -0.25400001 -0.36399999 15 0 0 0 0.060180001
1.5700001 -0.252 -0.361 12 0 0 0 0.06019
1.585 -0.25 -0.36000001 7 0 0 0 0.060199998
1.604 -0.25 -0.361 1 0 0 0 0.060210001
1.599 -0.24600001 -0.35499999 0 0 0 0 0.060219999
1.527 -0.23199999 -0.33500001 0 0 0 0 0.060230002
0 0 0 0 0 0 0 0.06024
0 0 0 0 0 0 0 0.060249999
0 0 0 0 0 0 0 0.060260002
0 0 0 0 0 0 0 0.06027
0 0 0 0 0 0 0 0.060279999
0 0 0 0 0 0 0 0.060290001
1.554 -0.213 -0.31299999 0 0 0 0 0.0603
1.58 -0.213 -0.31400001 0 0 0 0 0.060309999
1.558 -0.207 -0.30599999 0 0 0 0 0.060320001
1.569 -0.205 -0.30399999 0 0 0 0 0.06033
1.586 -0.204 -0.303 0 0 0 0 0.060339998
0 0 0 0 0 0 0 0.060350001
0 0 0 0 0 0 0 0.06036
0 0 0 0 0 0 0 0.060369998
0 0 0 0 0 0 0 0.060380001
0 0 0 0 0 0 0 0.060389999
1.624 -0.189 -0.28400001 0 0 0 0 0.060400002
1.717 -0.197 -0.296 0 0 0 0 0.06041
1.834 -0.206 -0.31200001 0 0 0 0 0.060419999
1.88 -0.208 -0.315 0 0 0 0 0.060430001
1.911 -0.207 -0.315 0 0 0 0 0.06044
2.017 -0.215 -0.32699999 0 0 0 0 0.060449999
2.086 -0.21799999 -0.33199999 9 0 0 0 0.060460001
2.1259999 -0.21799999 -0.333 11 0 0 0 0.06047
2.164 -0.21799999 -0.333 12 0 0 0 0.060479999
2.197 -0.21699999 -0.333 12 0 0 0 0.060490001
2.2249999 -0.215 -0.331 12 0 0 0 0.0605
2.2479999 -0.213 -0.32800001 15 0 0 0 0.060509998
2.276 -0.211 -0.32600001 31 0 0 0 0.060520001
2.293 -0.20900001 -0.32300001 81 0 0 0 0.060529999
2.299 -0.205 -0.317 75 0 0 0 0.060540002
2.3050001 -0.20100001 -0.31200001 65 0 0 0 0.060550001
2.2980001 -0.19599999 -0.30500001 71 0 0 0 0.060559999
2.1730001 -0.18099999 -0.28200001 93 0 0 0 0.060570002
2.013 -0.164 -0.25600001 86 0 0 0 0.06058
1.814 -0.14399999 -0.226 13 0 0 0 0.060589999
1.808 -0.14 -0.22 8 0 0 0 0.060600001
1.8150001 -0.138 -0.21600001 6 0 0 0 0.06061
2.082 -0.154 -0.243 2 0 0 0 0.060619999
2.1229999 -0.153 -0.242 2 0 0 0 0.060630001
2.141 -0.15000001 -0.23800001 2 0 0 0 0.06064
2.0190001 -0.138 -0.219 9 0 0 0 0.060649998
2.0150001 -0.134 -0.213 3 0 0 0 0.060660001
2.056 -0.133 -0.212 3 0 0 0 0.06067
2.0840001 -0.131 -0.20900001 3 0 0 0 0.060679998
2.085 -0.127 -0.204 1 0 0 0 0.060690001
2.059 -0.122 -0.19499999 1 0 0 0 0.060699999
2.0239999 -0.116 -0.18700001 0 0 0 0 0.060710002
2.0150001 -0.112 -0.18000001 0 0 0 0 0.06072
2.029 -0.109 -0.176 0 0 0 0 0.060729999
2.1340001 -0.111 -0.17900001 2 0 0 0 0.060740001
2.332 -0.117 -0.19 16 0 0 0 0.06075
2.4030001 -0.116 -0.189 26 0 0 0 0.060759999
2.448 -0.114 -0.186 34 0 0 0 0.060770001
2.454 -0.11 -0.18000001 48 0 0 0 0.06078
2.4660001 -0.106 -0.17399999 52 0 0 0 0.060789999
2.477 -0.102 -0.168 46 0 0 0 0.060800001
2.474 -0.097999997 -0.161 48 0 0 0 0.06081
2.437 -0.092 -0.152 31 0 0 0 0.060819998
2.4000001 -0.086999997 -0.14300001 16 0 0 0 0.060830001
0 0 0 0 0 0 0 0.060839999
1.546 -0.050000001 -0.082999997 0 0 0 0 0.060849998
1.5369999 -0.046999998 -0.079000004 0 0 0 0 0.060860001
1.515 -0.044 -0.072999999 0 0 0 0 0.060869999
1.52 -0.041000001 -0.068999998 0 0 0 0 0.060880002
1.528 -0.039000001 -0.066 0 0 0 0 0.06089
1.524 -0.035999998 -0.061000001 0 0 0 0 0.060899999
1.528 -0.034000002 -0.057 0 0 0 0 0.060910001
1.523 -0.030999999 -0.052999999 0 0 0 0 0.06092
1.512 -0.028000001 -0.048 0 0 0 0 0.060929999
1.528 -0.026000001 -0.044 0 0 0 0 0.060940001
1.511 -0.023 -0.039999999 0 0 0 0 0.06095
1.517 -0.021 -0.035999998 0 0 0 0 0.060959999
1.5140001 -0.017999999 -0.032000002 0 0 0 0 0.060970001
1.515 -0.016000001 -0.027000001 0 0 0 0 0.06098
1.529 -0.013 -0.023 0 0 0 0 0.060989998
1.511 -0.011 -0.018999999 0 0 0 0 0.061000001
1.516 -0.0080000004 -0.015 0 0 0 0 0.061009999
1.523 -0.0060000001 -0.011 0 0 0 0 0.061020002
1.526 -0.003 -0.0060000001 0 0 0 0 0.06103
1.53 -0.001 -0.0020000001 0 0 0 0 0.061039999
1.516 0.001 0.001 0 0 0 0 0.061050002
1.523 0.003 0.0060000001 0 0 0 0 0.06106
1.548 0.0060000001 0.0099999998 0 0 0 0 0.061069999
1.567 0.0080000004 0.014 0 0 0 0 0.061080001
1.584 0.011 0.018999999 0 0 0 0 0.06109
1.608 0.014 0.024 0 0 0 0 0.061099999
1.628 0.017000001 0.028999999 0 0 0 0 0.061110001
1.663 0.02 0.034000002 0 0 0 0 0.06112
1.701 0.023 0.039999999 0 0 0 0 0.061129998
1.747 0.026000001 0.046 0 0 0 0 0.061140001
1.7359999 0.028999999 0.050000001 0 0 0 0 0.061149999
1.768 0.032000002 0.056000002 0 0 0 0 0.061159998
1.771 0.035 0.061000001 0 0 0 0 0.061170001
1.776 0.037999999 0.067000002 0 0 0 0 0.061179999
1.786 0.041000001 0.071999997 0 0 0 0 0.061190002
1.786 0.044 0.077 0 0 0 0 0.0612
1.804 0.046999998 0.082999997 0 0 0 0 0.061209999
1.799 0.050000001 0.088 0 0 0 0 0.061220001
1.814 0.052999999 0.093999997 0 0 0 0 0.06123
1.8099999 0.056000002 0.098999999 0 0 0 0 0.061239999
1.824 0.059 0.105 0 0 0 0 0.061250001
1.825 0.061999999 0.11 0 0 0 0 0.06126
0 0 0 0 0 0 0 0.061269999
1.987 0.072999999 0.131 5 0 0 0 0.061280001
2.0139999 0.077 0.139 0 0 0 0 0.06129
2.2479999 0.090000004 0.161 22 0 0 0 0.061299998
2.049 0.085000001 0.153 60 0 0 0 0.061310001
1.99 0.086000003 0.154 82 0 0 0 0.061319999
1.9529999 0.086999997 0.15700001 11 0 0 0 0.061330002
1.955 0.090000004 0.163 55 0 0 0 0.06134
1.9680001 0.093999997 0.17 13 0 0 0 0.061349999
1.975 0.097000003 0.176 13 0 0 0 0.061360002
1.977 0.1 0.182 26 0 0 0 0.06137
1.99 0.103 0.189 36 0 0 0 0.061379999
1.994 0.107 0.19499999 103 0 0 0 0.061390001
2.003 0.11 0.20200001 100 0 0 0 0.0614
2.0120001 0.114 0.20900001 102 0 0 0 0.061409999
2.02 0.117 0.215 98 0 0 0 0.061420001
2.029 0.12 0.222 77 0 0 0 0.06143
2.0409999 0.124 0.229 39 0 0 0 0.061439998
2.05 0.12800001 0.236 14 0 0 0 0.061450001
2.0669999 0.132 0.245 6 0 0 0 0.06146
2.118 0.138 0.257 16 0 0 0 0.061469998
2.3329999 0.155 0.28999999 34 0 0 0 0.061480001
2.7869999 0.19 0.354 28 0 0 0 0.061489999
2.9100001 0.20200001 0.37900001 38 0 0 0 0.061500002
2.934 0.208 0.391 86 0 0 0 0.06151
2.9460001 0.213 0.40099999 106 0 0 0 0.061519999
2.95 0.21699999 0.41 97 0 0 0 0.061530001
2.957 0.222 0.41999999 96 0 0 0 0.06154
2.96 0.226 0.42899999 90 0 0 0 0.061549999
2.961 0.23100001 0.43799999 86 0 0 0 0.061560001
2.974 0.236 0.449 77 0 0 0 0.06157
2.9790001 0.23999999 0.45899999 68 0 0 0 0.061579999
2.983 0.245 0.46799999 71 0 0 0 0.061590001
2.9849999 0.249 0.477 63 0 0 0 0.0616
2.9920001 0.25400001 0.48800001 56 0 0 0 0.061609998
2.9920001 0.25799999 0.49599999 55 0 0 0 0.061620001
2.9979999 0.26199999 0.50599998 54 0 0 0 0.061629999
3.0090001 0.26800001 0.51800001 52 0 0 0 0.061640002
3.016 0.27200001 0.528 50 0 0 0 0.061650001
3.0179999 0.27599999 0.53799999 48 0 0 0 0.061659999
3.029 0.28099999 0.54900002 48 0 0 0 0.061670002
2.9949999 0.28200001 0.551 140 0 0 0 0.06168
2.8900001 0.27599999 0.54100001 150 0 0 0 0.061689999
2.8299999 0.27399999 0.53799999 150 0 0 0 0.061700001
2.806 0.27599999 0.542 150 0 0 0 0.06171
2.8050001 0.27900001 0.551 143 0 0 0 0.061719999
2.7739999 0.28 0.55299997 82 0 0 0 0.061730001
2.681 0.27399999 0.54299998 34 0 0 0 0.06174
2.648 0.27399999 0.54400003 31 0 0 0 0.061749998
2.6489999 0.27700001 0.55299997 30 0 0 0 0.061760001
2.6470001 0.28 0.56 30 0 0 0 0.06177
2.671 0.28600001 0.57300001 34 0 0 0 0.061779998
2.697 0.29300001 0.58700001 30 0 0 0 0.061790001
2.8570001 0.31400001 0.63099998 150 0 0 0 0.061799999
2.7869999 0.30899999 0.62400001 150 0 0 0 0.061810002
2.7579999 0.31 0.62599999 82 0 0 0 0.06182
2.8180001 0.31999999 0.64899999 37 0 0 0 0.061829999
2.839 0.32600001 0.66299999 34 0 0 0 0.061840001
2.9430001 0.34099999 0.69599998 150 0 0 0 0.06185
2.9619999 0.347 0.70999998 150 0 0 0 0.061859999
2.973 0.352 0.722 150 0 0 0 0.061870001
2.9489999 0.35299999 0.72500002 150 0 0 0 0.06188
3.079 0.37200001 0.76700002 150 0 0 0 0.061889999
3.1300001 0.382 0.78899997 150 0 0 0 0.061900001
3.1270001 0.38499999 0.79900002 150 0 0 0 0.06191
3.1240001 0.38800001 0.80800003 150 0 0 0 0.061919998
3.1240001 0.39199999 0.81800002 150 0 0 0 0.061930001
3.119 0.39500001 0.82599998 150 0 0 0 0.061939999
3.1159999 0.398 0.83499998 150 0 0 0 0.061949998
3.0569999 0.39399999 0.829 150 0 0 0 0.061960001
2.977 0.38699999 0.81699997 150 0 0 0 0.061969999
2.8510001 0.37400001 0.79100001 41 0 0 0 0.061980002
2.779 0.368 0.77999997 39 0 0 0 0.06199
2.6849999 0.35800001 0.76200002 37 0 0 0 0.061999999
2.691 0.36199999 0.773 43 0 0 0 0.062010001
2.777 0.377 0.80599999 51 0 0 0 0.06202
2.888 0.39500001 0.84799999 150 0 0 0 0.062029999
2.905 0.40000001 0.86199999 150 0 0 0 0.062040001
2.973 0.41299999 0.89200002 150 0 0 0 0.06205
2.9790001 0.417 0.903 150 0 0 0 0.062059999
2.948 0.41600001 0.90399998 150 0 0 0 0.062070001
2.9749999 0.42300001 0.92199999 150 0 0 0 0.06208
2.95 0.42199999 0.92299998 150 0 0 0 0.062089998
2.9590001 0.42699999 0.93599999 150 0 0 0 0.062100001
2.9820001 0.433 0.95300001 150 0 0 0 0.062109999
2.99 0.43700001 0.96499997 150 0 0 0 0.062120002
3.0439999 0.44800001 0.99199998 150 0 0 0 0.06213
3.0580001 0.45300001 1.007 150 0 0 0 0.062139999
3.089 0.461 1.027 150 0 0 0 0.062150002
3.0840001 0.463 1.036 150 0 0 0 0.06216
3.0869999 0.46599999 1.0470001 150 0 0 0 0.062169999
3.086 0.46900001 1.056 150 0 0 0 0.062180001
3.0829999 0.472 1.0650001 150 0 0 0 0.06219
3.082 0.47400001 1.075 150 0 0 0 0.062199999
3.0569999 0.47299999 1.077 150 0 0 0 0.062210001
3.0450001 0.47400001 1.082 150 0 0 0 0.06222
3.0699999 0.48100001 1.101 150 0 0 0 0.062229998
3.0769999 0.48500001 1.114 150 0 0 0 0.062240001
3.073 0.48699999 1.123 150 0 0 0 0.062249999
3.075 0.49000001 1.1339999 150 0 0 0 0.062259998
3.0710001 0.49200001 1.142 150 0 0 0 0.062270001
3.073 0.495 1.153 150 0 0 0 0.062279999
3.0710001 0.49700001 1.163 150 0 0 0 0.062290002
3.0699999 0.49900001 1.173 150 0 0 0 0.0623
3.0669999 0.50099999 1.181 150 0 0 0 0.062309999
3.066 0.50300002 1.191 150 0 0 0 0.062320001
3.0639999 0.50599998 1.201 150 0 0 0 0.06233
3.0610001 0.50800002 1.21 150 0 0 0 0.062339999
3.062 0.50999999 1.22 150 0 0 0 0.062350001
3.0610001 0.51200002 1.23 150 0 0 0 0.06236
3.062 0.514 1.2410001 150 0 0 0 0.062369999
3.056 0.51599997 1.248 150 0 0 0 0.062380001
3.0569999 0.51800001 1.2589999 150 0 0 0 0.06239
3.053 0.51999998 1.268 150 0 0 0 0.062399998
3.0599999 0.523 1.281 150 0 0 0 0.062410001
3.053 0.52399999 1.288 150 0 0 0 0.062419999
3.0550001 0.52600002 1.299 150 0 0 0 0.062430002
3.0510001 0.52700001 1.308 150 0 0 0 0.06244
3.05 0.52899998 1.317 150 0 0 0 0.062449999
3.05 0.53100002 1.327 150 0 0 0 0.062460002
3.0450001 0.53200001 1.335 150 0 0 0 0.06247
3.0469999 0.53399998 1.346 150 0 0 0 0.062479999
3.0439999 0.53500003 1.355 150 0 0 0 0.062490001
3.0439999 0.537 1.365 150 0 0 0 0.0625
3.0450001 0.53899997 1.376 150 0 0 0 0.062509999
3.0439999 0.54000002 1.385 150 0 0 0 0.062519997
3.0469999 0.542 1.397 150 0 0 0 0.062530003
3.0439999 0.54299998 1.405 150 0 0 0 0.062540002
3.0450001 0.54500002 1.416 150 0 0 0 0.062550001
3.0439999 0.546 1.426 150 0 0 0 0.06256
3.0409999 0.54699999 1.434 150 0 0 0 0.062569998
3.0420001 0.54799998 1.4450001 150 0 0 0 0.062579997
3.043 0.55000001 1.455 150 0 0 0 0.062590003
3.0409999 0.551 1.464 150 0 0 0 0.062600002
3.04 0.55199999 1.474 150 0 0 0 0.06261
3.0380001 0.55199999 1.483 150 0 0 0 0.062619999
3.0380001 0.55400002 1.493 150 0 0 0 0.062629998
3.0369999 0.55400002 1.502 150 0 0 0 0.062639996
3.0420001 0.55599999 1.5140001 150 0 0 0 0.062650003
3.039 0.55699998 1.523 150 0 0 0 0.062660001
3.0380001 0.55699998 1.5319999 150 0 0 0 0.06267
3.036 0.55800003 1.541 150 0 0 0 0.062679999
3.0380001 0.55900002 1.551 150 0 0 0 0.062689997
3.0380001 0.55900002 1.561 150 0 0 0 0.062700003
3.036 0.56 1.5700001 150 0 0 0 0.062710002
3.0320001 0.55900002 1.5779999 150 0 0 0 0.062720001
3.036 0.56099999 1.59 150 0 0 0 0.062729999
3.0369999 0.56099999 1.6 150 0 0 0 0.062739998
3.0369999 0.56199998 1.61 150 0 0 0 0.062749997
3.0380001 0.56199998 1.62 150 0 0 0 0.062760003
3.0369999 0.56199998 1.628 150 0 0 0 0.062770002
3.0250001 0.56 1.632 150 0 0 0 0.06278
3.006 0.55699998 1.631 150 0 0 0 0.062789999
2.9809999 0.55199999 1.626 150 0 0 0 0.062799998
2.957 0.54799998 1.622 150 0 0 0 0.062809996
2.954 0.54699999 1.63 150 0 0 0 0.062820002
2.9619999 0.54900002 1.643 150 0 0 0 0.062830001
2.954 0.54699999 1.648 150 0 0 0 0.06284
2.9449999 0.54500002 1.652 110 0 0 0 0.062849998
2.931 0.542 1.653 89 0 0 0 0.062859997
2.9119999 0.53899997 1.65 89 0 0 0 0.062870003
2.895 0.53500003 1.649 85 0 0 0 0.062880002
2.881 0.53200001 1.65 97 0 0 0 0.062890001
2.859 0.52700001 1.646 97 0 0 0 0.062899999
2.849 0.52499998 1.648 97 0 0 0 0.062909998
2.832 0.52100003 1.647 96 0 0 0 0.062919997
2.8199999 0.51899999 1.648 99 0 0 0 0.062930003
2.8069999 0.51499999 1.648 100 0 0 0 0.062940001
2.79 0.51099998 1.646 97 0 0 0 0.06295
2.7839999 0.50999999 1.65 99 0 0 0 0.062959999
2.767 0.50599998 1.648 98 0 0 0 0.062969998
2.757 0.50300002 1.65 101 0 0 0 0.062980004
2.74 0.49900001 1.647 99 0 0 0 0.062990002
2.7279999 0.49599999 1.647 97 0 0 0 0.063000001
2.717 0.49200001 1.647 103 0 0 0 0.06301
2.7049999 0.48899999 1.648 99 0 0 0 0.063019998
2.6919999 0.486 1.646 104 0 0 0 0.063029997
2.681 0.48199999 1.647 105 0 0 0 0.063040003
2.6670001 0.479 1.645 98 0 0 0 0.063050002
2.6570001 0.47499999 1.645 98 0 0 0 0.063060001
2.6459999 0.472 1.645 100 0 0 0 0.063069999
2.635 0.46799999 1.645 99 0 0 0 0.063079998
2.622 0.465 1.643 98 0 0 0 0.063089997
2.615 0.46200001 1.645 101 0 0 0 0.063100003
2.6040001 0.458 1.6440001 97 0 0 0 0.063110001
2.5899999 0.454 1.642 102 0 0 0 0.06312
2.582 0.45100001 1.642 99 0 0 0 0.063129999
2.575 0.44800001 1.6440001 108 0 0 0 0.063139997
2.5650001 0.44400001 1.643 100 0 0 0 0.063150004
2.5569999 0.44100001 1.643 99 0 0 0 0.063160002
2.5450001 0.43700001 1.641 104 0 0 0 0.063170001
2.5409999 0.43399999 1.6440001 98 0 0 0 0.06318
2.533 0.43099999 1.6440001 99 0 0 0 0.063189998
2.5220001 0.42699999 1.642 100 0 0 0 0.063199997
2.517 0.42399999 1.6440001 107 0 0 0 0.063210003
2.5090001 0.421 1.643 100 0 0 0 0.063220002
2.503 0.41800001 1.6440001 102 0 0 0 0.06323
2.494 0.414 1.643 107 0 0 0 0.063239999
2.4849999 0.41 1.642 117 0 0 0 0.063249998
2.477 0.40700001 1.641 103 0 0 0 0.063259996
2.4749999 0.40400001 1.6440001 103 0 0 0 0.063270003
2.464 0.40000001 1.641 115 0 0 0 0.063280001
2.4579999 0.396 1.641 112 0 0 0 0.06329
2.448 0.39199999 1.638 112 0 0 0 0.063299999
2.4460001 0.389 1.641 116 0 0 0 0.063309997
2.4389999 0.38600001 1.64 121 0 0 0 0.063320003
2.438 0.38299999 1.642 123 0 0 0 0.063330002
2.4319999 0.37900001 1.641 123 0 0 0 0.063340001
2.4260001 0.37599999 1.641 116 0 0 0 0.063349999
2.424 0.373 1.643 115 0 0 0 0.063359998
2.4219999 0.37 1.645 121 0 0 0 0.063369997
2.4159999 0.366 1.643 116 0 0 0 0.063380003
2.411 0.36199999 1.642 114 0 0 0 0.063390002
2.4059999 0.359 1.642 113 0 0 0 0.0634
2.402 0.35499999 1.642 113 0 0 0 0.063409999
2.401 0.352 1.6440001 114 0 0 0 0.063419998
2.401 0.34900001 1.645 118 0 0 0 0.063429996
2.392 0.345 1.642 110 0 0 0 0.063440003
2.3900001 0.34200001 1.643 110 0 0 0 0.063450001
2.3900001 0.338 1.6440001 118 0 0 0 0.06346
2.3859999 0.33500001 1.643 107 0 0 0 0.063469999
2.381 0.331 1.642 107 0 0 0 0.063479997
2.382 0.32800001 1.6440001 114 0 0 0 0.063490003
2.3789999 0.324 1.643 111 0 0 0 0.063500002
2.381 0.322 1.646 123 0 0 0 0.063510001
2.3789999 0.31799999 1.646 115 0 0 0 0.063519999
2.3740001 0.31400001 1.643 113 0 0 0 0.063529998
2.372 0.31 1.642 113 0 0 0 0.063539997
2.3759999 0.308 1.646 113 0 0 0 0.063550003
2.368 0.303 1.641 114 0 0 0 0.063560002
2.372 0.30000001 1.6440001 115 0 0 0 0.06357
2.368 0.29699999 1.642 113 0 0 0 0.063579999
2.369 0.29300001 1.643 99 0 0 0 0.063589998
2.369 0.28999999 1.643 115 0 0 0 0.063600004
2.372 0.287 1.645 114 0 0 0 0.063610002
2.3729999 0.28400001 1.645 113 0 0 0 0.063620001
2.3729999 0.28 1.645 113 0 0 0 0.06363
2.365 0.27599999 1.64 117 0 0 0 0.063639998
2.3729999 0.273 1.6440001 116 0 0 0 0.063649997
2.375 0.27000001 1.645 116 0 0 0 0.063660003
2.375 0.266 1.6440001 117 0 0 0 0.063670002
2.3759999 0.26300001 1.6440001 113 0 0 0 0.063680001
2.382 0.25999999 1.647 116 0 0 0 0.063689999
2.3840001 0.257 1.647 114 0 0 0 0.063699998
2.3859999 0.25299999 1.647 115 0 0 0 0.063709997
2.3870001 0.25 1.646 115 0 0 0 0.063720003
2.3900001 0.24600001 1.646 119 0 0 0 0.063730001
2.391 0.243 1.646 114 0 0 0 0.06374
2.3970001 0.23999999 1.648 115 0 0 0 0.063749999
2.3989999 0.237 1.647 111 0 0 0 0.063759997
2.4000001 0.233 1.646 108 0 0 0 0.063770004
2.402 0.23 1.645 111 0 0 0 0.063780002
2.4030001 0.226 1.6440001 103 0 0 0 0.063790001
2.414 0.223 1.649 111 0 0 0 0.0638
2.4159999 0.22 1.647 108 0 0 0 0.063809998
2.4200001 0.21699999 1.647 117 0 0 0 0.063819997
2.424 0.213 1.647 110 0 0 0 0.063830003
2.428 0.20999999 1.647 111 0 0 0 0.063840002
2.4300001 0.206 1.645 113 0 0 0 0.063850001
2.437 0.20299999 1.647 110 0 0 0 0.063859999
2.4419999 0.2 1.647 108 0 0 0 0.063869998
2.444 0.197 1.6440001 124 0 0 0 0.063879997
2.4549999 0.19400001 1.648 128 0 0 0 0.063890003
2.4579999 0.19 1.646 119 0 0 0 0.063900001
2.461 0.18700001 1.645 116 0 0 0 0.06391
2.4690001 0.184 1.646 122 0 0 0 0.063919999
2.4790001 0.18099999 1.648 110 0 0 0 0.063929997
2.483 0.178 1.647 115 0 0 0 0.063940004
2.4920001 0.17399999 1.649 104 0 0 0 0.063950002
2.4960001 0.171 1.647 103 0 0 0 0.063960001
2.506 0.168 1.649 105 0 0 0 0.06397
2.51 0.16500001 1.647 99 0 0 0 0.063979998
2.5220001 0.162 1.65 107 0 0 0 0.063989997
2.529 0.15899999 1.649 114 0 0 0 0.064000003
2.5369999 0.156 1.65 103 0 0 0 0.064010002
2.5450001 0.153 1.649 103 0 0 0 0.06402
2.5580001 0.15000001 1.653 109 0 0 0 0.064029999
2.566 0.146 1.652 97 0 0 0 0.064039998
2.572 0.14300001 1.651 103 0 0 0 0.064049996
2.5799999 0.14 1.651 108 0 0 0 0.064060003
2.5880001 0.13699999 1.65 103 0 0 0 0.064070001
2.6010001 0.134 1.652 108 0 0 0 0.06408
2.6070001 0.131 1.65 100 0 0 0 0.064089999
2.615 0.12800001 1.649 104 0 0 0 0.064099997
2.628 0.125 1.651 98 0 0 0 0.064110003
2.6370001 0.122 1.651 96 0 0 0 0.064120002
2.6470001 0.119 1.651 90 0 0 0 0.064130001
2.6559999 0.116 1.65 93 0 0 0 0.064139999
2.6700001 0.113 1.652 94 0 0 0 0.064149998
2.681 0.11 1.652 91 0 0 0 0.064159997
2.6949999 0.107 1.653 92 0 0 0 0.064170003
2.7049999 0.104 1.653 90 0 0 0 0.064180002
2.7160001 0.101 1.652 90 0 0 0 0.06419
2.727 0.097999997 1.652 88 0 0 0 0.064199999
2.744 0.096000001 1.655 90 0 0 0 0.064209998
2.7579999 0.093000002 1.656 93 0 0 0 0.064219996
2.7720001 0.090000004 1.6569999 102 0 0 0 0.064230002
2.78 0.086999997 1.654 128 0 0 0 0.064240001
2.7850001 0.082999997 1.65 82 0 0 0 0.06425
2.7850001 0.079999998 1.642 48 0 0 0 0.064259999
2.779 0.077 1.631 43 0 0 0 0.064269997
2.7750001 0.074000001 1.62 43 0 0 0 0.064280003
2.7709999 0.07 1.61 42 0 0 0 0.064290002
2.7639999 0.067000002 1.598 43 0 0 0 0.064300001
2.76 0.064000003 1.5880001 43 0 0 0 0.064309999
2.7539999 0.061000001 1.577 42 0 0 0 0.064319998
2.75 0.057999998 1.566 43 0 0 0 0.064329997
2.7449999 0.055 1.5549999 43 0 0 0 0.064340003
2.7409999 0.052000001 1.545 44 0 0 0 0.064350002
2.7349999 0.048999999 1.534 45 0 0 0 0.06436
2.7309999 0.046 1.523 44 0 0 0 0.064369999
2.7249999 0.043000001 1.511 44 0 0 0 0.064379998
2.7190001 0.041000001 1.5 46 0 0 0 0.064390004
2.7149999 0.037999999 1.489 46 0 0 0 0.064400002
2.714 0.035 1.4809999 46 0 0 0 0.064410001
2.7060001 0.033 1.4680001 47 0 0 0 0.06442
2.631 0.028999999 1.419 106 0 0 0 0.064429998
2.5450001 0.026000001 1.364 150 0 0 0 0.064439997
2.4979999 0.023 1.331 150 0 0 0 0.064450003
2.4419999 0.021 1.294 150 0 0 0 0.064460002
2.441 0.017999999 1.286 150 0 0 0 0.064470001
2.447 0.016000001 1.281 150 0 0 0 0.064479999
2.4460001 0.014 1.273 150 0 0 0 0.064489998
2.447 0.012 1.266 150 0 0 0 0.064499997
2.447 0.0099999998 1.258 150 0 0 0 0.064510003
2.451 0.0080000004 1.252 150 0 0 0 0.064520001
2.448 0.0060000001 1.243 109 0 0 0 0.06453
2.4530001 0.0040000002 1.237 58 0 0 0 0.064539999
2.4430001 0.0020000001 1.224 57 0 0 0 0.064549997
2.3729999 0.001 1.182 93 0 0 0 0.064560004
2.2869999 0 1.131 36 0 0 0 0.064570002
2.223 -0.0020000001 1.092 25 0 0 0 0.064580001
2.2290001 -0.003 1.0880001 31 0 0 0 0.06459
2.2390001 -0.0049999999 1.085 36 0 0 0 0.064599998
2.2550001 -0.0070000002 1.086 32 0 0 0 0.064609997
2.266 -0.0080000004 1.084 33 0 0 0 0.064620003
2.2869999 -0.0099999998 1.086 33 0 0 0 0.064630002
2.3069999 -0.011 1.0880001 33 0 0 0 0.06464
2.3199999 -0.013 1.086 32 0 0 0 0.064649999
2.3380001 -0.015 1.087 31 0 0 0 0.064659998
2.3599999 -0.016000001 1.089 32 0 0 0 0.064669997
2.372 -0.017999999 1.087 31 0 0 0 0.064680003
2.398 -0.018999999 1.091 32 0 0 0 0.064690001
2.4130001 -0.021 1.089 32 0 0 0 0.0647
2.431 -0.022 1.09 32 0 0 0 0.064709999
2.451 -0.024 1.09 33 0 0 0 0.064719997
2.471 -0.025 1.091 31 0 0 0 0.064730003
2.4920001 -0.027000001 1.092 31 0 0 0 0.064740002
2.516 -0.028000001 1.094 31 0 0 0 0.064750001
2.53 -0.029999999 1.091 31 0 0 0 0.06476
2.553 -0.030999999 1.0930001 31 0 0 0 0.064769998
2.5669999 -0.033 1.09 38 0 0 0 0.064779997
2.5810001 -0.034000002 1.087 36 0 0 0 0.064790003
2.582 -0.035 1.079 32 0 0 0 0.064800002
2.582 -0.035999998 1.0700001 33 0 0 0 0.06481
2.573 -0.037 1.058 32 0 0 0 0.064819999
2.572 -0.037999999 1.048 32 0 0 0 0.064829998
2.566 -0.039000001 1.038 32 0 0 0 0.064839996
2.53 -0.039999999 1.0140001 41 0 0 0 0.064850003
2.454 -0.039000001 0.97600001 56 0 0 0 0.064860001
2.4289999 -0.039999999 0.95700002 59 0 0 0 0.06487
2.4170001 -0.041000001 0.94400001 61 0 0 0 0.064879999
2.4130001 -0.041000001 0.935 44 0 0 0 0.064889997
2.4119999 -0.041999999 0.926 45 0 0 0 0.064900003
2.4119999 -0.043000001 0.91799998 46 0 0 0 0.064910002
2.415 -0.044 0.91100001 46 0 0 0 0.064920001
2.4159999 -0.045000002 0.903 46 0 0 0 0.064929999
2.411 -0.045000002 0.89300001 45 0 0 0 0.064939998
2.4130001 -0.046 0.88499999 46 0 0 0 0.064949997
2.411 -0.046999998 0.87599999 44 0 0 0 0.064960003
2.404 -0.046999998 0.866 36 0 0 0 0.064970002
2.3959999 -0.046999998 0.85500002 14 0 0 0 0.06498
2.2679999 -0.045000002 0.801 1 0 0 0 0.064989999
2.1930001 -0.044 0.76700002 0 0 0 0 0.064999998
2.2609999 -0.046 0.78399998 0 0 0 0 0.065009996
2.233 -0.046 0.76599997 0 0 0 0 0.065020002
2.2379999 -0.046999998 0.75999999 0 0 0 0 0.065030001
2.2420001 -0.046999998 0.75400001 0 0 0 0 0.06504
2.2260001 -0.046999998 0.741 0 0 0 0 0.065049998
2.2219999 -0.048 0.73199999 0 0 0 0 0.065059997
2.2579999 -0.048999999 0.736 0 0 0 0 0.065070003
2.2160001 -0.048 0.71499997 0 0 0 0 0.065080002
2.2049999 -0.048 0.704 0 0 0 0 0.065090001
2.221 -0.048999999 0.70200002 0 0 0 0 0.065099999
2.1989999 -0.048999999 0.68699998 0 0 0 0 0.065109998
2.21 -0.048999999 0.68300003 0 0 0 0 0.065119997
2.214 -0.048999999 0.67699999 0 0 0 0 0.065130003
2.2119999 -0.050000001 0.66900003 0 0 0 0 0.065140001
2.223 -0.050000001 0.66500002 0 0 0 0 0.06515
2.233 -0.050000001 0.66000003 0 0 0 0 0.065159999
2.1800001 -0.048999999 0.63700002 0 0 0 0 0.065169998
