# .PCD v0.7 - Point Cloud Data file format
VERSION 0.7
FIELDS x y z intensity normal_x normal_y normal_z curvature
SIZE 4 4 4 4 4 4 4 4
TYPE F F F F F F F F
COUNT 1 1 1 1 1 1 1 1
WIDTH 1061
HEIGHT 1
VIEWPOINT 0 0 0 1 0 0 0
POINTS 1061
DATA ascii
0.52899998 -0.003 -0.059999999 0 0 0 0 0.0075599998
0.53500003 -0.003 -0.061999999 0 0 0 0 0.0075699999
0.53799999 -0.003 -0.064000003 0 0 0 0 0.00758
0.528 -0.003 -0.064999998 0 0 0 0 0.0075900001
0.52999997 -0.003 -0.067000002 0 0 0 0 0.0076000001
0.537 -0.003 -0.068999998 0 0 0 0 0.0076100002
0.53899997 -0.003 -0.071000002 0 0 0 0 0.0076199998
0.537 -0.003 -0.072999999 0 0 0 0 0.0076299999
0.542 -0.003 -0.075000003 0 0 0 0 0.00764
0.53200001 -0.003 -0.075999998 0 0 0 0 0.00765
0.53799999 -0.003 -0.078000002 0 0 0 0 0.0076600001
0.53799999 -0.003 -0.079999998 0 0 0 0 0.0076700002
0.53299999 -0.003 -0.081 0 0 0 0 0.0076799998
0.54000002 -0.003 -0.083999999 0 0 0 0 0.0076899999
0.61400002 -0.0040000002 -0.097000003 0 0 0 0 0.0077
0 0 0 0 0 0 0 0.00771
1.2029999 -0.0080000004 -0.199 3 0 0 0 0.0077200001
1.193 -0.0080000004 -0.20100001 3 0 0 0 0.0077300002
1.188 -0.0080000004 -0.204 2 0 0 0 0.0077399998
1.179 -0.0080000004 -0.207 3 0 0 0 0.0077499999
1.188 -0.0080000004 -0.212 4 0 0 0 0.0077599999
1.1900001 -0.0080000004 -0.21600001 4 0 0 0 0.00777
1.194 -0.0080000004 -0.221 4 0 0 0 0.0077800001
1.1950001 -0.0080000004 -0.22499999 4 0 0 0 0.0077900002
1.1950001 -0.0080000004 -0.229 4 0 0 0 0.0077999998
1.194 -0.0080000004 -0.233 4 0 0 0 0.0078099999
1.194 -0.0080000004 -0.237 4 0 0 0 0.0078199999
1.191 -0.0070000002 -0.23999999 4 0 0 0 0.0078299996
1.192 -0.0070000002 -0.244 4 0 0 0 0.0078400001
1.2 -0.0070000002 -0.25 4 0 0 0 0.0078499997
1.192 -0.0070000002 -0.252 4 0 0 0 0.0078600002
1.1950001 -0.0070000002 -0.257 5 0 0 0 0.0078699999
1.197 -0.0070000002 -0.26100001 4 0 0 0 0.0078800004
1.196 -0.0070000002 -0.26499999 5 0 0 0 0.00789
1.1950001 -0.0070000002 -0.26899999 5 0 0 0 0.0078999996
1.197 -0.0060000001 -0.273 5 0 0 0 0.0079100002
1.189 -0.0060000001 -0.27500001 5 0 0 0 0.0079199998
1.1900001 -0.0060000001 -0.28 5 0 0 0 0.0079300003
1.196 -0.0060000001 -0.285 5 0 0 0 0.0079399999
1.1950001 -0.0060000001 -0.289 5 0 0 0 0.0079500005
1.191 -0.0049999999 -0.292 5 0 0 0 0.0079600001
1.1900001 -0.0049999999 -0.296 5 0 0 0 0.0079699997
1.189 -0.0049999999 -0.29899999 5 0 0 0 0.0079800002
1.188 -0.0049999999 -0.303 5 0 0 0 0.0079899998
1.194 -0.0040000002 -0.308 6 0 0 0 0.0080000004
1.193 -0.0040000002 -0.31200001 6 0 0 0 0.00801
1.193 -0.0040000002 -0.31600001 6 0 0 0 0.0080199996
1.192 -0.0040000002 -0.31999999 7 0 0 0 0.0080300001
1.191 -0.003 -0.324 6 0 0 0 0.0080399998
1.189 -0.003 -0.32699999 6 0 0 0 0.0080500003
1.196 -0.003 -0.333 6 0 0 0 0.0080599999
1.1900001 -0.0020000001 -0.33500001 6 0 0 0 0.0080700004
1.1900001 -0.0020000001 -0.33899999 5 0 0 0 0.0080800001
1.191 -0.0020000001 -0.34400001 5 0 0 0 0.0080899997
1.1950001 -0.001 -0.34900001 5 0 0 0 0.0081000002
1.194 -0.001 -0.35299999 5 0 0 0 0.0081099998
1.193 0 -0.35600001 5 0 0 0 0.0081200004
1.197 0 -0.36199999 5 0 0 0 0.00813
1.188 0 -0.36300001 4 0 0 0 0.0081399996
1.192 0 -0.368 4 0 0 0 0.0081500001
1.194 0 -0.373 4 0 0 0 0.0081599997
1.192 0.001 -0.37599999 4 0 0 0 0.0081700003
1.192 0.001 -0.38 4 0 0 0 0.0081799999
1.183 0.001 -0.38100001 4 0 0 0 0.0081900004
1.182 0.0020000001 -0.38499999 4 0 0 0 0.0082
1.181 0.0020000001 -0.389 4 0 0 0 0.0082099997
1.182 0.003 -0.39300001 4 0 0 0 0.0082200002
1.181 0.003 -0.396 4 0 0 0 0.0082299998
1.182 0.0040000002 -0.40099999 4 0 0 0 0.0082400003
1.176 0.0040000002 -0.403 4 0 0 0 0.00825
1.179 0.0049999999 -0.40799999 4 0 0 0 0.0082599996
1.1619999 0.0049999999 -0.40599999 2 0 0 0 0.0082700001
1.131 0.0060000001 -0.39899999 1 0 0 0 0.0082799997
1.066 0.0060000001 -0.37900001 0 0 0 0 0.0082900003
1.048 0.0060000001 -0.37599999 0 0 0 0 0.0082999999
1.048 0.0070000002 -0.38 0 0 0 0 0.0083100004
1.03 0.0070000002 -0.377 0 0 0 0 0.00832
1.029 0.0080000004 -0.38 0 0 0 0 0.0083299996
1.008 0.0080000004 -0.37599999 0 0 0 0 0.0083400002
1.001 0.0089999996 -0.37599999 0 0 0 0 0.0083499998
1.003 0.0089999996 -0.38 0 0 0 0 0.0083600003
0.99299997 0.0099999998 -0.38 0 0 0 0 0.0083699999
0.98799998 0.0099999998 -0.382 0 0 0 0 0.0083799995
0.96399999 0.011 -0.375 0 0 0 0 0.0083900001
0.958 0.011 -0.37599999 0 0 0 0 0.0083999997
0.94800001 0.012 -0.37599999 0 0 0 0 0.0084100002
0.95899999 0.012 -0.38299999 0 0 0 0 0.0084199999
0.94 0.013 -0.37900001 0 0 0 0 0.0084300004
0.93599999 0.013 -0.38 0 0 0 0 0.00844
0.92900002 0.014 -0.38100001 0 0 0 0 0.0084499996
0.91000003 0.014 -0.37599999 0 0 0 0 0.0084600002
0.92900002 0.015 -0.38699999 0 0 0 0 0.0084699998
0.91299999 0.015 -0.38299999 0 0 0 0 0.0084800003
0.90700001 0.016000001 -0.384 0 0 0 0 0.0084899999
0.89300001 0.016000001 -0.38100001 0 0 0 0 0.0085000005
0.89200002 0.017000001 -0.38299999 0 0 0 0 0.0085100001
0.87699997 0.017000001 -0.38 0 0 0 0 0.0085199997
0.86299998 0.017999999 -0.37599999 0 0 0 0 0.0085300002
0.86299998 0.017999999 -0.38 0 0 0 0 0.0085399998
0.85100001 0.018999999 -0.377 0 0 0 0 0.0085500004
0.847 0.018999999 -0.37799999 0 0 0 0 0.00856
0.83999997 0.02 -0.37799999 0 0 0 0 0.0085699996
0.852 0.021 -0.38600001 0 0 0 0 0.0085800001
0.85299999 0.021 -0.389 0 0 0 0 0.0085899998
0.84299999 0.022 -0.38800001 0 0 0 0 0.0086000003
0.833 0.022 -0.38600001 0 0 0 0 0.0086099999
0.824 0.023 -0.384 0 0 0 0 0.0086200004
0.81699997 0.023 -0.38299999 0 0 0 0 0.0086300001
0.81900001 0.024 -0.38699999 0 0 0 0 0.0086399997
0.81800002 0.025 -0.389 0 0 0 0 0.0086500002
0.80500001 0.025 -0.38600001 0 0 0 0 0.0086599998
0.79799998 0.026000001 -0.38499999 0 0 0 0 0.0086700004
0.80400002 0.027000001 -0.38999999 0 0 0 0 0.00868
0.78799999 0.027000001 -0.38499999 0 0 0 0 0.0086899996
0.79000002 0.028000001 -0.389 0 0 0 0 0.0087000001
0.787 0.028000001 -0.38999999 0 0 0 0 0.0087099997
0.77999997 0.028999999 -0.389 0 0 0 0 0.0087200003
0.77600002 0.028999999 -0.389 0 0 0 0 0.0087299999
0.76700002 0.029999999 -0.38699999 0 0 0 0 0.0087400004
0.77100003 0.030999999 -0.39199999 0 0 0 0 0.00875
0.76599997 0.030999999 -0.391 0 0 0 0 0.0087599996
0.75800002 0.032000002 -0.38999999 0 0 0 0 0.0087700002
0.75700003 0.033 -0.39199999 0 0 0 0 0.0087799998
0.74000001 0.033 -0.38499999 0 0 0 0 0.0087900003
0.74400002 0.034000002 -0.389 0 0 0 0 0.0088
0.73799998 0.034000002 -0.38800001 0 0 0 0 0.0088099996
0.73400003 0.035 -0.389 0 0 0 0 0.0088200001
0.72899997 0.035999998 -0.38800001 0 0 0 0 0.0088299997
0.72799999 0.035999998 -0.38999999 0 0 0 0 0.0088400003
0.70200002 0.035999998 -0.37799999 0 0 0 0 0.0088499999
0.69800001 0.035999998 -0.37799999 0 0 0 0 0.0088600004
0.70300001 0.037999999 -0.38299999 0 0 0 0 0.00887
0.69300002 0.037999999 -0.38 0 0 0 0 0.0088799996
0.69800001 0.039000001 -0.384 0 0 0 0 0.0088900002
0.69700003 0.039999999 -0.38600001 0 0 0 0 0.0088999998
0.69099998 0.039999999 -0.384 0 0 0 0 0.0089100003
0.68800002 0.041000001 -0.38499999 0 0 0 0 0.0089199999
0.685 0.041999999 -0.38499999 0 0 0 0 0.0089299995
0.67299998 0.041999999 -0.38 0 0 0 0 0.0089400001
0.667 0.041999999 -0.37900001 0 0 0 0 0.0089499997
0.671 0.043000001 -0.38299999 0 0 0 0 0.0089600002
0.66500002 0.044 -0.382 1 0 0 0 0.0089699998
0.67000002 0.045000002 -0.38600001 0 0 0 0 0.0089800004
0.66500002 0.045000002 -0.38499999 0 0 0 0 0.00899
0.662 0.046 -0.38499999 0 0 0 0 0.0089999996
0.66900003 0.048 -0.391 0 0 0 0 0.0090100002
0.66500002 0.048 -0.38999999 0 0 0 0 0.0090199998
0.66600001 0.048999999 -0.39300001 0 0 0 0 0.0090300003
0.66799998 0.050000001 -0.396 0 0 0 0 0.0090399999
0.667 0.050999999 -0.39700001 0 0 0 0 0.0090500005
0.66600001 0.052000001 -0.398 0 0 0 0 0.0090600001
0.66600001 0.052999999 -0.40000001 0 0 0 0 0.0090699997
0.66799998 0.054000001 -0.403 0 0 0 0 0.0090800002
0.66799998 0.055 -0.405 0 0 0 0 0.0090899998
0.67199999 0.056000002 -0.40799999 0 0 0 0 0.0091000004
0.67400002 0.057 -0.412 0 0 0 0 0.00911
0.66799998 0.057999998 -0.40900001 0 0 0 0 0.0091199996
0.67000002 0.059 -0.412 0 0 0 0 0.0091300001
0.66900003 0.059999999 -0.41299999 0 0 0 0 0.0091399997
0.671 0.061000001 -0.41600001 0 0 0 0 0.0091500003
0.667 0.061999999 -0.41499999 0 0 0 0 0.0091599999
0.67299998 0.063000001 -0.41999999 1 0 0 0 0.0091700004
0.704 0.067000002 -0.44100001 2 0 0 0 0.0091800001
0.792 0.077 -0.498 4 0 0 0 0.0091899997
0.88300002 0.086999997 -0.55800003 7 0 0 0 0.0092000002
0.93199998 0.093999997 -0.58999997 8 0 0 0 0.0092099998
0.977 0.1 -0.62099999 7 0 0 0 0.0092200004
0.98100001 0.102 -0.62599999 7 0 0 0 0.00923
0.98299998 0.103 -0.62800002 8 0 0 0 0.0092399996
0.98400003 0.105 -0.63099998 8 0 0 0 0.0092500001
0.98400003 0.106 -0.63300002 8 0 0 0 0.0092599997
0.977 0.107 -0.63 9 0 0 0 0.0092700003
0.97799999 0.109 -0.63300002 8 0 0 0 0.0092799999
0.97399998 0.11 -0.63200003 8 0 0 0 0.0092900004
0.96700001 0.111 -0.62900001 8 0 0 0 0.0093
0.96600002 0.112 -0.63 8 0 0 0 0.0093099996
0.96399999 0.113 -0.63 8 0 0 0 0.0093200002
0.963 0.115 -0.63099998 8 0 0 0 0.0093299998
0.96200001 0.116 -0.63200003 8 0 0 0 0.0093400003
0.95999998 0.118 -0.63200003 8 0 0 0 0.0093499999
0.95300001 0.118 -0.62900001 8 0 0 0 0.0093599996
0.95200002 0.12 -0.63 8 0 0 0 0.0093700001
0.94700003 0.121 -0.62800002 8 0 0 0 0.0093799997
0.94300002 0.122 -0.62599999 10 0 0 0 0.0093900003
0.94199997 0.123 -0.62699997 11 0 0 0 0.0093999999
0.935 0.123 -0.62300003 18 0 0 0 0.0094100004
0.93599999 0.125 -0.625 24 0 0 0 0.00942
0.92799997 0.125 -0.62099999 38 0 0 0 0.0094299996
0.92900002 0.127 -0.62300003 48 0 0 0 0.0094400002
0.926 0.12800001 -0.62199998 55 0 0 0 0.0094499998
0.92900002 0.13 -0.625 73 0 0 0 0.0094600003
0.92400002 0.131 -0.62300003 95 0 0 0 0.0094699999
0.92400002 0.132 -0.62300003 91 0 0 0 0.0094799995
0.93000001 0.13500001 -0.62800002 96 0 0 0 0.0094900001
0.92900002 0.13600001 -0.62900001 85 0 0 0 0.0094999997
0.93000001 0.138 -0.63 86 0 0 0 0.0095100002
0.92900002 0.139 -0.63 77 0 0 0 0.0095199998
0.93000001 0.141 -0.63099998 81 0 0 0 0.0095300004
0.95099998 0.145 -0.64600003 150 0 0 0 0.00954
0.98699999 0.152 -0.671 150 0 0 0 0.0095499996
1.0089999 0.15700001 -0.68599999 150 0 0 0 0.0095600002
1.036 0.163 -0.70599997 150 0 0 0 0.0095699998
1.059 0.168 -0.72100002 150 0 0 0 0.0095800003
1.086 0.175 -0.74000001 150 0 0 0 0.0095899999
1.12 0.182 -0.764 150 0 0 0 0.0096000005
1.1569999 0.189 -0.78899997 150 0 0 0 0.0096100001
1.205 0.199 -0.82200003 150 0 0 0 0.0096199997
1.248 0.208 -0.852 65 0 0 0 0.0096300002
1.253 0.211 -0.85500002 59 0 0 0 0.0096399998
1.251 0.212 -0.85399997 56 0 0 0 0.0096500004
1.251 0.214 -0.85399997 40 0 0 0 0.00966
1.25 0.21600001 -0.85299999 40 0 0 0 0.0096699996
1.251 0.21799999 -0.85399997 49 0 0 0 0.0096800001
1.252 0.22 -0.85399997 50 0 0 0 0.0096899997
1.253 0.222 -0.85399997 50 0 0 0 0.0097000003
1.252 0.223 -0.85299999 47 0 0 0 0.0097099999
1.255 0.22499999 -0.85500002 48 0 0 0 0.0097200004
1.255 0.227 -0.85500002 49 0 0 0 0.00973
1.255 0.229 -0.85399997 45 0 0 0 0.0097399997
1.255 0.23 -0.85399997 57 0 0 0 0.0097500002
1.258 0.233 -0.85500002 56 0 0 0 0.0097599998
1.261 0.235 -0.85600001 58 0 0 0 0.0097700004
1.2589999 0.236 -0.85399997 61 0 0 0 0.00978
1.263 0.23899999 -0.85600001 58 0 0 0 0.0097899996
1.263 0.23999999 -0.85500002 43 0 0 0 0.0098000001
1.262 0.241 -0.85299999 42 0 0 0 0.0098099997
1.268 0.244 -0.85600001 15 0 0 0 0.0098200003
1.271 0.24600001 -0.85699999 15 0 0 0 0.0098299999
1.271 0.248 -0.85600001 48 0 0 0 0.0098400004
1.277 0.25099999 -0.85799998 46 0 0 0 0.00985
1.277 0.252 -0.85699999 49 0 0 0 0.0098599996
1.278 0.25400001 -0.85600001 45 0 0 0 0.0098700002
1.279 0.255 -0.85500002 47 0 0 0 0.0098799998
1.285 0.25799999 -0.85799998 14 0 0 0 0.0098900003
1.285 0.259 -0.85600001 14 0 0 0 0.0098999999
1.286 0.26100001 -0.85500002 14 0 0 0 0.0099099996
1.2920001 0.26300001 -0.85699999 14 0 0 0 0.0099200001
1.294 0.26499999 -0.85699999 14 0 0 0 0.0099299997
1.298 0.26699999 -0.85699999 14 0 0 0 0.0099400003
1.303 0.26899999 -0.85900003 14 0 0 0 0.0099499999
1.308 0.27200001 -0.86000001 15 0 0 0 0.0099600004
1.308 0.273 -0.85799998 15 0 0 0 0.00997
1.311 0.27500001 -0.85799998 15 0 0 0 0.0099799996
1.314 0.27599999 -0.85699999 15 0 0 0 0.0099900002
1.321 0.27900001 -0.86000001 15 0 0 0 0.0099999998
1.322 0.28 -0.85799998 15 0 0 0 0.01001
1.33 0.28299999 -0.861 15 0 0 0 0.01002
1.332 0.285 -0.85900003 15 0 0 0 0.01003
1.335 0.28600001 -0.85900003 15 0 0 0 0.01004
1.339 0.28799999 -0.85900003 15 0 0 0 0.01005
1.342 0.28999999 -0.85799998 15 0 0 0 0.01006
1.348 0.292 -0.85900003 15 0 0 0 0.01007
1.353 0.294 -0.85900003 15 0 0 0 0.01008
1.36 0.296 -0.861 14 0 0 0 0.01009
1.3660001 0.29899999 -0.86199999 14 0 0 0 0.0101
1.369 0.30000001 -0.861 15 0 0 0 0.01011
1.376 0.30199999 -0.86199999 15 0 0 0 0.01012
1.38 0.30399999 -0.86199999 15 0 0 0 0.01013
1.381 0.30500001 -0.85900003 15 0 0 0 0.01014
1.385 0.30700001 -0.85900003 14 0 0 0 0.01015
1.36 0.30199999 -0.83999997 41 0 0 0 0.01016
1.2920001 0.287 -0.79500002 97 0 0 0 0.01017
1.178 0.26199999 -0.722 74 0 0 0 0.01018
1.418 0.31600001 -0.86500001 35 0 0 0 0.01019
0.70599997 0.15800001 -0.42899999 4 0 0 0 0.0102
0.68900001 0.154 -0.417 0 0 0 0 0.01021
0.69499999 0.156 -0.419 0 0 0 0 0.01022
0.69099998 0.155 -0.414 0 0 0 0 0.01023
0.69099998 0.155 -0.41299999 0 0 0 0 0.01024
0.68900001 0.155 -0.41 0 0 0 0 0.01025
0.68900001 0.155 -0.40799999 0 0 0 0 0.01026
0.68900001 0.155 -0.40599999 0 0 0 0 0.01027
0.69400001 0.156 -0.40700001 0 0 0 0 0.01028
0.68900001 0.155 -0.40200001 0 0 0 0 0.01029
0.69400001 0.15700001 -0.40400001 0 0 0 0 0.0103
0.69300002 0.156 -0.40099999 0 0 0 0 0.01031
0.69300002 0.156 -0.39899999 0 0 0 0 0.01032
0.69700003 0.15700001 -0.39899999 0 0 0 0 0.01033
0.69 0.156 -0.39300001 0 0 0 0 0.01034
0.69599998 0.15700001 -0.39500001 0 0 0 0 0.01035
0.69199997 0.156 -0.38999999 0 0 0 0 0.01036
0.69199997 0.156 -0.389 0 0 0 0 0.01037
0.69700003 0.15800001 -0.389 0 0 0 0 0.01038
0.69099998 0.156 -0.384 0 0 0 0 0.01039
0.69700003 0.15700001 -0.38499999 0 0 0 0 0.0104
0.69599998 0.15700001 -0.382 0 0 0 0 0.01041
0.69599998 0.15700001 -0.38 0 0 0 0 0.01042
0.69700003 0.15700001 -0.37900001 0 0 0 0 0.01043
0.72600001 0.164 -0.39199999 0 0 0 0 0.01044
0.71399999 0.161 -0.384 0 0 0 0 0.01045
0.73299998 0.16500001 -0.39199999 0 0 0 0 0.01046
0.72000003 0.162 -0.382 0 0 0 0 0.01047
0.73199999 0.164 -0.38699999 0 0 0 0 0.01048
0.73699999 0.16500001 -0.38699999 0 0 0 0 0.01049
0.75999999 0.17 -0.39700001 0 0 0 0 0.0105
0.759 0.17 -0.39399999 0 0 0 0 0.01051
0.76200002 0.17 -0.39300001 0 0 0 0 0.01052
0.76300001 0.17 -0.391 0 0 0 0 0.01053
0.77600002 0.17299999 -0.39500001 0 0 0 0 0.01054
0.77899998 0.17299999 -0.39399999 0 0 0 0 0.01055
0.77700001 0.17200001 -0.391 0 0 0 0 0.01056
0.792 0.175 -0.396 0 0 0 0 0.01057
0.79500002 0.176 -0.39500001 0 0 0 0 0.01058
0.79900002 0.176 -0.39399999 0 0 0 0 0.01059
0.80699998 0.177 -0.396 0 0 0 0 0.0106
0.81999999 0.18000001 -0.39899999 0 0 0 0 0.01061
0.82099998 0.18000001 -0.39700001 0 0 0 0 0.01062
0.81599998 0.178 -0.39199999 0 0 0 0 0.01063
0.83499998 0.182 -0.39899999 0 0 0 0 0.01064
0.83899999 0.182 -0.398 0 0 0 0 0.01065
0.84500003 0.183 -0.398 0 0 0 0 0.01066
0 0 0 0 0 0 0 0.01067
1.875 0.40400001 -0.87099999 125 0 0 0 0.01068
1.868 0.40200001 -0.86199999 100 0 0 0 0.01069
1.8890001 0.405 -0.86500001 85 0 0 0 0.0107
1.903 0.40700001 -0.866 100 0 0 0 0.01071
1.918 0.40799999 -0.866 67 0 0 0 0.01072
1.6160001 0.34299999 -0.72500002 11 0 0 0 0.01073
0.99199998 0.20900001 -0.44100001 0 0 0 0 0.01074
0.972 0.205 -0.42899999 0 0 0 0 0.01075
0.97100002 0.204 -0.42500001 0 0 0 0 0.01076
0.977 0.204 -0.42500001 0 0 0 0 0.01077
0.97799999 0.204 -0.42199999 0 0 0 0 0.01078
0.98000002 0.20299999 -0.41999999 0 0 0 0 0.01079
0.97299999 0.20100001 -0.414 0 0 0 0 0.0108
0.98299998 0.20200001 -0.41499999 0 0 0 0 0.01081
0.99299997 0.20299999 -0.41600001 0 0 0 0 0.01082
0.99400002 0.20299999 -0.41299999 0 0 0 0 0.01083
0.97299999 0.198 -0.40099999 0 0 0 0 0.01084
0.98400003 0.199 -0.40200001 0 0 0 0 0.01085
0.986 0.198 -0.40000001 0 0 0 0 0.01086
0.99000001 0.198 -0.398 0 0 0 0 0.01087
0.99199998 0.198 -0.396 0 0 0 0 0.01088
1.01 0.2 -0.40000001 0 0 0 0 0.01089
1.006 0.199 -0.39500001 0 0 0 0 0.0109
1.018 0.2 -0.396 0 0 0 0 0.01091
1.017 0.199 -0.39300001 0 0 0 0 0.01092
1.035 0.20100001 -0.396 0 0 0 0 0.01093
1.038 0.20100001 -0.39399999 0 0 0 0 0.01094
1.053 0.20299999 -0.396 0 0 0 0 0.01095
1.063 0.204 -0.396 0 0 0 0 0.01096
1.0779999 0.205 -0.39899999 0 0 0 0 0.01097
1.08 0.205 -0.396 0 0 0 0 0.01098
1.092 0.206 -0.39700001 0 0 0 0 0.01099
1.089 0.204 -0.39199999 0 0 0 0 0.011
1.105 0.206 -0.39399999 0 0 0 0 0.01101
1.112 0.206 -0.39300001 0 0 0 0 0.01102
1.1210001 0.206 -0.39300001 0 0 0 0 0.01103
1.1289999 0.206 -0.39199999 0 0 0 0 0.01104
1.1390001 0.207 -0.39199999 0 0 0 0 0.01105
1.142 0.206 -0.389 0 0 0 0 0.01106
1.154 0.207 -0.389 0 0 0 0 0.01107
1.165 0.208 -0.38999999 0 0 0 0 0.01108
1.166 0.206 -0.38600001 0 0 0 0 0.01109
1.178 0.207 -0.38600001 0 0 0 0 0.0111
1.197 0.20900001 -0.38800001 0 0 0 0 0.01111
1.202 0.208 -0.38600001 0 0 0 0 0.01112
2.8610001 0.49399999 -0.91100001 142 0 0 0 0.01113
2.8789999 0.493 -0.90700001 150 0 0 0 0.01114
2.948 0.50099999 -0.92000002 5 0 0 0 0.01115
2.9590001 0.49900001 -0.91399997 30 0 0 0 0.01116
2.9389999 0.49200001 -0.89899999 150 0 0 0 0.01117
2.948 0.49000001 -0.89200002 150 0 0 0 0.01118
1.513 0.249 -0.45300001 3 0 0 0 0.01119
1.511 0.24699999 -0.44800001 3 0 0 0 0.0112
1.513 0.245 -0.44299999 2 0 0 0 0.01121
1.507 0.243 -0.43700001 2 0 0 0 0.01122
1.507 0.241 -0.43200001 2 0 0 0 0.01123
1.508 0.23899999 -0.428 2 0 0 0 0.01124
1.505 0.236 -0.42199999 2 0 0 0 0.01125
1.507 0.235 -0.41800001 2 0 0 0 0.01126
1.515 0.234 -0.41600001 1 0 0 0 0.01127
1.505 0.23 -0.40799999 1 0 0 0 0.01128
1.546 0.235 -0.414 5 0 0 0 0.01129
1.576 0.237 -0.41800001 8 0 0 0 0.0113
1.599 0.23800001 -0.419 9 0 0 0 0.01131
0.99900001 0.147 -0.25799999 3 0 0 0 0.01132
0.97899997 0.14300001 -0.25 1 0 0 0 0.01133
0.98000002 0.142 -0.24699999 1 0 0 0 0.01134
0.97000003 0.139 -0.242 1 0 0 0 0.01135
0.97299999 0.138 -0.23999999 1 0 0 0 0.01136
0.97500002 0.13699999 -0.237 1 0 0 0 0.01137
0.96600002 0.134 -0.23199999 0 0 0 0 0.01138
0.97100002 0.134 -0.23 0 0 0 0 0.01139
0.98000002 0.133 -0.229 0 0 0 0 0.0114
0.977 0.132 -0.226 0 0 0 0 0.01141
0.97399998 0.13 -0.222 0 0 0 0 0.01142
0.98100001 0.12899999 -0.221 0 0 0 0 0.01143
0.98500001 0.12800001 -0.219 0 0 0 0 0.01144
0.98900002 0.12800001 -0.21699999 0 0 0 0 0.01145
0.977 0.125 -0.211 0 0 0 0 0.01146
0.98500001 0.124 -0.20999999 0 0 0 0 0.01147
0.99000001 0.123 -0.208 0 0 0 0 0.01148
0.99199998 0.122 -0.205 0 0 0 0 0.01149
0.991 0.12 -0.20200001 0 0 0 0 0.0115
0.99400002 0.119 -0.2 0 0 0 0 0.01151
0.99800003 0.118 -0.198 0 0 0 0 0.01152
0.99900001 0.117 -0.19499999 0 0 0 0 0.01153
1.002 0.116 -0.192 0 0 0 0 0.01154
1.0039999 0.114 -0.19 0 0 0 0 0.01155
1.01 0.114 -0.18799999 0 0 0 0 0.01156
1.016 0.113 -0.186 0 0 0 0 0.01157
1.018 0.111 -0.184 0 0 0 0 0.01158
1.0140001 0.109 -0.18000001 0 0 0 0 0.01159
1.016 0.108 -0.177 0 0 0 0 0.0116
1.005 0.105 -0.17200001 0 0 0 0 0.01161
1.049 0.108 -0.177 0 0 0 0 0.01162
1.054 0.107 -0.175 0 0 0 0 0.01163
1.0650001 0.107 -0.17299999 0 0 0 0 0.01164
0.97299999 0.096000001 -0.156 0 0 0 0 0.01165
0.74299997 0.071999997 -0.116 0 0 0 0 0.01166
0.58700001 0.056000002 -0.090000004 0 0 0 0 0.01167
0.574 0.054000001 -0.086999997 0 0 0 0 0.01168
0.57499999 0.052999999 -0.085000001 0 0 0 0 0.01169
0.56999999 0.050999999 -0.082999997 0 0 0 0 0.0117
0.57499999 0.050999999 -0.082000002 0 0 0 0 0.01171
0.574 0.050000001 -0.079999998 0 0 0 0 0.01172
0.56400001 0.048 -0.077 0 0 0 0 0.01173
0.574 0.048 -0.077 0 0 0 0 0.01174
0.56199998 0.046 -0.072999999 0 0 0 0 0.01175
0.565 0.045000002 -0.071999997 0 0 0 0 0.01176
0.55400002 0.044 -0.068999998 0 0 0 0 0.01177
0.55299997 0.043000001 -0.067000002 0 0 0 0 0.01178
0.55299997 0.041999999 -0.066 0 0 0 0 0.01179
0.55199999 0.041000001 -0.064000003 0 0 0 0 0.0118
0.55199999 0.039999999 -0.063000001 0 0 0 0 0.01181
0.54799998 0.039000001 -0.061000001 0 0 0 0 0.01182
0.542 0.037 -0.059 0 0 0 0 0.01183
0.54799998 0.037 -0.057999998 0 0 0 0 0.01184
0.55299997 0.035999998 -0.057 0 0 0 0 0.01185
0.55199999 0.035 -0.055 0 0 0 0 0.01186
0.55400002 0.034000002 -0.054000001 0 0 0 0 0.01187
0.56199998 0.034000002 -0.052999999 0 0 0 0 0.01188
0.56599998 0.033 -0.052000001 0 0 0 0 0.01189
0.579 0.033 -0.050999999 0 0 0 0 0.0119
0.62900001 0.035 -0.054000001 0 0 0 0 0.01191
0.98000002 0.052999999 -0.081 0 0 0 0 0.01192
1.613 0.085000001 -0.13 1 0 0 0 0.01193
0 0 0 0 0 0 0 0.01194
0.745 0.035999998 -0.056000002 0 0 0 0 0.01195
0.73900002 0.035 -0.052999999 0 0 0 0 0.01196
0.69499999 0.032000002 -0.048 0 0 0 0 0.01197
0.71200001 0.030999999 -0.046999998 0 0 0 0 0.01198
0.75300002 0.032000002 -0.048 0 0 0 0 0.01199
0.77499998 0.030999999 -0.046999998 0 0 0 0 0.012
0.95899999 0.037 -0.056000002 0 0 0 0 0.01201
1.3099999 0.048 -0.072999999 0 0 0 0 0.01202
1.3 0.046 -0.068999998 2 0 0 0 0.01203
1.329 0.045000002 -0.067000002 4 0 0 0 0.01204
1.332 0.041999999 -0.063000001 4 0 0 0 0.01205
1.373 0.041000001 -0.061999999 4 0 0 0 0.01206
1.429 0.039999999 -0.059999999 7 0 0 0 0.01207
1.525 0.039999999 -0.059999999 50 0 0 0 0.01208
1.681 0.041999999 -0.061999999 150 0 0 0 0.01209
1.772 0.041000001 -0.059999999 150 0 0 0 0.0121
1.7869999 0.037999999 -0.056000002 80 0 0 0 0.01211
1.686 0.033 -0.048 17 0 0 0 0.01212
1.568 0.028000001 -0.041000001 8 0 0 0 0.01213
1.5599999 0.025 -0.035999998 11 0 0 0 0.01214
1.552 0.022 -0.032000002 12 0 0 0 0.01215
1.548 0.018999999 -0.028000001 9 0 0 0 0.01216
1.563 0.016000001 -0.024 3 0 0 0 0.01217
1.586 0.014 -0.02 0 0 0 0 0.01218
1.592 0.011 -0.015 0 0 0 0 0.01219
0 0 0 0 0 0 0 0.0122
1.846 0.0060000001 -0.0080000004 0 0 0 0 0.01221
1.858 0.0020000001 -0.003 1 0 0 0 0.01222
1.6160001 0 0.001 3 0 0 0 0.01223
1.589 -0.003 0.0049999999 11 0 0 0 0.01224
1.572 -0.0060000001 0.0089999996 150 0 0 0 0.01225
1.5779999 -0.0089999996 0.013 150 0 0 0 0.01226
1.63 -0.012 0.017999999 7 0 0 0 0.01227
1.638 -0.015 0.022 0 0 0 0 0.01228
1.5369999 -0.017000001 0.025 0 0 0 0 0.01229
1.518 -0.02 0.028999999 0 0 0 0 0.0123
1.528 -0.023 0.033 0 0 0 0 0.01231
1.52 -0.025 0.037 0 0 0 0 0.01232
1.477 -0.027000001 0.039999999 0 0 0 0 0.01233
1.4450001 -0.029999999 0.041999999 0 0 0 0 0.01234
1.507 -0.034000002 0.048 0 0 0 0 0.01235
1.7309999 -0.041999999 0.059999999 1 0 0 0 0.01236
1.819 -0.048 0.068000004 16 0 0 0 0.01237
1.84 -0.052000001 0.074000001 150 0 0 0 0.01238
1.855 -0.056000002 0.079000004 150 0 0 0 0.01239
1.852 -0.059 0.083999999 150 0 0 0 0.0124
1.85 -0.063000001 0.089000002 150 0 0 0 0.01241
1.85 -0.066 0.093000002 150 0 0 0 0.01242
1.8430001 -0.07 0.097999997 150 0 0 0 0.01243
1.8430001 -0.072999999 0.103 150 0 0 0 0.01244
1.839 -0.075999998 0.107 150 0 0 0 0.01245
1.8380001 -0.079999998 0.112 150 0 0 0 0.01246
1.834 -0.082999997 0.116 150 0 0 0 0.01247
1.8329999 -0.086999997 0.121 150 0 0 0 0.01248
1.83 -0.090000004 0.126 150 0 0 0 0.01249
1.829 -0.093999997 0.13 150 0 0 0 0.0125
1.826 -0.097000003 0.13500001 150 0 0 0 0.01251
1.825 -0.101 0.139 150 0 0 0 0.01252
1.825 -0.105 0.14399999 150 0 0 0 0.01253
1.819 -0.108 0.148 150 0 0 0 0.01254
1.819 -0.111 0.153 150 0 0 0 0.01255
1.818 -0.115 0.15800001 150 0 0 0 0.01256
1.832 -0.12 0.164 150 0 0 0 0.01257
1.83 -0.123 0.168 150 0 0 0 0.01258
1.813 -0.126 0.171 150 0 0 0 0.01259
1.807 -0.12899999 0.175 150 0 0 0 0.0126
1.8049999 -0.133 0.18000001 150 0 0 0 0.01261
1.8049999 -0.13600001 0.184 150 0 0 0 0.01262
1.806 -0.14 0.189 143 0 0 0 0.01263
1.804 -0.14399999 0.19400001 80 0 0 0 0.01264
1.7819999 -0.145 0.19599999 9 0 0 0 0.01265
1.76 -0.147 0.198 7 0 0 0 0.01266
1.751 -0.15000001 0.20100001 16 0 0 0 0.01267
1.758 -0.154 0.206 7 0 0 0 0.01268
1.771 -0.15899999 0.212 3 0 0 0 0.01269
3.951 -0.36399999 0.48500001 0 0 0 0 0.0127
3.7609999 -0.354 0.47099999 3 0 0 0 0.01271
0 0 0 0 0 0 0 0.01272
1.937 -0.19 0.252 150 0 0 0 0.01273
0 0 0 0 0 0 0 0.01274
0 0 0 0 0 0 0 0.01275
1.967 -0.206 0.271 1 0 0 0 0.01276
1.841 -0.197 0.25799999 0 0 0 0 0.01277
1.829 -0.199 0.26100001 1 0 0 0 0.01278
1.827 -0.20299999 0.26499999 4 0 0 0 0.01279
1.821 -0.206 0.26899999 5 0 0 0 0.0128
0 0 0 0 0 0 0 0.01281
1.808 -0.212 0.27599999 1 0 0 0 0.01282
1.8 -0.215 0.27900001 1 0 0 0 0.01283
1.814 -0.221 0.28600001 0 0 0 0 0.01284
1.8049999 -0.22400001 0.289 1 0 0 0 0.01285
1.811 -0.228 0.29499999 2 0 0 0 0.01286
1.8329999 -0.235 0.303 2 0 0 0 0.01287
1.86 -0.243 0.31200001 1 0 0 0 0.01288
1.8660001 -0.248 0.31799999 2 0 0 0 0.01289
1.848 -0.25 0.31900001 2 0 0 0 0.0129
1.842 -0.25299999 0.32300001 2 0 0 0 0.01291
1.827 -0.255 0.32499999 2 0 0 0 0.01292
3.569 -0.50599998 0.64300001 0 0 0 0 0.01293
0 0 0 0 0 0 0 0.01294
3.5940001 -0.52600002 0.66500002 48 0 0 0 0.01295
3.572 -0.52999997 0.67000002 32 0 0 0 0.01296
3.5339999 -0.53299999 0.67199999 30 0 0 0 0.01297
3.49 -0.53399998 0.67199999 30 0 0 0 0.01298
3.45 -0.53600001 0.67299998 29 0 0 0 0.01299
3.4119999 -0.53799999 0.67400002 29 0 0 0 0.013
3.369 -0.53899997 0.67299998 28 0 0 0 0.01301
3.3310001 -0.54000002 0.67400002 28 0 0 0 0.01302
3.3 -0.54299998 0.676 28 0 0 0 0.01303
3.2490001 -0.542 0.67299998 42 0 0 0 0.01304
3.2160001 -0.54400003 0.67400002 107 0 0 0 0.01305
3.2049999 -0.55000001 0.67900002 150 0 0 0 0.01306
3.1930001 -0.55500001 0.685 150 0 0 0 0.01307
3.1860001 -0.56099999 0.69099998 150 0 0 0 0.01308
3.152 -0.56300002 0.69099998 77 0 0 0 0.01309
2.816 -0.50999999 0.62400001 2 0 0 0 0.0131
2.789 -0.51099998 0.625 2 0 0 0 0.01311
2.7869999 -0.51700002 0.63099998 2 0 0 0 0.01312
2.7809999 -0.523 0.63599998 2 0 0 0 0.01313
2.776 -0.52899998 0.64200002 2 0 0 0 0.01314
2.77 -0.53399998 0.64700001 3 0 0 0 0.01315
2.7679999 -0.54000002 0.653 3 0 0 0 0.01316
2.7609999 -0.546 0.65799999 3 0 0 0 0.01317
2.7490001 -0.55000001 0.662 3 0 0 0 0.01318
2.744 -0.55599999 0.667 3 0 0 0 0.01319
2.7460001 -0.56300002 0.67400002 3 0 0 0 0.0132
2.743 -0.56900001 0.67900002 3 0 0 0 0.01321
2.73 -0.57300001 0.68300003 3 0 0 0 0.01322
2.675 -0.56800002 0.67500001 6 0 0 0 0.01323
1.745 -0.375 0.44400001 9 0 0 0 0.01324
1.734 -0.377 0.44600001 2 0 0 0 0.01325
1.7539999 -0.38499999 0.45500001 0 0 0 0 0.01326
1.678 -0.373 0.43900001 0 0 0 0 0.01327
1.677 -0.377 0.44299999 0 0 0 0 0.01328
1.682 -0.382 0.44800001 0 0 0 0 0.01329
1.6799999 -0.38600001 0.45100001 0 0 0 0 0.0133
1.671 -0.38800001 0.45300001 0 0 0 0 0.01331
1.669 -0.39199999 0.456 0 0 0 0 0.01332
1.67 -0.396 0.46000001 0 0 0 0 0.01333
1.684 -0.40400001 0.46700001 0 0 0 0 0.01334
1.654 -0.40099999 0.463 0 0 0 0 0.01335
1.719 -0.421 0.48500001 0 0 0 0 0.01336
1.728 -0.428 0.49200001 2 0 0 0 0.01337
1.7309999 -0.433 0.49599999 9 0 0 0 0.01338
1.733 -0.43799999 0.50099999 9 0 0 0 0.01339
1.735 -0.44299999 0.505 9 0 0 0 0.0134
1.737 -0.44800001 0.50999999 9 0 0 0 0.01341
1.73 -0.45100001 0.51099998 20 0 0 0 0.01342
1.742 -0.458 0.51899999 6 0 0 0 0.01343
1.737 -0.46200001 0.52100003 14 0 0 0 0.01344
1.777 -0.477 0.537 26 0 0 0 0.01345
1.909 -0.51700002 0.58099997 88 0 0 0 0.01346
2.6470001 -0.72500002 0.81099999 150 0 0 0 0.01347
2.7019999 -0.74699998 0.83399999 7 0 0 0 0.01348
2.7720001 -0.77399999 0.86199999 7 0 0 0 0.01349
2.9890001 -0.84200001 0.935 38 0 0 0 0.0135
2.9360001 -0.83499998 0.92500001 34 0 0 0 0.01351
2.6370001 -0.75700003 0.83600003 3 0 0 0 0.01352
2.631 -0.76200002 0.83999997 3 0 0 0 0.01353
2.6300001 -0.76899999 0.84500003 3 0 0 0 0.01354
2.6329999 -0.77700001 0.85100001 3 0 0 0 0.01355
2.6229999 -0.78100002 0.85399997 3 0 0 0 0.01356
2.6199999 -0.787 0.85799998 3 0 0 0 0.01357
2.6270001 -0.79699999 0.866 2 0 0 0 0.01358
2.6210001 -0.80199999 0.86900002 2 0 0 0 0.01359
2.628 -0.81099999 0.87699997 2 0 0 0 0.0136
2.6289999 -0.81900001 0.88200003 2 0 0 0 0.01361
2.6199999 -0.82300001 0.88499999 2 0 0 0 0.01362
2.6289999 -0.833 0.89300001 2 0 0 0 0.01363
2.6500001 -0.847 0.90499997 2 0 0 0 0.01364
2.618 -0.84399998 0.89899999 2 0 0 0 0.01365
2.6500001 -0.86199999 0.91500002 2 0 0 0 0.01366
2.6389999 -0.866 0.917 2 0 0 0 0.01367
2.6210001 -0.86699998 0.91500002 2 0 0 0 0.01368
2.605 -0.86900002 0.91500002 2 0 0 0 0.01369
2.6210001 -0.88200003 0.92500001 2 0 0 0 0.0137
2.602 -0.88200003 0.92299998 2 0 0 0 0.01371
2.5999999 -0.889 0.92799997 2 0 0 0 0.01372
2.595 -0.89499998 0.93099999 2 0 0 0 0.01373
2.6259999 -0.91299999 0.94700003 2 0 0 0 0.01374
2.6240001 -0.91900003 0.95099998 5 0 0 0 0.01375
2.6800001 -0.94700003 0.97600001 23 0 0 0 0.01376
2.6930001 -0.95899999 0.98500001 29 0 0 0 0.01377
2.6949999 -0.96700001 0.991 45 0 0 0 0.01378
2.701 -0.977 0.99800003 38 0 0 0 0.01379
2.701 -0.98400003 1.002 11 0 0 0 0.0138
2.7190001 -0.99900001 1.0140001 5 0 0 0 0.01381
2.7360001 -1.013 1.025 3 0 0 0 0.01382
2.7720001 -1.034 1.043 2 0 0 0 0.01383
2.898 -1.089 1.095 30 0 0 0 0.01384
2.8929999 -1.095 1.098 150 0 0 0 0.01385
2.872 -1.095 1.094 150 0 0 0 0.01386
2.7709999 -1.064 1.0599999 151 0 0 0 0.01387
2.322 -0.898 0.89200002 151 0 0 0 0.01388
2.016 -0.78600001 0.778 151 0 0 0 0.01389
0 0 0 0 0 0 0 0.0139
1.671 -0.66000003 0.64899999 151 0 0 0 0.01391
1.5599999 -0.62099999 0.60900003 150 0 0 0 0.01392
1.5549999 -0.62300003 0.60900003 150 0 0 0 0.01393
1.543 -0.62300003 0.60699999 151 0 0 0 0.01394
1.541 -0.62699997 0.60799998 151 0 0 0 0.01395
1.5369999 -0.62900001 0.60799998 151 0 0 0 0.01396
1.5369999 -0.634 0.611 151 0 0 0 0.01397
1.535 -0.63700002 0.61199999 151 0 0 0 0.01398
1.533 -0.63999999 0.61299998 151 0 0 0 0.01399
1.531 -0.64399999 0.61400002 151 0 0 0 0.014
1.529 -0.64700001 0.616 151 0 0 0 0.01401
1.528 -0.65100002 0.61699998 151 0 0 0 0.01402
1.526 -0.65399998 0.61799997 151 0 0 0 0.01403
1.524 -0.65799999 0.61900002 151 0 0 0 0.01404
1.527 -0.66299999 0.62199998 151 0 0 0 0.01405
1.52 -0.66399997 0.62099999 151 0 0 0 0.01406
1.518 -0.66799998 0.62199998 151 0 0 0 0.01407
1.516 -0.671 0.62300003 151 0 0 0 0.01408
1.5140001 -0.67400002 0.62400001 151 0 0 0 0.01409
1.513 -0.67799997 0.62400001 151 0 0 0 0.0141
1.515 -0.68300003 0.62699997 151 0 0 0 0.01411
1.513 -0.68599999 0.62800002 151 0 0 0 0.01412
1.512 -0.68900001 0.62800002 151 0 0 0 0.01413
1.51 -0.69300002 0.62900001 151 0 0 0 0.01414
1.508 -0.69599998 0.63 151 0 0 0 0.01415
1.506 -0.699 0.63 151 0 0 0 0.01416
1.5 -0.69999999 0.62900001 151 0 0 0 0.01417
1.503 -0.70499998 0.63099998 151 0 0 0 0.01418
1.501 -0.708 0.63200003 151 0 0 0 0.01419
1.495 -0.70899999 0.63 151 0 0 0 0.0142
1.498 -0.71499997 0.63200003 151 0 0 0 0.01421
1.499 -0.71899998 0.634 151 0 0 0 0.01422
1.495 -0.72100002 0.63300002 151 0 0 0 0.01423
1.493 -0.72399998 0.63300002 151 0 0 0 0.01424
1.492 -0.727 0.634 151 0 0 0 0.01425
1.49 -0.72899997 0.634 151 0 0 0 0.01426
1.484 -0.73000002 0.63200003 151 0 0 0 0.01427
1.487 -0.73500001 0.634 151 0 0 0 0.01428
1.488 -0.73900002 0.63499999 151 0 0 0 0.01429
1.485 -0.741 0.634 151 0 0 0 0.0143
1.4859999 -0.745 0.63499999 151 0 0 0 0.01431
1.482 -0.74699998 0.634 151 0 0 0 0.01432
1.48 -0.74900001 0.634 151 0 0 0 0.01433
1.479 -0.75199997 0.634 151 0 0 0 0.01434
1.478 -0.755 0.63300002 151 0 0 0 0.01435
1.479 -0.759 0.634 151 0 0 0 0.01436
1.478 -0.76099998 0.634 151 0 0 0 0.01437
1.477 -0.764 0.634 151 0 0 0 0.01438
1.475 -0.76700002 0.63300002 151 0 0 0 0.01439
1.472 -0.76800001 0.63200003 151 0 0 0 0.0144
1.471 -0.76999998 0.63099998 151 0 0 0 0.01441
1.47 -0.773 0.63099998 151 0 0 0 0.01442
1.4680001 -0.77499998 0.63 151 0 0 0 0.01443
1.47 -0.77899998 0.63099998 151 0 0 0 0.01444
1.471 -0.78299999 0.63099998 151 0 0 0 0.01445
1.4680001 -0.78399998 0.63 151 0 0 0 0.01446
1.46 -0.78200001 0.62599999 151 0 0 0 0.01447
1.466 -0.78799999 0.62800002 151 0 0 0 0.01448
1.4630001 -0.78899997 0.62599999 151 0 0 0 0.01449
1.462 -0.792 0.62599999 151 0 0 0 0.0145
1.461 -0.79400003 0.625 151 0 0 0 0.01451
1.46 -0.796 0.62400001 151 0 0 0 0.01452
1.462 -0.79900002 0.62400001 151 0 0 0 0.01453
1.459 -0.80000001 0.62199998 151 0 0 0 0.01454
1.4529999 -0.79900002 0.61900002 151 0 0 0 0.01455
1.46 -0.80500001 0.62099999 151 0 0 0 0.01456
1.459 -0.80699998 0.62 151 0 0 0 0.01457
1.456 -0.80800003 0.61799997 151 0 0 0 0.01458
1.456 -0.81 0.61699998 151 0 0 0 0.01459
1.4579999 -0.81300002 0.616 151 0 0 0 0.0146
1.455 -0.81300002 0.61400002 151 0 0 0 0.01461
1.454 -0.815 0.61299998 151 0 0 0 0.01462
1.454 -0.81699997 0.61199999 151 0 0 0 0.01463
1.456 -0.81999999 0.611 151 0 0 0 0.01464
1.4529999 -0.81999999 0.60900003 151 0 0 0 0.01465
1.4529999 -0.82099998 0.60799998 151 0 0 0 0.01466
1.455 -0.824 0.60699999 151 0 0 0 0.01467
1.448 -0.82200003 0.60299999 151 0 0 0 0.01468
1.447 -0.82300001 0.60100001 151 0 0 0 0.01469
1.447 -0.824 0.59899998 151 0 0 0 0.0147
1.452 -0.829 0.60000002 151 0 0 0 0.01471
1.447 -0.82700002 0.59600002 151 0 0 0 0.01472
1.452 -0.83099997 0.597 151 0 0 0 0.01473
1.447 -0.829 0.59299999 151 0 0 0 0.01474
1.447 -0.83099997 0.59100002 151 0 0 0 0.01475
1.447 -0.83200002 0.58999997 151 0 0 0 0.01476
1.447 -0.833 0.588 151 0 0 0 0.01477
1.4450001 -0.83200002 0.58499998 151 0 0 0 0.01478
1.4450001 -0.833 0.583 151 0 0 0 0.01479
1.4450001 -0.83399999 0.58099997 151 0 0 0 0.0148
1.446 -0.83499998 0.579 151 0 0 0 0.01481
1.446 -0.83600003 0.57700002 151 0 0 0 0.01482
1.441 -0.83399999 0.574 151 0 0 0 0.01483
1.439 -0.833 0.57099998 151 0 0 0 0.01484
1.4400001 -0.83399999 0.56900001 151 0 0 0 0.01485
1.4400001 -0.83499998 0.56699997 151 0 0 0 0.01486
1.4400001 -0.83499998 0.565 151 0 0 0 0.01487
1.441 -0.83600003 0.56300002 151 0 0 0 0.01488
1.441 -0.83600003 0.56 151 0 0 0 0.01489
1.4349999 -0.833 0.55599999 150 0 0 0 0.0149
1.434 -0.83200002 0.55299997 150 0 0 0 0.01491
1.443 -0.838 0.55400002 151 0 0 0 0.01492
1.444 -0.838 0.55199999 151 0 0 0 0.01493
1.436 -0.833 0.546 150 0 0 0 0.01494
1.4450001 -0.838 0.54699999 151 0 0 0 0.01495
1.4349999 -0.83200002 0.54100001 150 0 0 0 0.01496
1.436 -0.83200002 0.53899997 150 0 0 0 0.01497
1.436 -0.83200002 0.53600001 150 0 0 0 0.01498
1.438 -0.833 0.53399998 150 0 0 0 0.01499
1.437 -0.83200002 0.53100002 150 0 0 0 0.015
1.4349999 -0.82999998 0.528 150 0 0 0 0.01501
1.436 -0.829 0.52499998 150 0 0 0 0.01502
1.437 -0.829 0.523 150 0 0 0 0.01503
1.438 -0.829 0.52100003 150 0 0 0 0.01504
1.439 -0.829 0.51800001 150 0 0 0 0.01505
1.4400001 -0.82800001 0.51599997 150 0 0 0 0.01506
1.441 -0.82800001 0.51300001 150 0 0 0 0.01507
1.4400001 -0.82700002 0.50999999 150 0 0 0 0.01508
1.443 -0.82700002 0.50800002 150 0 0 0 0.01509
1.4400001 -0.824 0.50400001 150 0 0 0 0.0151
1.441 -0.824 0.50199997 150 0 0 0 0.01511
1.442 -0.82300001 0.49900001 150 0 0 0 0.01512
1.437 -0.81900001 0.49399999 150 0 0 0 0.01513
1.438 -0.81800002 0.49200001 150 0 0 0 0.01514
1.442 -0.81900001 0.49000001 150 0 0 0 0.01515
1.443 -0.81800002 0.48699999 150 0 0 0 0.01516
1.4450001 -0.81699997 0.48500001 150 0 0 0 0.01517
1.444 -0.815 0.48100001 150 0 0 0 0.01518
1.4450001 -0.81400001 0.479 150 0 0 0 0.01519
1.444 -0.81099999 0.47499999 150 0 0 0 0.0152
1.446 -0.81099999 0.47299999 150 0 0 0 0.01521
1.448 -0.81 0.47 150 0 0 0 0.01522
1.448 -0.80800003 0.46700001 150 0 0 0 0.01523
1.45 -0.80699998 0.465 150 0 0 0 0.01524
1.4450001 -0.80299997 0.46000001 150 0 0 0 0.01525
1.45 -0.80299997 0.458 150 0 0 0 0.01526
1.449 -0.80000001 0.45500001 150 0 0 0 0.01527
1.4529999 -0.80000001 0.45300001 150 0 0 0 0.01528
1.45 -0.79699999 0.449 150 0 0 0 0.01529
1.4529999 -0.796 0.447 150 0 0 0 0.0153
1.4529999 -0.79400003 0.44299999 150 0 0 0 0.01531
1.455 -0.792 0.44100001 150 0 0 0 0.01532
1.452 -0.78799999 0.43599999 150 0 0 0 0.01533
1.454 -0.787 0.43399999 150 0 0 0 0.01534
1.4579999 -0.78600001 0.43200001 150 0 0 0 0.01535
1.457 -0.78299999 0.428 150 0 0 0 0.01536
1.4579999 -0.78100002 0.42500001 150 0 0 0 0.01537
1.461 -0.77999997 0.42300001 150 0 0 0 0.01538
1.462 -0.778 0.41999999 150 0 0 0 0.01539
1.464 -0.77600002 0.417 150 0 0 0 0.0154
1.465 -0.77399999 0.414 150 0 0 0 0.01541
1.467 -0.77200001 0.412 150 0 0 0 0.01542
1.469 -0.76999998 0.40900001 150 0 0 0 0.01543
1.471 -0.76800001 0.40599999 150 0 0 0 0.01544
1.471 -0.76499999 0.403 150 0 0 0 0.01545
1.473 -0.76300001 0.40000001 150 0 0 0 0.01546
1.475 -0.76099998 0.39700001 150 0 0 0 0.01547
1.476 -0.759 0.39500001 150 0 0 0 0.01548
1.475 -0.755 0.391 150 0 0 0 0.01549
1.478 -0.75300002 0.389 22 0 0 0 0.0155
1.479 -0.75 0.38499999 150 0 0 0 0.01551
1.477 -0.74599999 0.382 150 0 0 0 0.01552
1.482 -0.745 0.38 150 0 0 0 0.01553
1.4809999 -0.741 0.37599999 150 0 0 0 0.01554
1.483 -0.73900002 0.373 150 0 0 0 0.01555
1.485 -0.736 0.37099999 150 0 0 0 0.01556
1.487 -0.73400003 0.368 150 0 0 0 0.01557
1.489 -0.73100001 0.36500001 150 0 0 0 0.01558
1.4910001 -0.72899997 0.36199999 150 0 0 0 0.01559
1.49 -0.72500002 0.359 150 0 0 0 0.0156
1.492 -0.722 0.35600001 150 0 0 0 0.01561
1.4960001 -0.72100002 0.354 150 0 0 0 0.01562
1.498 -0.71799999 0.35100001 150 0 0 0 0.015629999
1.498 -0.71399999 0.34799999 150 0 0 0 0.01564
1.502 -0.713 0.34599999 150 0 0 0 0.01565
1.5 -0.708 0.34200001 150 0 0 0 0.015659999
1.502 -0.70499998 0.33899999 150 0 0 0 0.01567
1.5 -0.69999999 0.336 150 0 0 0 0.01568
1.505 -0.699 0.33399999 150 0 0 0 0.015690001
1.503 -0.69400001 0.33000001 150 0 0 0 0.015699999
1.511 -0.69400001 0.329 150 0 0 0 0.01571
1.508 -0.68800002 0.32499999 150 0 0 0 0.01572
1.51 -0.685 0.322 150 0 0 0 0.015729999
1.516 -0.68400002 0.31999999 150 0 0 0 0.01574
1.516 -0.68000001 0.317 150 0 0 0 0.01575
1.515 -0.676 0.31400001 150 0 0 0 0.015760001
1.521 -0.67500001 0.31200001 150 0 0 0 0.015769999
1.522 -0.671 0.30899999 150 0 0 0 0.01578
1.521 -0.66600001 0.30599999 150 0 0 0 0.015790001
1.523 -0.66299999 0.303 150 0 0 0 0.015799999
1.525 -0.66000003 0.301 150 0 0 0 0.01581
1.525 -0.65600002 0.29699999 150 0 0 0 0.01582
1.53 -0.65399998 0.296 150 0 0 0 0.015830001
1.529 -0.64899999 0.292 150 0 0 0 0.01584
1.531 -0.64499998 0.28999999 150 0 0 0 0.01585
1.533 -0.64200002 0.287 150 0 0 0 0.015860001
1.536 -0.639 0.285 150 0 0 0 0.015869999
1.5420001 -0.63700002 0.28299999 150 0 0 0 0.01588
1.553 -0.63800001 0.28200001 54 0 0 0 0.01589
1.562 -0.63700002 0.28 87 0 0 0 0.015900001
1.599 -0.64700001 0.28400001 63 0 0 0 0.01591
1.671 -0.67199999 0.294 20 0 0 0 0.01592
1.647 -0.65799999 0.28600001 71 0 0 0 0.015930001
1.6440001 -0.65200001 0.28299999 53 0 0 0 0.015939999
1.656 -0.65200001 0.28200001 55 0 0 0 0.01595
1.665 -0.65100002 0.28 65 0 0 0 0.01596
2.529 -0.98100001 0.421 60 0 0 0 0.015969999
2.0769999 -0.80000001 0.34200001 150 0 0 0 0.01598
2.464 -0.94199997 0.40099999 37 0 0 0 0.01599
2.5409999 -0.96399999 0.40900001 20 0 0 0 0.016000001
2.5569999 -0.96200001 0.40700001 14 0 0 0 0.016009999
2.533 -0.94599998 0.398 8 0 0 0 0.01602
2.5150001 -0.93199998 0.391 3 0 0 0 0.016030001
1.669 -0.61299998 0.25600001 0 0 0 0 0.016039999
1.651 -0.602 0.25099999 1 0 0 0 0.01605
1.625 -0.588 0.244 1 0 0 0 0.01606
1.605 -0.57599998 0.23800001 4 0 0 0 0.016070001
1.591 -0.56599998 0.233 4 0 0 0 0.01608
1.591 -0.56099999 0.23 6 0 0 0 0.01609
1.584 -0.55400002 0.227 6 0 0 0 0.016100001
1.586 -0.55000001 0.22400001 5 0 0 0 0.016109999
1.589 -0.54699999 0.222 7 0 0 0 0.01612
1.5930001 -0.54299998 0.22 5 0 0 0 0.01613
1.601 -0.54100001 0.21799999 8 0 0 0 0.016140001
1.604 -0.53799999 0.21600001 14 0 0 0 0.01615
1.607 -0.53399998 0.214 65 0 0 0 0.01616
1.605 -0.528 0.211 150 0 0 0 0.016170001
1.598 -0.52100003 0.207 150 0 0 0 0.016179999
1.604 -0.51800001 0.205 150 0 0 0 0.01619
1.609 -0.51499999 0.20299999 150 0 0 0 0.0162
1.609 -0.51099998 0.20100001 150 0 0 0 0.016209999
1.61 -0.50599998 0.198 150 0 0 0 0.01622
1.613 -0.50199997 0.19599999 150 0 0 0 0.01623
1.6109999 -0.49700001 0.193 150 0 0 0 0.016240001
1.6210001 -0.495 0.192 150 0 0 0 0.016249999
1.619 -0.48899999 0.189 150 0 0 0 0.01626
1.6210001 -0.48500001 0.18700001 150 0 0 0 0.01627
1.623 -0.48100001 0.185 150 0 0 0 0.016279999
1.624 -0.47600001 0.182 150 0 0 0 0.01629
1.626 -0.472 0.18000001 150 0 0 0 0.0163
1.6339999 -0.46900001 0.178 150 0 0 0 0.016310001
1.636 -0.465 0.176 150 0 0 0 0.016319999
1.637 -0.46000001 0.17399999 150 0 0 0 0.01633
1.64 -0.456 0.171 150 0 0 0 0.016340001
1.6390001 -0.45100001 0.169 150 0 0 0 0.016349999
1.63 -0.44299999 0.16599999 29 0 0 0 0.01636
1.535 -0.41299999 0.154 7 0 0 0 0.01637
1.477 -0.39300001 0.146 3 0 0 0 0.016380001
1.469 -0.38600001 0.14300001 1 0 0 0 0.01639
1.4579999 -0.37900001 0.14 1 0 0 0 0.0164
1.4450001 -0.37099999 0.13600001 0 0 0 0 0.016410001
1.437 -0.36500001 0.133 0 0 0 0 0.016419999
1.47 -0.368 0.134 0 0 0 0 0.01643
0 0 0 0 0 0 0 0.01644
0 0 0 0 0 0 0 0.016450001
0 0 0 0 0 0 0 0.01646
1.367 -0.32600001 0.117 0 0 0 0 0.01647
1.37 -0.32300001 0.116 0 0 0 0 0.016480001
1.363 -0.317 0.113 0 0 0 0 0.016489999
1.344 -0.308 0.11 150 0 0 0 0.0165
1.3329999 -0.301 0.107 150 0 0 0 0.01651
1.362 -0.30399999 0.108 55 0 0 0 0.016519999
1.378 -0.303 0.107 0 0 0 0 0.01653
1.393 -0.30199999 0.106 0 0 0 0 0.01654
0 0 0 0 0 0 0 0.016550001
0 0 0 0 0 0 0 0.016559999
1.5039999 -0.31299999 0.109 0 0 0 0 0.01657
1.725 -0.354 0.123 2 0 0 0 0.016580001
1.714 -0.34599999 0.12 29 0 0 0 0.016589999
1.7 -0.338 0.117 150 0 0 0 0.0166
1.7079999 -0.33399999 0.115 150 0 0 0 0.01661
1.709 -0.329 0.113 150 0 0 0 0.016620001
1.717 -0.32600001 0.111 150 0 0 0 0.01663
1.7180001 -0.31999999 0.109 150 0 0 0 0.01664
1.722 -0.31600001 0.107 150 0 0 0 0.016650001
1.723 -0.31099999 0.105 150 0 0 0 0.016659999
1.726 -0.30599999 0.103 150 0 0 0 0.01667
1.727 -0.301 0.101 150 0 0 0 0.01668
1.728 -0.296 0.098999999 150 0 0 0 0.016690001
1.7309999 -0.29100001 0.097000003 150 0 0 0 0.0167
1.732 -0.28600001 0.094999999 150 0 0 0 0.01671
1.74 -0.28200001 0.093999997 150 0 0 0 0.016720001
1.7410001 -0.27700001 0.090999998 150 0 0 0 0.016729999
1.742 -0.271 0.089000002 150 0 0 0 0.01674
1.7460001 -0.26699999 0.088 150 0 0 0 0.01675
1.75 -0.26199999 0.086000003 150 0 0 0 0.016759999
1.751 -0.257 0.083999999 150 0 0 0 0.01677
1.753 -0.252 0.082000002 150 0 0 0 0.01678
1.756 -0.24699999 0.079999998 150 0 0 0 0.016790001
1.7589999 -0.242 0.078000002 150 0 0 0 0.016799999
1.7690001 -0.23800001 0.077 59 0 0 0 0.01681
1.778 -0.233 0.075000003 16 0 0 0 0.01682
1.779 -0.228 0.072999999 10 0 0 0 0.016829999
1.699 -0.212 0.068000004 16 0 0 0 0.01684
1.552 -0.189 0.059999999 151 0 0 0 0.01685
1.535 -0.182 0.057999998 151 0 0 0 0.016860001
1.554 -0.18000001 0.057 151 0 0 0 0.016869999
1.594 -0.18000001 0.057 7 0 0 0 0.01688
1.627 -0.178 0.056000002 0 0 0 0 0.016890001
1.637 -0.17399999 0.055 0 0 0 0 0.016899999
1.801 -0.186 0.057999998 0 0 0 0 0.01691
1.803 -0.18099999 0.056000002 4 0 0 0 0.01692
1.808 -0.176 0.054000001 11 0 0 0 0.016930001
1.788 -0.169 0.052000001 10 0 0 0 0.01694
1.732 -0.15800001 0.048 6 0 0 0 0.01695
1.721 -0.152 0.046 1 0 0 0 0.016960001
1.742 -0.148 0.045000002 1 0 0 0 0.016969999
1.727 -0.141 0.043000001 0 0 0 0 0.01698
1.719 -0.13500001 0.041000001 0 0 0 0 0.01699
1.701 -0.12899999 0.039000001 0 0 0 0 0.017000001
1.688 -0.123 0.037 0 0 0 0 0.01701
1.6390001 -0.114 0.034000002 0 0 0 0 0.01702
1.649 -0.11 0.033 0 0 0 0 0.017030001
1.647 -0.104 0.030999999 0 0 0 0 0.017039999
1.622 -0.097999997 0.028999999 0 0 0 0 0.01705
1.538 -0.088 0.026000001 0 0 0 0 0.01706
1.423 -0.077 0.022 0 0 0 0 0.017069999
1.392 -0.071000002 0.021 0 0 0 0 0.01708
1.421 -0.068000004 0.02 0 0 0 0 0.01709
1.426 -0.064000003 0.017999999 0 0 0 0 0.017100001
1.411 -0.059 0.017000001 0 0 0 0 0.017109999
1.424 -0.055 0.016000001 0 0 0 0 0.01712
1.438 -0.050999999 0.014 0 0 0 0 0.017130001
1.466 -0.046999998 0.013 0 0 0 0 0.017139999
1.5089999 -0.044 0.012 0 0 0 0 0.01715
1.5420001 -0.039999999 0.011 0 0 0 0 0.01716
1.543 -0.035999998 0.0099999998 0 0 0 0 0.017170001
1.584 -0.032000002 0.0089999996 0 0 0 0 0.01718
1.591 -0.027000001 0.0070000002 0 0 0 0 0.01719
1.595 -0.022 0.0060000001 1 0 0 0 0.017200001
1.566 -0.017000001 0.0040000002 150 0 0 0 0.017209999
1.569 -0.012 0.003 28 0 0 0 0.01722
1.6 -0.0070000002 0.001 6 0 0 0 0.01723
1.602 -0.0020000001 0 2 0 0 0 0.017240001
1.5829999 0.0020000001 0 4 0 0 0 0.01725
1.579 0.0070000002 -0.0020000001 5 0 0 0 0.01726
1.58 0.012 -0.003 2 0 0 0 0.017270001
1.589 0.017000001 -0.0049999999 0 0 0 0 0.017279999
1.909 0.026000001 -0.0070000002 1 0 0 0 0.01729
1.9220001 0.032000002 -0.0089999996 10 0 0 0 0.0173
1.921 0.037999999 -0.011 38 0 0 0 0.017309999
1.928 0.044 -0.012 150 0 0 0 0.01732
1.9220001 0.050000001 -0.014 150 0 0 0 0.01733
1.851 0.054000001 -0.015 98 0 0 0 0.017340001
1.777 0.057999998 -0.016000001 40 0 0 0 0.017349999
1.688 0.059999999 -0.016000001 11 0 0 0 0.01736
1.6799999 0.064999998 -0.017999999 15 0 0 0 0.01737
1.6799999 0.07 -0.018999999 15 0 0 0 0.017379999
1.6799999 0.075999998 -0.02 16 0 0 0 0.01739
1.679 0.081 -0.022 15 0 0 0 0.0174
1.681 0.086000003 -0.023 15 0 0 0 0.017410001
1.686 0.092 -0.024 14 0 0 0 0.017419999
1.687 0.097000003 -0.026000001 13 0 0 0 0.01743
1.688 0.102 -0.027000001 13 0 0 0 0.017440001
1.694 0.108 -0.028000001 12 0 0 0 0.017449999
1.697 0.114 -0.029999999 12 0 0 0 0.01746
1.7029999 0.12 -0.030999999 10 0 0 0 0.01747
1.714 0.126 -0.033 8 0 0 0 0.017480001
1.775 0.13600001 -0.035 8 0 0 0 0.01749
1.961 0.156 -0.039999999 22 0 0 0 0.0175
1.9910001 0.16500001 -0.043000001 150 0 0 0 0.017510001
1.9960001 0.17200001 -0.044 150 0 0 0 0.017519999
2.0020001 0.17900001 -0.046 150 0 0 0 0.01753
2.089 0.193 -0.048999999 151 0 0 0 0.01754
2.2920001 0.219 -0.056000002 151 0 0 0 0.017550001
3.431 0.33899999 -0.086000003 103 0 0 0 0.01756
3.437 0.35100001 -0.089000002 137 0 0 0 0.01757
3.4389999 0.36199999 -0.090999998 150 0 0 0 0.017580001
3.448 0.37400001 -0.093999997 150 0 0 0 0.017589999
3.4560001 0.38600001 -0.097000003 150 0 0 0 0.0176
3.464 0.398 -0.098999999 150 0 0 0 0.01761
3.4719999 0.41 -0.102 150 0 0 0 0.017619999
3.474 0.421 -0.104 150 0 0 0 0.01763
3.4719999 0.43200001 -0.106 150 0 0 0 0.01764
0 0 0 0 0 0 0 0.017650001
0 0 0 0 0 0 0 0.017659999
1.89 0.25299999 -0.061000001 3 0 0 0 0.01767
1.891 0.259 -0.063000001 3 0 0 0 0.017680001
1.8710001 0.26300001 -0.063000001 11 0 0 0 0.017689999
1.872 0.26899999 -0.064000003 2 0 0 0 0.0177
1.858 0.273 -0.064999998 2 0 0 0 0.01771
1.854 0.278 -0.066 1 0 0 0 0.017720001
1.733 0.26499999 -0.063000001 7 0 0 0 0.017729999
1.452 0.227 -0.054000001 8 0 0 0 0.01774
1.3609999 0.21699999 -0.050999999 5 0 0 0 0.017750001
1.342 0.21799999 -0.050999999 7 0 0 0 0.017759999
1.326 0.22 -0.050999999 12 0 0 0 0.01777
1.3049999 0.221 -0.050999999 150 0 0 0 0.01778
1.2640001 0.21799999 -0.050000001 151 0 0 0 0.017790001
1.267 0.223 -0.050999999 152 0 0 0 0.0178
1.2920001 0.23100001 -0.052999999 150 0 0 0 0.01781
1.324 0.241 -0.055 7 0 0 0 0.017820001
1.329 0.24600001 -0.056000002 6 0 0 0 0.017829999
1.347 0.25400001 -0.057 5 0 0 0 0.01784
1.467 0.28200001 -0.063000001 5 0 0 0 0.01785
1.7359999 0.33899999 -0.075999998 1 0 0 0 0.017859999
1.744 0.34599999 -0.077 1 0 0 0 0.01787
1.737 0.35100001 -0.078000002 1 0 0 0 0.01788
1.725 0.354 -0.078000002 1 0 0 0 0.017890001
1.719 0.35800001 -0.079000004 1 0 0 0 0.017899999
1.712 0.36300001 -0.079000004 1 0 0 0 0.01791
1.705 0.36700001 -0.079999998 1 0 0 0 0.01792
1.697 0.37099999 -0.079999998 1 0 0 0 0.017929999
1.686 0.37400001 -0.081 1 0 0 0 0.01794
1.6799999 0.37799999 -0.081 1 0 0 0 0.01795
1.679 0.38299999 -0.082000002 1 0 0 0 0.017960001
1.669 0.38699999 -0.082000002 1 0 0 0 0.017969999
1.652 0.38800001 -0.082000002 1 0 0 0 0.01798
1.656 0.39500001 -0.082999997 1 0 0 0 0.017990001
1.6339999 0.39500001 -0.082999997 1 0 0 0 0.017999999
1.607 0.39300001 -0.082000002 1 0 0 0 0.01801
1.607 0.39899999 -0.082999997 1 0 0 0 0.01802
1.594 0.40099999 -0.082999997 1 0 0 0 0.018030001
1.589 0.405 -0.082999997 1 0 0 0 0.01804
1.574 0.40599999 -0.082999997 1 0 0 0 0.01805
1.571 0.41100001 -0.082999997 0 0 0 0 0.018060001
3.661 0.97000003 -0.19599999 17 0 0 0 0.018069999
3.677 0.986 -0.198 36 0 0 0 0.01808
3.7279999 1.012 -0.20299999 36 0 0 0 0.01809
3.7920001 1.043 -0.207 0 0 0 0 0.018100001
3.8870001 1.082 -0.214 15 0 0 0 0.01811
3.8729999 1.091 -0.215 74 0 0 0 0.01812
3.8610001 1.1 -0.215 79 0 0 0 0.018130001
3.846 1.109 -0.21600001 76 0 0 0 0.018139999
3.8299999 1.117 -0.21600001 77 0 0 0 0.01815
3.8139999 1.126 -0.21600001 76 0 0 0 0.01816
