# .PCD v0.7 - Point Cloud Data file format
VERSION 0.7
FIELDS x y z intensity normal_x normal_y normal_z curvature
SIZE 4 4 4 4 4 4 4 4
TYPE F F F F F F F F
COUNT 1 1 1 1 1 1 1 1
WIDTH 1071
HEIGHT 1
VIEWPOINT 0 0 0 1 0 0 0
POINTS 1071
DATA ascii
1.497 0.025 0 0 0 0 0 0.0062799999
1.484 0.02 0 0 0 0 0 0.0062899999
1.4910001 0.015 0 0 0 0 0 0.0063
1.4960001 0.0099999998 0 0 0 0 0 0.0063100001
1.5089999 0.0049999999 0 0 0 0 0 0.0063200002
1.507 0.001 0 0 0 0 0 0.0063299998
1.513 -0.003 0 0 0 0 0 0.0063399998
1.506 -0.0080000004 0 0 0 0 0 0.0063499999
1.512 -0.013 0 0 0 0 0 0.00636
1.508 -0.017999999 0 0 0 0 0 0.0063700001
1.505 -0.023 0.001 0 0 0 0 0.0063800002
1.506 -0.028000001 0.001 0 0 0 0 0.0063900002
1.506 -0.033 0.001 0 0 0 0 0.0063999998
1.513 -0.037999999 0.001 0 0 0 0 0.0064099999
1.512 -0.043000001 0.001 0 0 0 0 0.00642
1.521 -0.048 0.001 0 0 0 0 0.0064300001
1.53 -0.052999999 0.0020000001 0 0 0 0 0.0064400001
1.511 -0.057 0.0020000001 0 0 0 0 0.0064500002
1.5190001 -0.061999999 0.0020000001 0 0 0 0 0.0064599998
1.5190001 -0.067000002 0.0020000001 0 0 0 0 0.0064699999
1.52 -0.071999997 0.0020000001 0 0 0 0 0.00648
1.528 -0.078000002 0.0020000001 0 0 0 0 0.0064900001
1.531 -0.082999997 0.0020000001 0 0 0 0 0.0065000001
1.536 -0.088 0.0020000001 0 0 0 0 0.0065100002
1.529 -0.093000002 0.0020000001 0 0 0 0 0.0065199998
1.527 -0.097000003 0.0020000001 0 0 0 0 0.0065299999
1.533 -0.103 0.0020000001 0 0 0 0 0.00654
1.544 -0.108 0.0020000001 0 0 0 0 0.00655
1.544 -0.114 0.0020000001 0 0 0 0 0.0065600001
1.544 -0.118 0.0020000001 0 0 0 0 0.0065700002
1.54 -0.123 0.0020000001 0 0 0 0 0.0065799998
1.543 -0.12800001 0.0020000001 0 0 0 0 0.0065899999
1.533 -0.133 0.0020000001 0 0 0 0 0.0066
1.538 -0.138 0.0020000001 0 0 0 0 0.00661
1.543 -0.14399999 0.0020000001 0 0 0 0 0.0066200001
1.538 -0.148 0.0020000001 0 0 0 0 0.0066300002
1.545 -0.154 0.0020000001 0 0 0 0 0.0066399998
1.55 -0.15899999 0.0020000001 0 0 0 0 0.0066499999
1.869 -0.198 0.003 0 0 0 0 0.00666
2.3069999 -0.252 0.003 13 0 0 0 0.00667
2.2869999 -0.25799999 0.003 44 0 0 0 0.0066800001
2.3039999 -0.26699999 0.003 53 0 0 0 0.0066900002
2.289 -0.273 0.003 57 0 0 0 0.0066999998
2.2809999 -0.27900001 0.003 57 0 0 0 0.0067099999
2.2679999 -0.285 0.0020000001 52 0 0 0 0.0067199999
2.2550001 -0.29100001 0.0020000001 59 0 0 0 0.00673
2.2460001 -0.29699999 0.0020000001 55 0 0 0 0.0067400001
2.233 -0.303 0.0020000001 57 0 0 0 0.0067500002
2.2190001 -0.308 0.0020000001 59 0 0 0 0.0067599998
2.2130001 -0.315 0.001 58 0 0 0 0.0067699999
2.1989999 -0.31999999 0.001 64 0 0 0 0.0067799999
2.188 -0.32499999 0.001 61 0 0 0 0.00679
2.181 -0.331 0 66 0 0 0 0.0068000001
2.1700001 -0.33700001 0 68 0 0 0 0.0068100002
2.1570001 -0.34200001 0 65 0 0 0 0.0068199998
2.151 -0.34799999 0 65 0 0 0 0.0068299999
2.138 -0.35299999 0 71 0 0 0 0.0068399999
2.131 -0.359 0 74 0 0 0 0.00685
2.118 -0.36399999 -0.001 78 0 0 0 0.0068600001
2.1099999 -0.36899999 -0.001 77 0 0 0 0.0068700002
2.099 -0.37400001 -0.001 82 0 0 0 0.0068799998
2.0899999 -0.38 -0.0020000001 81 0 0 0 0.0068899998
2.0780001 -0.384 -0.0020000001 80 0 0 0 0.0068999999
2.0680001 -0.389 -0.003 84 0 0 0 0.00691
2.0639999 -0.39500001 -0.003 85 0 0 0 0.0069200001
2.053 -0.40000001 -0.003 82 0 0 0 0.0069300001
2.039 -0.40400001 -0.0040000002 82 0 0 0 0.0069400002
2.0350001 -0.41 -0.0040000002 86 0 0 0 0.0069499998
2.0250001 -0.414 -0.0049999999 102 0 0 0 0.0069599999
2.0139999 -0.419 -0.0049999999 101 0 0 0 0.00697
2.0009999 -0.42300001 -0.0060000001 95 0 0 0 0.0069800001
1.998 -0.42899999 -0.0060000001 101 0 0 0 0.0069900001
1.988 -0.433 -0.0070000002 105 0 0 0 0.0070000002
1.976 -0.43700001 -0.0070000002 101 0 0 0 0.0070099998
1.97 -0.442 -0.0080000004 106 0 0 0 0.0070199999
1.962 -0.447 -0.0080000004 106 0 0 0 0.00703
1.9529999 -0.45100001 -0.0089999996 100 0 0 0 0.0070400001
1.948 -0.45699999 -0.0089999996 109 0 0 0 0.0070500001
1.934 -0.46000001 -0.0099999998 106 0 0 0 0.0070600002
1.927 -0.465 -0.011 110 0 0 0 0.0070699998
1.923 -0.47 -0.011 107 0 0 0 0.0070799999
1.9119999 -0.47400001 -0.012 104 0 0 0 0.00709
1.901 -0.477 -0.012 105 0 0 0 0.0071
1.898 -0.48300001 -0.013 111 0 0 0 0.0071100001
1.8890001 -0.48699999 -0.014 18 0 0 0 0.0071200002
1.878 -0.491 -0.014 18 0 0 0 0.0071299998
1.87 -0.495 -0.015 18 0 0 0 0.0071399999
1.863 -0.49900001 -0.016000001 18 0 0 0 0.00715
1.859 -0.50400001 -0.016000001 18 0 0 0 0.00716
1.846 -0.50700003 -0.017000001 18 0 0 0 0.0071700001
1.8380001 -0.51099998 -0.017999999 18 0 0 0 0.0071800002
1.832 -0.51499999 -0.017999999 19 0 0 0 0.0071899998
1.825 -0.51899999 -0.018999999 19 0 0 0 0.0071999999
1.818 -0.523 -0.02 19 0 0 0 0.00721
1.806 -0.52600002 -0.02 19 0 0 0 0.00722
1.799 -0.52999997 -0.021 116 0 0 0 0.0072300001
1.796 -0.53500003 -0.022 20 0 0 0 0.0072400002
1.785 -0.53799999 -0.023 19 0 0 0 0.0072499998
1.778 -0.54100001 -0.024 119 0 0 0 0.0072599999
1.772 -0.546 -0.024 19 0 0 0 0.0072699999
1.758 -0.54699999 -0.025 116 0 0 0 0.00728
1.732 -0.54500002 -0.025 23 0 0 0 0.0072900001
1.71 -0.54400003 -0.026000001 35 0 0 0 0.0073000002
1.696 -0.54500002 -0.027000001 116 0 0 0 0.0073099998
1.691 -0.54900002 -0.028000001 150 0 0 0 0.0073199999
1.691 -0.55500001 -0.028999999 150 0 0 0 0.0073299999
1.697 -0.56199998 -0.029999999 36 0 0 0 0.00734
1.697 -0.56800002 -0.030999999 20 0 0 0 0.0073500001
1.689 -0.57099998 -0.030999999 17 0 0 0 0.0073600002
1.693 -0.57800001 -0.032000002 11 0 0 0 0.0073699998
1.665 -0.574 -0.033 1 0 0 0 0.0073799998
1.665 -0.57999998 -0.034000002 1 0 0 0 0.0073899999
1.632 -0.574 -0.034000002 10 0 0 0 0.0074
1.482 -0.52600002 -0.032000002 58 0 0 0 0.0074100001
1.325 -0.47400001 -0.028999999 45 0 0 0 0.0074200002
1.219 -0.44 -0.028000001 12 0 0 0 0.0074300002
1.2130001 -0.442 -0.028000001 12 0 0 0 0.0074399998
1.216 -0.44800001 -0.028999999 12 0 0 0 0.0074499999
1.2180001 -0.45199999 -0.029999999 9 0 0 0 0.00746
1.227 -0.46000001 -0.030999999 7 0 0 0 0.0074700001
1.237 -0.46799999 -0.032000002 5 0 0 0 0.0074800001
1.242 -0.47400001 -0.033 5 0 0 0 0.0074900002
1.248 -0.47999999 -0.035 5 0 0 0 0.0074999998
1.25 -0.48500001 -0.035999998 5 0 0 0 0.0075099999
1.251 -0.49000001 -0.037 6 0 0 0 0.00752
1.256 -0.49599999 -0.037999999 6 0 0 0 0.0075300001
1.255 -0.5 -0.039000001 5 0 0 0 0.0075400001
1.255 -0.50400001 -0.039999999 5 0 0 0 0.0075500002
1.263 -0.51099998 -0.041000001 5 0 0 0 0.0075599998
1.262 -0.51499999 -0.041999999 5 0 0 0 0.0075699999
1.266 -0.52100003 -0.043000001 5 0 0 0 0.00758
1.266 -0.52499998 -0.044 5 0 0 0 0.0075900001
1.271 -0.53100002 -0.045000002 5 0 0 0 0.0076000001
1.272 -0.53600001 -0.046 5 0 0 0 0.0076100002
1.276 -0.542 -0.048 5 0 0 0 0.0076199998
1.281 -0.54799998 -0.048999999 5 0 0 0 0.0076299999
1.279 -0.551 -0.050000001 5 0 0 0 0.00764
1.2819999 -0.55699998 -0.050999999 6 0 0 0 0.00765
1.284 -0.56199998 -0.052000001 5 0 0 0 0.0076600001
1.288 -0.56800002 -0.054000001 5 0 0 0 0.0076700002
1.29 -0.57300001 -0.055 6 0 0 0 0.0076799998
1.29 -0.57700002 -0.056000002 6 0 0 0 0.0076899999
1.294 -0.583 -0.057999998 6 0 0 0 0.0077
1.298 -0.58899999 -0.059 6 0 0 0 0.00771
1.3 -0.59500003 -0.061000001 6 0 0 0 0.0077200001
1.3049999 -0.60100001 -0.061999999 6 0 0 0 0.0077300002
1.311 -0.60799998 -0.064000003 6 0 0 0 0.0077399998
1.309 -0.61199999 -0.064999998 6 0 0 0 0.0077499999
1.3150001 -0.61799997 -0.067000002 7 0 0 0 0.0077599999
1.318 -0.62400001 -0.068000004 7 0 0 0 0.00777
1.3200001 -0.62900001 -0.07 7 0 0 0 0.0077800001
1.324 -0.63499999 -0.071000002 7 0 0 0 0.0077900002
1.329 -0.64200002 -0.072999999 7 0 0 0 0.0077999998
1.327 -0.64499998 -0.074000001 6 0 0 0 0.0078099999
1.319 -0.64600003 -0.075000003 1 0 0 0 0.0078199999
1.3150001 -0.648 -0.077 1 0 0 0 0.0078299996
1.331 -0.66000003 -0.079000004 1 0 0 0 0.0078400001
1.339 -0.66799998 -0.081 2 0 0 0 0.0078499997
1.339 -0.67199999 -0.082999997 7 0 0 0 0.0078600002
1.344 -0.67900002 -0.083999999 7 0 0 0 0.0078699999
1.351 -0.68699998 -0.086999997 7 0 0 0 0.0078800004
1.353 -0.69199997 -0.088 7 0 0 0 0.00789
1.357 -0.69800001 -0.090000004 7 0 0 0 0.0078999996
1.357 -0.70200002 -0.092 8 0 0 0 0.0079100002
1.358 -0.70700002 -0.093999997 9 0 0 0 0.0079199998
1.358 -0.71100003 -0.094999999 9 0 0 0 0.0079300003
1.364 -0.71799999 -0.097000003 8 0 0 0 0.0079399999
1.363 -0.722 -0.098999999 8 0 0 0 0.0079500005
1.3660001 -0.72799999 -0.101 10 0 0 0 0.0079600001
2.9920001 -1.602 -0.226 6 0 0 0 0.0079699997
2.9300001 -1.5779999 -0.22499999 3 0 0 0 0.0079800002
2.9219999 -1.5829999 -0.228 4 0 0 0 0.0079899998
2.8929999 -1.575 -0.23 5 0 0 0 0.0080000004
2.8870001 -1.58 -0.233 4 0 0 0 0.00801
1.278 -0.70300001 -0.105 1 0 0 0 0.0080199996
1.261 -0.69700003 -0.105 1 0 0 0 0.0080300001
1.251 -0.69499999 -0.106 1 0 0 0 0.0080399998
1.24 -0.69300002 -0.107 0 0 0 0 0.0080500003
1.238 -0.69499999 -0.108 0 0 0 0 0.0080599999
1.253 -0.70700002 -0.111 0 0 0 0 0.0080700004
1.304 -0.73900002 -0.118 1 0 0 0 0.0080800001
1.3099999 -0.74599999 -0.12 1 0 0 0 0.0080899997
1.3049999 -0.74699998 -0.121 1 0 0 0 0.0081000002
1.3 -0.74800003 -0.123 1 0 0 0 0.0081099998
1.278 -0.73900002 -0.123 1 0 0 0 0.0081200004
1.214 -0.70499998 -0.118 1 0 0 0 0.00813
1.143 -0.667 -0.113 1 0 0 0 0.0081399996
1.123 -0.65799999 -0.113 1 0 0 0 0.0081500001
1 -0.588 -0.102 3 0 0 0 0.0081599997
0.986 -0.583 -0.102 4 0 0 0 0.0081700003
0.972 -0.57700002 -0.102 5 0 0 0 0.0081799999
0.96200001 -0.57300001 -0.102 7 0 0 0 0.0081900004
0.96700001 -0.57800001 -0.104 8 0 0 0 0.0082
0.96499997 -0.57999998 -0.106 9 0 0 0 0.0082099997
0.96399999 -0.58200002 -0.107 9 0 0 0 0.0082200002
0.963 -0.583 -0.108 9 0 0 0 0.0082299998
0.95999998 -0.58399999 -0.109 9 0 0 0 0.0082400003
0.95200002 -0.58099997 -0.11 8 0 0 0 0.00825
0.94999999 -0.58200002 -0.111 8 0 0 0 0.0082599996
0.949 -0.58399999 -0.113 8 0 0 0 0.0082700001
0.94800001 -0.58499998 -0.114 7 0 0 0 0.0082799997
0.95200002 -0.58899999 -0.116 7 0 0 0 0.0082900003
0.95099998 -0.59100002 -0.117 6 0 0 0 0.0082999999
0.94499999 -0.58899999 -0.118 6 0 0 0 0.0083100004
0.94400001 -0.59100002 -0.12 6 0 0 0 0.00832
0.94599998 -0.59399998 -0.121 6 0 0 0 0.0083299996
0.94499999 -0.59500003 -0.123 6 0 0 0 0.0083400002
0.94099998 -0.59500003 -0.124 6 0 0 0 0.0083499998
0.94 -0.59600002 -0.125 6 0 0 0 0.0083600003
0.94300002 -0.59899998 -0.127 6 0 0 0 0.0083699999
0.95899999 -0.611 -0.131 7 0 0 0 0.0083799995
0.97899997 -0.62599999 -0.13500001 8 0 0 0 0.0083900001
0.99299997 -0.63599998 -0.139 7 0 0 0 0.0083999997
1.025 -0.65899998 -0.145 7 0 0 0 0.0084100002
1.059 -0.68300003 -0.152 6 0 0 0 0.0084199999
1.072 -0.69300002 -0.155 7 0 0 0 0.0084300004
1.073 -0.69499999 -0.15700001 7 0 0 0 0.00844
1.0779999 -0.69999999 -0.16 7 0 0 0 0.0084499996
1.0779999 -0.70200002 -0.162 7 0 0 0 0.0084600002
1.075 -0.70200002 -0.163 6 0 0 0 0.0084699998
1.074 -0.70200002 -0.16500001 2 0 0 0 0.0084800003
1.064 -0.69700003 -0.16500001 1 0 0 0 0.0084899999
1.0700001 -0.70300001 -0.168 0 0 0 0 0.0085000005
1.077 -0.708 -0.17 0 0 0 0 0.0085100001
1.0930001 -0.72100002 -0.175 0 0 0 0 0.0085199997
1.098 -0.72500002 -0.177 0 0 0 0 0.0085300002
1.08 -0.71499997 -0.176 1 0 0 0 0.0085399998
1.079 -0.71499997 -0.178 1 0 0 0 0.0085500004
1.0779999 -0.71499997 -0.18000001 1 0 0 0 0.00856
1.062 -0.70599997 -0.17900001 1 0 0 0 0.0085699996
0.954 -0.63499999 -0.162 3 0 0 0 0.0085800001
0.949 -0.63300002 -0.163 5 0 0 0 0.0085899998
0.94599998 -0.63099998 -0.164 5 0 0 0 0.0086000003
0.94300002 -0.63 -0.16500001 6 0 0 0 0.0086099999
0.93699998 -0.62699997 -0.16500001 6 0 0 0 0.0086200004
0.92799997 -0.62199998 -0.16500001 6 0 0 0 0.0086300001
0.926 -0.62099999 -0.16599999 6 0 0 0 0.0086399997
0.91600001 -0.61400002 -0.16599999 6 0 0 0 0.0086500002
0.91600001 -0.61500001 -0.167 6 0 0 0 0.0086599998
0.91000003 -0.61199999 -0.168 6 0 0 0 0.0086700004
0.91299999 -0.61400002 -0.17 7 0 0 0 0.00868
0.912 -0.61400002 -0.171 7 0 0 0 0.0086899996
0.91100001 -0.61400002 -0.17200001 7 0 0 0 0.0087000001
0.91000003 -0.61299998 -0.17399999 7 0 0 0 0.0087099997
0.91000003 -0.61299998 -0.175 7 0 0 0 0.0087200003
0.91000003 -0.61299998 -0.176 7 0 0 0 0.0087299999
0.90700001 -0.61199999 -0.177 7 0 0 0 0.0087400004
0.912 -0.61500001 -0.17900001 7 0 0 0 0.00875
0.90899998 -0.61299998 -0.18000001 7 0 0 0 0.0087599996
0.90700001 -0.611 -0.18099999 7 0 0 0 0.0087700002
0.91100001 -0.61400002 -0.183 7 0 0 0 0.0087799998
0.91000003 -0.61400002 -0.184 7 0 0 0 0.0087900003
0.90899998 -0.61199999 -0.185 7 0 0 0 0.0088
0.912 -0.61400002 -0.18700001 7 0 0 0 0.0088099996
0.90799999 -0.61199999 -0.18799999 7 0 0 0 0.0088200001
0.912 -0.61400002 -0.19 7 0 0 0 0.0088299997
0.912 -0.61299998 -0.191 7 0 0 0 0.0088400003
0.912 -0.61299998 -0.192 7 0 0 0 0.0088499999
0.91299999 -0.61400002 -0.19400001 7 0 0 0 0.0088600004
0.917 -0.61500001 -0.19599999 6 0 0 0 0.00887
0.917 -0.61500001 -0.197 6 0 0 0 0.0088799996
0.917 -0.61400002 -0.198 6 0 0 0 0.0088900002
0.91900003 -0.61500001 -0.2 5 0 0 0 0.0088999998
0.92500001 -0.61900002 -0.20200001 5 0 0 0 0.0089100003
0.93000001 -0.62099999 -0.205 4 0 0 0 0.0089199999
0.93699998 -0.625 -0.207 3 0 0 0 0.0089299995
0.93699998 -0.62400001 -0.208 1 0 0 0 0.0089400001
0.95599997 -0.63499999 -0.214 1 0 0 0 0.0089499997
1.003 -0.66600001 -0.22499999 1 0 0 0 0.0089600002
1.003 -0.66500002 -0.226 1 0 0 0 0.0089699998
1.001 -0.662 -0.227 0 0 0 0 0.0089800004
1.008 -0.66600001 -0.23 1 0 0 0 0.00899
0.99699998 -0.65700001 -0.228 1 0 0 0 0.0089999996
0.99900001 -0.65700001 -0.23 1 0 0 0 0.0090100002
1.013 -0.66500002 -0.234 1 0 0 0 0.0090199998
1.003 -0.65700001 -0.233 2 0 0 0 0.0090300003
1.002 -0.65499997 -0.234 2 0 0 0 0.0090399999
0.99800003 -0.65100002 -0.234 2 0 0 0 0.0090500005
1.003 -0.653 -0.236 1 0 0 0 0.0090600001
0.98500001 -0.63999999 -0.23199999 1 0 0 0 0.0090699997
0.98000002 -0.63499999 -0.23199999 1 0 0 0 0.0090800002
0.97500002 -0.63 -0.23199999 1 0 0 0 0.0090899998
0.96799999 -0.62400001 -0.23100001 1 0 0 0 0.0091000004
0.97100002 -0.62400001 -0.23199999 1 0 0 0 0.00911
0.963 -0.61699998 -0.23100001 1 0 0 0 0.0091199996
0.96399999 -0.616 -0.23199999 1 0 0 0 0.0091300001
0.96200001 -0.61299998 -0.23199999 1 0 0 0 0.0091399997
0.95899999 -0.61000001 -0.23199999 1 0 0 0 0.0091500003
0.96200001 -0.60900003 -0.233 1 0 0 0 0.0091599999
0.95499998 -0.60299999 -0.23199999 3 0 0 0 0.0091700004
0.95999998 -0.60399997 -0.234 4 0 0 0 0.0091800001
0.95700002 -0.60000002 -0.234 4 0 0 0 0.0091899997
0.95599997 -0.59799999 -0.235 5 0 0 0 0.0092000002
0.94999999 -0.59200001 -0.233 6 0 0 0 0.0092099998
0.95200002 -0.59100002 -0.235 7 0 0 0 0.0092200004
0.95099998 -0.58899999 -0.235 7 0 0 0 0.00923
0.954 -0.588 -0.236 8 0 0 0 0.0092399996
0.95200002 -0.58499998 -0.236 9 0 0 0 0.0092500001
0.95599997 -0.58499998 -0.237 9 0 0 0 0.0092599997
0.958 -0.58399999 -0.23800001 9 0 0 0 0.0092700003
0.95999998 -0.583 -0.23899999 9 0 0 0 0.0092799999
0.963 -0.58200002 -0.23999999 9 0 0 0 0.0092900004
0.96200001 -0.579 -0.23999999 9 0 0 0 0.0093
0.96499997 -0.579 -0.241 9 0 0 0 0.0093099996
0.97000003 -0.579 -0.243 9 0 0 0 0.0093200002
0.97000003 -0.57700002 -0.243 9 0 0 0 0.0093299998
0.97399998 -0.57700002 -0.244 9 0 0 0 0.0093400003
0.98400003 -0.58099997 -0.24699999 9 0 0 0 0.0093499999
0.99000001 -0.58099997 -0.248 9 0 0 0 0.0093599996
0.99199998 -0.57999998 -0.249 8 0 0 0 0.0093700001
0.99299997 -0.57800001 -0.25 8 0 0 0 0.0093799997
1.001 -0.57999998 -0.252 8 0 0 0 0.0093900003
1 -0.57599998 -0.252 8 0 0 0 0.0093999999
1 -0.574 -0.252 7 0 0 0 0.0094100004
1 -0.57099998 -0.252 7 0 0 0 0.00942
1.0039999 -0.57099998 -0.25299999 8 0 0 0 0.0094299996
1.003 -0.56699997 -0.252 9 0 0 0 0.0094400002
1.001 -0.56300002 -0.252 10 0 0 0 0.0094499998
1 -0.56 -0.252 10 0 0 0 0.0094600003
1.0089999 -0.56199998 -0.25400001 9 0 0 0 0.0094699999
1.015 -0.56199998 -0.255 8 0 0 0 0.0094799995
1.021 -0.56199998 -0.25600001 5 0 0 0 0.0094900001
1.054 -0.57700002 -0.264 1 0 0 0 0.0094999997
1.109 -0.60500002 -0.278 0 0 0 0 0.0095100002
1.1390001 -0.61699998 -0.285 0 0 0 0 0.0095199998
1.149 -0.61900002 -0.28799999 1 0 0 0 0.0095300004
1.149 -0.616 -0.287 2 0 0 0 0.00954
1.1569999 -0.61699998 -0.289 6 0 0 0 0.0095499996
1.156 -0.61299998 -0.289 7 0 0 0 0.0095600002
1.152 -0.60699999 -0.287 9 0 0 0 0.0095699998
1.145 -0.60000002 -0.285 11 0 0 0 0.0095800003
1.1440001 -0.59600002 -0.28400001 13 0 0 0 0.0095899999
1.143 -0.59200001 -0.28400001 12 0 0 0 0.0096000005
1.1390001 -0.58700001 -0.28200001 13 0 0 0 0.0096100001
1.138 -0.583 -0.28099999 12 0 0 0 0.0096199997
1.136 -0.57800001 -0.28 11 0 0 0 0.0096300002
1.135 -0.574 -0.28 11 0 0 0 0.0096399998
1.1339999 -0.56999999 -0.27900001 11 0 0 0 0.0096500004
1.1289999 -0.56400001 -0.27700001 11 0 0 0 0.00966
1.126 -0.55900002 -0.27599999 11 0 0 0 0.0096699996
1.1210001 -0.55299997 -0.27399999 11 0 0 0 0.0096800001
1.12 -0.54900002 -0.273 11 0 0 0 0.0096899997
1.117 -0.54400003 -0.271 11 0 0 0 0.0097000003
1.117 -0.54000002 -0.271 11 0 0 0 0.0097099999
1.113 -0.53500003 -0.26899999 0 0 0 0 0.0097200004
1.11 -0.52999997 -0.26800001 10 0 0 0 0.00973
1.112 -0.52700001 -0.26699999 11 0 0 0 0.0097399997
1.102 -0.51899999 -0.264 11 0 0 0 0.0097500002
1.1 -0.514 -0.26300001 11 0 0 0 0.0097599998
1.103 -0.51200002 -0.26300001 12 0 0 0 0.0097700004
1.104 -0.509 -0.26199999 12 0 0 0 0.00978
1.115 -0.51099998 -0.264 10 0 0 0 0.0097899996
1.137 -0.51700002 -0.26800001 8 0 0 0 0.0098000001
1.17 -0.52899998 -0.27500001 5 0 0 0 0.0098099997
1.243 -0.55699998 -0.292 1 0 0 0 0.0098200003
1.255 -0.55900002 -0.29300001 1 0 0 0 0.0098299999
1.2589999 -0.55599999 -0.29300001 1 0 0 0 0.0098400004
1.252 -0.55000001 -0.29100001 7 0 0 0 0.00985
1.245 -0.542 -0.28799999 12 0 0 0 0.0098599996
1.242 -0.537 -0.28600001 14 0 0 0 0.0098700002
1.2410001 -0.53299999 -0.285 13 0 0 0 0.0098799998
1.2359999 -0.52700001 -0.28200001 14 0 0 0 0.0098900003
1.2359999 -0.52200001 -0.28099999 13 0 0 0 0.0098999999
1.232 -0.51700002 -0.27900001 14 0 0 0 0.0099099996
1.225 -0.50999999 -0.27599999 14 0 0 0 0.0099200001
1.226 -0.50599998 -0.27500001 14 0 0 0 0.0099299997
1.224 -0.50199997 -0.27399999 14 0 0 0 0.0099400003
1.222 -0.49599999 -0.27200001 15 0 0 0 0.0099499999
1.217 -0.491 -0.27000001 13 0 0 0 0.0099600004
1.2180001 -0.48699999 -0.26899999 13 0 0 0 0.00997
1.216 -0.48300001 -0.26699999 15 0 0 0 0.0099799996
1.212 -0.477 -0.26499999 14 0 0 0 0.0099900002
1.2079999 -0.472 -0.26300001 14 0 0 0 0.0099999998
1.204 -0.46599999 -0.25999999 14 0 0 0 0.01001
1.206 -0.463 -0.259 13 0 0 0 0.01002
1.204 -0.458 -0.25799999 12 0 0 0 0.01003
1.21 -0.45699999 -0.257 11 0 0 0 0.01004
1.2130001 -0.454 -0.257 20 0 0 0 0.01005
1.2079999 -0.44800001 -0.25400001 35 0 0 0 0.01006
1.212 -0.44600001 -0.25400001 39 0 0 0 0.01007
1.243 -0.45300001 -0.259 43 0 0 0 0.01008
1.3099999 -0.47299999 -0.271 53 0 0 0 0.01009
1.363 -0.48800001 -0.28099999 47 0 0 0 0.0101
1.433 -0.509 -0.29300001 15 0 0 0 0.01011
1.432 -0.50400001 -0.29100001 14 0 0 0 0.01012
1.431 -0.49900001 -0.289 14 0 0 0 0.01013
1.428 -0.493 -0.287 13 0 0 0 0.01014
1.427 -0.48899999 -0.285 13 0 0 0 0.01015
1.426 -0.484 -0.28299999 13 0 0 0 0.01016
1.4220001 -0.47799999 -0.28 12 0 0 0 0.01017
1.418 -0.472 -0.278 13 0 0 0 0.01018
1.42 -0.46799999 -0.27599999 13 0 0 0 0.01019
1.415 -0.46200001 -0.273 13 0 0 0 0.0102
1.409 -0.456 -0.27000001 13 0 0 0 0.01021
1.411 -0.45199999 -0.26899999 12 0 0 0 0.01022
1.406 -0.44600001 -0.266 12 0 0 0 0.01023
1.404 -0.44100001 -0.264 12 0 0 0 0.01024
1.403 -0.43599999 -0.26199999 12 0 0 0 0.01025
1.399 -0.43000001 -0.259 12 0 0 0 0.01026
1.393 -0.42399999 -0.25600001 12 0 0 0 0.01027
1.392 -0.41999999 -0.25400001 13 0 0 0 0.01028
1.396 -0.41600001 -0.25299999 11 0 0 0 0.01029
1.397 -0.412 -0.25099999 9 0 0 0 0.0103
1.411 -0.412 -0.252 6 0 0 0 0.01031
1.419 -0.41 -0.25099999 1 0 0 0 0.01032
1.49 -0.426 -0.26100001 0 0 0 0 0.01033
1.61 -0.45500001 -0.28 0 0 0 0 0.01034
1.607 -0.44999999 -0.27700001 0 0 0 0 0.01035
1.625 -0.44999999 -0.278 0 0 0 0 0.01036
1.653 -0.45199999 -0.28 0 0 0 0 0.01037
1.645 -0.44499999 -0.27700001 0 0 0 0 0.01038
1.665 -0.44499999 -0.278 0 0 0 0 0.01039
1.6900001 -0.447 -0.27900001 0 0 0 0 0.0104
1.691 -0.442 -0.27700001 0 0 0 0 0.01041
1.721 -0.44499999 -0.27900001 0 0 0 0 0.01042
1.7539999 -0.44800001 -0.28200001 0 0 0 0 0.01043
1.83 -0.46200001 -0.29100001 1 0 0 0 0.01044
1.891 -0.472 -0.29800001 1 0 0 0 0.01045
1.909 -0.47 -0.29800001 3 0 0 0 0.01046
1.91 -0.465 -0.296 7 0 0 0 0.01047
1.533 -0.368 -0.235 7 0 0 0 0.01048
1.521 -0.361 -0.23100001 8 0 0 0 0.01049
1.5190001 -0.35600001 -0.228 8 0 0 0 0.0105
1.515 -0.34999999 -0.22499999 8 0 0 0 0.01051
1.517 -0.34599999 -0.223 8 0 0 0 0.01052
1.526 -0.34400001 -0.222 8 0 0 0 0.01053
1.53 -0.34 -0.22 8 0 0 0 0.01054
1.539 -0.338 -0.219 8 0 0 0 0.01055
1.546 -0.33500001 -0.21699999 7 0 0 0 0.01056
1.557 -0.33199999 -0.21600001 6 0 0 0 0.01057
1.566 -0.33000001 -0.215 4 0 0 0 0.01058
1.559 -0.324 -0.212 1 0 0 0 0.01059
1.605 -0.329 -0.215 1 0 0 0 0.0106
1.633 -0.33000001 -0.21600001 1 0 0 0 0.01061
1.631 -0.324 -0.213 1 0 0 0 0.01062
1.65 -0.32300001 -0.213 1 0 0 0 0.01063
1.676 -0.324 -0.214 1 0 0 0 0.01064
1.7029999 -0.324 -0.215 1 0 0 0 0.01065
1.7359999 -0.32499999 -0.21600001 1 0 0 0 0.01066
1.786 -0.329 -0.219 1 0 0 0 0.01067
1.823 -0.331 -0.221 1 0 0 0 0.01068
1.834 -0.32800001 -0.219 1 0 0 0 0.01069
1.849 -0.32499999 -0.21799999 1 0 0 0 0.0107
1.859 -0.32100001 -0.21600001 1 0 0 0 0.01071
1.8710001 -0.31799999 -0.214 1 0 0 0 0.01072
1.8940001 -0.317 -0.213 3 0 0 0 0.01073
1.9 -0.31200001 -0.211 12 0 0 0 0.01074
1.8940001 -0.30599999 -0.207 33 0 0 0 0.01075
1.888 -0.29899999 -0.20299999 63 0 0 0 0.01076
1.888 -0.294 -0.2 85 0 0 0 0.01077
1.883 -0.28799999 -0.19599999 150 0 0 0 0.01078
1.89 -0.28400001 -0.19400001 75 0 0 0 0.01079
1.893 -0.27900001 -0.191 49 0 0 0 0.0108
1.896 -0.27399999 -0.18799999 36 0 0 0 0.01081
1.9 -0.26899999 -0.185 25 0 0 0 0.01082
1.905 -0.26499999 -0.182 22 0 0 0 0.01083
1.909 -0.25999999 -0.17900001 17 0 0 0 0.01084
1.9170001 -0.25600001 -0.177 15 0 0 0 0.01085
1.926 -0.25099999 -0.17399999 13 0 0 0 0.01086
1.99 -0.25400001 -0.176 13 0 0 0 0.01087
2.194 -0.27399999 -0.191 97 0 0 0 0.01088
2.23 -0.273 -0.19 79 0 0 0 0.01089
2.1459999 -0.25600001 -0.17900001 108 0 0 0 0.0109
2.177 -0.25400001 -0.178 82 0 0 0 0.01091
2.171 -0.248 -0.17299999 122 0 0 0 0.01092
2.1670001 -0.241 -0.169 150 0 0 0 0.01093
2.168 -0.235 -0.16500001 150 0 0 0 0.01094
2.1700001 -0.229 -0.162 150 0 0 0 0.01095
2.168 -0.223 -0.15800001 150 0 0 0 0.01096
2.1700001 -0.21799999 -0.154 150 0 0 0 0.01097
2.171 -0.212 -0.15000001 147 0 0 0 0.01098
2.178 -0.206 -0.147 80 0 0 0 0.01099
2.2579999 -0.208 -0.148 55 0 0 0 0.011
2.3840001 -0.213 -0.152 47 0 0 0 0.01101
2.4219999 -0.20999999 -0.15000001 38 0 0 0 0.01102
2.438 -0.205 -0.147 37 0 0 0 0.01103
2.425 -0.197 -0.141 36 0 0 0 0.01104
2.454 -0.193 -0.139 17 0 0 0 0.01105
0 0 0 0 0 0 0 0.01106
1.575 -0.115 -0.082999997 0 0 0 0 0.01107
1.533 -0.108 -0.078000002 0 0 0 0 0.01108
1.525 -0.103 -0.075000003 0 0 0 0 0.01109
1.513 -0.097999997 -0.071000002 0 0 0 0 0.0111
1.5190001 -0.094999999 -0.068999998 0 0 0 0 0.01111
1.518 -0.090999998 -0.066 0 0 0 0 0.01112
1.52 -0.086999997 -0.063000001 0 0 0 0 0.01113
1.526 -0.082999997 -0.061000001 0 0 0 0 0.01114
1.527 -0.079000004 -0.057999998 0 0 0 0 0.01115
1.517 -0.074000001 -0.055 0 0 0 0 0.01116
1.521 -0.071000002 -0.052000001 0 0 0 0 0.01117
1.506 -0.066 -0.048999999 0 0 0 0 0.01118
1.51 -0.061999999 -0.046 0 0 0 0 0.01119
1.501 -0.057999998 -0.043000001 0 0 0 0 0.0112
1.516 -0.054000001 -0.039999999 0 0 0 0 0.01121
1.515 -0.050000001 -0.037 0 0 0 0 0.01122
1.51 -0.046 -0.034000002 0 0 0 0 0.01123
1.508 -0.041999999 -0.030999999 0 0 0 0 0.01124
1.507 -0.037999999 -0.028999999 0 0 0 0 0.01125
1.501 -0.034000002 -0.026000001 0 0 0 0 0.01126
1.5039999 -0.029999999 -0.023 0 0 0 0 0.01127
1.51 -0.026000001 -0.02 0 0 0 0 0.01128
1.508 -0.022 -0.017000001 0 0 0 0 0.01129
1.51 -0.018999999 -0.014 0 0 0 0 0.0113
1.513 -0.015 -0.011 0 0 0 0 0.01131
1.513 -0.011 -0.0080000004 0 0 0 0 0.01132
1.512 -0.0070000002 -0.0049999999 0 0 0 0 0.01133
1.501 -0.003 -0.0020000001 0 0 0 0 0.01134
1.498 0 0 0 0 0 0 0.01135
1.525 0.0040000002 0.003 0 0 0 0 0.01136
1.572 0.0080000004 0.0060000001 0 0 0 0 0.01137
1.595 0.012 0.0089999996 0 0 0 0 0.01138
1.61 0.017000001 0.012 0 0 0 0 0.01139
1.623 0.021 0.016000001 0 0 0 0 0.0114
1.649 0.026000001 0.018999999 0 0 0 0 0.01141
1.681 0.029999999 0.023 0 0 0 0 0.01142
1.71 0.035 0.027000001 0 0 0 0 0.01143
1.744 0.039999999 0.030999999 0 0 0 0 0.01144
1.756 0.045000002 0.034000002 0 0 0 0 0.01145
1.776 0.050000001 0.037999999 0 0 0 0 0.01146
1.779 0.055 0.041999999 0 0 0 0 0.01147
1.794 0.059999999 0.046 0 0 0 0 0.01148
1.791 0.064000003 0.048999999 0 0 0 0 0.01149
1.793 0.068999998 0.052999999 0 0 0 0 0.0115
1.793 0.072999999 0.057 0 0 0 0 0.01151
1.8 0.078000002 0.061000001 0 0 0 0 0.01152
1.825 0.083999999 0.064999998 0 0 0 0 0.01153
1.835 0.089000002 0.068999998 0 0 0 0 0.01154
1.824 0.093000002 0.072999999 0 0 0 0 0.01155
1.834 0.097999997 0.077 0 0 0 0 0.01156
1.848 0.104 0.081 0 0 0 0 0.01157
1.942 0.114 0.089000002 0 0 0 0 0.01158
2.039 0.125 0.097999997 1 0 0 0 0.01159
2.089 0.133 0.105 10 0 0 0 0.0116
2.102 0.139 0.11 20 0 0 0 0.01161
2.122 0.146 0.115 23 0 0 0 0.01162
2.138 0.152 0.121 24 0 0 0 0.01163
2.158 0.15899999 0.126 27 0 0 0 0.01164
2.1819999 0.16599999 0.132 25 0 0 0 0.01165
2.5320001 0.199 0.15899999 150 0 0 0 0.01166
3.1459999 0.255 0.204 150 0 0 0 0.01167
3.142 0.26300001 0.211 150 0 0 0 0.01168
3.141 0.271 0.21699999 150 0 0 0 0.01169
3.1400001 0.278 0.22400001 150 0 0 0 0.0117
3.1340001 0.285 0.23 150 0 0 0 0.01171
3.1300001 0.29300001 0.236 150 0 0 0 0.01172
3.1270001 0.30000001 0.243 150 0 0 0 0.01173
3.1240001 0.308 0.249 150 0 0 0 0.01174
3.118 0.315 0.25600001 150 0 0 0 0.01175
3.1140001 0.322 0.26199999 150 0 0 0 0.01176
3.1110001 0.329 0.26800001 150 0 0 0 0.01177
3.1059999 0.33700001 0.27500001 150 0 0 0 0.01178
3.105 0.34400001 0.28099999 150 0 0 0 0.01179
3.0999999 0.35100001 0.28799999 150 0 0 0 0.0118
3.099 0.359 0.294 150 0 0 0 0.01181
3.0929999 0.36500001 0.301 150 0 0 0 0.01182
3.0869999 0.37200001 0.30700001 150 0 0 0 0.01183
3.0829999 0.37900001 0.31299999 150 0 0 0 0.01184
3.079 0.38600001 0.31999999 150 0 0 0 0.01185
3.0780001 0.39399999 0.32600001 150 0 0 0 0.01186
3.0799999 0.40099999 0.333 150 0 0 0 0.01187
3.0710001 0.40799999 0.33899999 151 0 0 0 0.01188
3.0699999 0.41499999 0.34599999 151 0 0 0 0.01189
3.0680001 0.42199999 0.35299999 151 0 0 0 0.0119
3.0550001 0.428 0.35800001 151 0 0 0 0.01191
3.053 0.435 0.36500001 151 0 0 0 0.01192
3.0510001 0.442 0.37099999 150 0 0 0 0.01193
3.049 0.449 0.37799999 150 0 0 0 0.01194
3.043 0.45500001 0.384 151 0 0 0 0.01195
3.0409999 0.46200001 0.391 150 0 0 0 0.01196
3.0369999 0.46900001 0.39700001 151 0 0 0 0.01197
3.0339999 0.47600001 0.40400001 151 0 0 0 0.01198
3.029 0.48199999 0.41 151 0 0 0 0.01199
3.0250001 0.48899999 0.417 151 0 0 0 0.012
3.023 0.49599999 0.42300001 151 0 0 0 0.01201
3.02 0.50199997 0.43000001 151 0 0 0 0.01202
3.0179999 0.509 0.43700001 151 0 0 0 0.01203
3.016 0.51599997 0.44299999 151 0 0 0 0.01204
3.0109999 0.52200001 0.44999999 150 0 0 0 0.01205
3.006 0.52899998 0.456 151 0 0 0 0.01206
3.003 0.53500003 0.463 150 0 0 0 0.01207
3.0009999 0.542 0.46900001 150 0 0 0 0.01208
2.9949999 0.54799998 0.47600001 151 0 0 0 0.01209
2.9920001 0.55400002 0.48199999 150 0 0 0 0.0121
2.99 0.56099999 0.48899999 150 0 0 0 0.01211
2.984 0.56699997 0.495 150 0 0 0 0.01212
2.9849999 0.574 0.50300002 151 0 0 0 0.01213
2.98 0.57999998 0.509 150 0 0 0 0.01214
2.977 0.58600003 0.51599997 150 0 0 0 0.01215
2.977 0.59299999 0.523 150 0 0 0 0.01216
2.9719999 0.59899998 0.52899998 150 0 0 0 0.01217
2.967 0.60500002 0.53600001 150 0 0 0 0.01218
2.97 0.61199999 0.54299998 150 0 0 0 0.01219
2.9530001 0.616 0.54699999 150 0 0 0 0.0122
2.9590001 0.62400001 0.55599999 150 0 0 0 0.01221
2.954 0.63 0.56199998 150 0 0 0 0.01222
2.95 0.63599998 0.56900001 150 0 0 0 0.01223
2.9519999 0.64300001 0.57599998 150 0 0 0 0.01224
2.9449999 0.648 0.58200002 150 0 0 0 0.01225
2.937 0.653 0.588 150 0 0 0 0.01226
2.941 0.66000003 0.59600002 150 0 0 0 0.01227
2.937 0.66600001 0.60299999 150 0 0 0 0.01228
2.937 0.67299998 0.61000001 150 0 0 0 0.01229
2.9260001 0.67699999 0.61500001 150 0 0 0 0.0123
2.9289999 0.68400002 0.62300003 150 0 0 0 0.01231
2.9200001 0.68800002 0.62900001 150 0 0 0 0.01232
2.9230001 0.69599998 0.63700002 150 0 0 0 0.01233
2.9200001 0.70200002 0.64399999 150 0 0 0 0.01234
2.911 0.70599997 0.64899999 150 0 0 0 0.01235
2.908 0.71200001 0.65600002 150 0 0 0 0.01236
2.911 0.71899998 0.66399997 150 0 0 0 0.01237
2.908 0.72500002 0.671 151 0 0 0 0.01238
2.9000001 0.72899997 0.676 150 0 0 0 0.01239
2.902 0.736 0.685 151 0 0 0 0.0124
2.8929999 0.74000001 0.69 150 0 0 0 0.01241
2.898 0.74699998 0.699 150 0 0 0 0.01242
2.9189999 0.759 0.71200001 150 0 0 0 0.01243
2.925 0.76700002 0.72100002 150 0 0 0 0.01244
2.937 0.77700001 0.73199999 150 0 0 0 0.01245
2.954 0.787 0.74400002 150 0 0 0 0.01246
2.9579999 0.79500002 0.75300002 132 0 0 0 0.01247
2.9690001 0.80400002 0.76300001 13 0 0 0 0.01248
3.9189999 1.0700001 1.018 0 0 0 0 0.01249
4.1919999 1.154 1.1 1 0 0 0 0.0125
4.2049999 1.166 1.115 0 0 0 0 0.01251
4.1869998 1.17 1.1210001 0 0 0 0 0.01252
4.1939998 1.1799999 1.135 0 0 0 0 0.01253
4.1750002 1.184 1.141 0 0 0 0 0.01254
0 0 0 0 0 0 0 0.01255
0 0 0 0 0 0 0 0.01256
4.1950002 1.216 1.1799999 0 0 0 0 0.01257
4.1760001 1.219 1.186 0 0 0 0 0.01258
0 0 0 0 0 0 0 0.01259
0 0 0 0 0 0 0 0.0126
4.1729999 1.243 1.22 0 0 0 0 0.01261
4.1609998 1.248 1.228 0 0 0 0 0.01262
4.1690001 1.2589999 1.242 0 0 0 0 0.01263
4.1609998 1.265 1.251 0 0 0 0 0.01264
3.2720001 1.001 0.99299997 5 0 0 0 0.01265
3.326 1.024 1.018 41 0 0 0 0.01266
3.3 1.022 1.02 9 0 0 0 0.01267
3.915 1.22 1.22 0 0 0 0 0.01268
4.151 1.302 1.306 0 0 0 0 0.01269
4.1339998 1.3049999 1.312 0 0 0 0 0.0127
0 0 0 0 0 0 0 0.01271
0 0 0 0 0 0 0 0.01272
4.1220002 1.324 1.3430001 0 0 0 0 0.01273
4.1149998 1.33 1.352 0 0 0 0 0.01274
4.0630002 1.321 1.347 0 0 0 0 0.01275
4.1110001 1.344 1.374 0 0 0 0 0.01276
4.1129999 1.352 1.387 0 0 0 0 0.01277
4.118 1.3609999 1.4 1 0 0 0 0.01278
4.1160002 1.368 1.411 1 0 0 0 0.01279
4.098 1.369 1.4170001 0 0 0 0 0.0128
0 0 0 0 0 0 0 0.01281
4.0999999 1.385 1.441 0 0 0 0 0.01282
4.1009998 1.392 1.4529999 0 0 0 0 0.01283
4.0619998 1.386 1.451 0 0 0 0 0.01284
0 0 0 0 0 0 0 0.01285
4.085 1.408 1.483 0 0 0 0 0.01286
4.0890002 1.416 1.4960001 0 0 0 0 0.01287
4.098 1.426 1.511 1 0 0 0 0.01288
4.4910002 1.5700001 1.669 14 0 0 0 0.01289
4.4959998 1.579 1.684 31 0 0 0 0.0129
4.4879999 1.5829999 1.694 85 0 0 0 0.01291
4.4640002 1.582 1.698 88 0 0 0 0.01292
4.4320002 1.5779999 1.698 83 0 0 0 0.01293
4.414 1.5779999 1.704 75 0 0 0 0.01294
4.3800001 1.573 1.704 72 0 0 0 0.01295
4.3460002 1.567 1.7029999 70 0 0 0 0.01296
4.3130002 1.561 1.702 65 0 0 0 0.01297
4.289 1.559 1.705 72 0 0 0 0.01298
4.2639999 1.556 1.707 67 0 0 0 0.01299
4.2399998 1.554 1.71 70 0 0 0 0.013
4.211 1.549 1.711 61 0 0 0 0.01301
4.1849999 1.545 1.712 70 0 0 0 0.01302
4.1609998 1.5420001 1.714 54 0 0 0 0.01303
4.1279998 1.536 1.7130001 64 0 0 0 0.01304
4.1009998 1.531 1.7130001 72 0 0 0 0.01305
4.0760002 1.527 1.714 74 0 0 0 0.01306
4.0450001 1.521 1.7130001 73 0 0 0 0.01307
4.0190001 1.516 1.7130001 72 0 0 0 0.01308
3.987 1.5089999 1.711 71 0 0 0 0.01309
3.957 1.503 1.71 71 0 0 0 0.0131
3.9289999 1.497 1.709 71 0 0 0 0.01311
3.911 1.494 1.712 71 0 0 0 0.01312
3.8789999 1.487 1.709 70 0 0 0 0.01313
3.859 1.483 1.711 69 0 0 0 0.01314
3.8280001 1.476 1.7079999 68 0 0 0 0.01315
3.8039999 1.47 1.7079999 67 0 0 0 0.01316
3.7739999 1.4630001 1.705 66 0 0 0 0.01317
3.7550001 1.459 1.707 66 0 0 0 0.01318
3.7320001 1.454 1.707 70 0 0 0 0.01319
3.711 1.449 1.7079999 71 0 0 0 0.0132
3.691 1.4450001 1.7079999 72 0 0 0 0.01321
3.6630001 1.438 1.706 72 0 0 0 0.01322
3.3110001 1.302 1.551 151 0 0 0 0.01323
2.98 1.175 1.404 151 0 0 0 0.01324
2.9059999 1.148 1.377 151 0 0 0 0.01325
2.809 1.112 1.339 150 0 0 0 0.01326
2.779 1.102 1.332 150 0 0 0 0.01327
2.7639999 1.098 1.332 150 0 0 0 0.01328
2.757 1.097 1.336 150 0 0 0 0.01329
2.7509999 1.097 1.341 150 0 0 0 0.0133
2.7479999 1.098 1.346 111 0 0 0 0.01331
2.7290001 1.092 1.344 88 0 0 0 0.01332
2.721 1.09 1.347 136 0 0 0 0.01333
2.7149999 1.089 1.351 150 0 0 0 0.01334
2.7149999 1.091 1.358 150 0 0 0 0.01335
2.717 1.0930001 1.3660001 150 0 0 0 0.01336
2.714 1.0930001 1.3710001 150 0 0 0 0.01337
2.7119999 1.0930001 1.377 150 0 0 0 0.01338
2.714 1.095 1.3839999 150 0 0 0 0.01339
2.711 1.095 1.39 150 0 0 0 0.0134
2.714 1.097 1.398 150 0 0 0 0.01341
2.7119999 1.097 1.403 150 0 0 0 0.01342
2.7119999 1.098 1.41 150 0 0 0 0.01343
2.7149999 1.1 1.418 150 0 0 0 0.01344
2.71 1.098 1.421 150 0 0 0 0.01345
2.7119999 1.1 1.429 150 0 0 0 0.01346
2.7090001 1.099 1.433 150 0 0 0 0.01347
2.7119999 1.1 1.441 150 0 0 0 0.01348
2.7090001 1.099 1.4450001 150 0 0 0 0.01349
2.7119999 1.101 1.4529999 150 0 0 0 0.0135
2.7119999 1.101 1.459 150 0 0 0 0.01351
2.71 1.1 1.4630001 150 0 0 0 0.01352
2.71 1.1 1.469 150 0 0 0 0.01353
2.711 1.1 1.475 150 0 0 0 0.01354
2.711 1.1 1.4809999 150 0 0 0 0.01355
2.7149999 1.101 1.489 150 0 0 0 0.01356
2.7130001 1.099 1.493 150 0 0 0 0.01357
2.714 1.099 1.499 150 0 0 0 0.01358
2.7119999 1.097 1.503 150 0 0 0 0.01359
2.714 1.097 1.5089999 150 0 0 0 0.0136
2.717 1.098 1.516 150 0 0 0 0.01361
2.7149999 1.096 1.52 150 0 0 0 0.01362
2.7160001 1.095 1.525 150 0 0 0 0.01363
2.7149999 1.094 1.529 150 0 0 0 0.01364
2.7160001 1.0930001 1.534 150 0 0 0 0.01365
2.7160001 1.091 1.539 150 0 0 0 0.01366
2.7160001 1.09 1.543 150 0 0 0 0.01367
2.7149999 1.0880001 1.5470001 150 0 0 0 0.01368
2.7179999 1.087 1.552 150 0 0 0 0.01369
2.721 1.086 1.558 150 0 0 0 0.0137
2.717 1.0829999 1.5599999 150 0 0 0 0.01371
2.723 1.0829999 1.567 150 0 0 0 0.01372
2.7249999 1.082 1.572 150 0 0 0 0.01373
2.7279999 1.081 1.5779999 150 0 0 0 0.01374
2.7260001 1.0779999 1.58 150 0 0 0 0.01375
2.727 1.076 1.584 150 0 0 0 0.01376
2.7279999 1.074 1.5880001 150 0 0 0 0.01377
2.7320001 1.073 1.5930001 150 0 0 0 0.01378
2.7309999 1.0700001 1.596 150 0 0 0 0.01379
2.7309999 1.068 1.599 150 0 0 0 0.0138
2.7349999 1.066 1.604 150 0 0 0 0.01381
2.737 1.064 1.608 150 0 0 0 0.01382
2.733 1.0599999 1.608 150 0 0 0 0.01383
2.733 1.057 1.61 150 0 0 0 0.01384
2.733 1.053 1.612 150 0 0 0 0.01385
2.7260001 1.048 1.6109999 150 0 0 0 0.01386
2.7190001 1.041 1.608 150 0 0 0 0.01387
2.714 1.036 1.607 150 0 0 0 0.01388
2.707 1.03 1.605 150 0 0 0 0.01389
2.704 1.025 1.605 150 0 0 0 0.0139
2.6989999 1.02 1.603 150 0 0 0 0.01391
2.6960001 1.015 1.603 150 0 0 0 0.01392
2.694 1.011 1.603 150 0 0 0 0.01393
2.6900001 1.005 1.602 150 0 0 0 0.01394
2.6889999 1.001 1.602 150 0 0 0 0.01395
2.687 0.99599999 1.602 150 0 0 0 0.01396
2.687 0.99199998 1.602 150 0 0 0 0.01397
2.6889999 0.98900002 1.604 150 0 0 0 0.01398
2.694 0.986 1.607 150 0 0 0 0.01399
2.6900001 0.98100001 1.6059999 150 0 0 0 0.014
2.6989999 0.98000002 1.6109999 150 0 0 0 0.01401
2.6960001 0.97399998 1.609 150 0 0 0 0.01402
2.701 0.972 1.612 147 0 0 0 0.01403
2.7019999 0.96799999 1.613 143 0 0 0 0.01404
2.7060001 0.96399999 1.615 150 0 0 0 0.01405
2.7049999 0.95899999 1.613 145 0 0 0 0.01406
2.7090001 0.95599997 1.6160001 150 0 0 0 0.01407
2.711 0.95200002 1.6160001 150 0 0 0 0.01408
2.7090001 0.94599998 1.614 150 0 0 0 0.01409
2.7130001 0.94300002 1.615 150 0 0 0 0.0141
2.7149999 0.93900001 1.6160001 150 0 0 0 0.01411
2.7160001 0.93400002 1.615 150 0 0 0 0.01412
2.72 0.93099999 1.6160001 150 0 0 0 0.01413
2.7249999 0.92699999 1.617 150 0 0 0 0.01414
2.724 0.92199999 1.615 150 0 0 0 0.01415
2.724 0.917 1.614 150 0 0 0 0.01416
2.7309999 0.91399997 1.6160001 150 0 0 0 0.01417
2.7349999 0.91000003 1.6160001 150 0 0 0 0.01418
2.73 0.903 1.6109999 150 0 0 0 0.01419
2.7320001 0.898 1.61 150 0 0 0 0.0142
2.734 0.89399999 1.609 150 0 0 0 0.01421
2.7409999 0.88999999 1.61 150 0 0 0 0.01422
2.7409999 0.88499999 1.608 150 0 0 0 0.01423
2.7460001 0.88099998 1.608 150 0 0 0 0.01424
2.7490001 0.87599999 1.607 150 0 0 0 0.01425
2.7550001 0.87300003 1.608 150 0 0 0 0.01426
2.7579999 0.86799997 1.6059999 150 0 0 0 0.01427
2.763 0.86400002 1.6059999 150 0 0 0 0.01428
2.7690001 0.86000001 1.6059999 150 0 0 0 0.01429
2.7780001 0.85699999 1.608 150 0 0 0 0.0143
2.7809999 0.852 1.6059999 150 0 0 0 0.01431
2.793 0.85000002 1.609 150 0 0 0 0.01432
2.802 0.847 1.6109999 150 0 0 0 0.01433
2.8069999 0.84299999 1.61 150 0 0 0 0.01434
2.819 0.83999997 1.612 150 0 0 0 0.01435
2.8280001 0.83700001 1.613 150 0 0 0 0.01436
2.8410001 0.83499998 1.617 150 0 0 0 0.01437
2.8469999 0.82999998 1.6160001 150 0 0 0 0.01438
2.8559999 0.82700002 1.6160001 150 0 0 0 0.01439
2.8610001 0.82200003 1.615 150 0 0 0 0.0144
2.8640001 0.81699997 1.612 150 0 0 0 0.01441
2.862 0.81 1.6059999 150 0 0 0 0.01442
2.8670001 0.80599999 1.604 150 0 0 0 0.01443
2.8759999 0.80199999 1.604 150 0 0 0 0.01444
2.875 0.796 1.598 150 0 0 0 0.01445
2.8800001 0.79100001 1.596 150 0 0 0 0.01446
2.878 0.78399998 1.589 150 0 0 0 0.01447
2.885 0.77999997 1.5880001 150 0 0 0 0.01448
2.885 0.77399999 1.582 150 0 0 0 0.01449
2.8889999 0.76800001 1.5779999 150 0 0 0 0.0145
2.892 0.76300001 1.575 150 0 0 0 0.01451
2.8959999 0.75800002 1.571 150 0 0 0 0.01452
2.8959999 0.75199997 1.5650001 150 0 0 0 0.01453
2.8989999 0.74599999 1.561 150 0 0 0 0.01454
2.9059999 0.74199998 1.559 150 0 0 0 0.01455
2.9059999 0.736 1.553 150 0 0 0 0.01456
2.9059999 0.73000002 1.546 150 0 0 0 0.01457
2.9089999 0.72399998 1.5420001 150 0 0 0 0.01458
2.9130001 0.71899998 1.5369999 150 0 0 0 0.01459
2.9130001 0.713 1.531 150 0 0 0 0.0146
2.9189999 0.708 1.528 150 0 0 0 0.01461
2.9230001 0.70300001 1.523 150 0 0 0 0.01462
2.9230001 0.69599998 1.516 150 0 0 0 0.01463
2.925 0.69099998 1.511 150 0 0 0 0.01464
2.9330001 0.68699998 1.508 150 0 0 0 0.01465
2.9360001 0.68099999 1.502 150 0 0 0 0.01466
2.9360001 0.67500001 1.495 150 0 0 0 0.01467
2.937 0.66900003 1.489 150 0 0 0 0.01468
2.941 0.66399997 1.484 150 0 0 0 0.01469
2.947 0.65899998 1.48 150 0 0 0 0.0147
2.947 0.653 1.472 150 0 0 0 0.01471
2.95 0.648 1.466 150 0 0 0 0.01472
2.954 0.64300001 1.461 150 0 0 0 0.01473
2.957 0.63700002 1.455 150 0 0 0 0.01474
2.9590001 0.63200003 1.449 150 0 0 0 0.01475
2.9630001 0.62599999 1.443 150 0 0 0 0.01476
2.9660001 0.62099999 1.437 150 0 0 0 0.01477
2.9649999 0.61500001 1.429 150 0 0 0 0.01478
2.9690001 0.61000001 1.423 150 0 0 0 0.01479
2.973 0.60500002 1.4170001 150 0 0 0 0.0148
2.974 0.59899998 1.41 150 0 0 0 0.01481
2.9779999 0.59399998 1.404 150 0 0 0 0.01482
2.9790001 0.588 1.396 150 0 0 0 0.01483
2.983 0.583 1.39 150 0 0 0 0.01484
2.9820001 0.57700002 1.381 150 0 0 0 0.01485
2.99 0.57300001 1.377 150 0 0 0 0.01486
2.9890001 0.56699997 1.369 150 0 0 0 0.01487
2.993 0.56199998 1.362 150 0 0 0 0.01488
2.997 0.55699998 1.3559999 150 0 0 0 0.01489
2.997 0.551 1.348 150 0 0 0 0.0149
3.0009999 0.546 1.341 150 0 0 0 0.01491
3.006 0.54100001 1.335 150 0 0 0 0.01492
3.006 0.53600001 1.327 150 0 0 0 0.01493
3.01 0.53100002 1.3200001 150 0 0 0 0.01494
3.0109999 0.52499998 1.312 150 0 0 0 0.01495
3.016 0.52100003 1.3049999 150 0 0 0 0.01496
3.017 0.51499999 1.2970001 150 0 0 0 0.01497
3.023 0.51099998 1.291 150 0 0 0 0.01498
3.026 0.50599998 1.284 150 0 0 0 0.01499
3.03 0.50099999 1.277 150 0 0 0 0.015
3.0320001 0.49599999 1.2690001 150 0 0 0 0.01501
3.036 0.491 1.262 150 0 0 0 0.01502
3.036 0.486 1.253 150 0 0 0 0.01503
3.039 0.48100001 1.245 150 0 0 0 0.01504
3.043 0.47600001 1.238 150 0 0 0 0.01505
3.0450001 0.47099999 1.23 150 0 0 0 0.01506
3.05 0.46599999 1.223 150 0 0 0 0.01507
3.049 0.461 1.214 150 0 0 0 0.01508
3.052 0.456 1.206 150 0 0 0 0.01509
3.056 0.45100001 1.199 150 0 0 0 0.0151
3.0580001 0.44600001 1.1900001 150 0 0 0 0.01511
3.0580001 0.44100001 1.182 150 0 0 0 0.01512
3.0580001 0.43599999 1.1720001 150 0 0 0 0.01513
3.0680001 0.433 1.1670001 150 0 0 0 0.01514
3.066 0.42699999 1.1569999 150 0 0 0 0.01515
3.066 0.42199999 1.148 150 0 0 0 0.01516
3.0710001 0.41800001 1.141 150 0 0 0 0.01517
3.0710001 0.41299999 1.131 150 0 0 0 0.01518
3.075 0.40799999 1.124 150 0 0 0 0.01519
3.0810001 0.40400001 1.117 150 0 0 0 0.0152
3.082 0.39899999 1.108 150 0 0 0 0.01521
3.082 0.39399999 1.098 150 0 0 0 0.01522
3.085 0.38999999 1.09 150 0 0 0 0.01523
3.0810001 0.384 1.079 150 0 0 0 0.01524
3.0699999 0.37799999 1.066 150 0 0 0 0.01525
3.085 0.375 1.062 150 0 0 0 0.01526
3.095 0.37200001 1.056 150 0 0 0 0.01527
3.0940001 0.36700001 1.046 150 0 0 0 0.01528
3.1040001 0.36300001 1.04 150 0 0 0 0.01529
3.1010001 0.35800001 1.03 150 0 0 0 0.0153
3.102 0.35299999 1.02 150 0 0 0 0.01531
3.056 0.34400001 0.99599999 150 0 0 0 0.01532
3.0109999 0.33399999 0.972 150 0 0 0 0.01533
2.967 0.32499999 0.949 150 0 0 0 0.01534
2.948 0.31900001 0.93400002 150 0 0 0 0.01535
2.928 0.31200001 0.91799998 150 0 0 0 0.01536
2.934 0.30899999 0.91100001 150 0 0 0 0.01537
2.9170001 0.303 0.89700001 68 0 0 0 0.01538
2.855 0.292 0.86900002 36 0 0 0 0.01539
2.7309999 0.27500001 0.82300001 18 0 0 0 0.0154
2.7179999 0.27000001 0.81099999 21 0 0 0 0.01541
2.707 0.26499999 0.79900002 25 0 0 0 0.01542
2.7739999 0.26800001 0.81 49 0 0 0 0.01543
2.756 0.26300001 0.796 91 0 0 0 0.01544
2.773 0.25999999 0.79299998 42 0 0 0 0.01545
2.9489999 0.273 0.83399999 150 0 0 0 0.01546
3.0910001 0.28200001 0.86500001 150 0 0 0 0.01547
3.0929999 0.278 0.85600001 150 0 0 0 0.01548
3.0829999 0.273 0.84399998 150 0 0 0 0.01549
3.1140001 0.27200001 0.84200001 150 0 0 0 0.0155
2.9960001 0.257 0.801 150 0 0 0 0.01551
3.0039999 0.25400001 0.79400003 150 0 0 0 0.01552
3.0639999 0.255 0.80000001 150 0 0 0 0.01553
2.9319999 0.23999999 0.75700003 150 0 0 0 0.01554
2.9030001 0.234 0.74000001 150 0 0 0 0.01555
2.9349999 0.233 0.73900002 150 0 0 0 0.01556
2.9170001 0.228 0.72600001 41 0 0 0 0.01557
2.846 0.219 0.699 38 0 0 0 0.01558
2.72 0.206 0.66000003 22 0 0 0 0.01559
2.6930001 0.2 0.64499998 21 0 0 0 0.0156
2.6760001 0.19599999 0.63200003 22 0 0 0 0.01561
2.6919999 0.193 0.62800002 22 0 0 0 0.01562
2.6889999 0.19 0.61900002 18 0 0 0 0.015629999
2.658 0.185 0.60299999 21 0 0 0 0.01564
2.654 0.18099999 0.59399998 22 0 0 0 0.01565
2.6489999 0.178 0.58499998 21 0 0 0 0.015659999
2.6489999 0.17399999 0.57599998 20 0 0 0 0.01567
2.6489999 0.171 0.56800002 20 0 0 0 0.01568
2.6530001 0.168 0.56099999 22 0 0 0 0.015690001
2.6789999 0.167 0.55800003 26 0 0 0 0.015699999
2.8099999 0.17200001 0.57599998 85 0 0 0 0.01571
2.7839999 0.167 0.56300002 45 0 0 0 0.01572
2.756 0.162 0.54799998 36 0 0 0 0.015729999
2.813 0.163 0.551 59 0 0 0 0.01574
2.918 0.16500001 0.56199998 73 0 0 0 0.01575
3.0079999 0.167 0.56999999 44 0 0 0 0.015760001
3.0079999 0.164 0.56099999 40 0 0 0 0.015769999
3.006 0.16 0.551 44 0 0 0 0.01578
3.0009999 0.15700001 0.54100001 44 0 0 0 0.015790001
2.9979999 0.153 0.53100002 46 0 0 0 0.015799999
2.9949999 0.15000001 0.52100003 46 0 0 0 0.01581
2.99 0.146 0.51099998 48 0 0 0 0.01582
2.9879999 0.14300001 0.50099999 50 0 0 0 0.015830001
2.9809999 0.14 0.491 51 0 0 0 0.01584
2.9749999 0.13600001 0.48100001 52 0 0 0 0.01585
2.974 0.133 0.47099999 53 0 0 0 0.015860001
2.9690001 0.13 0.461 60 0 0 0 0.015869999
2.961 0.126 0.45100001 61 0 0 0 0.01588
2.957 0.123 0.44100001 65 0 0 0 0.01589
2.9560001 0.12 0.43099999 67 0 0 0 0.015900001
2.95 0.117 0.421 72 0 0 0 0.01591
2.9489999 0.114 0.412 74 0 0 0 0.01592
2.9419999 0.11 0.40200001 78 0 0 0 0.015930001
2.934 0.107 0.39199999 79 0 0 0 0.015939999
2.9219999 0.104 0.38100001 46 0 0 0 0.01595
2.8959999 0.1 0.368 32 0 0 0 0.01596
2.411 0.081 0.29899999 150 0 0 0 0.015969999
2.187 0.071000002 0.264 150 0 0 0 0.01598
2.069 0.064999998 0.244 17 0 0 0 0.01599
2.0699999 0.063000001 0.237 8 0 0 0 0.016000001
2.0510001 0.061000001 0.229 8 0 0 0 0.016009999
2.046 0.059 0.222 16 0 0 0 0.01602
2.0250001 0.056000002 0.213 48 0 0 0 0.016030001
2.0209999 0.054000001 0.207 74 0 0 0 0.016039999
2.0150001 0.052000001 0.2 82 0 0 0 0.01605
2.0050001 0.050000001 0.192 88 0 0 0 0.01606
1.997 0.048 0.185 85 0 0 0 0.016070001
1.9960001 0.046 0.17900001 79 0 0 0 0.01608
1.988 0.044 0.17200001 30 0 0 0 0.01609
1.978 0.041999999 0.16500001 21 0 0 0 0.016100001
1.979 0.041000001 0.15899999 68 0 0 0 0.016109999
1.969 0.039000001 0.152 76 0 0 0 0.01612
1.9630001 0.037 0.145 65 0 0 0 0.01613
1.943 0.035 0.138 15 0 0 0 0.016140001
1.881 0.032000002 0.127 2 0 0 0 0.01615
1.826 0.028999999 0.118 0 0 0 0 0.01616
1.835 0.028000001 0.113 0 0 0 0 0.016170001
1.7970001 0.026000001 0.105 0 0 0 0 0.016179999
1.818 0.025 0.1 0 0 0 0 0.01619
1.808 0.023 0.093999997 0 0 0 0 0.0162
1.795 0.021 0.088 0 0 0 0 0.016209999
1.778 0.02 0.082000002 0 0 0 0 0.01622
1.777 0.017999999 0.075999998 0 0 0 0 0.01623
1.779 0.017000001 0.07 0 0 0 0 0.016240001
1.776 0.015 0.064999998 0 0 0 0 0.016249999
1.7690001 0.014 0.059 0 0 0 0 0.01626
1.7589999 0.012 0.052999999 0 0 0 0 0.01627
1.744 0.011 0.046999998 0 0 0 0 0.016279999
1.747 0.0089999996 0.041999999 0 0 0 0 0.01629
1.6720001 0.0080000004 0.035 0 0 0 0 0.0163
1.6390001 0.0060000001 0.028999999 0 0 0 0 0.016310001
1.641 0.0049999999 0.024 0 0 0 0 0.016319999
1.618 0.0040000002 0.017999999 0 0 0 0 0.01633
1.574 0.0020000001 0.013 0 0 0 0 0.016340001
1.544 0.001 0.0080000004 0 0 0 0 0.016349999
1.4809999 0 0.003 0 0 0 0 0.01636
1.4859999 0 -0.001 0 0 0 0 0.01637
1.49 -0.001 -0.0060000001 2 0 0 0 0.016380001
1.488 -0.0020000001 -0.011 3 0 0 0 0.01639
1.493 -0.003 -0.015 4 0 0 0 0.0164
1.477 -0.0040000002 -0.02 1 0 0 0 0.016410001
1.479 -0.0049999999 -0.024 1 0 0 0 0.016419999
1.479 -0.0070000002 -0.028999999 1 0 0 0 0.01643
1.482 -0.0080000004 -0.034000002 1 0 0 0 0.01644
1.483 -0.0089999996 -0.039000001 1 0 0 0 0.016450001
1.485 -0.0099999998 -0.043000001 1 0 0 0 0.01646
1.47 -0.011 -0.048 1 0 0 0 0.01647
1.4680001 -0.012 -0.052000001 1 0 0 0 0.016480001
1.4859999 -0.013 -0.057 1 0 0 0 0.016489999
1.4910001 -0.014 -0.061999999 1 0 0 0 0.0165
1.488 -0.015 -0.067000002 1 0 0 0 0.01651
1.478 -0.016000001 -0.071000002 0 0 0 0 0.016519999
1.462 -0.016000001 -0.075000003 0 0 0 0 0.01653
1.462 -0.017000001 -0.079999998 0 0 0 0 0.01654
1.476 -0.018999999 -0.085000001 0 0 0 0 0.016550001
1.473 -0.018999999 -0.090000004 0 0 0 0 0.016559999
1.479 -0.02 -0.094999999 0 0 0 0 0.01657
1.472 -0.021 -0.098999999 0 0 0 0 0.016580001
1.461 -0.022 -0.103 0 0 0 0 0.016589999
1.451 -0.023 -0.107 0 0 0 0 0.0166
1.451 -0.024 -0.111 0 0 0 0 0.01661
1.457 -0.025 -0.117 0 0 0 0 0.016620001
1.471 -0.026000001 -0.122 0 0 0 0 0.01663
2.3329999 -0.043000001 -0.20200001 3 0 0 0 0.01664
2.1730001 -0.041000001 -0.19499999 24 0 0 0 0.016650001
2.3110001 -0.045000002 -0.215 10 0 0 0 0.016659999
2.2579999 -0.045000002 -0.21699999 10 0 0 0 0.01667
2.174 -0.045000002 -0.21600001 10 0 0 0 0.01668
2.102 -0.045000002 -0.21600001 13 0 0 0 0.016690001
2.0910001 -0.045000002 -0.221 17 0 0 0 0.0167
2.1470001 -0.048 -0.234 14 0 0 0 0.01671
2.289 -0.052000001 -0.257 6 0 0 0 0.016720001
2.2850001 -0.054000001 -0.264 4 0 0 0 0.016729999
2.3110001 -0.055 -0.27399999 4 0 0 0 0.01674
2.325 -0.057 -0.28299999 5 0 0 0 0.01675
2.3299999 -0.057999998 -0.29100001 5 0 0 0 0.016759999
2.3329999 -0.059999999 -0.29899999 5 0 0 0 0.01677
2.3340001 -0.061000001 -0.30700001 3 0 0 0 0.01678
2.3329999 -0.061999999 -0.31400001 4 0 0 0 0.016790001
2.3299999 -0.063000001 -0.322 6 0 0 0 0.016799999
2.325 -0.064000003 -0.329 10 0 0 0 0.01681
2.302 -0.064999998 -0.333 10 0 0 0 0.01682
2.2539999 -0.064000003 -0.333 9 0 0 0 0.016829999
2.2130001 -0.064000003 -0.33399999 9 0 0 0 0.01684
2.1670001 -0.064000003 -0.33399999 9 0 0 0 0.01685
2.132 -0.064000003 -0.336 9 0 0 0 0.016860001
2.0929999 -0.064000003 -0.336 9 0 0 0 0.016869999
2.0439999 -0.063000001 -0.33500001 13 0 0 0 0.01688
2.0220001 -0.063000001 -0.338 33 0 0 0 0.016890001
2.053 -0.064999998 -0.34999999 99 0 0 0 0.016899999
2.1530001 -0.068999998 -0.37400001 150 0 0 0 0.01691
2.3659999 -0.077 -0.419 150 0 0 0 0.01692
2.517 -0.083999999 -0.454 150 0 0 0 0.016930001
2.4449999 -0.082000002 -0.449 150 0 0 0 0.01694
2.4200001 -0.082000002 -0.45199999 20 0 0 0 0.01695
2.513 -0.086000003 -0.47799999 12 0 0 0 0.016960001
2.5280001 -0.088 -0.48899999 11 0 0 0 0.016969999
2.52 -0.089000002 -0.49599999 12 0 0 0 0.01698
