# .PCD v0.7 - Point Cloud Data file format
VERSION 0.7
FIELDS x y z intensity normal_x normal_y normal_z curvature
SIZE 4 4 4 4 4 4 4 4
TYPE F F F F F F F F
COUNT 1 1 1 1 1 1 1 1
WIDTH 1081
HEIGHT 1
VIEWPOINT 0 0 0 1 0 0 0
POINTS 1081
DATA ascii
2.0539999 -0.40599999 -0.0080000004 66 0 0 0 0.0069200001
2.0599999 -0.40000001 -0.0089999996 69 0 0 0 0.0069300001
2.0669999 -0.39399999 -0.0089999996 69 0 0 0 0.0069400002
2.0780001 -0.38999999 -0.0089999996 67 0 0 0 0.0069499998
2.0799999 -0.38299999 -0.0089999996 63 0 0 0 0.0069599999
2.099 -0.38 -0.0099999998 63 0 0 0 0.00697
2.109 -0.375 -0.0099999998 58 0 0 0 0.0069800001
2.1199999 -0.37 -0.0099999998 56 0 0 0 0.0069900001
2.128 -0.36399999 -0.0099999998 55 0 0 0 0.0070000002
2.1400001 -0.359 -0.0099999998 51 0 0 0 0.0070099998
2.1489999 -0.35299999 -0.011 51 0 0 0 0.0070199999
2.1619999 -0.34799999 -0.011 53 0 0 0 0.00703
2.168 -0.34200001 -0.011 48 0 0 0 0.0070400001
2.1789999 -0.33700001 -0.011 48 0 0 0 0.0070500001
2.1849999 -0.331 -0.011 51 0 0 0 0.0070600002
2.1989999 -0.32600001 -0.011 45 0 0 0 0.0070699998
2.2090001 -0.31999999 -0.011 49 0 0 0 0.0070799999
2.2219999 -0.31400001 -0.012 43 0 0 0 0.00709
2.233 -0.30899999 -0.012 40 0 0 0 0.0071
2.244 -0.303 -0.012 39 0 0 0 0.0071100001
2.253 -0.29699999 -0.012 41 0 0 0 0.0071200002
2.2650001 -0.29100001 -0.012 41 0 0 0 0.0071299998
2.279 -0.285 -0.012 38 0 0 0 0.0071399999
2.2909999 -0.27900001 -0.012 39 0 0 0 0.00715
2.3010001 -0.273 -0.012 37 0 0 0 0.00716
2.302 -0.26499999 -0.012 32 0 0 0 0.0071700001
2.335 -0.26199999 -0.012 9 0 0 0 0.0071800002
2.2509999 -0.245 -0.011 1 0 0 0 0.0071899998
1.564 -0.16500001 -0.0080000004 0 0 0 0 0.0071999999
1.552 -0.15899999 -0.0070000002 0 0 0 0 0.00721
1.536 -0.152 -0.0070000002 0 0 0 0 0.00722
1.541 -0.147 -0.0070000002 0 0 0 0 0.0072300001
1.538 -0.142 -0.0070000002 0 0 0 0 0.0072400002
1.533 -0.13699999 -0.0070000002 0 0 0 0 0.0072499998
1.539 -0.132 -0.0070000002 0 0 0 0 0.0072599999
1.512 -0.125 -0.0060000001 0 0 0 0 0.0072699999
1.551 -0.123 -0.0060000001 0 0 0 0 0.00728
1.524 -0.116 -0.0060000001 0 0 0 0 0.0072900001
1.522 -0.111 -0.0060000001 0 0 0 0 0.0073000002
1.541 -0.107 -0.0060000001 0 0 0 0 0.0073099998
1.548 -0.103 -0.0060000001 0 0 0 0 0.0073199999
1.546 -0.097999997 -0.0049999999 0 0 0 0 0.0073299999
1.541 -0.092 -0.0049999999 0 0 0 0 0.00734
1.551 -0.088 -0.0049999999 0 0 0 0 0.0073500001
1.528 -0.082000002 -0.0049999999 0 0 0 0 0.0073600002
1.516 -0.075999998 -0.0040000002 0 0 0 0 0.0073699998
1.527 -0.071999997 -0.0040000002 0 0 0 0 0.0073799998
1.527 -0.067000002 -0.0040000002 0 0 0 0 0.0073899999
1.522 -0.061999999 -0.0040000002 0 0 0 0 0.0074
1.522 -0.057 -0.003 0 0 0 0 0.0074100001
1.513 -0.050999999 -0.003 0 0 0 0 0.0074200002
1.523 -0.046999998 -0.003 0 0 0 0 0.0074300002
1.4960001 -0.041000001 -0.003 0 0 0 0 0.0074399998
1.513 -0.037 -0.0020000001 0 0 0 0 0.0074499999
1.51 -0.032000002 -0.0020000001 0 0 0 0 0.00746
1.523 -0.027000001 -0.0020000001 0 0 0 0 0.0074700001
1.4910001 -0.022 -0.001 0 0 0 0 0.0074800001
1.505 -0.017000001 -0.001 0 0 0 0 0.0074900002
1.502 -0.012 -0.001 0 0 0 0 0.0074999998
1.502 -0.0070000002 0 0 0 0 0 0.0075099999
1.508 -0.0020000001 0 0 0 0 0 0.00752
1.5039999 0.001 0 0 0 0 0 0.0075300001
1.489 0.0060000001 0 0 0 0 0 0.0075400001
1.513 0.011 0 0 0 0 0 0.0075500002
1.534 0.016000001 0.001 0 0 0 0 0.0075599998
1.549 0.021 0.001 0 0 0 0 0.0075699999
1.5470001 0.026000001 0.001 0 0 0 0 0.00758
1.584 0.032000002 0.0020000001 0 0 0 0 0.0075900001
1.5829999 0.037 0.0020000001 0 0 0 0 0.0076000001
1.5880001 0.041999999 0.003 0 0 0 0 0.0076100002
1.603 0.048 0.003 0 0 0 0 0.0076199998
1.617 0.054000001 0.0040000002 0 0 0 0 0.0076299999
1.622 0.059 0.0040000002 0 0 0 0 0.00764
1.626 0.064000003 0.0049999999 0 0 0 0 0.00765
1.62 0.068999998 0.0049999999 0 0 0 0 0.0076600001
1.622 0.075000003 0.0060000001 0 0 0 0 0.0076700002
1.642 0.081 0.0070000002 0 0 0 0 0.0076799998
1.665 0.088 0.0070000002 0 0 0 0 0.0076899999
1.67 0.093000002 0.0080000004 0 0 0 0 0.0077
1.645 0.097000003 0.0080000004 0 0 0 0 0.00771
1.664 0.104 0.0089999996 0 0 0 0 0.0077200001
1.681 0.11 0.0099999998 0 0 0 0 0.0077300002
1.668 0.115 0.0099999998 0 0 0 0 0.0077399998
1.719 0.124 0.011 0 0 0 0 0.0077499999
1.738 0.131 0.012 0 0 0 0 0.0077599999
1.763 0.138 0.013 0 0 0 0 0.00777
1.7589999 0.14399999 0.013 0 0 0 0 0.0077800001
1.791 0.152 0.014 0 0 0 0 0.0077900002
1.802 0.15899999 0.015 0 0 0 0 0.0077999998
1.808 0.16500001 0.016000001 0 0 0 0 0.0078099999
1.804 0.171 0.017000001 0 0 0 0 0.0078199999
1.8099999 0.177 0.017000001 0 0 0 0 0.0078299996
1.855 0.18700001 0.018999999 0 0 0 0 0.0078400001
1.921 0.2 0.02 0 0 0 0 0.0078499997
2.0009999 0.215 0.022 0 0 0 0 0.0078600002
2.0940001 0.23199999 0.024 0 0 0 0 0.0078699999
2.1159999 0.241 0.025 0 0 0 0 0.0078800004
2.145 0.25099999 0.026000001 0 0 0 0 0.00789
2.1800001 0.26300001 0.028000001 0 0 0 0 0.0078999996
2.2130001 0.27399999 0.028999999 0 0 0 0 0.0079100002
2.224 0.28200001 0.029999999 0 0 0 0 0.0079199998
2.1949999 0.28600001 0.030999999 0 0 0 0 0.0079300003
2.234 0.29800001 0.033 0 0 0 0 0.0079399999
2.26 0.30899999 0.034000002 0 0 0 0 0.0079500005
2.296 0.32100001 0.035999998 0 0 0 0 0.0079600001
2.326 0.333 0.037 0 0 0 0 0.0079699997
2.325 0.34 0.039000001 0 0 0 0 0.0079800002
2.3280001 0.34799999 0.039999999 0 0 0 0 0.0079899998
2.3050001 0.352 0.041000001 0 0 0 0 0.0080000004
2.3039999 0.36000001 0.041999999 0 0 0 0 0.00801
2.3299999 0.37099999 0.044 0 0 0 0 0.0080199996
2.3329999 0.37900001 0.045000002 0 0 0 0 0.0080300001
2.3329999 0.38699999 0.046 0 0 0 0 0.0080399998
2.309 0.38999999 0.046999998 0 0 0 0 0.0080500003
2.325 0.40099999 0.048999999 0 0 0 0 0.0080599999
2.7 0.47400001 0.057999998 2 0 0 0 0.0080700004
2.901 0.51899999 0.064000003 37 0 0 0 0.0080800001
2.9489999 0.537 0.067000002 150 0 0 0 0.0080899997
2.9890001 0.55400002 0.07 150 0 0 0 0.0081000002
2.9890001 0.56400001 0.071000002 150 0 0 0 0.0081099998
2.9820001 0.57200003 0.072999999 150 0 0 0 0.0081200004
2.974 0.57999998 0.075000003 150 0 0 0 0.00813
2.97 0.58899999 0.075999998 150 0 0 0 0.0081399996
2.967 0.59799999 0.078000002 150 0 0 0 0.0081500001
2.9649999 0.60699999 0.079999998 150 0 0 0 0.0081599997
2.9579999 0.616 0.082000002 150 0 0 0 0.0081700003
2.9530001 0.62400001 0.082999997 150 0 0 0 0.0081799999
2.951 0.63300002 0.085000001 150 0 0 0 0.0081900004
2.9449999 0.64200002 0.086999997 150 0 0 0 0.0082
2.9389999 0.64999998 0.089000002 150 0 0 0 0.0082099997
2.9330001 0.65799999 0.090999998 150 0 0 0 0.0082200002
2.931 0.667 0.093000002 150 0 0 0 0.0082299998
2.928 0.676 0.093999997 150 0 0 0 0.0082400003
2.9189999 0.68400002 0.096000001 150 0 0 0 0.00825
2.914 0.69199997 0.097999997 150 0 0 0 0.0082599996
2.911 0.70099998 0.1 150 0 0 0 0.0082700001
2.911 0.70999998 0.102 151 0 0 0 0.0082799997
2.9070001 0.71899998 0.104 151 0 0 0 0.0082900003
2.9030001 0.727 0.106 150 0 0 0 0.0082999999
2.9230001 0.74199998 0.109 150 0 0 0 0.0083100004
2.9360001 0.755 0.112 150 0 0 0 0.00832
2.964 0.77200001 0.115 150 0 0 0 0.0083299996
2.974 0.78399998 0.118 56 0 0 0 0.0083400002
4.2379999 1.131 0.17200001 0 0 0 0 0.0083499998
0 0 0 0 0 0 0 0.0083600003
4.3189998 1.181 0.182 0 0 0 0 0.0083699999
4.3189998 1.1950001 0.185 0 0 0 0 0.0083799995
4.2989998 1.204 0.18799999 0 0 0 0 0.0083900001
4.2820001 1.2130001 0.191 89 0 0 0 0.0083999997
4.2750001 1.225 0.19400001 150 0 0 0 0.0084100002
4.27 1.237 0.197 4 0 0 0 0.0084199999
0 0 0 0 0 0 0 0.0084300004
0 0 0 0 0 0 0 0.00844
4.2719998 1.28 0.20900001 0 0 0 0 0.0084499996
4.3099999 1.3049999 0.214 1 0 0 0 0.0084600002
4.3070002 1.318 0.21799999 0 0 0 0 0.0084699998
4.2940001 1.3279999 0.221 0 0 0 0 0.0084800003
4.2940001 1.342 0.22499999 0 0 0 0 0.0084899999
4.283 1.353 0.228 20 0 0 0 0.0085000005
4.2670002 1.362 0.23199999 150 0 0 0 0.0085100001
4.27 1.377 0.236 54 0 0 0 0.0085199997
4.3010001 1.4 0.241 0 0 0 0 0.0085300002
4.2909999 1.411 0.245 1 0 0 0 0.0085399998
4.4380002 1.474 0.25799999 0 0 0 0 0.0085500004
0 0 0 0 0 0 0 0.00856
4.303 1.457 0.25799999 0 0 0 0 0.0085699996
4.302 1.471 0.26300001 0 0 0 0 0.0085800001
4.2740002 1.475 0.26499999 0 0 0 0 0.0085899998
4.2789998 1.4910001 0.27000001 0 0 0 0 0.0086000003
4.25 1.495 0.27200001 62 0 0 0 0.0086099999
4.2410002 1.505 0.27599999 150 0 0 0 0.0086200004
4.2529998 1.523 0.28200001 16 0 0 0 0.0086300001
0 0 0 0 0 0 0 0.0086399997
4.2620001 1.554 0.29100001 0 0 0 0 0.0086500002
4.27 1.571 0.296 0 0 0 0 0.0086599998
4.223 1.567 0.29800001 0 0 0 0 0.0086700004
4.257 1.594 0.30500001 0 0 0 0 0.00868
4.2470002 1.604 0.30899999 0 0 0 0 0.0086899996
4.2449999 1.617 0.31400001 1 0 0 0 0.0087000001
4.2509999 1.633 0.31900001 0 0 0 0 0.0087099997
4.2259998 1.637 0.322 11 0 0 0 0.0087200003
4.197 1.6390001 0.324 124 0 0 0 0.0087299999
4.1989999 1.653 0.329 80 0 0 0 0.0087400004
4.211 1.6720001 0.33500001 0 0 0 0 0.00875
0 0 0 0 0 0 0 0.0087599996
4.2750001 1.724 0.35100001 0 0 0 0 0.0087700002
4.2080002 1.711 0.34999999 0 0 0 0 0.0087799998
4.217 1.728 0.35600001 0 0 0 0 0.0087900003
4.2020001 1.735 0.36000001 0 0 0 0 0.0088
4.2080002 1.751 0.366 0 0 0 0 0.0088099996
4.178 1.752 0.368 1 0 0 0 0.0088200001
4.1929998 1.771 0.375 1 0 0 0 0.0088299997
4.1620002 1.771 0.377 26 0 0 0 0.0088400003
4.1360002 1.773 0.38 150 0 0 0 0.0088499999
4.145 1.79 0.38600001 85 0 0 0 0.0088600004
4.1589999 1.809 0.39300001 0 0 0 0 0.00887
4.1100001 1.801 0.39399999 0 0 0 0 0.0088799996
4.118 1.817 0.40000001 3 0 0 0 0.0088900002
4.112 1.827 0.405 16 0 0 0 0.0088999998
4.1030002 1.836 0.41 44 0 0 0 0.0089100003
4.092 1.844 0.414 67 0 0 0 0.0089199999
4.073 1.848 0.41800001 94 0 0 0 0.0089299995
4.066 1.857 0.42300001 116 0 0 0 0.0089400001
4.059 1.867 0.428 134 0 0 0 0.0089499997
4.052 1.876 0.433 150 0 0 0 0.0089600002
4.0450001 1.885 0.43799999 150 0 0 0 0.0089699998
4.0430002 1.896 0.44400001 150 0 0 0 0.0089800004
4.0349998 1.905 0.449 150 0 0 0 0.00899
4.0300002 1.915 0.454 140 0 0 0 0.0089999996
4.026 1.925 0.45899999 116 0 0 0 0.0090100002
4.0240002 1.936 0.465 95 0 0 0 0.0090199998
3.608 1.747 0.42199999 150 0 0 0 0.0090300003
3.3529999 1.6339999 0.398 66 0 0 0 0.0090399999
3.3399999 1.637 0.40099999 66 0 0 0 0.0090500005
3.332 1.643 0.405 68 0 0 0 0.0090600001
3.3199999 1.647 0.40900001 66 0 0 0 0.0090699997
3.319 1.656 0.414 63 0 0 0 0.0090800002
3.378 1.6950001 0.426 57 0 0 0 0.0090899998
3.0929999 1.561 0.39500001 150 0 0 0 0.0091000004
2.7309999 1.386 0.35299999 151 0 0 0 0.00911
2.652 1.354 0.347 150 0 0 0 0.0091199996
2.6530001 1.362 0.352 150 0 0 0 0.0091300001
2.654 1.37 0.35600001 150 0 0 0 0.0091399997
2.6470001 1.374 0.359 150 0 0 0 0.0091500003
2.6400001 1.377 0.36300001 150 0 0 0 0.0091599999
2.6340001 1.381 0.366 150 0 0 0 0.0091700004
2.6429999 1.3940001 0.37200001 150 0 0 0 0.0091800001
2.99 1.585 0.426 62 0 0 0 0.0091899997
3.1010001 1.653 0.44600001 54 0 0 0 0.0092000002
2.641 1.414 0.384 105 0 0 0 0.0092099998
2.572 1.3839999 0.37900001 150 0 0 0 0.0092200004
2.5680001 1.3890001 0.38299999 150 0 0 0 0.00923
2.5650001 1.3940001 0.38600001 150 0 0 0 0.0092399996
2.5610001 1.399 0.38999999 150 0 0 0 0.0092500001
2.5669999 1.409 0.396 85 0 0 0 0.0092599997
2.575 1.42 0.40099999 24 0 0 0 0.0092700003
3.2079999 1.777 0.505 1 0 0 0 0.0092799999
3.279 1.825 0.52200001 0 0 0 0 0.0092900004
3.3239999 1.858 0.53500003 0 0 0 0 0.0093
3.3110001 1.859 0.53899997 1 0 0 0 0.0093099996
3.3080001 1.8660001 0.54400003 1 0 0 0 0.0093200002
3.3180001 1.88 0.55199999 1 0 0 0 0.0093299998
3.27 1.86 0.55000001 1 0 0 0 0.0093400003
3.2490001 1.8559999 0.55199999 1 0 0 0 0.0093499999
3.2709999 1.877 0.56199998 1 0 0 0 0.0093599996
3.299 1.9 0.57300001 1 0 0 0 0.0093700001
3.273 1.893 0.574 0 0 0 0 0.0093799997
3.2809999 1.905 0.58099997 0 0 0 0 0.0093900003
3.313 1.931 0.59299999 1 0 0 0 0.0093999999
3.335 1.951 0.60299999 1 0 0 0 0.0094100004
3.3410001 1.962 0.61000001 1 0 0 0 0.00942
3.339 1.9680001 0.616 0 0 0 0 0.0094299996
3.3299999 1.97 0.62 0 0 0 0 0.0094400002
3.336 1.9809999 0.62800002 1 0 0 0 0.0094499998
0 0 0 0 0 0 0 0.0094600003
0 0 0 0 0 0 0 0.0094699999
0 0 0 0 0 0 0 0.0094799995
0 0 0 0 0 0 0 0.0094900001
0 0 0 0 0 0 0 0.0094999997
0 0 0 0 0 0 0 0.0095100002
0 0 0 0 0 0 0 0.0095199998
0 0 0 0 0 0 0 0.0095300004
0 0 0 0 0 0 0 0.00954
2.513 1.54 0.51899999 0 0 0 0 0.0095499996
0 0 0 0 0 0 0 0.0095600002
0 0 0 0 0 0 0 0.0095699998
2.5079999 1.55 0.53200001 0 0 0 0 0.0095800003
2.4560001 1.521 0.52600002 7 0 0 0 0.0095899999
2.4419999 1.516 0.52700001 28 0 0 0 0.0096000005
2.438 1.518 0.53100002 62 0 0 0 0.0096100001
2.4389999 1.522 0.53600001 129 0 0 0 0.0096199997
2.4349999 1.523 0.53899997 141 0 0 0 0.0096300002
2.428 1.522 0.542 112 0 0 0 0.0096399998
2.421 1.521 0.54500002 60 0 0 0 0.0096500004
2.4030001 1.512 0.54500002 51 0 0 0 0.00966
2.388 1.506 0.546 46 0 0 0 0.0096699996
2.3800001 1.5039999 0.54900002 41 0 0 0 0.0096800001
2.372 1.502 0.551 37 0 0 0 0.0096899997
2.375 1.506 0.55599999 36 0 0 0 0.0097000003
2.3740001 1.508 0.56 34 0 0 0 0.0097099999
2.3789999 1.5140001 0.56599998 38 0 0 0 0.0097200004
2.378 1.516 0.56999999 40 0 0 0 0.00973
2.378 1.517 0.574 42 0 0 0 0.0097399997
2.381 1.522 0.579 46 0 0 0 0.0097500002
2.382 1.524 0.583 49 0 0 0 0.0097599998
2.382 1.526 0.588 54 0 0 0 0.0097700004
2.385 1.53 0.59299999 58 0 0 0 0.00978
2.391 1.535 0.59799999 63 0 0 0 0.0097899996
2.391 1.5369999 0.602 64 0 0 0 0.0098000001
2.3940001 1.54 0.60699999 66 0 0 0 0.0098099997
2.3929999 1.541 0.611 68 0 0 0 0.0098200003
2.395 1.544 0.616 65 0 0 0 0.0098299999
2.401 1.548 0.62099999 68 0 0 0 0.0098400004
2.4000001 1.548 0.625 67 0 0 0 0.00985
2.3970001 1.5470001 0.62800002 66 0 0 0 0.0098599996
2.4000001 1.55 0.63300002 65 0 0 0 0.0098700002
2.3989999 1.55 0.63599998 67 0 0 0 0.0098799998
2.3959999 1.548 0.639 63 0 0 0 0.0098900003
2.3989999 1.551 0.64399999 64 0 0 0 0.0098999999
2.3970001 1.549 0.64700001 65 0 0 0 0.0099099996
2.4000001 1.552 0.65100002 65 0 0 0 0.0099200001
2.3989999 1.551 0.65499997 65 0 0 0 0.0099299997
2.3989999 1.551 0.65799999 66 0 0 0 0.0099400003
2.4000001 1.551 0.662 66 0 0 0 0.0099499999
2.3940001 1.5470001 0.66399997 65 0 0 0 0.0099600004
2.3970001 1.549 0.66900003 66 0 0 0 0.00997
2.3959999 1.5470001 0.67199999 66 0 0 0 0.0099799996
2.395 1.546 0.67500001 66 0 0 0 0.0099900002
2.398 1.5470001 0.67900002 68 0 0 0 0.0099999998
2.395 1.544 0.68099999 67 0 0 0 0.01001
2.3900001 1.539 0.68300003 68 0 0 0 0.01002
2.385 1.535 0.685 68 0 0 0 0.01003
2.3889999 1.536 0.68900001 71 0 0 0 0.01004
2.3900001 1.535 0.69300002 74 0 0 0 0.01005
2.3900001 1.534 0.69499999 74 0 0 0 0.01006
2.3870001 1.53 0.69800001 72 0 0 0 0.01007
2.388 1.529 0.70099998 69 0 0 0 0.01008
2.3889999 1.527 0.704 65 0 0 0 0.01009
2.3870001 1.524 0.70599997 58 0 0 0 0.0101
2.385 1.521 0.708 51 0 0 0 0.01011
2.3870001 1.5190001 0.71100003 49 0 0 0 0.01012
2.3859999 1.517 0.71399999 45 0 0 0 0.01013
2.382 1.511 0.71499997 45 0 0 0 0.01014
2.3800001 1.507 0.71700001 46 0 0 0 0.01015
2.3800001 1.505 0.71899998 47 0 0 0 0.01016
2.378 1.501 0.72100002 47 0 0 0 0.01017
2.378 1.497 0.72299999 48 0 0 0 0.01018
2.3789999 1.494 0.72500002 37 0 0 0 0.01019
2.3800001 1.492 0.72799999 27 0 0 0 0.0102
2.3889999 1.494 0.73299998 8 0 0 0 0.01021
2.474 1.544 0.76099998 0 0 0 0 0.01022
2.5810001 1.607 0.796 0 0 0 0 0.01023
2.596 1.612 0.80299997 0 0 0 0 0.01024
2.579 1.597 0.79900002 0 0 0 0 0.01025
2.5669999 1.586 0.79699999 0 0 0 0 0.01026
2.5769999 1.5880001 0.80199999 0 0 0 0 0.01027
2.53 1.554 0.78899997 0 0 0 0 0.01028
2.5109999 1.539 0.78500003 0 0 0 0 0.01029
2.5350001 1.549 0.79400003 0 0 0 0 0.0103
2.51 1.529 0.78799999 0 0 0 0 0.01031
2.5179999 1.529 0.792 0 0 0 0 0.01032
2.5150001 1.522 0.792 0 0 0 0 0.01033
2.4879999 1.501 0.78500003 0 0 0 0 0.01034
2.5209999 1.516 0.796 0 0 0 0 0.01035
2.5020001 1.499 0.79100001 0 0 0 0 0.01036
2.527 1.5089999 0.80000001 0 0 0 0 0.01037
2.563 1.525 0.81199998 0 0 0 0 0.01038
2.5380001 1.505 0.80500001 0 0 0 0 0.01039
2.4949999 1.474 0.79299998 0 0 0 0 0.0104
2.562 1.508 0.81400001 0 0 0 0 0.01041
2.5369999 1.488 0.80699998 0 0 0 0 0.01042
2.5090001 1.465 0.79900002 0 0 0 0 0.01043
2.562 1.4910001 0.81599998 0 0 0 0 0.01044
2.536 1.47 0.80800003 0 0 0 0 0.01045
2.579 1.489 0.82300001 0 0 0 0 0.01046
2.562 1.473 0.81800002 0 0 0 0 0.01047
2.5550001 1.462 0.815 0 0 0 0 0.01048
2.5480001 1.452 0.81300002 0 0 0 0 0.01049
2.586 1.4680001 0.82599998 0 0 0 0 0.0105
2.5550001 1.444 0.81599998 0 0 0 0 0.01051
2.5610001 1.441 0.81800002 0 0 0 0 0.01052
2.566 1.436 0.81900001 0 0 0 0 0.01053
2.612 1.456 0.833 0 0 0 0 0.01054
2.5639999 1.4220001 0.81800002 18 0 0 0 0.01055
2.562 1.414 0.81699997 69 0 0 0 0.01056
2.5550001 1.404 0.81400001 150 0 0 0 0.01057
2.559 1.399 0.815 150 0 0 0 0.01058
2.5580001 1.392 0.81400001 150 0 0 0 0.01059
2.5710001 1.392 0.81699997 125 0 0 0 0.0106
2.5780001 1.388 0.81900001 28 0 0 0 0.01061
2.5769999 1.381 0.81800002 1 0 0 0 0.01062
2.6300001 1.402 0.83399999 22 0 0 0 0.01063
2.6270001 1.393 0.83099997 150 0 0 0 0.01064
2.6289999 1.387 0.83099997 150 0 0 0 0.01065
2.6289999 1.38 0.82999998 150 0 0 0 0.01066
2.6359999 1.375 0.83099997 150 0 0 0 0.01067
2.6340001 1.367 0.829 150 0 0 0 0.01068
2.6389999 1.362 0.829 150 0 0 0 0.01069
2.645 1.357 0.82999998 150 0 0 0 0.0107
2.6500001 1.352 0.82999998 45 0 0 0 0.01071
0 0 0 0 0 0 0 0.01072
3.947 1.9910001 1.232 0 0 0 0 0.01073
3.9449999 1.979 1.229 0 0 0 0 0.01074
3.9430001 1.966 1.226 0 0 0 0 0.01075
0.054000001 0.026000001 0.016000001 0 0 0 0 0.01076
0.048 0.023 0.014 0 0 0 0 0.01077
0.050999999 0.025 0.015 0 0 0 0 0.01078
3.9649999 1.9299999 1.221 0 0 0 0 0.01079
3.973 1.9220001 1.221 1 0 0 0 0.0108
3.9679999 1.9069999 1.216 0 0 0 0 0.01081
3.9820001 1.902 1.217 0 0 0 0 0.01082
3.977 1.888 1.212 0 0 0 0 0.01083
3.98 1.877 1.21 0 0 0 0 0.01084
4.0029998 1.876 1.2130001 0 0 0 0 0.01085
3.99 1.857 1.206 0 0 0 0 0.01086
0.059 0.027000001 0.017000001 0 0 0 0 0.01087
0 0 0 0 0 0 0 0.01088
3.9960001 1.823 1.197 0 0 0 0 0.01089
4.0190001 1.821 1.2 0 0 0 0 0.0109
4.0120001 1.806 1.194 0 0 0 0 0.01091
4.0120001 1.794 1.1900001 0 0 0 0 0.01092
3.9979999 1.775 1.181 0 0 0 0 0.01093
4.02 1.772 1.184 0 0 0 0 0.01094
3.654 1.6 1.072 0 0 0 0 0.01095
3.358 1.46 0.98100001 1 0 0 0 0.01096
3.3039999 1.426 0.96200001 4 0 0 0 0.01097
3.3110001 1.419 0.95999998 6 0 0 0 0.01098
3.3329999 1.418 0.963 9 0 0 0 0.01099
3.28 1.385 0.94400001 5 0 0 0 0.011
3.29 1.3789999 0.94199997 0 0 0 0 0.01101
4.0430002 1.682 1.154 0 0 0 0 0.01102
3.96 1.635 1.125 0 0 0 0 0.01103
4.0100002 1.6440001 1.135 0 0 0 0 0.01104
4.0510001 1.648 1.141 0 0 0 0 0.01105
0.046 0.017999999 0.013 0 0 0 0 0.01106
4.006 1.605 1.118 0 0 0 0 0.01107
4.0689998 1.617 1.13 0 0 0 0 0.01108
4.0510001 1.597 1.12 0 0 0 0 0.01109
0 0 0 0 0 0 0 0.0111
0 0 0 0 0 0 0 0.01111
4.085 1.573 1.113 0 0 0 0 0.01112
4.1069999 1.569 1.114 0 0 0 0 0.01113
4.1059999 1.5549999 1.108 0 0 0 0 0.01114
4.0910001 1.5369999 1.098 0 0 0 0 0.01115
4.1040001 1.53 1.096 0 0 0 0 0.01116
4.1230001 1.524 1.095 0 0 0 0 0.01117
4.098 1.502 1.082 0 0 0 0 0.01118
4.1020002 1.4910001 1.077 0 0 0 0 0.01119
4.1100001 1.4809999 1.074 0 0 0 0 0.0112
4.132 1.476 1.073 0 0 0 0 0.01121
0 0 0 0 0 0 0 0.01122
0 0 0 0 0 0 0 0.01123
4.1279998 1.437 1.054 0 0 0 0 0.01124
4.152 1.433 1.054 0 0 0 0 0.01125
0 0 0 0 0 0 0 0.01126
0 0 0 0 0 0 0 0.01127
4.145 1.393 1.033 0 0 0 0 0.01128
4.1589999 1.3839999 1.03 1 0 0 0 0.01129
4.1659999 1.374 1.025 0 0 0 0 0.0113
4.1799998 1.3660001 1.022 0 0 0 0 0.01131
4.1630001 1.348 1.011 0 0 0 0 0.01132
4.171 1.3380001 1.006 0 0 0 0 0.01133
4.1620002 1.322 0.99699998 0 0 0 0 0.01134
4.1859999 1.318 0.99599999 0 0 0 0 0.01135
4.184 1.3049999 0.98900002 0 0 0 0 0.01136
4.1789999 1.29 0.98100001 0 0 0 0 0.01137
0 0 0 0 0 0 0 0.01138
0 0 0 0 0 0 0 0.01139
4.197 1.258 0.96399999 0 0 0 0 0.0114
4.1859999 1.243 0.954 0 0 0 0 0.01141
0 0 0 0 0 0 0 0.01142
0 0 0 0 0 0 0 0.01143
4.2129998 1.2130001 0.93900001 0 0 0 0 0.01144
4.211 1.2 0.93099999 0 0 0 0 0.01145
4.2030001 1.186 0.92199999 0 0 0 0 0.01146
4.2199998 1.178 0.91900003 0 0 0 0 0.01147
4.2270002 1.168 0.91299999 0 0 0 0 0.01148
4.23 1.156 0.90600002 0 0 0 0 0.01149
4.2069998 1.138 0.89399999 0 0 0 0 0.0115
3.128 0.83700001 0.65899998 44 0 0 0 0.01151
3.007 0.796 0.62800002 150 0 0 0 0.01152
2.9400001 0.76899999 0.60900003 150 0 0 0 0.01153
2.9230001 0.75700003 0.60000002 150 0 0 0 0.01154
2.904 0.74299997 0.59100002 120 0 0 0 0.01155
2.8929999 0.73199999 0.583 150 0 0 0 0.01156
2.892 0.72399998 0.57800001 150 0 0 0 0.01157
2.901 0.71799999 0.574 150 0 0 0 0.01158
2.9100001 0.71100003 0.57099998 150 0 0 0 0.01159
2.9119999 0.704 0.56599998 150 0 0 0 0.0116
2.9130001 0.69599998 0.56099999 150 0 0 0 0.01161
2.9159999 0.68800002 0.55599999 150 0 0 0 0.01162
2.925 0.68199998 0.55199999 150 0 0 0 0.01163
2.925 0.67400002 0.54699999 150 0 0 0 0.01164
2.9300001 0.667 0.542 150 0 0 0 0.01165
2.9330001 0.65899998 0.537 150 0 0 0 0.01166
2.9360001 0.65200001 0.53200001 150 0 0 0 0.01167
2.9389999 0.64399999 0.52700001 150 0 0 0 0.01168
2.944 0.63700002 0.523 150 0 0 0 0.01169
2.947 0.62900001 0.51800001 150 0 0 0 0.0117
2.951 0.62199998 0.51300001 150 0 0 0 0.01171
2.954 0.61400002 0.50800002 150 0 0 0 0.01172
2.961 0.60799998 0.50300002 150 0 0 0 0.01173
2.9630001 0.60000002 0.498 150 0 0 0 0.01174
2.9660001 0.59200001 0.493 150 0 0 0 0.01175
2.9690001 0.58499998 0.48699999 150 0 0 0 0.01176
2.9749999 0.57800001 0.48300001 150 0 0 0 0.01177
2.9790001 0.56999999 0.477 150 0 0 0 0.01178
2.98 0.56300002 0.472 150 0 0 0 0.01179
2.9860001 0.55599999 0.46700001 150 0 0 0 0.0118
2.9879999 0.54799998 0.461 150 0 0 0 0.01181
2.9909999 0.54000002 0.456 150 0 0 0 0.01182
2.994 0.53299999 0.45100001 150 0 0 0 0.01183
2.9960001 0.52499998 0.44499999 150 0 0 0 0.01184
3.007 0.51899999 0.44100001 150 0 0 0 0.01185
3.007 0.51099998 0.435 150 0 0 0 0.01186
3.0139999 0.50400001 0.43000001 150 0 0 0 0.01187
3.016 0.49599999 0.42399999 150 0 0 0 0.01188
3.02 0.48899999 0.419 150 0 0 0 0.01189
3.0250001 0.48199999 0.41299999 150 0 0 0 0.0119
3.03 0.47499999 0.40799999 150 0 0 0 0.01191
3.033 0.46700001 0.40200001 150 0 0 0 0.01192
3.0350001 0.45899999 0.39700001 150 0 0 0 0.01193
3.0369999 0.45199999 0.391 150 0 0 0 0.01194
3.0409999 0.44400001 0.38499999 150 0 0 0 0.01195
3.0510001 0.43799999 0.38 150 0 0 0 0.01196
3.0480001 0.42899999 0.37400001 150 0 0 0 0.01197
3.0569999 0.42300001 0.36899999 150 0 0 0 0.01198
3.0610001 0.41499999 0.36300001 150 0 0 0 0.01199
3.066 0.40799999 0.35699999 150 0 0 0 0.012
3.0710001 0.40099999 0.35100001 150 0 0 0 0.01201
3.073 0.39300001 0.345 150 0 0 0 0.01202
3.0739999 0.38499999 0.33899999 150 0 0 0 0.01203
3.076 0.37799999 0.333 150 0 0 0 0.01204
3.085 0.37099999 0.32800001 150 0 0 0 0.01205
3.089 0.36300001 0.322 150 0 0 0 0.01206
3.0899999 0.35600001 0.315 150 0 0 0 0.01207
3.095 0.34799999 0.30899999 150 0 0 0 0.01208
3.102 0.34099999 0.30399999 150 0 0 0 0.01209
3.1029999 0.33399999 0.29699999 150 0 0 0 0.0121
3.1059999 0.32600001 0.29100001 150 0 0 0 0.01211
3.1070001 0.31799999 0.285 150 0 0 0 0.01212
3.1159999 0.31099999 0.27900001 150 0 0 0 0.01213
3.1199999 0.30399999 0.273 150 0 0 0 0.01214
3.1210001 0.296 0.266 150 0 0 0 0.01215
3.125 0.28799999 0.25999999 150 0 0 0 0.01216
3.128 0.28099999 0.25400001 150 0 0 0 0.01217
3.1340001 0.27399999 0.248 150 0 0 0 0.01218
3.138 0.266 0.241 150 0 0 0 0.01219
3.1489999 0.259 0.236 150 0 0 0 0.0122
3.142 0.25099999 0.228 150 0 0 0 0.01221
3.145 0.243 0.222 150 0 0 0 0.01222
2.4690001 0.185 0.169 150 0 0 0 0.01223
2.1760001 0.15700001 0.14399999 24 0 0 0 0.01224
2.1559999 0.15099999 0.138 29 0 0 0 0.01225
2.142 0.145 0.133 24 0 0 0 0.01226
2.118 0.138 0.127 22 0 0 0 0.01227
2.102 0.132 0.121 20 0 0 0 0.01228
2.0840001 0.125 0.116 17 0 0 0 0.01229
2.063 0.119 0.11 9 0 0 0 0.0123
2.0039999 0.111 0.103 1 0 0 0 0.01231
1.864 0.097999997 0.090999998 0 0 0 0 0.01232
1.823 0.092 0.086000003 0 0 0 0 0.01233
1.827 0.088 0.082000002 0 0 0 0 0.01234
1.8430001 0.083999999 0.078000002 0 0 0 0 0.01235
1.831 0.079000004 0.074000001 0 0 0 0 0.01236
1.802 0.072999999 0.068999998 0 0 0 0 0.01237
1.778 0.068000004 0.064000003 0 0 0 0 0.01238
1.778 0.064000003 0.059999999 0 0 0 0 0.01239
1.779 0.059999999 0.056000002 0 0 0 0 0.0124
1.779 0.055 0.052000001 0 0 0 0 0.01241
1.791 0.050999999 0.048999999 0 0 0 0 0.01242
1.765 0.046999998 0.044 0 0 0 0 0.01243
1.757 0.041999999 0.039999999 0 0 0 0 0.01244
1.7460001 0.037999999 0.035999998 0 0 0 0 0.01245
1.71 0.033 0.030999999 0 0 0 0 0.01246
1.676 0.028000001 0.027000001 0 0 0 0 0.01247
1.655 0.024 0.023 0 0 0 0 0.01248
1.623 0.02 0.018999999 0 0 0 0 0.01249
1.5930001 0.016000001 0.015 0 0 0 0 0.0125
1.584 0.012 0.012 0 0 0 0 0.01251
1.5470001 0.0080000004 0.0080000004 0 0 0 0 0.01252
1.489 0.0040000002 0.0040000002 0 0 0 0 0.01253
1.488 0.001 0.001 0 0 0 0 0.01254
1.502 -0.0020000001 -0.0020000001 0 0 0 0 0.01255
1.4960001 -0.0049999999 -0.0049999999 1 0 0 0 0.01256
1.502 -0.0089999996 -0.0080000004 1 0 0 0 0.01257
1.497 -0.012 -0.012 1 0 0 0 0.01258
1.495 -0.016000001 -0.015 2 0 0 0 0.01259
1.4910001 -0.018999999 -0.017999999 2 0 0 0 0.0126
1.494 -0.023 -0.022 2 0 0 0 0.01261
1.492 -0.026000001 -0.025 2 0 0 0 0.01262
1.497 -0.029999999 -0.028999999 1 0 0 0 0.01263
1.497 -0.033 -0.032000002 1 0 0 0 0.01264
1.499 -0.037 -0.035999998 1 0 0 0 0.01265
1.49 -0.039999999 -0.039000001 1 0 0 0 0.01266
1.493 -0.043000001 -0.041999999 1 0 0 0 0.01267
1.492 -0.046999998 -0.046 0 0 0 0 0.01268
1.493 -0.050000001 -0.048999999 0 0 0 0 0.01269
1.484 -0.052999999 -0.052000001 0 0 0 0 0.0127
1.5039999 -0.057 -0.056000002 0 0 0 0 0.01271
1.495 -0.059999999 -0.059999999 0 0 0 0 0.01272
1.503 -0.064000003 -0.063000001 0 0 0 0 0.01273
1.493 -0.067000002 -0.066 0 0 0 0 0.01274
1.488 -0.07 -0.07 0 0 0 0 0.01275
1.488 -0.072999999 -0.072999999 0 0 0 0 0.01276
1.506 -0.078000002 -0.078000002 0 0 0 0 0.01277
1.487 -0.079999998 -0.079999998 0 0 0 0 0.01278
1.506 -0.085000001 -0.085000001 0 0 0 0 0.01279
1.549 -0.090999998 -0.090999998 0 0 0 0 0.0128
2.0150001 -0.122 -0.123 22 0 0 0 0.01281
2.165 -0.13600001 -0.13699999 72 0 0 0 0.01282
2.332 -0.152 -0.153 22 0 0 0 0.01283
2.3239999 -0.15700001 -0.15800001 16 0 0 0 0.01284
2.257 -0.15700001 -0.15899999 12 0 0 0 0.01285
2.1849999 -0.15700001 -0.15899999 14 0 0 0 0.01286
2.0669999 -0.153 -0.156 7 0 0 0 0.01287
2.0680001 -0.15800001 -0.161 1 0 0 0 0.01288
2.0450001 -0.161 -0.164 0 0 0 0 0.01289
2.02 -0.163 -0.167 0 0 0 0 0.0129
2.013 -0.167 -0.171 0 0 0 0 0.01291
1.999 -0.17 -0.175 0 0 0 0 0.01292
1.997 -0.17399999 -0.17900001 0 0 0 0 0.01293
2.0280001 -0.182 -0.18700001 1 0 0 0 0.01294
2.0350001 -0.18700001 -0.192 1 0 0 0 0.01295
2.0409999 -0.192 -0.198 0 0 0 0 0.01296
2.0639999 -0.198 -0.205 2 0 0 0 0.01297
2.043 -0.20100001 -0.208 3 0 0 0 0.01298
1.999 -0.20100001 -0.20900001 3 0 0 0 0.01299
2 -0.205 -0.214 8 0 0 0 0.013
2.0090001 -0.20999999 -0.22 10 0 0 0 0.01301
1.974 -0.211 -0.221 10 0 0 0 0.01302
2.096 -0.229 -0.23899999 2 0 0 0 0.01303
1.814 -0.20200001 -0.212 2 0 0 0 0.01304
1.7970001 -0.204 -0.214 7 0 0 0 0.01305
1.7970001 -0.208 -0.219 8 0 0 0 0.01306
1.819 -0.214 -0.226 15 0 0 0 0.01307
2.03 -0.243 -0.257 90 0 0 0 0.01308
2.1919999 -0.26800001 -0.28299999 47 0 0 0 0.01309
2.2820001 -0.28299999 -0.301 59 0 0 0 0.0131
2.2839999 -0.28799999 -0.30700001 55 0 0 0 0.01311
2.2679999 -0.29100001 -0.31 57 0 0 0 0.01312
2.2609999 -0.29499999 -0.315 65 0 0 0 0.01313
2.256 -0.29899999 -0.31999999 48 0 0 0 0.01314
2.2360001 -0.301 -0.32300001 19 0 0 0 0.01315
2.2149999 -0.303 -0.32499999 11 0 0 0 0.01316
2.1830001 -0.303 -0.32600001 10 0 0 0 0.01317
2.1500001 -0.303 -0.32699999 10 0 0 0 0.01318
2.125 -0.30399999 -0.32800001 10 0 0 0 0.01319
2.0899999 -0.30399999 -0.329 6 0 0 0 0.0132
1.983 -0.292 -0.317 0 0 0 0 0.01321
1.898 -0.28400001 -0.308 0 0 0 0 0.01322
1.868 -0.28299999 -0.308 0 0 0 0 0.01323
1.83 -0.28099999 -0.30700001 0 0 0 0 0.01324
1.7130001 -0.26699999 -0.292 0 0 0 0 0.01325
1.619 -0.255 -0.28 0 0 0 0 0.01326
1.597 -0.255 -0.28 0 0 0 0 0.01327
1.575 -0.255 -0.28 0 0 0 0 0.01328
1.574 -0.25799999 -0.28400001 0 0 0 0 0.01329
0 0 0 0 0 0 0 0.0133
1.545 -0.259 -0.287 0 0 0 0 0.01331
1.53 -0.25999999 -0.289 0 0 0 0 0.01332
1.5470001 -0.266 -0.296 0 0 0 0 0.01333
1.5420001 -0.26800001 -0.29899999 0 0 0 0 0.01334
1.5549999 -0.27399999 -0.30599999 0 0 0 0 0.01335
0 0 0 0 0 0 0 0.01336
1.528 -0.27500001 -0.30899999 0 0 0 0 0.01337
0 0 0 0 0 0 0 0.01338
0 0 0 0 0 0 0 0.01339
0 0 0 0 0 0 0 0.0134
0 0 0 0 0 0 0 0.01341
0 0 0 0 0 0 0 0.01342
0 0 0 0 0 0 0 0.01343
1.5369999 -0.29800001 -0.34 0 0 0 0 0.01344
1.573 -0.308 -0.352 1 0 0 0 0.01345
1.561 -0.30899999 -0.354 4 0 0 0 0.01346
1.5549999 -0.31099999 -0.35600001 11 0 0 0 0.01347
1.546 -0.31200001 -0.359 12 0 0 0 0.01348
1.548 -0.31600001 -0.36300001 12 0 0 0 0.01349
1.54 -0.317 -0.366 12 0 0 0 0.0135
1.533 -0.31799999 -0.368 12 0 0 0 0.01351
1.531 -0.32100001 -0.37200001 12 0 0 0 0.01352
1.53 -0.324 -0.37599999 14 0 0 0 0.01353
1.528 -0.32600001 -0.38 23 0 0 0 0.01354
1.522 -0.32800001 -0.38299999 56 0 0 0 0.01355
1.518 -0.33000001 -0.38600001 20 0 0 0 0.01356
1.516 -0.33199999 -0.38999999 21 0 0 0 0.01357
1.515 -0.33500001 -0.39399999 14 0 0 0 0.01358
1.5089999 -0.33700001 -0.39700001 13 0 0 0 0.01359
1.506 -0.33899999 -0.40000001 19 0 0 0 0.0136
1.503 -0.34099999 -0.40400001 57 0 0 0 0.01361
1.5 -0.34299999 -0.40700001 52 0 0 0 0.01362
1.495 -0.345 -0.41 17 0 0 0 0.01363
1.4910001 -0.34599999 -0.41299999 18 0 0 0 0.01364
1.487 -0.34799999 -0.417 59 0 0 0 0.01365
1.483 -0.34999999 -0.41999999 57 0 0 0 0.01366
1.4809999 -0.352 -0.42300001 59 0 0 0 0.01367
1.477 -0.354 -0.426 49 0 0 0 0.01368
1.476 -0.35600001 -0.43099999 40 0 0 0 0.01369
1.4680001 -0.35699999 -0.43200001 48 0 0 0 0.0137
1.47 -0.36000001 -0.43700001 39 0 0 0 0.01371
1.465 -0.361 -0.44 43 0 0 0 0.01372
1.462 -0.36300001 -0.44299999 35 0 0 0 0.01373
1.4579999 -0.36500001 -0.447 40 0 0 0 0.01374
1.4529999 -0.366 -0.449 32 0 0 0 0.01375
1.452 -0.368 -0.45300001 33 0 0 0 0.01376
1.449 -0.37 -0.456 30 0 0 0 0.01377
1.442 -0.37099999 -0.45899999 26 0 0 0 0.01378
1.4400001 -0.37200001 -0.46200001 22 0 0 0 0.01379
1.438 -0.37400001 -0.46599999 26 0 0 0 0.0138
1.434 -0.37599999 -0.46900001 25 0 0 0 0.01381
1.432 -0.37799999 -0.472 23 0 0 0 0.01382
1.4299999 -0.38 -0.47600001 27 0 0 0 0.01383
1.434 -0.38299999 -0.48199999 28 0 0 0 0.01384
1.427 -0.38299999 -0.48300001 24 0 0 0 0.01385
1.423 -0.38499999 -0.486 29 0 0 0 0.01386
1.415 -0.38499999 -0.48800001 25 0 0 0 0.01387
1.416 -0.38699999 -0.493 23 0 0 0 0.01388
1.414 -0.389 -0.49599999 25 0 0 0 0.01389
1.41 -0.38999999 -0.49900001 23 0 0 0 0.0139
1.408 -0.39199999 -0.50300002 21 0 0 0 0.01391
1.406 -0.39300001 -0.50599998 20 0 0 0 0.01392
1.403 -0.39500001 -0.509 20 0 0 0 0.01393
1.402 -0.396 -0.51300001 20 0 0 0 0.01394
1.4 -0.398 -0.51700002 20 0 0 0 0.01395
1.398 -0.40000001 -0.51999998 18 0 0 0 0.01396
1.396 -0.40099999 -0.52399999 16 0 0 0 0.01397
1.387 -0.40099999 -0.52499998 17 0 0 0 0.01398
1.387 -0.403 -0.52899998 16 0 0 0 0.01399
1.3839999 -0.40400001 -0.53200001 17 0 0 0 0.014
1.382 -0.405 -0.53500003 19 0 0 0 0.01401
1.383 -0.40700001 -0.54000002 26 0 0 0 0.01402
1.381 -0.40900001 -0.54299998 26 0 0 0 0.01403
1.376 -0.40900001 -0.546 19 0 0 0 0.01404
1.377 -0.41100001 -0.55000001 19 0 0 0 0.01405
1.375 -0.412 -0.55400002 22 0 0 0 0.01406
1.374 -0.414 -0.55699998 20 0 0 0 0.01407
1.369 -0.414 -0.56 20 0 0 0 0.01408
1.37 -0.41600001 -0.56400001 20 0 0 0 0.01409
1.3660001 -0.417 -0.56699997 18 0 0 0 0.0141
1.364 -0.41800001 -0.56999999 19 0 0 0 0.01411
1.364 -0.41999999 -0.574 22 0 0 0 0.01412
1.36 -0.41999999 -0.57700002 20 0 0 0 0.01413
1.358 -0.421 -0.57999998 20 0 0 0 0.01414
1.359 -0.42300001 -0.58399999 24 0 0 0 0.01415
1.357 -0.42399999 -0.588 20 0 0 0 0.01416
1.353 -0.42399999 -0.58999997 19 0 0 0 0.01417
1.354 -0.426 -0.59500003 21 0 0 0 0.01418
1.352 -0.42699999 -0.59799999 20 0 0 0 0.01419
1.348 -0.42699999 -0.60000002 19 0 0 0 0.0142
1.346 -0.428 -0.60399997 19 0 0 0 0.01421
1.342 -0.428 -0.60600001 18 0 0 0 0.01422
1.3430001 -0.43000001 -0.61000001 20 0 0 0 0.01423
1.341 -0.43000001 -0.61299998 19 0 0 0 0.01424
1.3380001 -0.43099999 -0.616 18 0 0 0 0.01425
1.3380001 -0.43200001 -0.62 17 0 0 0 0.01426
1.3430001 -0.435 -0.62599999 18 0 0 0 0.01427
1.337 -0.43399999 -0.62800002 20 0 0 0 0.01428
1.3329999 -0.43399999 -0.62900001 23 0 0 0 0.01429
1.3329999 -0.435 -0.634 30 0 0 0 0.0143
1.331 -0.43599999 -0.63700002 33 0 0 0 0.01431
1.3559999 -0.44499999 -0.653 52 0 0 0 0.01432
1.419 -0.46700001 -0.68699998 55 0 0 0 0.01433
1.465 -0.48300001 -0.71399999 25 0 0 0 0.01434
1.549 -0.51200002 -0.759 16 0 0 0 0.01435
1.575 -0.52200001 -0.77700001 14 0 0 0 0.01436
1.566 -0.51999998 -0.77600002 16 0 0 0 0.01437
1.5599999 -0.51899999 -0.778 16 0 0 0 0.01438
1.5549999 -0.51800001 -0.77999997 15 0 0 0 0.01439
1.54 -0.514 -0.77700001 18 0 0 0 0.0144
1.526 -0.50999999 -0.77399999 25 0 0 0 0.01441
1.518 -0.50800002 -0.77399999 28 0 0 0 0.01442
1.511 -0.50700003 -0.77499998 24 0 0 0 0.01443
1.501 -0.505 -0.77499998 27 0 0 0 0.01444
1.499 -0.50400001 -0.77700001 28 0 0 0 0.01445
1.488 -0.50099999 -0.77600002 24 0 0 0 0.01446
1.484 -0.50099999 -0.778 21 0 0 0 0.01447
1.478 -0.49900001 -0.77899998 19 0 0 0 0.01448
1.464 -0.495 -0.77499998 16 0 0 0 0.01449
1.4630001 -0.495 -0.77899998 15 0 0 0 0.0145
1.4529999 -0.49200001 -0.778 15 0 0 0 0.01451
1.448 -0.491 -0.778 16 0 0 0 0.01452
1.4349999 -0.48699999 -0.77499998 18 0 0 0 0.01453
1.429 -0.486 -0.77600002 18 0 0 0 0.01454
1.4220001 -0.48300001 -0.77600002 15 0 0 0 0.01455
1.415 -0.48100001 -0.77600002 14 0 0 0 0.01456
1.411 -0.47999999 -0.77700001 15 0 0 0 0.01457
1.405 -0.47799999 -0.77700001 15 0 0 0 0.01458
1.403 -0.47799999 -0.77899998 15 0 0 0 0.01459
1.395 -0.47499999 -0.77899998 13 0 0 0 0.0146
1.39 -0.47299999 -0.77899998 13 0 0 0 0.01461
1.3839999 -0.47099999 -0.77899998 12 0 0 0 0.01462
1.376 -0.46900001 -0.778 13 0 0 0 0.01463
1.376 -0.46900001 -0.78100002 14 0 0 0 0.01464
1.368 -0.46599999 -0.77999997 13 0 0 0 0.01465
1.365 -0.465 -0.78100002 12 0 0 0 0.01466
1.357 -0.46200001 -0.77999997 12 0 0 0 0.01467
1.355 -0.461 -0.78100002 12 0 0 0 0.01468
1.345 -0.45699999 -0.77899998 11 0 0 0 0.01469
1.346 -0.45699999 -0.78200001 11 0 0 0 0.0147
1.339 -0.454 -0.78100002 10 0 0 0 0.01471
1.334 -0.45199999 -0.78100002 11 0 0 0 0.01472
1.327 -0.449 -0.77899998 12 0 0 0 0.01473
1.322 -0.447 -0.77899998 12 0 0 0 0.01474
1.316 -0.44499999 -0.778 13 0 0 0 0.01475
1.3099999 -0.442 -0.77700001 14 0 0 0 0.01476
1.308 -0.44100001 -0.778 15 0 0 0 0.01477
1.306 -0.43900001 -0.77999997 13 0 0 0 0.01478
1.3 -0.43700001 -0.77899998 13 0 0 0 0.01479
1.298 -0.435 -0.77999997 12 0 0 0 0.0148
1.295 -0.43399999 -0.78100002 11 0 0 0 0.01481
1.29 -0.43099999 -0.77999997 11 0 0 0 0.01482
1.29 -0.43000001 -0.78200001 11 0 0 0 0.01483
1.288 -0.42899999 -0.78299999 11 0 0 0 0.01484
1.28 -0.42500001 -0.77999997 11 0 0 0 0.01485
1.28 -0.42399999 -0.78200001 12 0 0 0 0.01486
1.277 -0.42300001 -0.78200001 12 0 0 0 0.01487
1.274 -0.421 -0.78200001 12 0 0 0 0.01488
1.274 -0.419 -0.78399998 12 0 0 0 0.01489
1.27 -0.417 -0.78299999 12 0 0 0 0.0149
1.265 -0.414 -0.78100002 12 0 0 0 0.01491
1.263 -0.41299999 -0.78200001 13 0 0 0 0.01492
1.26 -0.41 -0.78200001 14 0 0 0 0.01493
1.256 -0.40799999 -0.78100002 15 0 0 0 0.01494
1.255 -0.40599999 -0.78200001 15 0 0 0 0.01495
1.255 -0.405 -0.78299999 16 0 0 0 0.01496
1.2539999 -0.403 -0.78299999 15 0 0 0 0.01497
1.251 -0.40099999 -0.78299999 15 0 0 0 0.01498
1.247 -0.398 -0.78200001 14 0 0 0 0.01499
1.2460001 -0.39700001 -0.78299999 14 0 0 0 0.015
1.245 -0.39500001 -0.78299999 14 0 0 0 0.01501
1.244 -0.39300001 -0.78299999 14 0 0 0 0.01502
1.24 -0.38999999 -0.78200001 15 0 0 0 0.01503
1.24 -0.389 -0.78299999 15 0 0 0 0.01504
1.238 -0.38600001 -0.78200001 15 0 0 0 0.01505
1.237 -0.38499999 -0.78200001 16 0 0 0 0.01506
1.2359999 -0.38299999 -0.78200001 16 0 0 0 0.01507
1.2359999 -0.38100001 -0.78299999 16 0 0 0 0.01508
1.235 -0.37900001 -0.78299999 16 0 0 0 0.01509
1.235 -0.377 -0.78299999 15 0 0 0 0.0151
1.233 -0.375 -0.78299999 15 0 0 0 0.01511
1.234 -0.373 -0.78299999 15 0 0 0 0.01512
1.234 -0.37200001 -0.78399998 15 0 0 0 0.01513
1.234 -0.37 -0.78399998 15 0 0 0 0.01514
1.234 -0.368 -0.78399998 15 0 0 0 0.01515
1.235 -0.366 -0.78500003 15 0 0 0 0.01516
1.235 -0.36500001 -0.78500003 15 0 0 0 0.01517
1.235 -0.36300001 -0.78500003 15 0 0 0 0.01518
1.235 -0.361 -0.78500003 13 0 0 0 0.01519
1.2359999 -0.359 -0.78600001 12 0 0 0 0.0152
1.238 -0.35800001 -0.787 11 0 0 0 0.01521
1.239 -0.35600001 -0.787 11 0 0 0 0.01522
1.239 -0.354 -0.787 11 0 0 0 0.01523
1.237 -0.35100001 -0.78500003 12 0 0 0 0.01524
1.237 -0.34900001 -0.78500003 13 0 0 0 0.01525
1.239 -0.34799999 -0.78500003 14 0 0 0 0.01526
1.238 -0.345 -0.78399998 15 0 0 0 0.01527
1.2410001 -0.34400001 -0.78500003 15 0 0 0 0.01528
1.244 -0.34299999 -0.787 14 0 0 0 0.01529
1.2410001 -0.34 -0.78399998 14 0 0 0 0.0153
1.245 -0.338 -0.78600001 14 0 0 0 0.01531
1.245 -0.336 -0.78500003 15 0 0 0 0.01532
1.244 -0.33399999 -0.78399998 14 0 0 0 0.01533
1.249 -0.333 -0.78500003 14 0 0 0 0.01534
1.252 -0.33199999 -0.78600001 12 0 0 0 0.01535
1.258 -0.331 -0.78899997 11 0 0 0 0.01536
1.26 -0.329 -0.78899997 10 0 0 0 0.01537
1.266 -0.32800001 -0.792 10 0 0 0 0.01538
1.268 -0.32699999 -0.792 10 0 0 0 0.01539
1.268 -0.324 -0.79100001 10 0 0 0 0.0154
1.271 -0.32300001 -0.79100001 10 0 0 0 0.01541
1.273 -0.32100001 -0.79100001 10 0 0 0 0.01542
1.274 -0.31799999 -0.79000002 11 0 0 0 0.01543
1.273 -0.31600001 -0.78799999 11 0 0 0 0.01544
1.277 -0.31400001 -0.78799999 12 0 0 0 0.01545
1.278 -0.31200001 -0.787 13 0 0 0 0.01546
1.2819999 -0.31099999 -0.78799999 13 0 0 0 0.01547
1.285 -0.30899999 -0.78799999 13 0 0 0 0.01548
1.288 -0.30700001 -0.78799999 14 0 0 0 0.01549
1.291 -0.30599999 -0.78799999 14 0 0 0 0.0155
1.2970001 -0.30399999 -0.78899997 14 0 0 0 0.01551
1.3 -0.303 -0.79000002 13 0 0 0 0.01552
1.301 -0.30000001 -0.78799999 14 0 0 0 0.01553
1.3 -0.29800001 -0.78500003 17 0 0 0 0.01554
1.299 -0.29499999 -0.78200001 25 0 0 0 0.01555
1.303 -0.29300001 -0.78299999 21 0 0 0 0.01556
1.311 -0.29300001 -0.78500003 18 0 0 0 0.01557
1.314 -0.29100001 -0.78500003 14 0 0 0 0.01558
1.318 -0.289 -0.78399998 15 0 0 0 0.01559
1.319 -0.287 -0.78200001 25 0 0 0 0.0156
1.323 -0.285 -0.78200001 40 0 0 0 0.01561
1.33 -0.28400001 -0.78399998 24 0 0 0 0.01562
1.3329999 -0.28200001 -0.78299999 17 0 0 0 0.015629999
1.339 -0.28099999 -0.78399998 17 0 0 0 0.01564
1.344 -0.27900001 -0.78399998 18 0 0 0 0.01565
1.348 -0.278 -0.78399998 16 0 0 0 0.015659999
1.352 -0.27599999 -0.78299999 18 0 0 0 0.01567
1.3559999 -0.27399999 -0.78200001 21 0 0 0 0.01568
1.36 -0.27200001 -0.78200001 20 0 0 0 0.015690001
1.369 -0.271 -0.78399998 17 0 0 0 0.015699999
1.3710001 -0.26899999 -0.78200001 20 0 0 0 0.01571
1.376 -0.26800001 -0.78200001 22 0 0 0 0.01572
1.38 -0.266 -0.78100002 36 0 0 0 0.015729999
1.3839999 -0.264 -0.77999997 34 0 0 0 0.01574
1.392 -0.26300001 -0.78200001 28 0 0 0 0.01575
1.4 -0.26199999 -0.78299999 19 0 0 0 0.015760001
1.409 -0.26100001 -0.78399998 18 0 0 0 0.015769999
1.408 -0.25799999 -0.77999997 27 0 0 0 0.01578
1.415 -0.257 -0.78100002 49 0 0 0 0.015790001
1.42 -0.255 -0.77999997 100 0 0 0 0.015799999
1.423 -0.25299999 -0.778 131 0 0 0 0.01581
1.431 -0.252 -0.77899998 114 0 0 0 0.01582
1.441 -0.25099999 -0.78100002 146 0 0 0 0.015830001
1.451 -0.25 -0.78200001 102 0 0 0 0.01584
1.455 -0.248 -0.77999997 87 0 0 0 0.01585
1.465 -0.24699999 -0.78200001 73 0 0 0 0.015860001
1.469 -0.245 -0.77999997 124 0 0 0 0.015869999
1.476 -0.244 -0.77999997 137 0 0 0 0.01588
1.482 -0.242 -0.77999997 150 0 0 0 0.01589
1.488 -0.23999999 -0.77899998 150 0 0 0 0.015900001
1.498 -0.23999999 -0.77999997 59 0 0 0 0.01591
1.512 -0.23899999 -0.78299999 14 0 0 0 0.01592
1.527 -0.23899999 -0.787 10 0 0 0 0.015930001
1.531 -0.237 -0.78500003 12 0 0 0 0.015939999
1.543 -0.236 -0.787 14 0 0 0 0.01595
1.552 -0.235 -0.787 21 0 0 0 0.01596
1.553 -0.23199999 -0.78299999 59 0 0 0 0.015969999
1.562 -0.23100001 -0.78299999 47 0 0 0 0.01598
1.5700001 -0.229 -0.78299999 39 0 0 0 0.01599
1.577 -0.228 -0.78200001 26 0 0 0 0.016000001
1.592 -0.227 -0.78500003 20 0 0 0 0.016009999
1.604 -0.226 -0.78600001 11 0 0 0 0.01602
1.613 -0.22499999 -0.78600001 4 0 0 0 0.016030001
1.63 -0.22499999 -0.78899997 13 0 0 0 0.016039999
1.638 -0.223 -0.78799999 15 0 0 0 0.01605
1.642 -0.221 -0.78500003 16 0 0 0 0.01606
1.648 -0.219 -0.78399998 20 0 0 0 0.016070001
1.653 -0.21699999 -0.78100002 36 0 0 0 0.01608
1.6619999 -0.21600001 -0.77999997 58 0 0 0 0.01609
1.6720001 -0.215 -0.77999997 53 0 0 0 0.016100001
1.686 -0.214 -0.78100002 49 0 0 0 0.016109999
1.692 -0.212 -0.77899998 93 0 0 0 0.01612
1.701 -0.211 -0.778 150 0 0 0 0.01613
1.709 -0.20900001 -0.77700001 75 0 0 0 0.016140001
1.723 -0.208 -0.778 49 0 0 0 0.01615
1.737 -0.207 -0.77899998 68 0 0 0 0.01616
1.75 -0.206 -0.77999997 36 0 0 0 0.016170001
1.768 -0.206 -0.78200001 18 0 0 0 0.016179999
1.783 -0.205 -0.78299999 15 0 0 0 0.01619
1.794 -0.20299999 -0.78299999 16 0 0 0 0.0162
1.808 -0.20200001 -0.78299999 22 0 0 0 0.016209999
1.821 -0.20100001 -0.78299999 22 0 0 0 0.01622
1.83 -0.2 -0.78100002 19 0 0 0 0.01623
1.8430001 -0.198 -0.78100002 19 0 0 0 0.016240001
1.862 -0.198 -0.78299999 17 0 0 0 0.016249999
1.867 -0.19599999 -0.77999997 86 0 0 0 0.01626
1.878 -0.19400001 -0.778 68 0 0 0 0.01627
1.8940001 -0.193 -0.77899998 96 0 0 0 0.016279999
1.906 -0.192 -0.778 115 0 0 0 0.01629
1.914 -0.19 -0.77499998 86 0 0 0 0.0163
1.934 -0.19 -0.77700001 65 0 0 0 0.016310001
1.949 -0.18799999 -0.77700001 58 0 0 0 0.016319999
1.9529999 -0.186 -0.773 41 0 0 0 0.01633
1.9579999 -0.184 -0.76800001 27 0 0 0 0.016340001
1.972 -0.183 -0.76800001 24 0 0 0 0.016349999
2.0009999 -0.183 -0.773 22 0 0 0 0.01636
2.0190001 -0.182 -0.773 20 0 0 0 0.01637
2.04 -0.182 -0.77499998 19 0 0 0 0.016380001
2.059 -0.18099999 -0.77499998 20 0 0 0 0.01639
2.073 -0.17900001 -0.77399999 25 0 0 0 0.0164
2.086 -0.178 -0.77200001 29 0 0 0 0.016410001
2.1129999 -0.178 -0.77600002 35 0 0 0 0.016419999
2.131 -0.177 -0.77499998 40 0 0 0 0.01643
2.152 -0.176 -0.77600002 31 0 0 0 0.01644
2.1719999 -0.175 -0.77700001 28 0 0 0 0.016450001
2.1900001 -0.17399999 -0.77600002 30 0 0 0 0.01646
2.2119999 -0.17299999 -0.77600002 39 0 0 0 0.01647
2.1989999 -0.169 -0.76499999 61 0 0 0 0.016480001
2.0999999 -0.15899999 -0.72399998 142 0 0 0 0.016489999
2.013 -0.15000001 -0.68699998 68 0 0 0 0.0165
1.9220001 -0.141 -0.64999998 89 0 0 0 0.01651
1.906 -0.138 -0.639 89 0 0 0 0.016519999
1.908 -0.13600001 -0.63300002 77 0 0 0 0.01653
1.921 -0.13500001 -0.63099998 54 0 0 0 0.01654
1.941 -0.134 -0.63099998 44 0 0 0 0.016550001
1.9579999 -0.133 -0.63099998 46 0 0 0 0.016559999
1.979 -0.133 -0.63099998 43 0 0 0 0.01657
1.995 -0.132 -0.63 34 0 0 0 0.016580001
2.0150001 -0.131 -0.63 31 0 0 0 0.016589999
2.033 -0.13 -0.62900001 31 0 0 0 0.0166
2.056 -0.12899999 -0.62900001 30 0 0 0 0.01661
2.082 -0.12899999 -0.63 33 0 0 0 0.016620001
2.105 -0.12800001 -0.63099998 34 0 0 0 0.01663
2.1300001 -0.127 -0.63099998 41 0 0 0 0.01664
2.1559999 -0.127 -0.63200003 41 0 0 0 0.016650001
2.1719999 -0.125 -0.63 35 0 0 0 0.016659999
2.198 -0.125 -0.63 32 0 0 0 0.01667
2.2160001 -0.124 -0.62800002 31 0 0 0 0.01668
2.237 -0.123 -0.62699997 30 0 0 0 0.016690001
2.2650001 -0.122 -0.62699997 27 0 0 0 0.0167
2.2869999 -0.121 -0.62599999 27 0 0 0 0.01671
2.3069999 -0.12 -0.62400001 15 0 0 0 0.016720001
2.3080001 -0.118 -0.61699998 13 0 0 0 0.016729999
2.3050001 -0.116 -0.60799998 22 0 0 0 0.01674
2.306 -0.114 -0.60100001 25 0 0 0 0.01675
2.3010001 -0.111 -0.59299999 27 0 0 0 0.016759999
2.293 -0.109 -0.583 23 0 0 0 0.01677
2.2920001 -0.107 -0.57499999 18 0 0 0 0.01678
2.28 -0.104 -0.565 14 0 0 0 0.016790001
2.289 -0.103 -0.56 18 0 0 0 0.016799999
2.286 -0.101 -0.55199999 20 0 0 0 0.01681
2.3069999 -0.1 -0.54900002 25 0 0 0 0.01682
2.424 -0.103 -0.56999999 145 0 0 0 0.016829999
2.5 -0.104 -0.579 150 0 0 0 0.01684
2.527 -0.103 -0.57700002 150 0 0 0 0.01685
2.5220001 -0.101 -0.56800002 23 0 0 0 0.016860001
2.51 -0.097999997 -0.55699998 18 0 0 0 0.016869999
2.5139999 -0.096000001 -0.55000001 17 0 0 0 0.01688
2.5139999 -0.093999997 -0.542 18 0 0 0 0.016890001
2.52 -0.093000002 -0.53500003 18 0 0 0 0.016899999
2.517 -0.090999998 -0.52600002 17 0 0 0 0.01691
2.5220001 -0.089000002 -0.51899999 17 0 0 0 0.01692
2.5220001 -0.086999997 -0.51099998 16 0 0 0 0.016930001
2.5239999 -0.085000001 -0.50300002 16 0 0 0 0.01694
2.5009999 -0.082000002 -0.491 17 0 0 0 0.01695
2.457 -0.079000004 -0.47400001 19 0 0 0 0.016960001
2.411 -0.075999998 -0.45699999 17 0 0 0 0.016969999
2.395 -0.074000001 -0.447 24 0 0 0 0.01698
2.4519999 -0.074000001 -0.449 150 0 0 0 0.01699
2.5139999 -0.074000001 -0.45300001 150 0 0 0 0.017000001
2.395 -0.068000004 -0.42300001 150 0 0 0 0.01701
2.171 -0.061000001 -0.377 150 0 0 0 0.01702
2.1099999 -0.057 -0.359 145 0 0 0 0.017030001
2.0380001 -0.054000001 -0.34099999 49 0 0 0 0.017039999
2.056 -0.052999999 -0.33700001 18 0 0 0 0.01705
2.0999999 -0.052999999 -0.33700001 10 0 0 0 0.01706
2.1400001 -0.052000001 -0.33700001 10 0 0 0 0.017069999
2.1700001 -0.052000001 -0.33500001 10 0 0 0 0.01708
2.22 -0.050999999 -0.33500001 10 0 0 0 0.01709
2.2650001 -0.050999999 -0.33500001 10 0 0 0 0.017100001
2.3050001 -0.050999999 -0.333 11 0 0 0 0.017109999
2.326 -0.050000001 -0.329 10 0 0 0 0.01712
2.326 -0.048 -0.32100001 5 0 0 0 0.017130001
2.326 -0.046999998 -0.31400001 4 0 0 0 0.017139999
2.325 -0.045000002 -0.30599999 4 0 0 0 0.01715
2.323 -0.044 -0.29800001 4 0 0 0 0.01716
2.3080001 -0.041999999 -0.289 3 0 0 0 0.017170001
2.3139999 -0.041000001 -0.28200001 8 0 0 0 0.01718
2.3150001 -0.039999999 -0.27500001 11 0 0 0 0.01719
2.3180001 -0.037999999 -0.26800001 6 0 0 0 0.017200001
2.3280001 -0.037 -0.26199999 4 0 0 0 0.017209999
2.214 -0.034000002 -0.242 12 0 0 0 0.01722
2.122 -0.030999999 -0.22499999 20 0 0 0 0.01723
2.1240001 -0.029999999 -0.21799999 17 0 0 0 0.017240001
2.164 -0.029999999 -0.215 11 0 0 0 0.01725
2.2550001 -0.029999999 -0.21699999 11 0 0 0 0.01726
2.415 -0.030999999 -0.22499999 13 0 0 0 0.017270001
0 0 0 0 0 0 0 0.017279999
1.51 -0.017000001 -0.131 0 0 0 0 0.01729
1.471 -0.016000001 -0.123 0 0 0 0 0.0173
1.477 -0.015 -0.118 0 0 0 0 0.017309999
1.4680001 -0.015 -0.113 0 0 0 0 0.01732
1.49 -0.014 -0.11 0 0 0 0 0.01733
1.488 -0.013 -0.105 0 0 0 0 0.017340001
1.488 -0.013 -0.1 0 0 0 0 0.017349999
1.492 -0.012 -0.096000001 0 0 0 0 0.01736
1.4910001 -0.011 -0.090999998 0 0 0 0 0.01737
1.497 -0.011 -0.086000003 0 0 0 0 0.017379999
1.477 -0.0099999998 -0.079999998 0 0 0 0 0.01739
1.489 -0.0089999996 -0.075999998 0 0 0 0 0.0174
1.4910001 -0.0080000004 -0.071999997 0 0 0 0 0.017410001
1.497 -0.0080000004 -0.067000002 0 0 0 0 0.017419999
1.503 -0.0070000002 -0.063000001 0 0 0 0 0.01743
1.4910001 -0.0060000001 -0.057 0 0 0 0 0.017440001
1.505 -0.0060000001 -0.052999999 0 0 0 0 0.017449999
1.483 -0.0049999999 -0.046999998 0 0 0 0 0.01746
1.4859999 -0.0049999999 -0.043000001 0 0 0 0 0.01747
1.493 -0.0040000002 -0.037999999 0 0 0 0 0.017480001
1.5 -0.003 -0.033 0 0 0 0 0.01749
1.497 -0.003 -0.028999999 0 0 0 0 0.0175
1.5 -0.0020000001 -0.024 0 0 0 0 0.017510001
1.5039999 -0.0020000001 -0.018999999 0 0 0 0 0.017519999
1.5039999 -0.001 -0.014 0 0 0 0 0.01753
1.507 0 -0.0089999996 0 0 0 0 0.01754
1.517 0 -0.0049999999 0 0 0 0 0.017550001
1.506 0 0 0 0 0 0 0.01756
1.5420001 0 0.0040000002 0 0 0 0 0.01757
1.569 0.001 0.0089999996 0 0 0 0 0.017580001
1.61 0.001 0.015 0 0 0 0 0.017589999
1.6339999 0.0020000001 0.02 0 0 0 0 0.0176
1.668 0.003 0.026000001 0 0 0 0 0.01761
1.689 0.003 0.032000002 0 0 0 0 0.017619999
1.722 0.0040000002 0.037999999 0 0 0 0 0.01763
1.748 0.0049999999 0.044 0 0 0 0 0.01764
1.757 0.0049999999 0.050000001 0 0 0 0 0.017650001
1.774 0.0060000001 0.056000002 0 0 0 0 0.017659999
1.784 0.0060000001 0.061999999 0 0 0 0 0.01767
1.7970001 0.0070000002 0.068999998 0 0 0 0 0.017680001
1.802 0.0070000002 0.075000003 0 0 0 0 0.017689999
1.79 0.0080000004 0.079999998 0 0 0 0 0.0177
1.795 0.0080000004 0.086000003 0 0 0 0 0.01771
1.798 0.0089999996 0.092 0 0 0 0 0.017720001
