# .PCD v0.7 - Point Cloud Data file format
VERSION 0.7
FIELDS x y z intensity normal_x normal_y normal_z curvature
SIZE 4 4 4 4 4 4 4 4
TYPE F F F F F F F F
COUNT 1 1 1 1 1 1 1 1
WIDTH 990
HEIGHT 1
VIEWPOINT 0 0 0 1 0 0 0
POINTS 990
DATA ascii
1.839 0.345 0.79799998 150 0 0 0 0.067649998
1.845 0.34299999 0.79500002 150 0 0 0 0.067659996
1.848 0.34 0.79100001 150 0 0 0 0.067670003
1.8559999 0.338 0.79000002 150 0 0 0 0.067680001
1.859 0.33500001 0.78500003 150 0 0 0 0.06769
1.8609999 0.331 0.78100002 150 0 0 0 0.067699999
1.864 0.32800001 0.77700001 150 0 0 0 0.067709997
1.8710001 0.32600001 0.77499998 150 0 0 0 0.067720003
1.877 0.324 0.77200001 150 0 0 0 0.067730002
1.8789999 0.32100001 0.76800001 150 0 0 0 0.067740001
1.8839999 0.31799999 0.764 150 0 0 0 0.067749999
1.89 0.315 0.76099998 150 0 0 0 0.067759998
1.892 0.31200001 0.75599998 150 0 0 0 0.067769997
1.897 0.31 0.75300002 150 0 0 0 0.067780003
1.903 0.30700001 0.75 150 0 0 0 0.067790002
1.906 0.30399999 0.74599999 150 0 0 0 0.0678
1.909 0.301 0.741 150 0 0 0 0.067809999
1.913 0.29899999 0.73699999 150 0 0 0 0.067819998
1.918 0.296 0.73299998 150 0 0 0 0.067829996
1.925 0.294 0.73000002 150 0 0 0 0.067840002
1.9299999 0.29100001 0.727 150 0 0 0 0.067850001
1.933 0.28799999 0.722 148 0 0 0 0.06786
1.937 0.285 0.71799999 150 0 0 0 0.067869999
1.939 0.28200001 0.713 149 0 0 0 0.067879997
1.946 0.28 0.70999998 150 0 0 0 0.067890003
1.948 0.27700001 0.70499998 150 0 0 0 0.067900002
1.95 0.27399999 0.69999999 150 0 0 0 0.067910001
1.955 0.271 0.69599998 144 0 0 0 0.067919999
1.957 0.26800001 0.69099998 146 0 0 0 0.067929998
1.96 0.266 0.68599999 131 0 0 0 0.067939997
1.962 0.26300001 0.68099999 136 0 0 0 0.067950003
1.964 0.25999999 0.676 139 0 0 0 0.067960002
1.979 0.25799999 0.67500001 124 0 0 0 0.06797
1.98 0.255 0.66900003 122 0 0 0 0.067979999
1.99 0.25299999 0.667 134 0 0 0 0.067989998
1.994 0.25099999 0.662 129 0 0 0 0.068000004
1.997 0.248 0.65700001 135 0 0 0 0.068010002
2.0009999 0.245 0.65200001 136 0 0 0 0.068020001
2.0039999 0.242 0.64700001 139 0 0 0 0.06803
2.0090001 0.23999999 0.64300001 150 0 0 0 0.068039998
2.0120001 0.237 0.63800001 150 0 0 0 0.068049997
2.0179999 0.235 0.63300002 150 0 0 0 0.068060003
2.023 0.23199999 0.62900001 150 0 0 0 0.068070002
2.027 0.23 0.62400001 150 0 0 0 0.068080001
2.036 0.227 0.62 150 0 0 0 0.068089999
2.0320001 0.22400001 0.61299998 150 0 0 0 0.068099998
2.0369999 0.221 0.60799998 150 0 0 0 0.068109997
2.0439999 0.219 0.60399997 150 0 0 0 0.068120003
2.0469999 0.21600001 0.59899998 150 0 0 0 0.068130001
2.049 0.214 0.59299999 150 0 0 0 0.06814
2.05 0.211 0.58700001 150 0 0 0 0.068149999
2.0569999 0.208 0.583 150 0 0 0 0.068159997
2.059 0.206 0.57700002 150 0 0 0 0.068170004
2.062 0.20299999 0.57200003 148 0 0 0 0.068180002
2.0669999 0.20100001 0.56699997 150 0 0 0 0.068190001
2.069 0.198 0.56099999 137 0 0 0 0.0682
2.0710001 0.19499999 0.55500001 138 0 0 0 0.068209998
2.0780001 0.193 0.551 139 0 0 0 0.068219997
2.0810001 0.19 0.54500002 145 0 0 0 0.068230003
2.085 0.18799999 0.54000002 144 0 0 0 0.068240002
2.086 0.185 0.53399998 143 0 0 0 0.06825
2.089 0.182 0.528 137 0 0 0 0.068259999
2.096 0.18000001 0.523 136 0 0 0 0.068269998
2.1010001 0.178 0.51800001 124 0 0 0 0.068279997
2.1029999 0.175 0.51200002 133 0 0 0 0.068290003
2.109 0.17299999 0.50700003 132 0 0 0 0.068300001
2.1059999 0.17 0.5 128 0 0 0 0.06831
2.119 0.168 0.49700001 137 0 0 0 0.068319999
2.115 0.16500001 0.48899999 125 0 0 0 0.068329997
2.1199999 0.162 0.484 130 0 0 0 0.068340003
2.128 0.16 0.479 131 0 0 0 0.068350002
2.132 0.15800001 0.47299999 128 0 0 0 0.068360001
2.131 0.155 0.46700001 126 0 0 0 0.06837
2.1359999 0.153 0.461 131 0 0 0 0.068379998
2.1389999 0.15000001 0.45500001 131 0 0 0 0.068389997
2.142 0.148 0.449 130 0 0 0 0.068400003
2.1459999 0.145 0.44299999 132 0 0 0 0.068410002
2.1500001 0.14300001 0.43799999 122 0 0 0 0.06842
2.155 0.141 0.43200001 129 0 0 0 0.068429999
2.1589999 0.138 0.426 117 0 0 0 0.068439998
2.1619999 0.13600001 0.41999999 121 0 0 0 0.068449996
2.165 0.133 0.414 125 0 0 0 0.068460003
2.1659999 0.131 0.40799999 128 0 0 0 0.068470001
2.168 0.12800001 0.40099999 123 0 0 0 0.06848
2.1719999 0.126 0.39500001 126 0 0 0 0.068489999
2.177 0.124 0.389 122 0 0 0 0.068499997
2.181 0.121 0.38299999 120 0 0 0 0.068510003
2.1819999 0.119 0.377 121 0 0 0 0.068520002
2.188 0.117 0.37099999 123 0 0 0 0.068530001
2.1889999 0.114 0.36399999 127 0 0 0 0.068539999
2.191 0.112 0.35800001 126 0 0 0 0.068549998
2.1949999 0.11 0.352 122 0 0 0 0.068559997
2.204 0.108 0.34599999 123 0 0 0 0.068570003
2.2 0.105 0.33899999 122 0 0 0 0.068580002
2.207 0.103 0.333 122 0 0 0 0.06859
2.211 0.1 0.32699999 122 0 0 0 0.068599999
2.2149999 0.097999997 0.32100001 126 0 0 0 0.068609998
2.2160001 0.096000001 0.31400001 125 0 0 0 0.068619996
2.22 0.093999997 0.308 130 0 0 0 0.068630002
2.2249999 0.090999998 0.30199999 134 0 0 0 0.068640001
2.223 0.089000002 0.29499999 116 0 0 0 0.06865
2.2279999 0.086999997 0.28799999 128 0 0 0 0.068659998
2.2349999 0.085000001 0.28200001 127 0 0 0 0.068669997
2.2360001 0.082000002 0.27599999 121 0 0 0 0.068680003
2.237 0.079999998 0.26899999 115 0 0 0 0.068690002
2.2379999 0.078000002 0.26199999 125 0 0 0 0.068700001
2.25 0.075999998 0.25600001 119 0 0 0 0.068709999
2.2479999 0.072999999 0.249 120 0 0 0 0.068719998
2.2509999 0.071000002 0.243 104 0 0 0 0.068729997
2.2550001 0.068999998 0.236 106 0 0 0 0.068740003
2.256 0.067000002 0.229 115 0 0 0 0.068750001
2.26 0.064999998 0.222 110 0 0 0 0.06876
2.2609999 0.061999999 0.21600001 111 0 0 0 0.068769999
2.2650001 0.059999999 0.20900001 111 0 0 0 0.068779998
2.266 0.057999998 0.20200001 114 0 0 0 0.068790004
2.266 0.056000002 0.19499999 114 0 0 0 0.068800002
2.277 0.054000001 0.189 108 0 0 0 0.068810001
2.277 0.052000001 0.182 112 0 0 0 0.06882
2.28 0.048999999 0.175 115 0 0 0 0.068829998
2.289 0.046999998 0.168 116 0 0 0 0.068839997
2.2850001 0.045000002 0.161 114 0 0 0 0.068850003
2.293 0.043000001 0.155 113 0 0 0 0.068860002
2.293 0.041000001 0.147 112 0 0 0 0.068870001
2.2939999 0.039000001 0.14 115 0 0 0 0.068879999
2.296 0.037 0.133 115 0 0 0 0.068889998
2.2290001 0.034000002 0.122 133 0 0 0 0.068899997
2.108 0.029999999 0.109 74 0 0 0 0.068910003
2.0409999 0.027000001 0.098999999 57 0 0 0 0.068920001
2.02 0.025 0.092 77 0 0 0 0.06893
1.895 0.022 0.079999998 123 0 0 0 0.068939999
1.771 0.018999999 0.07 51 0 0 0 0.068949997
1.715 0.016000001 0.061999999 70 0 0 0 0.068960004
1.665 0.014 0.055 57 0 0 0 0.068970002
1.642 0.013 0.048999999 67 0 0 0 0.068980001
1.631 0.011 0.044 73 0 0 0 0.06899
1.6210001 0.0099999998 0.037999999 80 0 0 0 0.068999998
1.608 0.0080000004 0.033 68 0 0 0 0.069009997
1.598 0.0070000002 0.028000001 52 0 0 0 0.069020003
1.567 0.0049999999 0.022 54 0 0 0 0.069030002
1.559 0.0040000002 0.017999999 71 0 0 0 0.06904
1.5650001 0.003 0.013 85 0 0 0 0.069049999
1.575 0.001 0.0080000004 77 0 0 0 0.069059998
1.5700001 0 0.003 63 0 0 0 0.069069996
1.568 0 -0.001 61 0 0 0 0.069080003
1.568 -0.001 -0.0060000001 69 0 0 0 0.069090001
1.561 -0.003 -0.011 81 0 0 0 0.0691
1.577 -0.0040000002 -0.016000001 56 0 0 0 0.069109999
1.573 -0.0049999999 -0.021 63 0 0 0 0.069119997
1.577 -0.0070000002 -0.026000001 62 0 0 0 0.069130003
1.575 -0.0080000004 -0.030999999 60 0 0 0 0.069140002
1.576 -0.0089999996 -0.035999998 51 0 0 0 0.069150001
1.58 -0.0099999998 -0.041000001 44 0 0 0 0.069159999
1.579 -0.012 -0.046 39 0 0 0 0.069169998
1.575 -0.013 -0.050000001 31 0 0 0 0.069179997
1.575 -0.014 -0.055 21 0 0 0 0.069190003
1.5700001 -0.015 -0.059999999 10 0 0 0 0.069200002
1.574 -0.016000001 -0.064999998 5 0 0 0 0.06921
1.536 -0.017000001 -0.068999998 0 0 0 0 0.069219999
1.115 -0.013 -0.052999999 0 0 0 0 0.069229998
1.0190001 -0.013 -0.052000001 0 0 0 0 0.069239996
0.98900002 -0.013 -0.052999999 0 0 0 0 0.069250003
0.98900002 -0.014 -0.056000002 0 0 0 0 0.069260001
0.99299997 -0.015 -0.059999999 0 0 0 0 0.06927
0.98299998 -0.015 -0.061999999 0 0 0 0 0.069279999
1.007 -0.016000001 -0.067000002 0 0 0 0 0.069289997
0.96600002 -0.016000001 -0.067000002 0 0 0 0 0.069300003
0.97399998 -0.017000001 -0.071000002 0 0 0 0 0.069310002
1.002 -0.017999999 -0.075999998 0 0 0 0 0.069320001
1.003 -0.018999999 -0.079999998 0 0 0 0 0.069329999
0.972 -0.018999999 -0.079999998 0 0 0 0 0.069339998
0.97000003 -0.02 -0.082999997 0 0 0 0 0.069349997
0.958 -0.02 -0.085000001 0 0 0 0 0.069360003
0.93699998 -0.02 -0.086000003 0 0 0 0 0.069370002
0.93000001 -0.021 -0.089000002 0 0 0 0 0.06938
0.954 -0.022 -0.093999997 0 0 0 0 0.069389999
0.93699998 -0.022 -0.094999999 0 0 0 0 0.069399998
0.903 -0.022 -0.094999999 0 0 0 0 0.069410004
0.91299999 -0.023 -0.098999999 1 0 0 0 0.069420002
0.90600002 -0.023 -0.101 1 0 0 0 0.069430001
0.91399997 -0.024 -0.105 1 0 0 0 0.06944
0.91900003 -0.025 -0.108 0 0 0 0 0.069449998
0.92000002 -0.025 -0.111 0 0 0 0 0.069459997
0.89999998 -0.025 -0.112 0 0 0 0 0.069470003
0.93900001 -0.027000001 -0.12 0 0 0 0 0.069480002
0.935 -0.027000001 -0.122 0 0 0 0 0.069490001
0.93000001 -0.028000001 -0.124 0 0 0 0 0.069499999
0.89300001 -0.027000001 -0.122 0 0 0 0 0.069509998
0.89499998 -0.028000001 -0.125 0 0 0 0 0.069519997
0.89999998 -0.028000001 -0.12899999 0 0 0 0 0.069530003
0.89700001 -0.028999999 -0.132 0 0 0 0 0.069540001
0.87800002 -0.028999999 -0.132 0 0 0 0 0.06955
0.833 -0.028000001 -0.127 0 0 0 0 0.069559999
0.80699998 -0.027000001 -0.126 0 0 0 0 0.069569997
0.787 -0.027000001 -0.126 0 0 0 0 0.069580004
0.764 -0.027000001 -0.124 0 0 0 0 0.069590002
0.73900002 -0.026000001 -0.123 0 0 0 0 0.069600001
0.74699998 -0.027000001 -0.126 0 0 0 0 0.06961
0.722 -0.026000001 -0.125 0 0 0 0 0.069619998
0.713 -0.026000001 -0.125 0 0 0 0 0.069629997
0.70200002 -0.026000001 -0.126 0 0 0 0 0.069640003
0.69099998 -0.026000001 -0.126 0 0 0 0 0.069650002
0.67199999 -0.026000001 -0.125 0 0 0 0 0.069660001
0.66299999 -0.026000001 -0.125 0 0 0 0 0.069669999
0.67400002 -0.026000001 -0.12899999 0 0 0 0 0.069679998
0.66000003 -0.026000001 -0.12899999 0 0 0 0 0.069689997
0.66100001 -0.027000001 -0.131 0 0 0 0 0.069700003
0.65499997 -0.027000001 -0.132 0 0 0 0 0.069710001
0.676 -0.028000001 -0.139 0 0 0 0 0.06972
0.65200001 -0.027000001 -0.13600001 0 0 0 0 0.069729999
0.648 -0.027000001 -0.13699999 0 0 0 0 0.069739997
0.67699999 -0.028999999 -0.146 0 0 0 0 0.069750004
0.685 -0.028999999 -0.149 0 0 0 0 0.069760002
0.64300001 -0.028000001 -0.142 0 0 0 0 0.069770001
0.66000003 -0.028999999 -0.148 0 0 0 0 0.06978
0.65200001 -0.028999999 -0.149 0 0 0 0 0.069789998
0.65600002 -0.028999999 -0.152 0 0 0 0 0.069799997
0.65100002 -0.028999999 -0.153 0 0 0 0 0.069810003
0.65799999 -0.029999999 -0.15700001 0 0 0 0 0.069820002
0.64999998 -0.029999999 -0.15700001 0 0 0 0 0.06983
0.63999999 -0.029999999 -0.15700001 0 0 0 0 0.069839999
0.64899999 -0.029999999 -0.161 0 0 0 0 0.069849998
0.65600002 -0.030999999 -0.16500001 0 0 0 0 0.069859996
0.66000003 -0.030999999 -0.168 0 0 0 0 0.069870003
0.65499997 -0.030999999 -0.169 0 0 0 0 0.069880001
0.671 -0.032000002 -0.175 0 0 0 0 0.06989
0.66399997 -0.032000002 -0.176 0 0 0 0 0.069899999
0.67400002 -0.033 -0.18099999 0 0 0 0 0.069909997
0.66500002 -0.033 -0.18099999 0 0 0 0 0.069920003
0.662 -0.033 -0.182 0 0 0 0 0.069930002
0.667 -0.033 -0.186 0 0 0 0 0.069940001
0.68000001 -0.034000002 -0.192 0 0 0 0 0.069949999
0.67900002 -0.034000002 -0.193 0 0 0 0 0.069959998
0.66900003 -0.034000002 -0.193 0 0 0 0 0.069969997
0.67799997 -0.034000002 -0.198 0 0 0 0 0.069980003
0.66799998 -0.034000002 -0.197 0 0 0 0 0.069990002
0.67199999 -0.034000002 -0.20100001 0 0 0 0 0.07
0.68300003 -0.035 -0.206 0 0 0 0 0.070009999
0.662 -0.034000002 -0.20200001 0 0 0 0 0.070019998
0.667 -0.035 -0.206 0 0 0 0 0.070029996
0.67000002 -0.035 -0.20900001 0 0 0 0 0.070040002
0.66900003 -0.035 -0.211 0 0 0 0 0.070050001
0.65700001 -0.034000002 -0.20900001 0 0 0 0 0.07006
0.68300003 -0.035999998 -0.22 0 0 0 0 0.070069999
0.63 -0.033 -0.205 0 0 0 0 0.070079997
0.63300002 -0.033 -0.208 0 0 0 0 0.070090003
0.63700002 -0.034000002 -0.212 0 0 0 0 0.070100002
0.64200002 -0.034000002 -0.21600001 0 0 0 0 0.070110001
0.64200002 -0.034000002 -0.21799999 0 0 0 0 0.070119999
0.63700002 -0.034000002 -0.21799999 0 0 0 0 0.070129998
0.64300001 -0.034000002 -0.222 0 0 0 0 0.070139997
0.634 -0.034000002 -0.221 0 0 0 0 0.070150003
0.64200002 -0.034000002 -0.226 0 0 0 0 0.070160002
0.64499998 -0.035 -0.23 0 0 0 0 0.07017
0.64200002 -0.035 -0.23100001 0 0 0 0 0.070179999
0.63999999 -0.034000002 -0.23199999 0 0 0 0 0.070189998
0.63499999 -0.034000002 -0.233 0 0 0 0 0.070200004
0.64300001 -0.035 -0.23800001 0 0 0 0 0.070210002
0.63800001 -0.034000002 -0.23800001 0 0 0 0 0.070220001
0.648 -0.035 -0.244 0 0 0 0 0.07023
0.63700002 -0.034000002 -0.242 0 0 0 0 0.070239998
0.64200002 -0.035 -0.24600001 0 0 0 0 0.070249997
0.64399999 -0.035 -0.249 0 0 0 0 0.070260003
0.64300001 -0.035 -0.25099999 0 0 0 0 0.070270002
0.63800001 -0.034000002 -0.25099999 0 0 0 0 0.070280001
0.64099997 -0.035 -0.25400001 0 0 0 0 0.070289999
0.64200002 -0.035 -0.257 0 0 0 0 0.070299998
0.64200002 -0.035 -0.259 0 0 0 0 0.070309997
0.64099997 -0.034000002 -0.26100001 0 0 0 0 0.070320003
0.648 -0.035 -0.266 0 0 0 0 0.070330001
0.64300001 -0.034000002 -0.266 0 0 0 0 0.07034
0.64499998 -0.034000002 -0.26899999 0 0 0 0 0.070349999
0.64700001 -0.034000002 -0.273 1 0 0 0 0.070359997
0.64499998 -0.034000002 -0.27399999 1 0 0 0 0.070370004
0.64499998 -0.034000002 -0.27599999 1 0 0 0 0.070380002
0.64499998 -0.034000002 -0.278 1 0 0 0 0.070390001
0.64200002 -0.034000002 -0.27900001 1 0 0 0 0.0704
0.64499998 -0.034000002 -0.28299999 1 0 0 0 0.070409998
0.648 -0.034000002 -0.28600001 1 0 0 0 0.070419997
0.64399999 -0.033 -0.28600001 1 0 0 0 0.070430003
0.64700001 -0.033 -0.28999999 1 0 0 0 0.070440002
0.648 -0.033 -0.292 1 0 0 0 0.07045
0.64600003 -0.033 -0.294 1 0 0 0 0.070459999
0.653 -0.033 -0.29899999 1 0 0 0 0.070469998
0.65100002 -0.033 -0.30000001 1 0 0 0 0.070479997
0.64999998 -0.033 -0.30199999 1 0 0 0 0.070490003
0.648 -0.032000002 -0.30399999 1 0 0 0 0.070500001
0.64999998 -0.032000002 -0.30700001 1 0 0 0 0.07051
0.64700001 -0.032000002 -0.308 1 0 0 0 0.070519999
0.65499997 -0.032000002 -0.31400001 1 0 0 0 0.070529997
0.65399998 -0.032000002 -0.315 1 0 0 0 0.070540003
0.653 -0.030999999 -0.317 1 0 0 0 0.070550002
0.65200001 -0.030999999 -0.31900001 2 0 0 0 0.070560001
0.653 -0.030999999 -0.32100001 2 0 0 0 0.07057
0.65399998 -0.030999999 -0.324 2 0 0 0 0.070579998
0.65600002 -0.030999999 -0.32699999 2 0 0 0 0.070589997
0.65399998 -0.029999999 -0.32800001 2 0 0 0 0.070600003
0.653 -0.029999999 -0.33000001 2 0 0 0 0.070610002
0.65499997 -0.029999999 -0.333 2 0 0 0 0.07062
0.65399998 -0.028999999 -0.33500001 2 0 0 0 0.070629999
0.653 -0.028999999 -0.336 2 0 0 0 0.070639998
0.65499997 -0.028999999 -0.33899999 2 0 0 0 0.070649996
0.65600002 -0.028000001 -0.34200001 2 0 0 0 0.070660003
0.65499997 -0.028000001 -0.34400001 2 0 0 0 0.070670001
0.65499997 -0.027000001 -0.34599999 2 0 0 0 0.07068
0.65700001 -0.027000001 -0.34900001 2 0 0 0 0.070689999
0.653 -0.027000001 -0.34900001 2 0 0 0 0.070699997
0.65399998 -0.026000001 -0.352 2 0 0 0 0.070710003
0.65499997 -0.026000001 -0.354 2 0 0 0 0.070720002
0.65700001 -0.026000001 -0.35699999 3 0 0 0 0.070730001
0.65600002 -0.025 -0.359 3 0 0 0 0.070739999
0.65799999 -0.025 -0.36199999 3 0 0 0 0.070749998
0.65399998 -0.024 -0.36199999 3 0 0 0 0.070759997
0.65600002 -0.024 -0.36500001 3 0 0 0 0.070770003
0.65399998 -0.023 -0.366 3 0 0 0 0.070780002
0.65799999 -0.023 -0.37 3 0 0 0 0.07079
0.65799999 -0.022 -0.37200001 3 0 0 0 0.070799999
0.65700001 -0.022 -0.37400001 3 0 0 0 0.070809998
0.65499997 -0.021 -0.375 3 0 0 0 0.070819996
0.65700001 -0.021 -0.37799999 3 0 0 0 0.070830002
0.65600002 -0.02 -0.37900001 3 0 0 0 0.070840001
0.65700001 -0.02 -0.382 3 0 0 0 0.07085
0.65799999 -0.018999999 -0.384 4 0 0 0 0.070859998
0.65899998 -0.018999999 -0.38699999 4 0 0 0 0.070869997
0.662 -0.017999999 -0.38999999 4 0 0 0 0.070880003
0.65899998 -0.017000001 -0.38999999 4 0 0 0 0.070890002
0.65799999 -0.017000001 -0.39199999 4 0 0 0 0.070900001
0.66000003 -0.016000001 -0.39500001 4 0 0 0 0.070909999
0.65899998 -0.016000001 -0.396 4 0 0 0 0.070919998
0.65899998 -0.015 -0.39700001 4 0 0 0 0.070929997
0.662 -0.014 -0.40099999 4 0 0 0 0.070940003
0.66100001 -0.014 -0.403 4 0 0 0 0.070950001
0.66000003 -0.013 -0.40400001 5 0 0 0 0.07096
0.662 -0.012 -0.40700001 5 0 0 0 0.070969999
0.662 -0.012 -0.40900001 5 0 0 0 0.070979998
0.66299999 -0.011 -0.41100001 5 0 0 0 0.070990004
0.66100001 -0.0099999998 -0.41100001 5 0 0 0 0.071000002
0.662 -0.0099999998 -0.41299999 5 0 0 0 0.071010001
0.65899998 -0.0089999996 -0.414 6 0 0 0 0.07102
0.66299999 -0.0080000004 -0.417 6 0 0 0 0.071029998
0.66000003 -0.0080000004 -0.41800001 6 0 0 0 0.071039997
0.65899998 -0.0070000002 -0.41800001 6 0 0 0 0.071050003
0.66299999 -0.0060000001 -0.42300001 6 0 0 0 0.071060002
0.662 -0.0049999999 -0.42399999 6 0 0 0 0.071070001
0.66299999 -0.0049999999 -0.42500001 8 0 0 0 0.071079999
0.66399997 -0.0040000002 -0.428 8 0 0 0 0.071089998
0.66399997 -0.003 -0.42899999 8 0 0 0 0.071099997
0.66000003 -0.0020000001 -0.428 9 0 0 0 0.071110003
0.667 -0.001 -0.43399999 10 0 0 0 0.071120001
0.667 -0.001 -0.435 11 0 0 0 0.07113
0.66600001 0 -0.43599999 9 0 0 0 0.071139999
0.66500002 0 -0.43700001 9 0 0 0 0.071149997
0.667 0.001 -0.44 10 0 0 0 0.071160004
0.667 0.0020000001 -0.44100001 12 0 0 0 0.071170002
0.66399997 0.003 -0.44100001 11 0 0 0 0.071180001
0.66600001 0.003 -0.44299999 11 0 0 0 0.07119
0.66799998 0.0040000002 -0.44600001 14 0 0 0 0.071199998
0.66500002 0.0049999999 -0.44499999 13 0 0 0 0.071209997
0.671 0.0060000001 -0.44999999 12 0 0 0 0.071220003
0.671 0.0070000002 -0.45100001 13 0 0 0 0.071230002
0.67000002 0.0080000004 -0.45199999 12 0 0 0 0.07124
0.67000002 0.0089999996 -0.45300001 13 0 0 0 0.071249999
0.66900003 0.0099999998 -0.45300001 12 0 0 0 0.071259998
0.66900003 0.011 -0.454 13 0 0 0 0.071269996
0.66799998 0.012 -0.45500001 13 0 0 0 0.071280003
0.67199999 0.013 -0.458 14 0 0 0 0.071290001
0.671 0.013 -0.45899999 14 0 0 0 0.0713
0.671 0.014 -0.45899999 15 0 0 0 0.071309999
0.67199999 0.015 -0.461 16 0 0 0 0.071319997
0.67199999 0.016000001 -0.46200001 15 0 0 0 0.071330003
0.671 0.017000001 -0.46200001 16 0 0 0 0.071340002
0.67400002 0.017999999 -0.465 17 0 0 0 0.071350001
0.67400002 0.018999999 -0.46599999 17 0 0 0 0.071359999
0.67500001 0.02 -0.46700001 16 0 0 0 0.071369998
0.67299998 0.021 -0.46599999 18 0 0 0 0.071379997
0.676 0.022 -0.46900001 17 0 0 0 0.071390003
0.67500001 0.023 -0.46900001 19 0 0 0 0.071400002
0.676 0.024 -0.47 17 0 0 0 0.07141
0.67799997 0.025 -0.472 19 0 0 0 0.071419999
0.67699999 0.026000001 -0.472 18 0 0 0 0.071429998
0.67699999 0.027000001 -0.47299999 19 0 0 0 0.071439996
0.67900002 0.028000001 -0.47400001 17 0 0 0 0.071450002
0.67799997 0.028999999 -0.47400001 19 0 0 0 0.071460001
0.67799997 0.029999999 -0.47499999 16 0 0 0 0.07147
0.67900002 0.030999999 -0.47499999 20 0 0 0 0.071479999
0.68099999 0.032000002 -0.477 20 0 0 0 0.071489997
0.68099999 0.033 -0.477 21 0 0 0 0.071500003
0.67799997 0.034000002 -0.47600001 21 0 0 0 0.071510002
0.68099999 0.035 -0.47799999 20 0 0 0 0.071520001
0.68099999 0.035999998 -0.47799999 19 0 0 0 0.071529999
0.68099999 0.037 -0.47799999 20 0 0 0 0.071539998
0.68099999 0.037999999 -0.47799999 20 0 0 0 0.071549997
0.68099999 0.039000001 -0.47799999 19 0 0 0 0.071560003
0.68099999 0.039999999 -0.47799999 21 0 0 0 0.071570002
0.68400002 0.041000001 -0.48100001 20 0 0 0 0.07158
0.68099999 0.041999999 -0.47799999 21 0 0 0 0.071589999
0.685 0.043000001 -0.48100001 19 0 0 0 0.071599998
0.68400002 0.044 -0.47999999 21 0 0 0 0.071610004
0.68599999 0.045000002 -0.48100001 21 0 0 0 0.071620002
0.68599999 0.046 -0.48100001 19 0 0 0 0.071630001
0.68599999 0.046999998 -0.48100001 18 0 0 0 0.07164
0.68800002 0.048 -0.48199999 18 0 0 0 0.071649998
0.68800002 0.048999999 -0.48100001 18 0 0 0 0.071659997
0.69 0.050000001 -0.48199999 18 0 0 0 0.071670003
0.69099998 0.050999999 -0.48199999 22 0 0 0 0.071680002
0.69 0.052000001 -0.48199999 16 0 0 0 0.071690001
0.68900001 0.052999999 -0.47999999 20 0 0 0 0.071699999
0.68900001 0.054000001 -0.47999999 19 0 0 0 0.071709998
0.69300002 0.055 -0.48199999 18 0 0 0 0.071719997
0.69199997 0.056000002 -0.48100001 16 0 0 0 0.071730003
0.69199997 0.057 -0.47999999 22 0 0 0 0.071740001
0.69199997 0.057999998 -0.47999999 19 0 0 0 0.07175
0.69 0.057999998 -0.477 18 0 0 0 0.071759999
0.69099998 0.059 -0.477 16 0 0 0 0.071769997
0.69400001 0.059999999 -0.47799999 16 0 0 0 0.071780004
0.69499999 0.061000001 -0.47799999 20 0 0 0 0.071790002
0.69499999 0.061999999 -0.477 18 0 0 0 0.071800001
0.69800001 0.063000001 -0.47799999 17 0 0 0 0.07181
0.69499999 0.064000003 -0.47499999 19 0 0 0 0.071819998
0.69800001 0.064999998 -0.47600001 18 0 0 0 0.071829997
0.69800001 0.066 -0.47600001 16 0 0 0 0.071840003
0.69599998 0.066 -0.47299999 17 0 0 0 0.071850002
0.69800001 0.067000002 -0.47299999 16 0 0 0 0.07186
0.69999999 0.068000004 -0.47400001 16 0 0 0 0.071869999
0.699 0.068999998 -0.472 15 0 0 0 0.071879998
0.69999999 0.07 -0.47099999 15 0 0 0 0.071889997
0.69999999 0.071000002 -0.47 15 0 0 0 0.071900003
0.70099998 0.071999997 -0.46900001 13 0 0 0 0.071910001
0.70099998 0.071999997 -0.46799999 14 0 0 0 0.07192
0.70200002 0.072999999 -0.46700001 14 0 0 0 0.071929999
0.70599997 0.074000001 -0.46900001 14 0 0 0 0.071939997
0.70099998 0.075000003 -0.46399999 14 0 0 0 0.071950004
0.70700002 0.075999998 -0.46700001 14 0 0 0 0.071960002
0.70599997 0.077 -0.465 12 0 0 0 0.071970001
0.70700002 0.077 -0.46399999 12 0 0 0 0.07198
0.70599997 0.078000002 -0.46200001 12 0 0 0 0.071989998
0.70700002 0.079000004 -0.461 13 0 0 0 0.071999997
0.70899999 0.079000004 -0.461 11 0 0 0 0.072010003
0.70599997 0.079999998 -0.45699999 11 0 0 0 0.072020002
0.708 0.081 -0.45699999 11 0 0 0 0.07203
0.71100003 0.081 -0.45699999 11 0 0 0 0.072039999
0.70899999 0.082000002 -0.454 11 0 0 0 0.072049998
0.708 0.082000002 -0.45199999 11 0 0 0 0.072059996
0.70899999 0.082999997 -0.45100001 10 0 0 0 0.072070003
0.71100003 0.083999999 -0.45100001 11 0 0 0 0.072080001
0.71200001 0.083999999 -0.449 9 0 0 0 0.07209
0.713 0.085000001 -0.44800001 9 0 0 0 0.072099999
0.71399999 0.086000003 -0.447 10 0 0 0 0.072109997
0.71399999 0.086000003 -0.44499999 10 0 0 0 0.072120003
0.71499997 0.086999997 -0.44400001 9 0 0 0 0.072130002
0.71200001 0.086999997 -0.44 8 0 0 0 0.072140001
0.713 0.086999997 -0.43900001 8 0 0 0 0.072149999
0.71799999 0.088 -0.44 7 0 0 0 0.072159998
0.71799999 0.089000002 -0.43799999 7 0 0 0 0.072169997
0.71200001 0.089000002 -0.43200001 7 0 0 0 0.072180003
0.71200001 0.089000002 -0.43099999 7 0 0 0 0.072190002
0.71799999 0.090000004 -0.43200001 6 0 0 0 0.0722
0.71399999 0.090000004 -0.428 6 0 0 0 0.072209999
0.713 0.090000004 -0.42500001 6 0 0 0 0.072219998
0.71899998 0.090999998 -0.42699999 6 0 0 0 0.072229996
0.71899998 0.092 -0.42500001 6 0 0 0 0.072240002
0.72100002 0.092 -0.42399999 6 0 0 0 0.072250001
0.71799999 0.092 -0.41999999 5 0 0 0 0.07226
0.71899998 0.093000002 -0.41800001 5 0 0 0 0.072269998
0.72000003 0.093000002 -0.417 5 0 0 0 0.072279997
0.71899998 0.093000002 -0.414 5 0 0 0 0.072290003
0.71799999 0.093000002 -0.41100001 5 0 0 0 0.072300002
0.72100002 0.093999997 -0.41100001 5 0 0 0 0.072310001
0.72000003 0.093999997 -0.40799999 5 0 0 0 0.072319999
0.72100002 0.093999997 -0.40700001 5 0 0 0 0.072329998
0.72000003 0.093999997 -0.403 5 0 0 0 0.072339997
0.72100002 0.094999999 -0.40200001 4 0 0 0 0.072350003
0.722 0.094999999 -0.40000001 4 0 0 0 0.072360002
0.72299999 0.094999999 -0.39899999 4 0 0 0 0.07237
0.72399998 0.096000001 -0.39700001 4 0 0 0 0.072379999
0.727 0.096000001 -0.396 4 0 0 0 0.072389998
0.72100002 0.096000001 -0.391 4 0 0 0 0.072400004
0.72399998 0.096000001 -0.38999999 4 0 0 0 0.072410002
0.71799999 0.094999999 -0.38499999 4 0 0 0 0.072420001
0.722 0.096000001 -0.384 4 0 0 0 0.07243
0.72399998 0.096000001 -0.38299999 3 0 0 0 0.072439998
0.72600001 0.097000003 -0.382 3 0 0 0 0.072449997
0.72299999 0.096000001 -0.37799999 3 0 0 0 0.072460003
0.722 0.096000001 -0.375 3 0 0 0 0.072470002
0.72299999 0.096000001 -0.373 3 0 0 0 0.072480001
0.72299999 0.096000001 -0.37099999 3 0 0 0 0.072489999
0.727 0.097000003 -0.37 3 0 0 0 0.072499998
0.72799999 0.097000003 -0.368 3 0 0 0 0.072509997
0.72600001 0.097000003 -0.36500001 3 0 0 0 0.072520003
0.72500002 0.097000003 -0.36199999 3 0 0 0 0.072530001
0.727 0.097000003 -0.361 3 0 0 0 0.07254
0.727 0.097000003 -0.35800001 3 0 0 0 0.072549999
0.727 0.097000003 -0.35600001 3 0 0 0 0.072559997
0.72299999 0.096000001 -0.352 3 0 0 0 0.072570004
0.72000003 0.096000001 -0.34799999 3 0 0 0 0.072580002
0.72399998 0.096000001 -0.34799999 3 0 0 0 0.072590001
0.72299999 0.096000001 -0.34400001 2 0 0 0 0.0726
0.72299999 0.096000001 -0.34200001 2 0 0 0 0.072609998
0.72500002 0.096000001 -0.34 2 0 0 0 0.072619997
0.72600001 0.096000001 -0.338 2 0 0 0 0.072630003
0.72600001 0.096000001 -0.336 2 0 0 0 0.072640002
0.72000003 0.094999999 -0.331 2 0 0 0 0.07265
0.72600001 0.094999999 -0.331 2 0 0 0 0.072659999
0.72500002 0.094999999 -0.32800001 2 0 0 0 0.072669998
0.72600001 0.094999999 -0.32600001 2 0 0 0 0.072679996
0.72399998 0.093999997 -0.32300001 2 0 0 0 0.072690003
0.72500002 0.093999997 -0.32100001 2 0 0 0 0.072700001
0.72600001 0.093999997 -0.31900001 2 0 0 0 0.07271
0.72399998 0.093999997 -0.31600001 2 0 0 0 0.072719999
0.72500002 0.093999997 -0.31400001 2 0 0 0 0.072729997
0.722 0.093000002 -0.31 2 0 0 0 0.072740003
0.72600001 0.093000002 -0.30899999 2 0 0 0 0.072750002
0.71899998 0.092 -0.30399999 2 0 0 0 0.072760001
0.72299999 0.092 -0.303 2 0 0 0 0.07277
0.727 0.092 -0.30199999 2 0 0 0 0.072779998
0.72600001 0.092 -0.29899999 2 0 0 0 0.072789997
0.71899998 0.090999998 -0.294 2 0 0 0 0.072800003
0.72799999 0.092 -0.29499999 2 0 0 0 0.072810002
0.72299999 0.090999998 -0.29100001 2 0 0 0 0.07282
0.72600001 0.090999998 -0.28999999 2 0 0 0 0.072829999
0.72299999 0.090000004 -0.28600001 1 0 0 0 0.072839998
0.72299999 0.090000004 -0.28400001 1 0 0 0 0.072849996
0.722 0.089000002 -0.28099999 1 0 0 0 0.072860003
0.72500002 0.089000002 -0.27900001 1 0 0 0 0.072870001
0.71899998 0.088 -0.27500001 1 0 0 0 0.07288
0.72299999 0.088 -0.27399999 1 0 0 0 0.072889999
0.72399998 0.088 -0.27200001 1 0 0 0 0.072899997
0.72000003 0.086999997 -0.26800001 0 0 0 0 0.072910003
0.72000003 0.086999997 -0.26499999 0 0 0 0 0.072920002
0.71899998 0.086000003 -0.26300001 0 0 0 0 0.072930001
0.71799999 0.085000001 -0.25999999 0 0 0 0 0.072939999
0.72500002 0.086000003 -0.25999999 0 0 0 0 0.072949998
0.72000003 0.085000001 -0.25600001 0 0 0 0 0.072959997
0.71899998 0.083999999 -0.25299999 0 0 0 0 0.072970003
0.71700001 0.083999999 -0.25 0 0 0 0 0.072980002
0.71799999 0.082999997 -0.248 0 0 0 0 0.07299
0.71399999 0.082000002 -0.244 0 0 0 0 0.072999999
0.71100003 0.081 -0.241 0 0 0 0 0.073009998
0.713 0.081 -0.23899999 0 0 0 0 0.073019996
0.71600002 0.081 -0.237 0 0 0 0 0.073030002
0.713 0.079999998 -0.234 0 0 0 0 0.073040001
0.71100003 0.079000004 -0.23100001 0 0 0 0 0.07305
0.71200001 0.079000004 -0.229 0 0 0 0 0.073059998
0.70899999 0.078000002 -0.226 0 0 0 0 0.073069997
0.70999998 0.078000002 -0.22400001 0 0 0 0 0.073080003
0.713 0.078000002 -0.222 0 0 0 0 0.073090002
0.70999998 0.077 -0.219 0 0 0 0 0.073100001
0.70700002 0.075999998 -0.21600001 0 0 0 0 0.073109999
0.713 0.075999998 -0.215 0 0 0 0 0.073119998
0.71200001 0.075000003 -0.213 0 0 0 0 0.073129997
0.71600002 0.075000003 -0.211 0 0 0 0 0.073140003
0.70300001 0.072999999 -0.205 0 0 0 0 0.073150001
0.70899999 0.072999999 -0.205 0 0 0 0 0.07316
0.708 0.072999999 -0.20200001 0 0 0 0 0.073169999
0.71100003 0.071999997 -0.20100001 0 0 0 0 0.073179998
0.713 0.071999997 -0.199 0 0 0 0 0.073190004
0.70499998 0.07 -0.19400001 0 0 0 0 0.073200002
0.704 0.07 -0.192 0 0 0 0 0.073210001
0.704 0.068999998 -0.189 0 0 0 0 0.07322
0.70599997 0.068999998 -0.18700001 0 0 0 0 0.073229998
0.70499998 0.068000004 -0.185 0 0 0 0 0.073239997
0.70899999 0.068000004 -0.184 0 0 0 0 0.073250003
0.704 0.067000002 -0.18000001 0 0 0 0 0.073260002
0.704 0.066 -0.178 0 0 0 0 0.073270001
0.69999999 0.064999998 -0.175 0 0 0 0 0.073279999
0.69999999 0.064000003 -0.17200001 0 0 0 0 0.073289998
0.69700003 0.064000003 -0.169 0 0 0 0 0.073299997
0.704 0.063000001 -0.169 0 0 0 0 0.073310003
0.69800001 0.061999999 -0.16500001 0 0 0 0 0.073320001
0.69300002 0.061000001 -0.162 0 0 0 0 0.07333
0.69999999 0.061000001 -0.161 0 0 0 0 0.073339999
0.699 0.059999999 -0.15899999 0 0 0 0 0.073349997
0.70300001 0.059999999 -0.15700001 0 0 0 0 0.073360004
0.70200002 0.059 -0.155 0 0 0 0 0.073370002
0.69499999 0.057999998 -0.15099999 0 0 0 0 0.073380001
0.69499999 0.057 -0.149 0 0 0 0 0.07339
0.704 0.057 -0.148 0 0 0 0 0.073399998
0.70200002 0.057 -0.146 0 0 0 0 0.073409997
0.704 0.056000002 -0.14399999 0 0 0 0 0.073420003
0.70599997 0.055 -0.142 0 0 0 0 0.073430002
0.708 0.055 -0.14 0 0 0 0 0.07344
0.70999998 0.054000001 -0.138 0 0 0 0 0.073449999
0.70700002 0.052999999 -0.13600001 0 0 0 0 0.073459998
0.71200001 0.052999999 -0.134 0 0 0 0 0.073469996
0.71799999 0.052999999 -0.133 0 0 0 0 0.073480003
0.71799999 0.052000001 -0.131 0 0 0 0 0.073490001
0.73100001 0.052000001 -0.131 0 0 0 0 0.0735
0.73400003 0.052000001 -0.12899999 0 0 0 0 0.073509999
0.74400002 0.052000001 -0.12899999 0 0 0 0 0.073519997
0.76599997 0.052000001 -0.13 0 0 0 0 0.073530003
0.778 0.052000001 -0.13 0 0 0 0 0.073540002
0.78899997 0.052000001 -0.12899999 0 0 0 0 0.073550001
0.787 0.050999999 -0.126 0 0 0 0 0.073559999
0.80800003 0.052000001 -0.127 0 0 0 0 0.073569998
0.81599998 0.050999999 -0.126 0 0 0 0 0.073579997
0.833 0.050999999 -0.126 0 0 0 0 0.073590003
0.88 0.052999999 -0.131 0 0 0 0 0.073600002
0.898 0.054000001 -0.13 0 0 0 0 0.07361
0.92500001 0.054000001 -0.131 0 0 0 0 0.073619999
0.92299998 0.052999999 -0.12800001 0 0 0 0 0.073629998
0.91799998 0.052000001 -0.125 0 0 0 0 0.073639996
0.93599999 0.052000001 -0.124 0 0 0 0 0.073650002
0.92299998 0.050000001 -0.12 0 0 0 0 0.073660001
0.93900001 0.050000001 -0.119 0 0 0 0 0.07367
0.91900003 0.046999998 -0.114 0 0 0 0 0.073679999
0.92000002 0.046 -0.111 0 0 0 0 0.073689997
0.95899999 0.046999998 -0.113 0 0 0 0 0.073700003
0.95700002 0.046 -0.11 0 0 0 0 0.073710002
0.95499998 0.045000002 -0.106 0 0 0 0 0.073720001
0.95599997 0.044 -0.104 0 0 0 0 0.073729999
0.972 0.043000001 -0.102 0 0 0 0 0.073739998
0.954 0.041000001 -0.097999997 0 0 0 0 0.073749997
0.96799999 0.041000001 -0.096000001 0 0 0 0 0.073760003
0.954 0.039000001 -0.092 0 0 0 0 0.073770002
0.954 0.037999999 -0.089000002 0 0 0 0 0.07378
0.94400001 0.037 -0.085000001 0 0 0 0 0.073789999
0.95499998 0.035999998 -0.082999997 0 0 0 0 0.073799998
0.963 0.035 -0.081 0 0 0 0 0.073810004
0.97399998 0.034000002 -0.079000004 0 0 0 0 0.073820002
0.97000003 0.033 -0.075999998 0 0 0 0 0.073830001
0.99900001 0.033 -0.075000003 0 0 0 0 0.07384
1.0140001 0.032000002 -0.072999999 0 0 0 0 0.073849998
1.013 0.030999999 -0.07 0 0 0 0 0.073859997
1.066 0.030999999 -0.07 0 0 0 0 0.073870003
1.276 0.035 -0.081 0 0 0 0 0.073880002
1.454 0.039000001 -0.088 0 0 0 0 0.073890001
1.456 0.037 -0.082999997 5 0 0 0 0.073899999
1.465 0.035 -0.079000004 3 0 0 0 0.073909998
1.4910001 0.034000002 -0.075999998 1 0 0 0 0.073919997
1.408 0.029999999 -0.068000004 0 0 0 0 0.073930003
1.198 0.024 -0.054000001 0 0 0 0 0.073940001
1.054 0.02 -0.044 0 0 0 0 0.07395
1.045 0.017999999 -0.041000001 0 0 0 0 0.073959999
1.131 0.017999999 -0.041000001 0 0 0 0 0.073969997
1.421 0.021 -0.046999998 0 0 0 0 0.073980004
1.513 0.021 -0.046 2 0 0 0 0.073990002
1.525 0.018999999 -0.041999999 6 0 0 0 0.074000001
1.529 0.017000001 -0.037999999 7 0 0 0 0.07401
1.541 0.015 -0.033 6 0 0 0 0.074019998
1.559 0.013 -0.028999999 6 0 0 0 0.074029997
1.562 0.011 -0.024 8 0 0 0 0.074040003
1.567 0.0089999996 -0.02 7 0 0 0 0.074050002
1.584 0.0070000002 -0.016000001 8 0 0 0 0.07406
1.581 0.0049999999 -0.011 10 0 0 0 0.074069999
1.584 0.003 -0.0060000001 11 0 0 0 0.074079998
1.594 0.001 -0.0020000001 9 0 0 0 0.074089997
1.603 -0.001 0.0020000001 8 0 0 0 0.074100003
1.615 -0.003 0.0070000002 10 0 0 0 0.074110001
1.612 -0.0049999999 0.012 13 0 0 0 0.07412
1.612 -0.0070000002 0.016000001 12 0 0 0 0.074129999
1.62 -0.0089999996 0.021 9 0 0 0 0.074139997
1.6440001 -0.012 0.026000001 8 0 0 0 0.074150003
1.665 -0.014 0.032000002 9 0 0 0 0.074160002
1.682 -0.017000001 0.037 11 0 0 0 0.074170001
1.691 -0.018999999 0.041999999 9 0 0 0 0.07418
1.707 -0.022 0.046999998 8 0 0 0 0.074189998
1.728 -0.025 0.052999999 8 0 0 0 0.074199997
1.763 -0.028000001 0.059 8 0 0 0 0.074210003
1.821 -0.030999999 0.067000002 11 0 0 0 0.074220002
2.0209999 -0.037 0.079999998 39 0 0 0 0.07423
2.1289999 -0.041999999 0.090000004 115 0 0 0 0.074239999
2.1530001 -0.046 0.097000003 100 0 0 0 0.074249998
2.168 -0.050000001 0.105 72 0 0 0 0.074259996
2.211 -0.054000001 0.113 71 0 0 0 0.074270003
2.346 -0.059999999 0.127 150 0 0 0 0.074280001
2.467 -0.067000002 0.14 119 0 0 0 0.07429
2.4820001 -0.071000002 0.148 131 0 0 0 0.074299999
2.483 -0.075000003 0.156 128 0 0 0 0.074309997
2.4960001 -0.079000004 0.164 129 0 0 0 0.074320003
2.5009999 -0.082999997 0.171 129 0 0 0 0.074330002
2.5050001 -0.086999997 0.17900001 119 0 0 0 0.074340001
2.5120001 -0.090999998 0.18700001 125 0 0 0 0.074349999
2.5209999 -0.094999999 0.19499999 123 0 0 0 0.074359998
2.529 -0.098999999 0.20299999 124 0 0 0 0.074369997
2.536 -0.103 0.20999999 118 0 0 0 0.074380003
2.5420001 -0.107 0.21799999 112 0 0 0 0.074390002
2.549 -0.111 0.226 109 0 0 0 0.0744
2.5510001 -0.115 0.234 108 0 0 0 0.074409999
2.563 -0.12 0.242 107 0 0 0 0.074419998
2.569 -0.124 0.25 104 0 0 0 0.074429996
2.5739999 -0.12800001 0.25799999 105 0 0 0 0.074440002
2.5869999 -0.133 0.26699999 106 0 0 0 0.074450001
2.5880001 -0.13699999 0.27399999 103 0 0 0 0.07446
2.5940001 -0.141 0.28200001 100 0 0 0 0.074469998
2.608 -0.146 0.29100001 103 0 0 0 0.074479997
2.6140001 -0.15099999 0.30000001 108 0 0 0 0.074490003
2.622 -0.155 0.308 105 0 0 0 0.074500002
2.6300001 -0.16 0.317 94 0 0 0 0.074510001
2.638 -0.16500001 0.32499999 89 0 0 0 0.074519999
2.6440001 -0.169 0.333 91 0 0 0 0.074529998
2.661 -0.175 0.34299999 94 0 0 0 0.074539997
2.6619999 -0.17900001 0.35100001 92 0 0 0 0.074550003
2.6700001 -0.184 0.36000001 87 0 0 0 0.074560001
2.6760001 -0.18799999 0.368 93 0 0 0 0.07457
2.6830001 -0.193 0.37599999 94 0 0 0 0.074579999
2.6919999 -0.198 0.38499999 102 0 0 0 0.074589998
2.6989999 -0.20299999 0.39399999 106 0 0 0 0.074600004
2.7090001 -0.20900001 0.403 93 0 0 0 0.074610002
2.7130001 -0.213 0.412 91 0 0 0 0.074620001
2.723 -0.219 0.421 96 0 0 0 0.07463
2.7290001 -0.22400001 0.43000001 93 0 0 0 0.074639998
2.7449999 -0.23 0.44 87 0 0 0 0.074649997
2.757 -0.235 0.44999999 82 0 0 0 0.074660003
2.76 -0.23999999 0.458 86 0 0 0 0.074670002
2.7679999 -0.24600001 0.46700001 87 0 0 0 0.074680001
2.7739999 -0.25099999 0.47600001 79 0 0 0 0.074689999
2.7850001 -0.257 0.486 76 0 0 0 0.074699998
2.799 -0.26300001 0.49599999 77 0 0 0 0.074709997
2.802 -0.26800001 0.505 70 0 0 0 0.074720003
2.813 -0.27399999 0.514 65 0 0 0 0.074730001
2.8299999 -0.28 0.52600002 57 0 0 0 0.07474
2.8369999 -0.28600001 0.53500003 55 0 0 0 0.074749999
2.845 -0.292 0.54400003 58 0 0 0 0.074759997
2.855 -0.29800001 0.55400002 55 0 0 0 0.074770004
2.868 -0.30399999 0.565 55 0 0 0 0.074780002
2.8770001 -0.31 0.57499999 56 0 0 0 0.074790001
2.8859999 -0.31600001 0.58499998 53 0 0 0 0.0748
2.901 -0.32300001 0.59600002 54 0 0 0 0.074809998
2.908 -0.329 0.60600001 54 0 0 0 0.074819997
2.921 -0.336 0.61699998 53 0 0 0 0.074830003
2.9289999 -0.34200001 0.62599999 51 0 0 0 0.074840002
2.9449999 -0.34999999 0.63800001 49 0 0 0 0.07485
2.9630001 -0.35699999 0.64999998 51 0 0 0 0.074859999
2.974 -0.36399999 0.66100001 50 0 0 0 0.074869998
2.9779999 -0.37 0.67000002 51 0 0 0 0.074879996
2.9960001 -0.37799999 0.68300003 51 0 0 0 0.074890003
3.0109999 -0.38499999 0.69499999 52 0 0 0 0.074900001
3.0179999 -0.39199999 0.70499998 52 0 0 0 0.07491
3.0309999 -0.39899999 0.71600002 51 0 0 0 0.074919999
3.0450001 -0.40700001 0.72799999 53 0 0 0 0.074929997
3.0569999 -0.414 0.73900002 54 0 0 0 0.074940003
3.0710001 -0.42199999 0.75099999 55 0 0 0 0.074950002
3.0810001 -0.42899999 0.76200002 54 0 0 0 0.074960001
3.099 -0.43799999 0.77499998 63 0 0 0 0.074969999
3.1029999 -0.44400001 0.78500003 150 0 0 0 0.074979998
3.1029999 -0.45100001 0.79299998 151 0 0 0 0.074989997
3.1029999 -0.456 0.80199999 151 0 0 0 0.075000003
3.0899999 -0.461 0.80699998 150 0 0 0 0.075010002
3.0420001 -0.45899999 0.80299997 117 0 0 0 0.07502
3.017 -0.46200001 0.80500001 150 0 0 0 0.075029999
3.013 -0.46700001 0.81199998 150 0 0 0 0.075039998
3.003 -0.47099999 0.81699997 145 0 0 0 0.075049996
2.997 -0.47600001 0.824 105 0 0 0 0.075060003
2.9909999 -0.48100001 0.82999998 47 0 0 0 0.075070001
2.98 -0.486 0.83499998 36 0 0 0 0.07508
2.97 -0.49000001 0.84100002 46 0 0 0 0.075089999
2.96 -0.49399999 0.84600002 67 0 0 0 0.075099997
2.9560001 -0.5 0.85299999 150 0 0 0 0.075110003
2.9579999 -0.50599998 0.86199999 140 0 0 0 0.075120002
2.984 -0.51700002 0.87699997 150 0 0 0 0.075130001
2.997 -0.52499998 0.889 150 0 0 0 0.075139999
3.003 -0.53200001 0.89899999 150 0 0 0 0.075149998
3.0009999 -0.53799999 0.90600002 150 0 0 0 0.075159997
2.984 -0.542 0.90899998 115 0 0 0 0.075170003
2.971 -0.54500002 0.91299999 118 0 0 0 0.075180002
2.9619999 -0.55000001 0.91799998 116 0 0 0 0.07519
2.9590001 -0.55599999 0.92500001 61 0 0 0 0.075199999
2.9560001 -0.56199998 0.93199998 43 0 0 0 0.075209998
2.9549999 -0.56800002 0.94 57 0 0 0 0.075220004
2.947 -0.57300001 0.94499999 110 0 0 0 0.075230002
2.944 -0.57800001 0.95200002 126 0 0 0 0.075240001
2.9419999 -0.58399999 0.95899999 113 0 0 0 0.07525
2.9719999 -0.597 0.977 150 0 0 0 0.075259998
2.983 -0.60500002 0.98799998 150 0 0 0 0.075269997
2.9619999 -0.60799998 0.98900002 44 0 0 0 0.075280003
2.9400001 -0.61000001 0.98900002 63 0 0 0 0.075290002
2.9319999 -0.61400002 0.99400002 150 0 0 0 0.075300001
2.9260001 -0.62 1 150 0 0 0 0.075309999
2.925 -0.62599999 1.007 150 0 0 0 0.075319998
2.921 -0.63200003 1.013 135 0 0 0 0.075329997
2.918 -0.63800001 1.02 94 0 0 0 0.075340003
2.918 -0.64399999 1.027 52 0 0 0 0.075350001
2.9189999 -0.65100002 1.035 55 0 0 0 0.07536
2.9119999 -0.65600002 1.04 71 0 0 0 0.075369999
2.898 -0.65899998 1.0420001 72 0 0 0 0.075379997
2.8959999 -0.66600001 1.049 78 0 0 0 0.075390004
2.8929999 -0.671 1.0549999 123 0 0 0 0.075400002
2.8870001 -0.67699999 1.0599999 87 0 0 0 0.075410001
2.915 -0.69 1.0779999 98 0 0 0 0.07542
2.924 -0.699 1.0880001 129 0 0 0 0.075429998
2.9200001 -0.70499998 1.094 71 0 0 0 0.075439997
2.9059999 -0.708 1.096 112 0 0 0 0.075450003
2.898 -0.713 1.1 150 0 0 0 0.075460002
2.891 -0.71799999 1.105 150 0 0 0 0.075470001
2.8859999 -0.72399998 1.11 68 0 0 0 0.075479999
2.859 -0.72399998 1.1059999 62 0 0 0 0.075489998
2.8570001 -0.73000002 1.112 100 0 0 0 0.075499997
2.8570001 -0.73699999 1.119 73 0 0 0 0.075510003
2.8629999 -0.745 1.1289999 66 0 0 0 0.075520001
2.858 -0.75099999 1.1339999 68 0 0 0 0.07553
2.836 -0.75199997 1.131 94 0 0 0 0.075539999
2.826 -0.75599998 1.1339999 96 0 0 0 0.075549997
2.8180001 -0.76099998 1.137 48 0 0 0 0.075560004
2.813 -0.76599997 1.142 38 0 0 0 0.075570002
2.8099999 -0.77200001 1.147 48 0 0 0 0.075580001
2.812 -0.77999997 1.155 62 0 0 0 0.07559
2.8069999 -0.78500003 1.159 80 0 0 0 0.075599998
2.7980001 -0.78899997 1.161 81 0 0 0 0.075609997
2.8010001 -0.79699999 1.169 64 0 0 0 0.075620003
2.8 -0.80400002 1.175 42 0 0 0 0.075630002
2.7980001 -0.81 1.1799999 39 0 0 0 0.07564
2.78 -0.81199998 1.179 34 0 0 0 0.075649999
2.763 -0.81300002 1.177 40 0 0 0 0.075659998
2.7620001 -0.81999999 1.183 67 0 0 0 0.075669996
2.756 -0.82499999 1.187 93 0 0 0 0.075680003
2.757 -0.83200002 1.193 80 0 0 0 0.075690001
2.76 -0.83999997 1.2 69 0 0 0 0.0757
2.76 -0.847 1.206 63 0 0 0 0.075709999
2.7520001 -0.85100001 1.2079999 53 0 0 0 0.075719997
2.7309999 -0.852 1.204 70 0 0 0 0.075730003
2.723 -0.85600001 1.207 121 0 0 0 0.075740002
2.7260001 -0.86400002 1.2130001 97 0 0 0 0.075750001
2.7249999 -0.87099999 1.2180001 65 0 0 0 0.075759999
2.7320001 -0.88 1.227 47 0 0 0 0.075769998
2.721 -0.88300002 1.227 34 0 0 0 0.075779997
2.707 -0.88499999 1.226 44 0 0 0 0.075790003
2.6949999 -0.88800001 1.226 80 0 0 0 0.075800002
2.6900001 -0.89300001 1.228 122 0 0 0 0.07581
2.7 -0.903 1.238 97 0 0 0 0.075819999
2.694 -0.90799999 1.24 76 0 0 0 0.075829998
2.691 -0.91399997 1.244 68 0 0 0 0.075839996
2.6960001 -0.92299998 1.251 54 0 0 0 0.075850002
2.6989999 -0.93000001 1.257 35 0 0 0 0.075860001
2.6949999 -0.93599999 1.26 31 0 0 0 0.07587
2.6819999 -0.93800002 1.258 35 0 0 0 0.075879999
2.6689999 -0.94 1.257 45 0 0 0 0.075889997
2.6619999 -0.94400001 1.258 60 0 0 0 0.075900003
2.665 -0.95200002 1.2640001 73 0 0 0 0.075910002
2.664 -0.95899999 1.268 65 0 0 0 0.075920001
2.6700001 -0.96700001 1.275 53 0 0 0 0.075929999
2.6800001 -0.97799999 1.284 38 0 0 0 0.075939998
2.6930001 -0.98900002 1.294 31 0 0 0 0.075949997
2.6919999 -0.99599999 1.298 33 0 0 0 0.075960003
2.6789999 -0.99699998 1.295 41 0 0 0 0.075970002
2.6659999 -0.99900001 1.293 57 0 0 0 0.07598
2.6589999 -1.003 1.293 61 0 0 0 0.075989999
2.6470001 -1.005 1.291 63 0 0 0 0.075999998
2.6429999 -1.01 1.2920001 64 0 0 0 0.076010004
2.6500001 -1.0190001 1.299 45 0 0 0 0.076020002
2.658 -1.029 1.307 31 0 0 0 0.076030001
2.6600001 -1.036 1.311 31 0 0 0 0.07604
2.6659999 -1.045 1.317 33 0 0 0 0.076049998
2.6700001 -1.053 1.323 39 0 0 0 0.076059997
2.6589999 -1.0549999 1.3200001 45 0 0 0 0.076070003
2.6470001 -1.057 1.317 43 0 0 0 0.076080002
2.6340001 -1.058 1.314 42 0 0 0 0.076090001
2.631 -1.063 1.3150001 50 0 0 0 0.076099999
2.6270001 -1.068 1.316 54 0 0 0 0.076109998
2.625 -1.073 1.317 55 0 0 0 0.076119997
2.619 -1.076 1.316 59 0 0 0 0.076130003
2.6029999 -1.076 1.311 54 0 0 0 0.076140001
2.592 -1.077 1.307 48 0 0 0 0.07615
2.5769999 -1.077 1.302 48 0 0 0 0.076159999
2.5780001 -1.0829999 1.304 46 0 0 0 0.076169997
2.5780001 -1.089 1.306 44 0 0 0 0.076180004
2.579 -1.095 1.309 54 0 0 0 0.076190002
2.579 -1.101 1.311 61 0 0 0 0.076200001
2.5680001 -1.102 1.307 57 0 0 0 0.07621
2.563 -1.1059999 1.306 42 0 0 0 0.076219998
2.5599999 -1.11 1.306 33 0 0 0 0.076229997
2.556 -1.113 1.3049999 34 0 0 0 0.076240003
2.5480001 -1.115 1.302 41 0 0 0 0.076250002
2.5409999 -1.118 1.3 49 0 0 0 0.07626
2.5369999 -1.1210001 1.299 46 0 0 0 0.076269999
2.54 -1.128 1.302 38 0 0 0 0.076279998
2.552 -1.138 1.308 38 0 0 0 0.076289997
2.556 -1.145 1.311 44 0 0 0 0.076300003
2.5420001 -1.1440001 1.3049999 48 0 0 0 0.076310001
2.5409999 -1.148 1.304 43 0 0 0 0.07632
2.5380001 -1.152 1.304 39 0 0 0 0.076329999
2.5469999 -1.161 1.308 38 0 0 0 0.076339997
2.5550001 -1.17 1.313 41 0 0 0 0.076350003
2.5539999 -1.174 1.312 45 0 0 0 0.076360002
2.5480001 -1.176 1.309 49 0 0 0 0.076370001
2.5409999 -1.177 1.3049999 54 0 0 0 0.07638
2.5339999 -1.179 1.302 62 0 0 0 0.076389998
2.5239999 -1.178 1.296 70 0 0 0 0.076399997
2.5239999 -1.182 1.296 76 0 0 0 0.076410003
2.5239999 -1.187 1.295 68 0 0 0 0.076420002
2.527 -1.192 1.296 54 0 0 0 0.07643
2.533 -1.199 1.298 44 0 0 0 0.076439999
2.556 -1.214 1.309 43 0 0 0 0.076449998
2.5699999 -1.225 1.3150001 46 0 0 0 0.076459996
2.5699999 -1.229 1.314 47 0 0 0 0.076470003
2.5639999 -1.23 1.3099999 44 0 0 0 0.076480001
2.5469999 -1.225 1.3 42 0 0 0 0.07649
2.539 -1.225 1.294 45 0 0 0 0.076499999
2.5320001 -1.225 1.289 48 0 0 0 0.076509997
2.529 -1.227 1.286 50 0 0 0 0.076520003
2.529 -1.2309999 1.285 49 0 0 0 0.076530002
2.527 -1.233 1.2819999 50 0 0 0 0.076540001
2.5250001 -1.235 1.279 55 0 0 0 0.076549999
2.5209999 -1.2359999 1.274 61 0 0 0 0.076559998
2.516 -1.2359999 1.27 70 0 0 0 0.076569997
2.5120001 -1.237 1.266 79 0 0 0 0.076580003
2.5150001 -1.2410001 1.265 87 0 0 0 0.076590002
2.5109999 -1.242 1.261 93 0 0 0 0.0766
2.5109999 -1.245 1.258 97 0 0 0 0.076609999
2.5090001 -1.2460001 1.2539999 112 0 0 0 0.076619998
2.5079999 -1.248 1.251 136 0 0 0 0.076629996
2.507 -1.249 1.248 130 0 0 0 0.076640002
2.506 -1.251 1.244 146 0 0 0 0.076650001
2.5039999 -1.252 1.24 138 0 0 0 0.07666
2.4990001 -1.252 1.235 123 0 0 0 0.076669998
2.4990001 -1.2539999 1.232 122 0 0 0 0.076679997
2.5 -1.256 1.229 109 0 0 0 0.076690003
2.5 -1.257 1.225 98 0 0 0 0.076700002
2.4979999 -1.258 1.221 93 0 0 0 0.076710001
2.497 -1.258 1.217 95 0 0 0 0.076719999
2.4909999 -1.257 1.21 97 0 0 0 0.076729998
2.4960001 -1.261 1.209 90 0 0 0 0.076739997
2.497 -1.262 1.205 88 0 0 0 0.076750003
2.4890001 -1.2589999 1.198 83 0 0 0 0.076760001
2.493 -1.262 1.196 77 0 0 0 0.07677
2.494 -1.263 1.192 73 0 0 0 0.076779999
2.4909999 -1.262 1.187 69 0 0 0 0.076789998
2.49 -1.262 1.182 66 0 0 0 0.076800004
2.4909999 -1.263 1.178 65 0 0 0 0.076810002
2.49 -1.2640001 1.174 62 0 0 0 0.076820001
2.4879999 -1.263 1.168 61 0 0 0 0.07683
2.4879999 -1.263 1.164 61 0 0 0 0.076839998
2.49 -1.2640001 1.16 60 0 0 0 0.076849997
2.49 -1.2640001 1.155 62 0 0 0 0.076860003
2.4890001 -1.263 1.15 63 0 0 0 0.076870002
2.4860001 -1.261 1.1440001 65 0 0 0 0.076880001
2.487 -1.261 1.1390001 69 0 0 0 0.076889999
2.4879999 -1.261 1.135 74 0 0 0 0.076899998
2.4890001 -1.261 1.13 80 0 0 0 0.076909997
2.4860001 -1.2589999 1.124 84 0 0 0 0.076920003
2.4909999 -1.261 1.1210001 101 0 0 0 0.076930001
2.4909999 -1.26 1.1160001 121 0 0 0 0.07694
2.49 -1.258 1.11 141 0 0 0 0.076949999
2.5009999 -1.263 1.11 150 0 0 0 0.076959997
2.4960001 -1.2589999 1.102 150 0 0 0 0.076970004
2.5020001 -1.261 1.1 150 0 0 0 0.076980002
2.5039999 -1.261 1.095 143 0 0 0 0.076990001
2.5020001 -1.258 1.0880001 138 0 0 0 0.077
2.5039999 -1.257 1.084 136 0 0 0 0.077009998
2.5109999 -1.26 1.081 139 0 0 0 0.077019997
2.507 -1.255 1.074 116 0 0 0 0.077030003
2.5120001 -1.256 1.0700001 104 0 0 0 0.077040002
2.5139999 -1.255 1.0650001 88 0 0 0 0.07705
2.516 -1.2539999 1.061 84 0 0 0 0.077059999
2.5209999 -1.255 1.057 77 0 0 0 0.077069998
2.5209999 -1.252 1.051 69 0 0 0 0.077079996
2.5239999 -1.251 1.046 57 0 0 0 0.077090003
2.527 -1.251 1.041 47 0 0 0 0.077100001
2.5320001 -1.25 1.0369999 42 0 0 0 0.07711
2.536 -1.25 1.033 41 0 0 0 0.077119999
2.5369999 -1.248 1.027 43 0 0 0 0.077129997
2.5420001 -1.247 1.023 45 0 0 0 0.077140003
2.5439999 -1.245 1.017 45 0 0 0 0.077150002
2.5480001 -1.244 1.013 48 0 0 0 0.077160001
2.5480001 -1.2410001 1.007 51 0 0 0 0.077169999
2.5420001 -1.235 0.99800003 53 0 0 0 0.077179998
2.54 -1.2309999 0.991 51 0 0 0 0.077189997
2.5280001 -1.222 0.98000002 52 0 0 0 0.077200003
2.5239999 -1.217 0.972 55 0 0 0 0.077210002
2.5220001 -1.212 0.96499997 66 0 0 0 0.07722
2.5220001 -1.209 0.95899999 72 0 0 0 0.077229999
2.52 -1.204 0.95200002 73 0 0 0 0.077239998
2.5190001 -1.2 0.94499999 66 0 0 0 0.077249996
2.5120001 -1.193 0.93599999 57 0 0 0 0.077260002
2.5150001 -1.191 0.93099999 51 0 0 0 0.077270001
2.523 -1.191 0.92799997 44 0 0 0 0.07728
2.5309999 -1.1900001 0.92400002 46 0 0 0 0.077289999
2.5350001 -1.188 0.91900003 59 0 0 0 0.077299997
2.5380001 -1.1849999 0.91399997 74 0 0 0 0.077310003
2.54 -1.182 0.90799999 86 0 0 0 0.077320002
2.5380001 -1.177 0.90100002 106 0 0 0 0.077330001
2.53 -1.169 0.89200002 86 0 0 0 0.077339999
2.5250001 -1.163 0.884 71 0 0 0 0.077349998
2.5120001 -1.152 0.87300003 62 0 0 0 0.077359997
2.513 -1.148 0.866 64 0 0 0 0.077370003
2.5139999 -1.1440001 0.86000001 55 0 0 0 0.077380002
2.517 -1.141 0.85500002 43 0 0 0 0.07739
2.5239999 -1.1390001 0.85100001 51 0 0 0 0.077399999
2.5320001 -1.138 0.847 73 0 0 0 0.077409998
2.5380001 -1.136 0.84299999 68 0 0 0 0.077420004
2.5450001 -1.135 0.83899999 75 0 0 0 0.077430002
2.55 -1.132 0.83399999 72 0 0 0 0.077440001
2.546 -1.125 0.82599998 63 0 0 0 0.07745
2.543 -1.119 0.81900001 65 0 0 0 0.077459998
2.5480001 -1.1160001 0.81400001 79 0 0 0 0.077469997
2.5480001 -1.1109999 0.80699998 50 0 0 0 0.077480003
2.553 -1.108 0.80199999 38 0 0 0 0.077490002
2.5669999 -1.108 0.80000001 57 0 0 0 0.077500001
2.5780001 -1.108 0.79699999 86 0 0 0 0.077509999
2.592 -1.109 0.79500002 52 0 0 0 0.077519998
2.612 -1.1109999 0.79400003 47 0 0 0 0.077529997
2.6210001 -1.11 0.79100001 89 0 0 0 0.077540003
