# .PCD v0.7 - Point Cloud Data file format
VERSION 0.7
FIELDS x y z intensity normal_x normal_y normal_z curvature
SIZE 4 4 4 4 4 4 4 4
TYPE F F F F F F F F
COUNT 1 1 1 1 1 1 1 1
WIDTH 1104
HEIGHT 1
VIEWPOINT 0 0 0 1 0 0 0
POINTS 1104
DATA ascii
3.161 0.024 -0.22 0 0 0 0 0.01067
3.175 0.026000001 -0.23199999 0 0 0 0 0.01068
3.1300001 0.027000001 -0.23800001 0 0 0 0 0.01069
3.1199999 0.028000001 -0.248 0 0 0 0 0.0107
3.1589999 0.029999999 -0.26100001 0 0 0 0 0.01071
3.1259999 0.030999999 -0.26800001 0 0 0 0 0.01072
3.155 0.033 -0.28099999 0 0 0 0 0.01073
3.1429999 0.034000002 -0.28999999 0 0 0 0 0.01074
3.125 0.035999998 -0.29800001 0 0 0 0 0.01075
3.1099999 0.037 -0.30700001 4 0 0 0 0.01076
1.34 0.016000001 -0.13600001 0 0 0 0 0.01077
1.314 0.017000001 -0.138 0 0 0 0 0.01078
1.2180001 0.016000001 -0.132 0 0 0 0 0.01079
1.114 0.015 -0.124 1 0 0 0 0.0108
1.08 0.015 -0.124 4 0 0 0 0.01081
1.084 0.016000001 -0.12800001 4 0 0 0 0.01082
1.079 0.016000001 -0.131 4 0 0 0 0.01083
1.079 0.017000001 -0.134 4 0 0 0 0.01084
1.0880001 0.017999999 -0.139 3 0 0 0 0.01085
1.0880001 0.017999999 -0.142 3 0 0 0 0.01086
1.094 0.018999999 -0.146 4 0 0 0 0.01087
1.107 0.02 -0.152 4 0 0 0 0.01088
1.15 0.021 -0.161 5 0 0 0 0.01089
1.175 0.022 -0.169 6 0 0 0 0.0109
1.154 0.023 -0.169 4 0 0 0 0.01091
1.197 0.024 -0.18000001 2 0 0 0 0.01092
1.1950001 0.025 -0.183 2 0 0 0 0.01093
1.238 0.026000001 -0.19400001 0 0 0 0 0.01094
1.2819999 0.028000001 -0.205 0 0 0 0 0.01095
1.278 0.028999999 -0.208 0 0 0 0 0.01096
1.304 0.029999999 -0.21699999 0 0 0 0 0.01097
1.277 0.029999999 -0.21600001 0 0 0 0 0.01098
1.275 0.030999999 -0.22 0 0 0 0 0.01099
1.255 0.030999999 -0.221 0 0 0 0 0.011
1.2460001 0.032000002 -0.223 0 0 0 0 0.01101
1.232 0.032000002 -0.22499999 0 0 0 0 0.01102
1.2130001 0.033 -0.22499999 0 0 0 0 0.01103
1.186 0.033 -0.22400001 0 0 0 0 0.01104
1.2 0.034000002 -0.23100001 0 0 0 0 0.01105
1.188 0.035 -0.23199999 0 0 0 0 0.01106
1.2180001 0.035999998 -0.242 0 0 0 0 0.01107
1.227 0.037 -0.248 0 0 0 0 0.01108
1.214 0.037999999 -0.249 0 0 0 0 0.01109
1.198 0.037999999 -0.25 0 0 0 0 0.0111
1.1900001 0.039000001 -0.252 0 0 0 0 0.01111
1.191 0.039999999 -0.25600001 1 0 0 0 0.01112
1.177 0.039999999 -0.257 0 0 0 0 0.01113
1.14 0.039999999 -0.252 0 0 0 0 0.01114
1.1390001 0.039999999 -0.25600001 0 0 0 0 0.01115
1.1160001 0.039999999 -0.25400001 0 0 0 0 0.01116
1.107 0.041000001 -0.25600001 3 0 0 0 0.01117
1.105 0.041999999 -0.259 4 0 0 0 0.01118
1.105 0.043000001 -0.26199999 4 0 0 0 0.01119
1.125 0.044 -0.271 4 0 0 0 0.0112
1.173 0.046999998 -0.28600001 5 0 0 0 0.01121
1.2410001 0.050999999 -0.30700001 4 0 0 0 0.01122
1.238 0.052000001 -0.31 4 0 0 0 0.01123
1.244 0.052999999 -0.31600001 5 0 0 0 0.01124
1.243 0.054000001 -0.31900001 4 0 0 0 0.01125
1.243 0.055 -0.32300001 5 0 0 0 0.01126
1.233 0.056000002 -0.32499999 4 0 0 0 0.01127
1.23 0.057 -0.32800001 4 0 0 0 0.01128
1.228 0.057 -0.33199999 4 0 0 0 0.01129
1.223 0.057999998 -0.33399999 4 0 0 0 0.0113
1.22 0.059 -0.33700001 4 0 0 0 0.01131
1.22 0.059999999 -0.34099999 4 0 0 0 0.01132
1.212 0.061000001 -0.34299999 1 0 0 0 0.01133
1.1799999 0.059999999 -0.338 0 0 0 0 0.01134
1.103 0.057 -0.31900001 0 0 0 0 0.01135
1.076 0.057 -0.315 0 0 0 0 0.01136
1.074 0.057999998 -0.31799999 0 0 0 0 0.01137
1.089 0.059999999 -0.32600001 0 0 0 0 0.01138
1.08 0.059999999 -0.32699999 0 0 0 0 0.01139
1.084 0.061999999 -0.331 0 0 0 0 0.0114
1.0779999 0.061999999 -0.333 0 0 0 0 0.01141
1.1339999 0.067000002 -0.354 0 0 0 0 0.01142
1.1619999 0.068999998 -0.36700001 0 0 0 0 0.01143
1.164 0.071000002 -0.37099999 3 0 0 0 0.01144
1.155 0.071000002 -0.37200001 3 0 0 0 0.01145
1.14 0.071999997 -0.37099999 3 0 0 0 0.01146
1.131 0.071999997 -0.37099999 3 0 0 0 0.01147
1.123 0.072999999 -0.37200001 5 0 0 0 0.01148
1.115 0.074000001 -0.373 6 0 0 0 0.01149
1.1160001 0.075000003 -0.377 6 0 0 0 0.0115
1.128 0.077 -0.38499999 6 0 0 0 0.01151
1.15 0.079999998 -0.396 6 0 0 0 0.01152
1.177 0.082999997 -0.41 6 0 0 0 0.01153
1.174 0.083999999 -0.412 6 0 0 0 0.01154
1.1670001 0.085000001 -0.414 6 0 0 0 0.01155
1.171 0.086000003 -0.419 6 0 0 0 0.01156
1.1720001 0.088 -0.42300001 6 0 0 0 0.01157
1.164 0.088 -0.42300001 6 0 0 0 0.01158
1.1619999 0.089000002 -0.42699999 6 0 0 0 0.01159
1.1670001 0.090999998 -0.43200001 6 0 0 0 0.0116
1.165 0.092 -0.435 6 0 0 0 0.01161
1.155 0.093000002 -0.435 6 0 0 0 0.01162
1.153 0.093999997 -0.43799999 6 0 0 0 0.01163
1.15 0.094999999 -0.44100001 6 0 0 0 0.01164
1.15 0.097000003 -0.44400001 6 0 0 0 0.01165
1.147 0.097999997 -0.447 6 0 0 0 0.01166
1.143 0.098999999 -0.449 6 0 0 0 0.01167
1.143 0.1 -0.45300001 7 0 0 0 0.01168
1.142 0.102 -0.456 8 0 0 0 0.01169
1.1390001 0.103 -0.458 8 0 0 0 0.0117
1.133 0.104 -0.45899999 9 0 0 0 0.01171
1.131 0.105 -0.46200001 10 0 0 0 0.01172
1.13 0.106 -0.465 12 0 0 0 0.01173
1.133 0.108 -0.47 15 0 0 0 0.01174
1.13 0.109 -0.472 13 0 0 0 0.01175
1.1339999 0.111 -0.47799999 11 0 0 0 0.01176
1.1390001 0.113 -0.48300001 11 0 0 0 0.01177
1.137 0.115 -0.486 11 0 0 0 0.01178
1.138 0.116 -0.49000001 14 0 0 0 0.01179
1.137 0.118 -0.493 14 0 0 0 0.0118
1.136 0.119 -0.49599999 10 0 0 0 0.01181
1.146 0.122 -0.50400001 5 0 0 0 0.01182
1.147 0.124 -0.50800002 0 0 0 0 0.01183
1.22 0.133 -0.54400003 0 0 0 0 0.01184
1.2079999 0.134 -0.54299998 0 0 0 0 0.01185
1.211 0.13600001 -0.54799998 1 0 0 0 0.01186
1.196 0.13600001 -0.54500002 1 0 0 0 0.01187
1.184 0.13600001 -0.54299998 0 0 0 0 0.01188
1.211 0.141 -0.55900002 0 0 0 0 0.01189
1.205 0.142 -0.56 0 0 0 0 0.0119
1.199 0.14300001 -0.56 0 0 0 0 0.01191
1.193 0.14399999 -0.56099999 0 0 0 0 0.01192
1.189 0.146 -0.56300002 0 0 0 0 0.01193
1.1849999 0.147 -0.565 0 0 0 0 0.01194
1.188 0.149 -0.56999999 0 0 0 0 0.01195
1.173 0.149 -0.56599998 0 0 0 0 0.01196
1.182 0.152 -0.57300001 0 0 0 0 0.01197
1.1799999 0.154 -0.57599998 0 0 0 0 0.01198
1.184 0.156 -0.58099997 0 0 0 0 0.01199
1.1799999 0.15700001 -0.583 0 0 0 0 0.012
1.1900001 0.161 -0.59100002 0 0 0 0 0.01201
1.21 0.16500001 -0.60500002 1 0 0 0 0.01202
1.209 0.167 -0.60799998 5 0 0 0 0.01203
1.202 0.168 -0.60799998 6 0 0 0 0.01204
1.193 0.169 -0.60699999 6 0 0 0 0.01205
1.184 0.169 -0.60500002 6 0 0 0 0.01206
1.176 0.17 -0.60399997 7 0 0 0 0.01207
1.17 0.171 -0.60500002 10 0 0 0 0.01208
1.165 0.17299999 -0.60500002 13 0 0 0 0.01209
1.166 0.175 -0.60900003 13 0 0 0 0.0121
1.1670001 0.177 -0.61299998 18 0 0 0 0.01211
1.166 0.17900001 -0.61500001 25 0 0 0 0.01212
1.163 0.18000001 -0.61699998 40 0 0 0 0.01213
1.16 0.182 -0.61900002 48 0 0 0 0.01214
1.1720001 0.186 -0.62800002 47 0 0 0 0.01215
1.189 0.191 -0.63999999 74 0 0 0 0.01216
1.206 0.19499999 -0.653 112 0 0 0 0.01217
1.216 0.199 -0.66100001 150 0 0 0 0.01218
1.214 0.20100001 -0.66299999 150 0 0 0 0.01219
1.2130001 0.20299999 -0.66600001 150 0 0 0 0.0122
1.211 0.205 -0.66799998 150 0 0 0 0.01221
1.215 0.208 -0.67299998 150 0 0 0 0.01222
1.219 0.211 -0.67799997 150 0 0 0 0.01223
1.214 0.212 -0.67799997 150 0 0 0 0.01224
1.22 0.215 -0.685 150 0 0 0 0.01225
1.214 0.21600001 -0.68400002 150 0 0 0 0.01226
1.217 0.219 -0.68900001 150 0 0 0 0.01227
1.2180001 0.221 -0.69199997 150 0 0 0 0.01228
1.216 0.223 -0.69400001 136 0 0 0 0.01229
1.215 0.22499999 -0.69599998 150 0 0 0 0.0123
1.2130001 0.227 -0.69800001 150 0 0 0 0.01231
1.217 0.23 -0.70300001 147 0 0 0 0.01232
1.211 0.23199999 -0.70200002 150 0 0 0 0.01233
1.2130001 0.234 -0.70499998 150 0 0 0 0.01234
1.214 0.236 -0.70899999 133 0 0 0 0.01235
1.215 0.23899999 -0.71200001 139 0 0 0 0.01236
1.215 0.241 -0.71499997 144 0 0 0 0.01237
1.215 0.244 -0.71700001 131 0 0 0 0.01238
1.215 0.24600001 -0.72000003 143 0 0 0 0.01239
1.212 0.248 -0.72000003 149 0 0 0 0.0124
1.212 0.25 -0.72299999 123 0 0 0 0.01241
1.2130001 0.252 -0.72600001 107 0 0 0 0.01242
1.212 0.25400001 -0.727 147 0 0 0 0.01243
1.212 0.257 -0.72899997 136 0 0 0 0.01244
1.2130001 0.259 -0.73199999 147 0 0 0 0.01245
1.212 0.26100001 -0.73400003 143 0 0 0 0.01246
1.214 0.264 -0.73699999 150 0 0 0 0.01247
1.211 0.266 -0.73699999 139 0 0 0 0.01248
1.21 0.26800001 -0.73900002 150 0 0 0 0.01249
1.2130001 0.271 -0.74199998 145 0 0 0 0.0125
1.2079999 0.27200001 -0.741 141 0 0 0 0.01251
1.209 0.27399999 -0.74400002 136 0 0 0 0.01252
1.215 0.278 -0.74900001 145 0 0 0 0.01253
1.209 0.27900001 -0.74699998 91 0 0 0 0.01254
1.216 0.28299999 -0.75300002 53 0 0 0 0.01255
1.227 0.28799999 -0.76200002 38 0 0 0 0.01256
1.245 0.294 -0.77499998 27 0 0 0 0.01257
1.2589999 0.30000001 -0.78500003 94 0 0 0 0.01258
1.273 0.30599999 -0.796 85 0 0 0 0.01259
1.2819999 0.31 -0.80299997 73 0 0 0 0.0126
1.284 0.31299999 -0.80500001 67 0 0 0 0.01261
1.2819999 0.315 -0.80500001 55 0 0 0 0.01262
1.279 0.317 -0.80500001 60 0 0 0 0.01263
1.276 0.31799999 -0.80500001 62 0 0 0 0.01264
1.279 0.32100001 -0.80800003 63 0 0 0 0.01265
1.276 0.32300001 -0.80699998 43 0 0 0 0.01266
1.275 0.32499999 -0.80800003 43 0 0 0 0.01267
1.273 0.32699999 -0.80699998 45 0 0 0 0.01268
1.27 0.32800001 -0.80599999 49 0 0 0 0.01269
1.2640001 0.329 -0.80299997 55 0 0 0 0.0127
1.256 0.329 -0.79900002 113 0 0 0 0.01271
1.257 0.331 -0.801 106 0 0 0 0.01272
1.255 0.333 -0.80000001 92 0 0 0 0.01273
1.2539999 0.33500001 -0.80000001 77 0 0 0 0.01274
1.253 0.33700001 -0.80000001 62 0 0 0 0.01275
1.2589999 0.34 -0.80500001 53 0 0 0 0.01276
1.2539999 0.34099999 -0.80199999 42 0 0 0 0.01277
1.256 0.34400001 -0.80400002 37 0 0 0 0.01278
1.253 0.345 -0.80199999 40 0 0 0 0.01279
1.252 0.347 -0.80199999 40 0 0 0 0.0128
1.252 0.34900001 -0.80199999 41 0 0 0 0.01281
1.2539999 0.35100001 -0.80400002 41 0 0 0 0.01282
1.255 0.354 -0.80400002 45 0 0 0 0.01283
1.253 0.35499999 -0.80299997 48 0 0 0 0.01284
1.25 0.35600001 -0.801 47 0 0 0 0.01285
1.2539999 0.359 -0.80400002 47 0 0 0 0.01286
1.2539999 0.361 -0.80299997 48 0 0 0 0.01287
1.256 0.36300001 -0.80500001 45 0 0 0 0.01288
1.257 0.36500001 -0.80500001 43 0 0 0 0.01289
1.258 0.368 -0.80500001 43 0 0 0 0.0129
1.2539999 0.368 -0.80199999 37 0 0 0 0.01291
1.258 0.37099999 -0.80400002 40 0 0 0 0.01292
1.258 0.373 -0.80400002 39 0 0 0 0.01293
1.26 0.375 -0.80400002 43 0 0 0 0.01294
1.26 0.377 -0.80400002 46 0 0 0 0.01295
1.26 0.37799999 -0.80299997 45 0 0 0 0.01296
1.26 0.38 -0.80199999 49 0 0 0 0.01297
1.26 0.382 -0.801 48 0 0 0 0.01298
1.26 0.38299999 -0.801 52 0 0 0 0.01299
1.26 0.38499999 -0.80000001 48 0 0 0 0.013
1.2640001 0.38800001 -0.801 42 0 0 0 0.01301
1.2690001 0.38999999 -0.80299997 40 0 0 0 0.01302
1.2690001 0.39199999 -0.80199999 43 0 0 0 0.01303
1.272 0.39399999 -0.80299997 51 0 0 0 0.01304
1.274 0.396 -0.80299997 55 0 0 0 0.01305
1.275 0.398 -0.80199999 60 0 0 0 0.01306
1.279 0.40000001 -0.80299997 69 0 0 0 0.01307
1.281 0.40200001 -0.80299997 78 0 0 0 0.01308
1.285 0.405 -0.80299997 79 0 0 0 0.01309
1.288 0.40700001 -0.80400002 89 0 0 0 0.0131
1.288 0.40799999 -0.80199999 94 0 0 0 0.01311
1.293 0.41100001 -0.80400002 101 0 0 0 0.01312
1.2970001 0.41299999 -0.80400002 101 0 0 0 0.01313
1.299 0.41499999 -0.80400002 92 0 0 0 0.01314
1.3049999 0.41800001 -0.80500001 83 0 0 0 0.01315
1.309 0.41999999 -0.80599999 70 0 0 0 0.01316
1.313 0.42300001 -0.80699998 63 0 0 0 0.01317
1.3150001 0.42399999 -0.80500001 64 0 0 0 0.01318
1.317 0.426 -0.80500001 72 0 0 0 0.01319
1.3200001 0.42699999 -0.80400002 89 0 0 0 0.0132
1.325 0.43000001 -0.80500001 105 0 0 0 0.01321
1.326 0.43099999 -0.80299997 105 0 0 0 0.01322
1.329 0.433 -0.80299997 90 0 0 0 0.01323
1.339 0.43700001 -0.80599999 88 0 0 0 0.01324
1.348 0.44100001 -0.80900002 72 0 0 0 0.01325
1.349 0.44100001 -0.80699998 79 0 0 0 0.01326
1.364 0.447 -0.81300002 29 0 0 0 0.01327
1.368 0.449 -0.81300002 46 0 0 0 0.01328
1.359 0.44600001 -0.80500001 128 0 0 0 0.01329
1.373 0.45100001 -0.81 69 0 0 0 0.0133
1.369 0.44999999 -0.80500001 102 0 0 0 0.01331
1.382 0.45500001 -0.81 48 0 0 0 0.01332
1.392 0.45899999 -0.81199998 34 0 0 0 0.01333
1.399 0.461 -0.81300002 27 0 0 0 0.01334
1.403 0.463 -0.81300002 36 0 0 0 0.01335
1.408 0.465 -0.81199998 36 0 0 0 0.01336
1.414 0.46700001 -0.81199998 15 0 0 0 0.01337
1.423 0.47 -0.81400001 15 0 0 0 0.01338
1.428 0.472 -0.81400001 15 0 0 0 0.01339
1.433 0.47400001 -0.81300002 66 0 0 0 0.0134
1.438 0.47499999 -0.81199998 63 0 0 0 0.01341
1.441 0.477 -0.81099999 61 0 0 0 0.01342
1.45 0.479 -0.81199998 41 0 0 0 0.01343
1.459 0.48199999 -0.81300002 14 0 0 0 0.01344
1.465 0.484 -0.81300002 15 0 0 0 0.01345
1.469 0.48500001 -0.81199998 17 0 0 0 0.01346
1.475 0.48699999 -0.81099999 19 0 0 0 0.01347
1.4809999 0.48899999 -0.81 18 0 0 0 0.01348
1.4910001 0.49200001 -0.81199998 17 0 0 0 0.01349
1.503 0.495 -0.815 15 0 0 0 0.0135
1.5140001 0.498 -0.81699997 17 0 0 0 0.01351
1.523 0.50099999 -0.81699997 17 0 0 0 0.01352
1.522 0.5 -0.81300002 18 0 0 0 0.01353
1.533 0.50300002 -0.81400001 18 0 0 0 0.01354
1.54 0.505 -0.81400001 17 0 0 0 0.01355
1.548 0.50700003 -0.81400001 16 0 0 0 0.01356
1.559 0.50999999 -0.815 15 0 0 0 0.01357
1.5650001 0.51099998 -0.81400001 14 0 0 0 0.01358
1.5779999 0.514 -0.81599998 14 0 0 0 0.01359
1.58 0.51499999 -0.81300002 15 0 0 0 0.0136
1.5880001 0.51599997 -0.81300002 18 0 0 0 0.01361
1.566 0.50800002 -0.79699999 26 0 0 0 0.01362
1.4630001 0.47400001 -0.74000001 77 0 0 0 0.01363
1.373 0.44400001 -0.69099998 63 0 0 0 0.01364
1.3380001 0.43200001 -0.66900003 41 0 0 0 0.01365
1.336 0.43000001 -0.66399997 41 0 0 0 0.01366
1.335 0.42899999 -0.66000003 34 0 0 0 0.01367
1.342 0.43000001 -0.65899998 26 0 0 0 0.01368
1.341 0.42899999 -0.65499997 23 0 0 0 0.01369
1.339 0.42699999 -0.64999998 29 0 0 0 0.0137
1.334 0.42500001 -0.64399999 26 0 0 0 0.01371
1.334 0.42399999 -0.63999999 29 0 0 0 0.01372
1.334 0.42300001 -0.63599998 33 0 0 0 0.01373
1.329 0.41999999 -0.62900001 32 0 0 0 0.01374
1.331 0.419 -0.62599999 33 0 0 0 0.01375
1.33 0.41800001 -0.62199998 32 0 0 0 0.01376
1.331 0.417 -0.61799997 33 0 0 0 0.01377
1.33 0.41499999 -0.61400002 34 0 0 0 0.01378
1.332 0.414 -0.61000001 35 0 0 0 0.01379
1.3279999 0.412 -0.60500002 32 0 0 0 0.0138
1.327 0.41 -0.60000002 33 0 0 0 0.01381
1.329 0.41 -0.597 36 0 0 0 0.01382
1.3200001 0.40599999 -0.58899999 37 0 0 0 0.01383
1.319 0.40400001 -0.58399999 39 0 0 0 0.01384
1.3200001 0.403 -0.58099997 41 0 0 0 0.01385
1.319 0.40099999 -0.57599998 40 0 0 0 0.01386
1.322 0.40000001 -0.57300001 40 0 0 0 0.01387
1.323 0.39899999 -0.56999999 39 0 0 0 0.01388
1.322 0.39700001 -0.56599998 43 0 0 0 0.01389
1.329 0.398 -0.565 44 0 0 0 0.0139
1.329 0.396 -0.56 57 0 0 0 0.01391
1.326 0.39399999 -0.55500001 101 0 0 0 0.01392
1.326 0.39199999 -0.551 129 0 0 0 0.01393
1.324 0.38999999 -0.546 144 0 0 0 0.01394
1.321 0.38699999 -0.54100001 111 0 0 0 0.01395
1.319 0.38499999 -0.53600001 79 0 0 0 0.01396
1.319 0.38299999 -0.53200001 56 0 0 0 0.01397
1.317 0.38100001 -0.52700001 45 0 0 0 0.01398
1.3099999 0.377 -0.51999998 44 0 0 0 0.01399
1.3049999 0.37400001 -0.514 49 0 0 0 0.014
1.301 0.37099999 -0.50800002 58 0 0 0 0.01401
1.2970001 0.368 -0.50300002 59 0 0 0 0.01402
1.295 0.366 -0.498 55 0 0 0 0.01403
1.295 0.36399999 -0.49399999 51 0 0 0 0.01404
1.301 0.36399999 -0.493 41 0 0 0 0.01405
1.302 0.36199999 -0.48899999 35 0 0 0 0.01406
1.307 0.36199999 -0.48699999 28 0 0 0 0.01407
1.309 0.361 -0.48300001 24 0 0 0 0.01408
1.308 0.35800001 -0.479 25 0 0 0 0.01409
1.302 0.35499999 -0.47299999 25 0 0 0 0.0141
1.294 0.35100001 -0.46599999 26 0 0 0 0.01411
1.278 0.345 -0.456 26 0 0 0 0.01412
1.268 0.34 -0.449 31 0 0 0 0.01413
1.249 0.333 -0.43900001 33 0 0 0 0.01414
1.248 0.331 -0.43399999 33 0 0 0 0.01415
1.2460001 0.32800001 -0.43000001 30 0 0 0 0.01416
1.244 0.32600001 -0.42500001 24 0 0 0 0.01417
1.2460001 0.324 -0.42199999 15 0 0 0 0.01418
1.248 0.32300001 -0.419 13 0 0 0 0.01419
1.251 0.322 -0.417 11 0 0 0 0.0142
1.252 0.31999999 -0.41299999 10 0 0 0 0.01421
1.244 0.31600001 -0.40700001 9 0 0 0 0.01422
1.247 0.31400001 -0.40400001 10 0 0 0 0.01423
1.247 0.31200001 -0.40000001 10 0 0 0 0.01424
1.247 0.31 -0.396 11 0 0 0 0.01425
1.253 0.31 -0.39500001 9 0 0 0 0.01426
1.248 0.30599999 -0.389 8 0 0 0 0.01427
1.242 0.303 -0.384 7 0 0 0 0.01428
1.242 0.301 -0.38 7 0 0 0 0.01429
1.2460001 0.29899999 -0.37799999 6 0 0 0 0.0143
1.258 0.30000001 -0.37799999 5 0 0 0 0.01431
1.267 0.30000001 -0.377 6 0 0 0 0.01432
1.271 0.29899999 -0.37400001 9 0 0 0 0.01433
1.274 0.29699999 -0.37099999 7 0 0 0 0.01434
1.267 0.294 -0.366 2 0 0 0 0.01435
1.257 0.289 -0.359 0 0 0 0 0.01436
1.188 0.271 -0.336 0 0 0 0 0.01437
1.1950001 0.27000001 -0.33399999 0 0 0 0 0.01438
1.1799999 0.26499999 -0.32600001 0 0 0 0 0.01439
1.212 0.27000001 -0.33199999 0 0 0 0 0.0144
1.174 0.259 -0.31799999 0 0 0 0 0.01441
1.17 0.25600001 -0.31400001 0 0 0 0 0.01442
1.223 0.266 -0.32499999 0 0 0 0 0.01443
1.245 0.26800001 -0.32699999 0 0 0 0 0.01444
1.299 0.27700001 -0.33700001 0 0 0 0 0.01445
1.313 0.278 -0.33700001 4 0 0 0 0.01446
1.319 0.27700001 -0.33500001 4 0 0 0 0.01447
1.326 0.27599999 -0.333 1 0 0 0 0.01448
1.325 0.273 -0.329 1 0 0 0 0.01449
1.33 0.27200001 -0.32600001 1 0 0 0 0.0145
1.33 0.26899999 -0.322 1 0 0 0 0.01451
1.335 0.26800001 -0.31999999 3 0 0 0 0.01452
1.3430001 0.26699999 -0.31799999 6 0 0 0 0.01453
1.34 0.264 -0.31400001 7 0 0 0 0.01454
1.3430001 0.26199999 -0.31099999 8 0 0 0 0.01455
1.299 0.25099999 -0.29699999 9 0 0 0 0.01456
1.243 0.237 -0.28 8 0 0 0 0.01457
1.2029999 0.227 -0.26800001 6 0 0 0 0.01458
1.204 0.22499999 -0.26499999 5 0 0 0 0.01459
1.201 0.222 -0.26100001 5 0 0 0 0.0146
1.204 0.221 -0.25799999 5 0 0 0 0.01461
1.2 0.21799999 -0.25400001 5 0 0 0 0.01462
1.201 0.215 -0.25099999 5 0 0 0 0.01463
1.202 0.213 -0.248 5 0 0 0 0.01464
1.2029999 0.211 -0.245 5 0 0 0 0.01465
1.207 0.20900001 -0.242 5 0 0 0 0.01466
1.212 0.208 -0.23999999 4 0 0 0 0.01467
1.214 0.206 -0.237 4 0 0 0 0.01468
1.215 0.204 -0.234 4 0 0 0 0.01469
1.219 0.20200001 -0.23199999 4 0 0 0 0.0147
1.225 0.2 -0.23 4 0 0 0 0.01471
1.226 0.198 -0.226 4 0 0 0 0.01472
1.229 0.19599999 -0.22400001 4 0 0 0 0.01473
1.238 0.19499999 -0.222 4 0 0 0 0.01474
1.238 0.193 -0.219 4 0 0 0 0.01475
1.244 0.191 -0.21699999 4 0 0 0 0.01476
1.244 0.18799999 -0.213 4 0 0 0 0.01477
1.243 0.186 -0.20999999 4 0 0 0 0.01478
1.255 0.185 -0.20900001 5 0 0 0 0.01479
1.257 0.183 -0.205 5 0 0 0 0.0148
1.2589999 0.18099999 -0.20299999 5 0 0 0 0.01481
1.261 0.178 -0.2 5 0 0 0 0.01482
1.271 0.177 -0.198 5 0 0 0 0.01483
1.273 0.175 -0.19499999 5 0 0 0 0.01484
1.277 0.17200001 -0.192 5 0 0 0 0.01485
1.2819999 0.171 -0.19 5 0 0 0 0.01486
1.285 0.168 -0.18700001 5 0 0 0 0.01487
1.288 0.16599999 -0.184 5 0 0 0 0.01488
1.295 0.164 -0.182 5 0 0 0 0.01489
1.2970001 0.162 -0.178 5 0 0 0 0.0149
1.289 0.15800001 -0.17399999 5 0 0 0 0.01491
1.2180001 0.147 -0.161 5 0 0 0 0.01492
1.1720001 0.139 -0.152 4 0 0 0 0.01493
1.153 0.134 -0.147 3 0 0 0 0.01494
1.154 0.132 -0.14399999 3 0 0 0 0.01495
1.153 0.12899999 -0.141 3 0 0 0 0.01496
1.147 0.126 -0.13699999 4 0 0 0 0.01497
1.141 0.123 -0.134 4 0 0 0 0.01498
1.1440001 0.121 -0.131 4 0 0 0 0.01499
1.143 0.118 -0.12800001 4 0 0 0 0.015
1.143 0.116 -0.125 4 0 0 0 0.01501
1.1569999 0.115 -0.124 1 0 0 0 0.01502
1.266 0.123 -0.133 0 0 0 0 0.01503
1.405 0.134 -0.14399999 0 0 0 0 0.01504
0 0 0 0 0 0 0 0.01505
3.237 0.29499999 -0.31600001 4 0 0 0 0.01506
3.22 0.287 -0.30599999 0 0 0 0 0.01507
3.1949999 0.27700001 -0.296 0 0 0 0 0.01508
3.194 0.27000001 -0.28799999 0 0 0 0 0.01509
3.1930001 0.264 -0.28 0 0 0 0 0.0151
3.1819999 0.25600001 -0.271 0 0 0 0 0.01511
1.497 0.117 -0.124 80 0 0 0 0.01512
1.501 0.114 -0.12 97 0 0 0 0.01513
1.502 0.111 -0.117 86 0 0 0 0.01514
1.5 0.107 -0.113 90 0 0 0 0.01515
1.498 0.104 -0.109 87 0 0 0 0.01516
1.494 0.1 -0.105 88 0 0 0 0.01517
1.494 0.097000003 -0.102 92 0 0 0 0.01518
1.497 0.093999997 -0.097999997 86 0 0 0 0.01519
1.5190001 0.092 -0.096000001 39 0 0 0 0.0152
3.181 0.186 -0.19400001 91 0 0 0 0.01521
3.1730001 0.17900001 -0.186 124 0 0 0 0.01522
3.1889999 0.17299999 -0.17900001 131 0 0 0 0.01523
3.1819999 0.16500001 -0.171 150 0 0 0 0.01524
3.2349999 0.161 -0.16599999 150 0 0 0 0.01525
3.227 0.154 -0.15800001 42 0 0 0 0.01526
2.9489999 0.134 -0.13699999 33 0 0 0 0.01527
2.8859999 0.124 -0.12800001 29 0 0 0 0.01528
3.3759999 0.138 -0.142 2 0 0 0 0.01529
2.747 0.106 -0.109 20 0 0 0 0.0153
3.303 0.12 -0.123 1 0 0 0 0.01531
1.881 0.064000003 -0.064999998 1 0 0 0 0.01532
2.779 0.089000002 -0.090000004 25 0 0 0 0.01533
2.744 0.082000002 -0.082999997 20 0 0 0 0.01534
1.994 0.055 -0.055 1 0 0 0 0.01535
2.0239999 0.050999999 -0.050999999 1 0 0 0 0.01536
2.7179999 0.061999999 -0.063000001 18 0 0 0 0.01537
2.783 0.057999998 -0.057999998 20 0 0 0 0.01538
3.273 0.059999999 -0.061000001 42 0 0 0 0.01539
3.4360001 0.056000002 -0.056000002 36 0 0 0 0.0154
3.697 0.052000001 -0.050999999 0 0 0 0 0.01541
3.187 0.037 -0.037 0 0 0 0 0.01542
3.1600001 0.029999999 -0.028999999 2 0 0 0 0.01543
1.505 0.0099999998 -0.0099999998 0 0 0 0 0.01544
1.505 0.0070000002 -0.0070000002 0 0 0 0 0.01545
0 0 0 0 0 0 0 0.01546
0 0 0 0 0 0 0 0.01547
0 0 0 0 0 0 0 0.01548
3.477 -0.014 0.015 0 0 0 0 0.01549
3.648 -0.023 0.024 0 0 0 0 0.0155
3.612 -0.030999999 0.032000002 0 0 0 0 0.01551
0 0 0 0 0 0 0 0.01552
3.598 -0.048 0.048 0 0 0 0 0.01553
3.615 -0.056000002 0.056000002 0 0 0 0 0.01554
3.642 -0.064999998 0.064999998 0 0 0 0 0.01555
3.6040001 -0.072999999 0.071999997 0 0 0 0 0.01556
3.5699999 -0.081 0.079999998 0 0 0 0 0.01557
3.6210001 -0.090000004 0.089000002 0 0 0 0 0.01558
3.6329999 -0.098999999 0.097000003 0 0 0 0 0.01559
3.6589999 -0.108 0.106 0 0 0 0 0.0156
3.6819999 -0.118 0.115 0 0 0 0 0.01561
3.6819999 -0.126 0.124 0 0 0 0 0.01562
3.9649999 -0.145 0.142 1 0 0 0 0.015629999
4.1729999 -0.163 0.15899999 2 0 0 0 0.01564
1.202 -0.048999999 0.048 150 0 0 0 0.01565
1.211 -0.052999999 0.050999999 24 0 0 0 0.015659999
1.22 -0.056000002 0.054000001 6 0 0 0 0.01567
1.238 -0.059999999 0.057999998 3 0 0 0 0.01568
4.1570001 -0.212 0.204 1 0 0 0 0.015690001
3.7409999 -0.199 0.192 0 0 0 0 0.015699999
3.6199999 -0.20100001 0.193 0 0 0 0 0.01571
3.585 -0.208 0.2 1 0 0 0 0.01572
3.5669999 -0.21600001 0.206 0 0 0 0 0.015729999
3.526 -0.221 0.212 1 0 0 0 0.01574
3.575 -0.233 0.222 1 0 0 0 0.01575
3.6210001 -0.245 0.233 1 0 0 0 0.015760001
3.6889999 -0.259 0.24600001 1 0 0 0 0.015769999
3.6170001 -0.26199999 0.249 1 0 0 0 0.01578
0 0 0 0 0 0 0 0.015790001
0 0 0 0 0 0 0 0.015799999
0 0 0 0 0 0 0 0.01581
1.022 -0.083999999 0.079000004 0 0 0 0 0.01582
1.02 -0.086000003 0.081 2 0 0 0 0.015830001
1.026 -0.089000002 0.083999999 3 0 0 0 0.01584
1.027 -0.092 0.086000003 3 0 0 0 0.01585
1.031 -0.094999999 0.088 3 0 0 0 0.015860001
1.018 -0.096000001 0.089000002 0 0 0 0 0.015869999
1.023 -0.098999999 0.092 0 0 0 0 0.01588
1.029 -0.102 0.094999999 0 0 0 0 0.01589
3.398 -0.34599999 0.32100001 2 0 0 0 0.015900001
3.392 -0.354 0.32800001 2 0 0 0 0.01591
3.381 -0.36199999 0.33399999 2 0 0 0 0.01592
3.3900001 -0.37099999 0.34200001 2 0 0 0 0.015930001
3.405 -0.38100001 0.35100001 2 0 0 0 0.015939999
3.4159999 -0.391 0.359 2 0 0 0 0.01595
3.4230001 -0.40000001 0.36700001 2 0 0 0 0.01596
3.411 -0.40799999 0.373 2 0 0 0 0.015969999
3.391 -0.414 0.37799999 2 0 0 0 0.01598
3.392 -0.42300001 0.38499999 2 0 0 0 0.01599
3.3770001 -0.42899999 0.391 2 0 0 0 0.016000001
3.3599999 -0.43599999 0.396 1 0 0 0 0.016009999
3.4319999 -0.454 0.41100001 0 0 0 0 0.01602
3.4400001 -0.46399999 0.41999999 1 0 0 0 0.016030001
3.4809999 -0.47799999 0.43200001 2 0 0 0 0.016039999
3.4719999 -0.486 0.43799999 3 0 0 0 0.01605
3.4660001 -0.49399999 0.44400001 4 0 0 0 0.01606
3.4660001 -0.50300002 0.45100001 4 0 0 0 0.016070001
3.4579999 -0.51099998 0.458 4 0 0 0 0.01608
3.484 -0.52399999 0.46799999 3 0 0 0 0.01609
1.192 -0.182 0.162 0 0 0 0 0.016100001
1.193 -0.185 0.16500001 0 0 0 0 0.016109999
3.4649999 -0.54799998 0.48699999 5 0 0 0 0.01612
1.214 -0.19499999 0.17299999 0 0 0 0 0.01613
1.217 -0.199 0.176 0 0 0 0 0.016140001
1.23 -0.204 0.18000001 0 0 0 0 0.01615
1.2410001 -0.20900001 0.184 0 0 0 0 0.01616
1.243 -0.213 0.18700001 0 0 0 0 0.016170001
1.253 -0.21799999 0.191 1 0 0 0 0.016179999
1.2640001 -0.223 0.19499999 1 0 0 0 0.01619
1.273 -0.228 0.199 1 0 0 0 0.0162
1.2920001 -0.235 0.205 1 0 0 0 0.016209999
1.316 -0.243 0.211 3 0 0 0 0.01622
1.33 -0.249 0.21600001 4 0 0 0 0.01623
1.352 -0.257 0.223 7 0 0 0 0.016240001
1.357 -0.26100001 0.226 34 0 0 0 0.016249999
1.349 -0.26300001 0.227 150 0 0 0 0.01626
1.342 -0.266 0.229 150 0 0 0 0.01627
1.341 -0.26899999 0.23100001 150 0 0 0 0.016279999
1.34 -0.27200001 0.234 150 0 0 0 0.01629
1.339 -0.27599999 0.236 150 0 0 0 0.0163
1.336 -0.27900001 0.23800001 150 0 0 0 0.016310001
1.334 -0.28200001 0.23999999 150 0 0 0 0.016319999
1.33 -0.285 0.242 150 0 0 0 0.01633
1.33 -0.289 0.245 150 0 0 0 0.016340001
1.324 -0.29100001 0.24600001 150 0 0 0 0.016349999
1.3279999 -0.296 0.25 150 0 0 0 0.01636
1.324 -0.29800001 0.25099999 150 0 0 0 0.01637
1.3380001 -0.30500001 0.257 43 0 0 0 0.016380001
1.36 -0.31400001 0.26300001 7 0 0 0 0.01639
1.381 -0.32300001 0.27000001 2 0 0 0 0.0164
1.39 -0.329 0.27500001 2 0 0 0 0.016410001
1.4069999 -0.33700001 0.28099999 2 0 0 0 0.016419999
1.423 -0.345 0.287 2 0 0 0 0.01643
1.434 -0.35100001 0.29100001 2 0 0 0 0.01644
1.452 -0.36000001 0.29800001 2 0 0 0 0.016450001
1.471 -0.36899999 0.30399999 2 0 0 0 0.01646
1.48 -0.375 0.30899999 2 0 0 0 0.01647
1.493 -0.38299999 0.315 2 0 0 0 0.016480001
3.9890001 -1.035 0.84799999 4 0 0 0 0.016489999
4.0139999 -1.053 0.861 28 0 0 0 0.0165
4.0240002 -1.067 0.87 61 0 0 0 0.01651
4.0289998 -1.08 0.87900001 70 0 0 0 0.016519999
4.0250001 -1.09 0.88499999 66 0 0 0 0.01653
4.0170002 -1.1 0.89099997 63 0 0 0 0.01654
0 0 0 0 0 0 0 0.016550001
0 0 0 0 0 0 0 0.016559999
2.2279999 -0.62900001 0.50599998 151 0 0 0 0.01657
2.223 -0.634 0.509 151 0 0 0 0.016580001
2.2149999 -0.639 0.51099998 151 0 0 0 0.016589999
2.2160001 -0.64499998 0.51499999 151 0 0 0 0.0166
2.21 -0.64999998 0.51700002 151 0 0 0 0.01661
2.2079999 -0.65600002 0.52100003 151 0 0 0 0.016620001
2.2030001 -0.66100001 0.523 151 0 0 0 0.01663
2.2 -0.667 0.52600002 151 0 0 0 0.01664
2.1889999 -0.67000002 0.52700001 151 0 0 0 0.016650001
2.187 -0.67500001 0.53100002 151 0 0 0 0.016659999
2.184 -0.68099999 0.53399998 151 0 0 0 0.01667
2.1819999 -0.68699998 0.537 151 0 0 0 0.01668
2.1789999 -0.69300002 0.54000002 151 0 0 0 0.016690001
2.177 -0.69800001 0.54299998 151 0 0 0 0.0167
2.174 -0.704 0.546 151 0 0 0 0.01671
2.1760001 -0.71100003 0.55000001 151 0 0 0 0.016720001
2.191 -0.72299999 0.55699998 151 0 0 0 0.016729999
2.1860001 -0.727 0.55900002 151 0 0 0 0.01674
2.1860001 -0.73400003 0.56300002 151 0 0 0 0.01675
2.191 -0.74299997 0.56800002 151 0 0 0 0.016759999
2.198 -0.75099999 0.57300001 150 0 0 0 0.01677
2.2780001 -0.78600001 0.597 27 0 0 0 0.01678
2.3199999 -0.80699998 0.61199999 24 0 0 0 0.016790001
2.3659999 -0.83099997 0.62800002 24 0 0 0 0.016799999
2.4130001 -0.85399997 0.64399999 25 0 0 0 0.01681
2.4679999 -0.88099998 0.662 26 0 0 0 0.01682
2.526 -0.91000003 0.68199998 28 0 0 0 0.016829999
2.5869999 -0.94 0.70200002 30 0 0 0 0.01684
2.651 -0.97100002 0.72299999 31 0 0 0 0.01685
2.7030001 -0.99800003 0.741 31 0 0 0 0.016860001
2.767 -1.03 0.76300001 31 0 0 0 0.016869999
2.825 -1.061 0.78299999 31 0 0 0 0.01688
2.8929999 -1.095 0.80599999 32 0 0 0 0.016890001
2.9690001 -1.133 0.83200002 32 0 0 0 0.016899999
3.0320001 -1.1670001 0.85399997 33 0 0 0 0.01691
3.075 -1.193 0.87 34 0 0 0 0.01692
3.0999999 -1.212 0.88099998 150 0 0 0 0.016930001
3.092 -1.2180001 0.88300002 151 0 0 0 0.01694
3.0910001 -1.227 0.88700002 150 0 0 0 0.01695
3.0869999 -1.235 0.88999999 150 0 0 0 0.016960001
3.0829999 -1.243 0.89300001 150 0 0 0 0.016969999
3.0929999 -1.256 0.89899999 150 0 0 0 0.01698
3.1040001 -1.27 0.90700001 150 0 0 0 0.01699
3.102 -1.279 0.91000003 150 0 0 0 0.017000001
3.102 -1.289 0.91399997 150 0 0 0 0.01701
3.1440001 -1.316 0.93000001 150 0 0 0 0.01702
3.1470001 -1.327 0.93400002 150 0 0 0 0.017030001
3.142 -1.334 0.93699998 150 0 0 0 0.017039999
3.138 -1.342 0.93900001 150 0 0 0 0.01705
3.131 -1.349 0.94099998 150 0 0 0 0.01706
3.1259999 -1.357 0.94300002 150 0 0 0 0.017069999
3.1240001 -1.365 0.94599998 150 0 0 0 0.01708
3.1159999 -1.3710001 0.94700003 150 0 0 0 0.01709
3.1170001 -1.381 0.94999999 150 0 0 0 0.017100001
3.112 -1.3890001 0.95200002 150 0 0 0 0.017109999
3.108 -1.396 0.954 150 0 0 0 0.01712
3.1040001 -1.404 0.95599997 150 0 0 0 0.017130001
3.1010001 -1.4119999 0.958 150 0 0 0 0.017139999
3.0929999 -1.418 0.95899999 150 0 0 0 0.01715
3.092 -1.427 0.96100003 150 0 0 0 0.01716
3.085 -1.433 0.96200001 150 0 0 0 0.017170001
3.0810001 -1.4400001 0.96399999 150 0 0 0 0.01718
3.0769999 -1.448 0.96499997 150 0 0 0 0.01719
3.072 -1.455 0.96600002 150 0 0 0 0.017200001
3.069 -1.4630001 0.96799999 150 0 0 0 0.017209999
3.072 -1.473 0.97100002 150 0 0 0 0.01722
3.0639999 -1.479 0.97100002 150 0 0 0 0.01723
3.062 -1.487 0.97299999 150 0 0 0 0.017240001
3.056 -1.493 0.97399998 150 0 0 0 0.01725
3.0550001 -1.501 0.97600001 150 0 0 0 0.01726
3.049 -1.507 0.97600001 150 0 0 0 0.017270001
3.0469999 -1.515 0.977 150 0 0 0 0.017279999
3.043 -1.522 0.97799999 150 0 0 0 0.01729
3.039 -1.529 0.97899997 150 0 0 0 0.0173
3.036 -1.5369999 0.98000002 150 0 0 0 0.017309999
3.0320001 -1.543 0.98000002 150 0 0 0 0.01732
3.0280001 -1.55 0.98000002 150 0 0 0 0.01733
3.0250001 -1.557 0.98100001 150 0 0 0 0.017340001
3.0239999 -1.5650001 0.98199999 150 0 0 0 0.017349999
3.0179999 -1.5700001 0.98199999 150 0 0 0 0.01736
3.0139999 -1.577 0.98199999 150 0 0 0 0.01737
3.0139999 -1.585 0.98299998 150 0 0 0 0.017379999
3.013 -1.5930001 0.98400003 150 0 0 0 0.01739
3.0020001 -1.595 0.98199999 150 0 0 0 0.0174
3.0009999 -1.603 0.98199999 150 0 0 0 0.017410001
2.9990001 -1.61 0.98299998 150 0 0 0 0.017419999
2.994 -1.6160001 0.98199999 150 0 0 0 0.01743
2.9909999 -1.622 0.98199999 150 0 0 0 0.017440001
2.9890001 -1.6289999 0.98199999 150 0 0 0 0.017449999
2.987 -1.636 0.98199999 150 0 0 0 0.01746
2.984 -1.642 0.98100001 150 0 0 0 0.01747
2.984 -1.65 0.98199999 150 0 0 0 0.017480001
2.9790001 -1.654 0.98000002 150 0 0 0 0.01749
2.9749999 -1.66 0.98000002 150 0 0 0 0.0175
2.9719999 -1.666 0.97899997 150 0 0 0 0.017510001
2.9660001 -1.67 0.977 150 0 0 0 0.017519999
2.967 -1.677 0.977 150 0 0 0 0.01753
2.964 -1.683 0.97600001 150 0 0 0 0.01754
2.96 -1.688 0.97500002 150 0 0 0 0.017550001
2.957 -1.693 0.97299999 150 0 0 0 0.01756
2.954 -1.698 0.972 150 0 0 0 0.01757
2.951 -1.7029999 0.97100002 150 0 0 0 0.017580001
2.9489999 -1.709 0.97000003 150 0 0 0 0.017589999
2.9460001 -1.714 0.96799999 150 0 0 0 0.0176
2.944 -1.719 0.96700001 150 0 0 0 0.01761
2.941 -1.724 0.96499997 150 0 0 0 0.017619999
2.9389999 -1.729 0.963 150 0 0 0 0.01763
2.937 -1.734 0.96200001 150 0 0 0 0.01764
2.934 -1.739 0.95999998 150 0 0 0 0.017650001
2.9319999 -1.743 0.958 150 0 0 0 0.017659999
2.9300001 -1.748 0.95599997 150 0 0 0 0.01767
2.928 -1.752 0.954 150 0 0 0 0.017680001
2.9260001 -1.757 0.95200002 150 0 0 0 0.017689999
2.924 -1.761 0.94999999 150 0 0 0 0.0177
2.9219999 -1.766 0.94800001 150 0 0 0 0.01771
2.9200001 -1.77 0.94599998 150 0 0 0 0.017720001
2.918 -1.774 0.94300002 150 0 0 0 0.017729999
2.9170001 -1.778 0.94099998 150 0 0 0 0.01774
2.915 -1.7819999 0.93900001 150 0 0 0 0.017750001
2.915 -1.7869999 0.93699998 150 0 0 0 0.017759999
2.9119999 -1.79 0.93400002 150 0 0 0 0.01777
2.9089999 -1.7920001 0.93099999 150 0 0 0 0.01778
2.9089999 -1.7970001 0.92900002 150 0 0 0 0.017790001
2.908 -1.801 0.926 150 0 0 0 0.0178
2.9070001 -1.804 0.92299998 150 0 0 0 0.01781
2.905 -1.807 0.92000002 150 0 0 0 0.017820001
2.904 -1.811 0.917 150 0 0 0 0.017829999
2.902 -1.813 0.91399997 150 0 0 0 0.01784
2.901 -1.816 0.91100001 150 0 0 0 0.01785
2.8989999 -1.818 0.90700001 150 0 0 0 0.017859999
2.8989999 -1.822 0.90499997 150 0 0 0 0.01787
2.8929999 -1.821 0.89999998 150 0 0 0 0.01788
2.8970001 -1.827 0.898 150 0 0 0 0.017890001
2.8970001 -1.83 0.89499998 150 0 0 0 0.017899999
2.891 -1.829 0.88999999 150 0 0 0 0.01791
2.8900001 -1.831 0.88599998 150 0 0 0 0.01792
2.888 -1.832 0.88200003 150 0 0 0 0.017929999
2.8870001 -1.834 0.87800002 150 0 0 0 0.01794
2.885 -1.835 0.87400001 150 0 0 0 0.01795
2.8870001 -1.8380001 0.87099999 150 0 0 0 0.017960001
2.885 -1.839 0.86699998 150 0 0 0 0.017969999
2.8859999 -1.842 0.86400002 150 0 0 0 0.01798
2.885 -1.842 0.86000001 150 0 0 0 0.017990001
2.882 -1.842 0.85500002 150 0 0 0 0.017999999
2.8829999 -1.844 0.85100001 150 0 0 0 0.01801
2.885 -1.847 0.84799999 150 0 0 0 0.01802
2.8829999 -1.847 0.84399998 150 0 0 0 0.018030001
2.8829999 -1.847 0.83899999 150 0 0 0 0.01804
2.8829999 -1.848 0.83499998 150 0 0 0 0.01805
2.882 -1.848 0.83099997 150 0 0 0 0.018060001
2.881 -1.848 0.82599998 150 0 0 0 0.018069999
2.8800001 -1.848 0.82200003 150 0 0 0 0.01808
2.881 -1.848 0.81800002 150 0 0 0 0.01809
2.8770001 -1.846 0.81199998 150 0 0 0 0.018100001
2.878 -1.846 0.80800003 150 0 0 0 0.01811
2.8840001 -1.85 0.80500001 150 0 0 0 0.01812
2.8800001 -1.847 0.79900002 150 0 0 0 0.018130001
2.8859999 -1.85 0.796 150 0 0 0 0.018139999
2.881 -1.847 0.79000002 150 0 0 0 0.01815
2.882 -1.847 0.78600001 150 0 0 0 0.01816
2.8770001 -1.842 0.77999997 150 0 0 0 0.018169999
2.8829999 -1.845 0.77700001 150 0 0 0 0.01818
2.8859999 -1.846 0.773 150 0 0 0 0.01819
2.8840001 -1.8430001 0.76700002 150 0 0 0 0.018200001
2.8870001 -1.8430001 0.76300001 150 0 0 0 0.018209999
2.8889999 -1.8430001 0.759 150 0 0 0 0.01822
2.8859999 -1.839 0.75300002 150 0 0 0 0.018230001
2.8870001 -1.8380001 0.74800003 150 0 0 0 0.018239999
2.891 -1.8380001 0.74400002 150 0 0 0 0.01825
2.888 -1.834 0.73799998 150 0 0 0 0.01826
2.8900001 -1.8329999 0.73299998 150 0 0 0 0.018270001
2.891 -1.831 0.72799999 150 0 0 0 0.018279999
2.8959999 -1.832 0.72399998 150 0 0 0 0.01829
2.8959999 -1.8279999 0.71899998 150 0 0 0 0.018300001
2.895 -1.825 0.71399999 150 0 0 0 0.018309999
2.898 -1.824 0.70899999 150 0 0 0 0.01832
2.898 -1.821 0.704 150 0 0 0 0.01833
2.898 -1.817 0.69800001 150 0 0 0 0.018340001
2.9000001 -1.8150001 0.69400001 150 0 0 0 0.01835
2.9030001 -1.813 0.68900001 150 0 0 0 0.01836
2.905 -1.811 0.68400002 150 0 0 0 0.018370001
2.9070001 -1.808 0.67900002 150 0 0 0 0.018379999
2.908 -1.8049999 0.67400002 150 0 0 0 0.01839
2.911 -1.802 0.66900003 150 0 0 0 0.0184
2.9089999 -1.7970001 0.66299999 150 0 0 0 0.018409999
2.9089999 -1.793 0.65799999 150 0 0 0 0.01842
2.918 -1.794 0.65399998 150 0 0 0 0.01843
2.9159999 -1.788 0.648 150 0 0 0 0.018440001
2.918 -1.784 0.64300001 150 0 0 0 0.018449999
2.921 -1.781 0.63800001 150 0 0 0 0.01846
2.9219999 -1.777 0.63300002 150 0 0 0 0.01847
2.924 -1.774 0.62800002 150 0 0 0 0.018479999
2.925 -1.7690001 0.62300003 150 0 0 0 0.01849
2.924 -1.763 0.61699998 150 0 0 0 0.0185
2.927 -1.7589999 0.61199999 150 0 0 0 0.018510001
2.9330001 -1.757 0.60799998 150 0 0 0 0.018519999
2.9360001 -1.753 0.60299999 150 0 0 0 0.01853
2.9360001 -1.748 0.597 150 0 0 0 0.018540001
2.9389999 -1.744 0.59200001 150 0 0 0 0.018549999
2.9419999 -1.74 0.588 150 0 0 0 0.01856
2.944 -1.735 0.58200002 150 0 0 0 0.01857
2.9449999 -1.729 0.57700002 150 0 0 0 0.018580001
2.944 -1.722 0.57099998 150 0 0 0 0.01859
2.947 -1.7180001 0.56599998 150 0 0 0 0.0186
2.954 -1.716 0.56199998 150 0 0 0 0.018610001
2.954 -1.709 0.55699998 150 0 0 0 0.018619999
2.9560001 -1.704 0.55199999 150 0 0 0 0.01863
2.964 -1.701 0.54799998 150 0 0 0 0.01864
2.9630001 -1.694 0.542 150 0 0 0 0.018650001
2.967 -1.689 0.537 150 0 0 0 0.01866
2.971 -1.684 0.53299999 150 0 0 0 0.01867
2.974 -1.679 0.528 150 0 0 0 0.018680001
2.9749999 -1.673 0.52200001 150 0 0 0 0.018689999
2.9779999 -1.6670001 0.51800001 150 0 0 0 0.0187
2.983 -1.663 0.51300001 150 0 0 0 0.01871
2.983 -1.655 0.50800002 150 0 0 0 0.018719999
2.99 -1.652 0.50400001 150 0 0 0 0.01873
2.9890001 -1.6440001 0.498 150 0 0 0 0.01874
2.9979999 -1.641 0.49399999 150 0 0 0 0.018750001
3.0009999 -1.635 0.48899999 150 0 0 0 0.018759999
3.003 -1.628 0.484 150 0 0 0 0.01877
3.0039999 -1.6210001 0.479 150 0 0 0 0.018780001
3.0039999 -1.613 0.47400001 150 0 0 0 0.018789999
3.0109999 -1.609 0.47 150 0 0 0 0.0188
3.0150001 -1.603 0.465 150 0 0 0 0.01881
3.016 -1.595 0.46000001 150 0 0 0 0.018820001
3.0179999 -1.5880001 0.45500001 150 0 0 0 0.018829999
3.023 -1.5829999 0.45100001 150 0 0 0 0.01884
3.0280001 -1.577 0.447 150 0 0 0 0.018850001
3.0309999 -1.5700001 0.442 150 0 0 0 0.018859999
3.033 -1.563 0.43700001 150 0 0 0 0.01887
3.0369999 -1.556 0.433 150 0 0 0 0.01888
3.0409999 -1.549 0.428 150 0 0 0 0.018890001
3.0480001 -1.545 0.42399999 150 0 0 0 0.0189
3.049 -1.5369999 0.41999999 150 0 0 0 0.01891
3.05 -1.528 0.41499999 150 0 0 0 0.018920001
3.056 -1.522 0.41100001 150 0 0 0 0.018929999
3.059 -1.515 0.40599999 150 0 0 0 0.01894
3.0599999 -1.507 0.40099999 150 0 0 0 0.01895
3.066 -1.5 0.39700001 150 0 0 0 0.018959999
3.073 -1.495 0.39300001 150 0 0 0 0.01897
3.072 -1.485 0.389 150 0 0 0 0.01898
3.0780001 -1.479 0.38499999 150 0 0 0 0.018990001
3.0799999 -1.471 0.38 150 0 0 0 0.018999999
3.086 -1.464 0.37599999 150 0 0 0 0.01901
3.0910001 -1.4579999 0.37200001 150 0 0 0 0.01902
3.0899999 -1.448 0.36700001 150 0 0 0 0.019029999
3.099 -1.443 0.36399999 150 0 0 0 0.01904
3.0999999 -1.434 0.359 150 0 0 0 0.01905
3.102 -1.425 0.35499999 150 0 0 0 0.019060001
3.105 -1.4170001 0.35100001 150 0 0 0 0.019069999
3.1099999 -1.41 0.347 150 0 0 0 0.01908
3.1140001 -1.402 0.34299999 150 0 0 0 0.019090001
3.1170001 -1.3940001 0.33899999 150 0 0 0 0.019099999
3.1210001 -1.386 0.33500001 150 0 0 0 0.01911
3.1270001 -1.3789999 0.331 150 0 0 0 0.01912
3.1270001 -1.37 0.32699999 43 0 0 0 0.019130001
3.128 -1.36 0.322 29 0 0 0 0.01914
3.1329999 -1.353 0.31799999 34 0 0 0 0.01915
3.1470001 -1.349 0.31600001 86 0 0 0 0.019160001
3.1489999 -1.34 0.31200001 150 0 0 0 0.019169999
3.112 -1.314 0.30399999 150 0 0 0 0.01918
3.0940001 -1.2970001 0.29800001 150 0 0 0 0.01919
3.1010001 -1.29 0.294 150 0 0 0 0.019200001
3.0899999 -1.276 0.289 150 0 0 0 0.01921
3.0810001 -1.262 0.285 150 0 0 0 0.01922
3.0810001 -1.253 0.28099999 150 0 0 0 0.019230001
3.0880001 -1.2460001 0.27700001 150 0 0 0 0.019239999
3.0940001 -1.239 0.27399999 150 0 0 0 0.01925
3.092 -1.228 0.27000001 150 0 0 0 0.01926
3.0829999 -1.214 0.26499999 37 0 0 0 0.019269999
3.0580001 -1.1950001 0.25999999 26 0 0 0 0.01928
3.016 -1.169 0.252 29 0 0 0 0.01929
2.9549999 -1.136 0.244 29 0 0 0 0.019300001
2.8789999 -1.097 0.234 28 0 0 0 0.019309999
2.806 -1.061 0.22499999 28 0 0 0 0.01932
2.75 -1.03 0.21699999 27 0 0 0 0.019330001
2.694 -1.001 0.20900001 27 0 0 0 0.019339999
2.6029999 -0.95899999 0.199 26 0 0 0 0.01935
2.5190001 -0.92000002 0.19 25 0 0 0 0.01936
2.451 -0.88700002 0.182 22 0 0 0 0.019370001
2.401 -0.861 0.176 21 0 0 0 0.019379999
2.3510001 -0.83499998 0.169 20 0 0 0 0.01939
2.296 -0.80800003 0.163 19 0 0 0 0.019400001
2.2420001 -0.78200001 0.156 17 0 0 0 0.019409999
2.188 -0.75599998 0.15000001 150 0 0 0 0.01942
2.188 -0.74900001 0.148 151 0 0 0 0.01943
2.1849999 -0.741 0.145 151 0 0 0 0.019440001
2.1919999 -0.73699999 0.14399999 151 0 0 0 0.01945
2.1760001 -0.72399998 0.14 150 0 0 0 0.01946
2.171 -0.71499997 0.138 151 0 0 0 0.019470001
2.1789999 -0.71100003 0.13600001 151 0 0 0 0.019479999
2.1819999 -0.70499998 0.134 151 0 0 0 0.01949
2.184 -0.69800001 0.132 151 0 0 0 0.0195
2.181 -0.69 0.12899999 151 0 0 0 0.019509999
2.1889999 -0.68599999 0.12800001 151 0 0 0 0.01952
2.191 -0.67900002 0.126 151 0 0 0 0.01953
2.1960001 -0.67400002 0.124 150 0 0 0 0.019540001
2.204 -0.66900003 0.122 151 0 0 0 0.019549999
2.211 -0.66399997 0.121 151 0 0 0 0.01956
2.2160001 -0.65799999 0.119 151 0 0 0 0.01957
2.221 -0.65200001 0.117 151 0 0 0 0.019579999
2.22 -0.64499998 0.115 151 0 0 0 0.01959
2.2260001 -0.639 0.113 151 0 0 0 0.0196
2.279 -0.64700001 0.114 150 0 0 0 0.019610001
2.4619999 -0.69099998 0.121 150 0 0 0 0.019619999
2.4909999 -0.69199997 0.12 150 0 0 0 0.01963
2.5 -0.68599999 0.118 150 0 0 0 0.019640001
2.4960001 -0.676 0.116 150 0 0 0 0.019649999
2.3699999 -0.63499999 0.108 150 0 0 0 0.01966
2.539 -0.67199999 0.114 124 0 0 0 0.01967
1.492 -0.38999999 0.064999998 1 0 0 0 0.019680001
1.457 -0.37599999 0.063000001 0 0 0 0 0.01969
1.444 -0.368 0.061000001 0 0 0 0 0.0197
1.424 -0.35800001 0.059 0 0 0 0 0.019710001
1.414 -0.35100001 0.057 0 0 0 0 0.019719999
1.4 -0.34299999 0.056000002 0 0 0 0 0.01973
1.392 -0.336 0.054000001 0 0 0 0 0.01974
1.365 -0.32499999 0.052000001 0 0 0 0 0.019750001
1.351 -0.31799999 0.050999999 8 0 0 0 0.01976
1.34 -0.31099999 0.048999999 35 0 0 0 0.01977
1.341 -0.30700001 0.048 89 0 0 0 0.019780001
1.336 -0.301 0.046999998 69 0 0 0 0.019789999
1.339 -0.29699999 0.046 75 0 0 0 0.0198
1.3430001 -0.294 0.045000002 76 0 0 0 0.01981
1.347 -0.28999999 0.044 81 0 0 0 0.019819999
1.348 -0.28600001 0.043000001 79 0 0 0 0.01983
1.351 -0.28299999 0.043000001 87 0 0 0 0.01984
1.35 -0.278 0.041999999 79 0 0 0 0.019850001
1.354 -0.27399999 0.041000001 74 0 0 0 0.019859999
1.363 -0.27200001 0.039999999 17 0 0 0 0.01987
1.362 -0.26699999 0.039000001 6 0 0 0 0.019880001
1.33 -0.257 0.037 1 0 0 0 0.019889999
3.4949999 -0.66399997 0.096000001 0 0 0 0 0.0199
3.51 -0.65499997 0.094999999 3 0 0 0 0.01991
3.4920001 -0.63999999 0.092 5 0 0 0 0.019920001
3.503 -0.63099998 0.090000004 5 0 0 0 0.019929999
3.5139999 -0.62199998 0.088 5 0 0 0 0.01994
3.526 -0.61199999 0.086000003 8 0 0 0 0.019950001
3.526 -0.60100001 0.083999999 6 0 0 0 0.019959999
3.5090001 -0.58700001 0.081 3 0 0 0 0.01997
3.4860001 -0.57200003 0.079000004 3 0 0 0 0.01998
3.471 -0.55800003 0.075999998 5 0 0 0 0.019990001
3.4719999 -0.54699999 0.074000001 5 0 0 0 0.02
3.48 -0.537 0.071999997 3 0 0 0 0.02001
3.4619999 -0.523 0.07 4 0 0 0 0.020020001
3.4619999 -0.51200002 0.068000004 4 0 0 0 0.020029999
3.471 -0.50199997 0.066 5 0 0 0 0.02004
3.4860001 -0.493 0.064000003 3 0 0 0 0.02005
3.4489999 -0.47600001 0.061999999 1 0 0 0 0.020059999
3.4289999 -0.46200001 0.059 1 0 0 0 0.02007
3.3789999 -0.44499999 0.057 2 0 0 0 0.02008
3.385 -0.435 0.055 2 0 0 0 0.020090001
3.398 -0.42500001 0.052999999 2 0 0 0 0.020099999
3.4030001 -0.41499999 0.052000001 2 0 0 0 0.02011
3.404 -0.40400001 0.050000001 4 0 0 0 0.02012
3.398 -0.39199999 0.048 5 0 0 0 0.020129999
3.3859999 -0.38 0.046 2 0 0 0 0.02014
3.388 -0.37 0.045000002 2 0 0 0 0.02015
3.3759999 -0.35699999 0.043000001 1 0 0 0 0.020160001
1.023 -0.105 0.012 0 0 0 0 0.020169999
1.02 -0.101 0.012 0 0 0 0 0.02018
1.018 -0.097999997 0.011 2 0 0 0 0.020190001
1.027 -0.094999999 0.011 3 0 0 0 0.020199999
1.021 -0.090999998 0.0099999998 2 0 0 0 0.02021
1.03 -0.089000002 0.0099999998 0 0 0 0 0.02022
1.0369999 -0.086000003 0.0089999996 0 0 0 0 0.020230001
1.077 -0.086000003 0.0089999996 0 0 0 0 0.02024
0 0 0 0 0 0 0 0.02025
0 0 0 0 0 0 0 0.020260001
0 0 0 0 0 0 0 0.020269999
0 0 0 0 0 0 0 0.02028
0 0 0 0 0 0 0 0.02029
0 0 0 0 0 0 0 0.020300001
0 0 0 0 0 0 0 0.02031
0 0 0 0 0 0 0 0.02032
0 0 0 0 0 0 0 0.020330001
0 0 0 0 0 0 0 0.020339999
0 0 0 0 0 0 0 0.02035
0 0 0 0 0 0 0 0.02036
0 0 0 0 0 0 0 0.020369999
0 0 0 0 0 0 0 0.02038
0 0 0 0 0 0 0 0.02039
0 0 0 0 0 0 0 0.020400001
3.7650001 -0.094999999 0.0089999996 1 0 0 0 0.020409999
3.7690001 -0.083999999 0.0070000002 3 0 0 0 0.02042
3.7880001 -0.071999997 0.0060000001 3 0 0 0 0.02043
3.7620001 -0.059 0.0049999999 2 0 0 0 0.020439999
0 0 0 0 0 0 0 0.02045
0 0 0 0 0 0 0 0.02046
0 0 0 0 0 0 0 0.020470001
0 0 0 0 0 0 0 0.020479999
0 0 0 0 0 0 0 0.02049
0 0 0 0 0 0 0 0.020500001
0 0 0 0 0 0 0 0.020509999
0 0 0 0 0 0 0 0.02052
0 0 0 0 0 0 0 0.02053
0 0 0 0 0 0 0 0.020540001
0 0 0 0 0 0 0 0.02055
0 0 0 0 0 0 0 0.02056
0 0 0 0 0 0 0 0.020570001
0 0 0 0 0 0 0 0.020579999
0 0 0 0 0 0 0 0.02059
0 0 0 0 0 0 0 0.0206
0 0 0 0 0 0 0 0.020609999
0 0 0 0 0 0 0 0.02062
3.26 0.148 -0.012 0 0 0 0 0.02063
3.2880001 0.16 -0.013 0 0 0 0 0.020640001
3.2579999 0.169 -0.013 0 0 0 0 0.020649999
3.243 0.17900001 -0.014 0 0 0 0 0.02066
3.26 0.19 -0.015 0 0 0 0 0.02067
3.256 0.2 -0.015 0 0 0 0 0.020679999
3.233 0.20900001 -0.016000001 0 0 0 0 0.02069
3.2190001 0.219 -0.016000001 0 0 0 0 0.0207
1.66 0.118 -0.0089999996 0 0 0 0 0.020710001
1.67 0.124 -0.0089999996 0 0 0 0 0.020719999
1.664 0.12899999 -0.0089999996 0 0 0 0 0.02073
1.648 0.133 -0.0089999996 0 0 0 0 0.020740001
1.62 0.13600001 -0.0089999996 0 0 0 0 0.020749999
0 0 0 0 0 0 0 0.02076
0 0 0 0 0 0 0 0.02077
1.567 0.147 -0.0099999998 0 0 0 0 0.020780001
1.543 0.15000001 -0.0099999998 0 0 0 0 0.02079
1.473 0.148 -0.0099999998 1 0 0 0 0.0208
1.501 0.156 -0.0099999998 1 0 0 0 0.020810001
1.495 0.16 -0.0099999998 1 0 0 0 0.020819999
1.5470001 0.17 -0.011 0 0 0 0 0.02083
1.535 0.17399999 -0.011 0 0 0 0 0.02084
1.556 0.182 -0.011 2 0 0 0 0.020850001
1.539 0.185 -0.011 1 0 0 0 0.02086
1.531 0.189 -0.011 2 0 0 0 0.02087
3.483 0.44100001 -0.026000001 3 0 0 0 0.020880001
3.4349999 0.44600001 -0.026000001 3 0 0 0 0.020889999
0 0 0 0 0 0 0 0.0209
0 0 0 0 0 0 0 0.02091
0 0 0 0 0 0 0 0.020919999
3.4400001 0.49200001 -0.027000001 1 0 0 0 0.02093
0 0 0 0 0 0 0 0.02094
0 0 0 0 0 0 0 0.020950001
0 0 0 0 0 0 0 0.020959999
0 0 0 0 0 0 0 0.02097
0 0 0 0 0 0 0 0.02098
0 0 0 0 0 0 0 0.020989999
3.5280001 0.58600003 -0.028000001 1 0 0 0 0.021
3.53 0.59799999 -0.028000001 1 0 0 0 0.02101
3.5580001 0.61400002 -0.028000001 1 0 0 0 0.021020001
1.4170001 0.249 -0.011 0 0 0 0 0.021029999
1.409 0.252 -0.011 2 0 0 0 0.02104
1.406 0.25600001 -0.011 0 0 0 0 0.021050001
1.398 0.25999999 -0.011 2 0 0 0 0.021059999
1.388 0.26199999 -0.011 0 0 0 0 0.02107
1.385 0.266 -0.011 0 0 0 0 0.02108
1.381 0.27000001 -0.0099999998 0 0 0 0 0.021090001
1.373 0.273 -0.0099999998 0 0 0 0 0.0211
1.3660001 0.27599999 -0.0099999998 0 0 0 0 0.02111
1.365 0.28 -0.0099999998 0 0 0 0 0.021120001
1.357 0.28299999 -0.0099999998 0 0 0 0 0.021129999
1.35 0.28600001 -0.0099999998 0 0 0 0 0.02114
1.345 0.28999999 -0.0099999998 0 0 0 0 0.02115
1.336 0.292 -0.0089999996 0 0 0 0 0.021159999
1.3329999 0.296 -0.0089999996 0 0 0 0 0.02117
1.321 0.29800001 -0.0089999996 0 0 0 0 0.02118
1.3200001 0.30199999 -0.0089999996 0 0 0 0 0.021190001
1.311 0.30399999 -0.0080000004 0 0 0 0 0.021199999
1.309 0.308 -0.0080000004 0 0 0 0 0.02121
1.304 0.31099999 -0.0080000004 0 0 0 0 0.02122
1.2970001 0.31400001 -0.0080000004 0 0 0 0 0.021229999
1.2970001 0.31799999 -0.0080000004 0 0 0 0 0.02124
1.2869999 0.31999999 -0.0070000002 0 0 0 0 0.02125
1.284 0.324 -0.0070000002 0 0 0 0 0.021260001
1.251 0.31999999 -0.0070000002 94 0 0 0 0.021269999
1.224 0.317 -0.0060000001 150 0 0 0 0.02128
1.249 0.32699999 -0.0060000001 20 0 0 0 0.021290001
1.255 0.333 -0.0060000001 9 0 0 0 0.021299999
1.273 0.34200001 -0.0060000001 20 0 0 0 0.02131
1.466 0.39899999 -0.0060000001 97 0 0 0 0.02132
1.574 0.43399999 -0.0060000001 115 0 0 0 0.021330001
1.706 0.47600001 -0.0070000002 20 0 0 0 0.02134
1.7079999 0.48199999 -0.0060000001 18 0 0 0 0.02135
1.711 0.48899999 -0.0060000001 19 0 0 0 0.021360001
1.7180001 0.49700001 -0.0049999999 18 0 0 0 0.021369999
1.722 0.50400001 -0.0049999999 17 0 0 0 0.02138
1.725 0.50999999 -0.0040000002 18 0 0 0 0.02139
1.725 0.51599997 -0.0040000002 17 0 0 0 0.021400001
1.729 0.523 -0.003 17 0 0 0 0.02141
1.747 0.53399998 -0.003 84 0 0 0 0.02142
1.763 0.54500002 -0.0020000001 14 0 0 0 0.021430001
1.765 0.55199999 -0.001 78 0 0 0 0.021439999
1.763 0.55699998 -0.001 77 0 0 0 0.02145
1.767 0.56400001 0 74 0 0 0 0.02146
1.775 0.57300001 0 78 0 0 0 0.021469999
1.779 0.57999998 0 77 0 0 0 0.02148
1.779 0.58600003 0.001 79 0 0 0 0.02149
1.788 0.59500003 0.001 13 0 0 0 0.021500001
1.789 0.60100001 0.0020000001 80 0 0 0 0.021509999
1.793 0.60900003 0.003 82 0 0 0 0.02152
1.7970001 0.616 0.0040000002 1 0 0 0 0.02153
1.8 0.62400001 0.0040000002 93 0 0 0 0.021539999
1.8049999 0.63099998 0.0049999999 87 0 0 0 0.02155
1.812 0.63999999 0.0060000001 94 0 0 0 0.02156
1.8150001 0.64700001 0.0070000002 86 0 0 0 0.021570001
1.823 0.65600002 0.0080000004 83 0 0 0 0.021579999
1.824 0.662 0.0089999996 84 0 0 0 0.02159
1.824 0.66799998 0.0099999998 80 0 0 0 0.021600001
1.829 0.67699999 0.011 77 0 0 0 0.021609999
1.8329999 0.68400002 0.012 83 0 0 0 0.02162
1.83 0.68900001 0.013 86 0 0 0 0.02163
1.825 0.69400001 0.014 33 0 0 0 0.021640001
1.816 0.69599998 0.014 36 0 0 0 0.02165
1.808 0.699 0.015 33 0 0 0 0.02166
1.802 0.70300001 0.016000001 39 0 0 0 0.021670001
1.795 0.70599997 0.017000001 40 0 0 0 0.021679999
1.789 0.70999998 0.017999999 39 0 0 0 0.02169
1.773 0.70999998 0.018999999 39 0 0 0 0.0217
