# .PCD v0.7 - Point Cloud Data file format
VERSION 0.7
FIELDS x y z intensity normal_x normal_y normal_z curvature
SIZE 4 4 4 4 4 4 4 4
TYPE F F F F F F F F
COUNT 1 1 1 1 1 1 1 1
WIDTH 1018
HEIGHT 1
VIEWPOINT 0 0 0 1 0 0 0
POINTS 1018
DATA ascii
4.2379999 -2.7520001 0.90700001 1 0 0 0 0.033640001
4.23 -2.743 0.898 1 0 0 0 0.03365
4.2270002 -2.737 0.88999999 1 0 0 0 0.033659998
2.3900001 -1.545 0.49900001 0 0 0 0 0.033670001
2.3429999 -1.512 0.48500001 0 0 0 0 0.033679999
2.3989999 -1.546 0.493 0 0 0 0 0.033690002
2.4549999 -1.5779999 0.5 0 0 0 0 0.0337
2.402 -1.541 0.484 0 0 0 0 0.033709999
2.3929999 -1.533 0.479 0 0 0 0 0.033720002
4.2750001 -2.7320001 0.84799999 1 0 0 0 0.03373
2.418 -1.5420001 0.47499999 0 0 0 0 0.033739999
4.2870002 -2.7279999 0.83499998 1 0 0 0 0.033750001
4.3070002 -2.734 0.83099997 1 0 0 0 0.03376
4.3039999 -2.7260001 0.82300001 1 0 0 0 0.033769999
2.3829999 -1.505 0.45100001 0 0 0 0 0.033780001
2.3199999 -1.462 0.435 0 0 0 0 0.03379
2.3789999 -1.495 0.442 0 0 0 0 0.033799998
4.3499999 -2.727 0.801 1 0 0 0 0.033810001
4.368 -2.73 0.79699999 1 0 0 0 0.03382
4.3889999 -2.7360001 0.79299998 1 0 0 0 0.033829998
4.408 -2.74 0.78799999 1 0 0 0 0.033840001
2.335 -1.447 0.41299999 0 0 0 0 0.033849999
2.365 -1.461 0.414 0 0 0 0 0.033860002
2.3469999 -1.446 0.40700001 0 0 0 0 0.03387
2.325 -1.427 0.39899999 0 0 0 0 0.033879999
2.3970001 -1.467 0.40700001 0 0 0 0 0.033890001
4.5170002 -2.7550001 0.759 36 0 0 0 0.0339
2.4030001 -1.461 0.40000001 0 0 0 0 0.033909999
2.3369999 -1.416 0.38499999 0 0 0 0 0.033920001
2.3499999 -1.419 0.38299999 0 0 0 0 0.03393
2.3770001 -1.4299999 0.38299999 0 0 0 0 0.033939999
2.398 -1.438 0.382 0 0 0 0 0.033950001
2.3380001 -1.396 0.36899999 0 0 0 0 0.03396
2.352 -1.399 0.36700001 0 0 0 0 0.033969998
2.323 -1.377 0.35800001 0 0 0 0 0.033980001
2.3570001 -1.391 0.359 0 0 0 0 0.033989999
2.348 -1.38 0.354 0 0 0 0 0.034000002
2.47 -1.447 0.368 0 0 0 0 0.034010001
2.4100001 -1.406 0.35499999 0 0 0 0 0.034019999
2.372 -1.378 0.345 0 0 0 0 0.034030002
2.3410001 -1.354 0.33700001 0 0 0 0 0.03404
2.3340001 -1.344 0.33199999 0 0 0 0 0.034049999
2.349 -1.347 0.33000001 0 0 0 0 0.034060001
2.4330001 -1.3890001 0.338 0 0 0 0 0.03407
2.3510001 -1.336 0.32300001 0 0 0 0 0.034079999
2.3010001 -1.302 0.31200001 0 0 0 0 0.034090001
2.3340001 -1.3150001 0.31299999 0 0 0 0 0.0341
2.3710001 -1.329 0.31400001 0 0 0 0 0.034109998
2.3759999 -1.325 0.31099999 0 0 0 0 0.034120001
2.388 -1.326 0.308 0 0 0 0 0.03413
2.3340001 -1.29 0.29800001 0 0 0 0 0.034139998
2.375 -1.306 0.29899999 0 0 0 0 0.034150001
2.346 -1.284 0.292 0 0 0 0 0.034159999
2.323 -1.265 0.285 0 0 0 0 0.034170002
2.313 -1.253 0.28 0 0 0 0 0.03418
2.3529999 -1.268 0.28200001 0 0 0 0 0.034189999
2.3599999 -1.265 0.27900001 0 0 0 0 0.034200002
0 0 0 0 0 0 0 0.03421
2.3469999 -1.245 0.27000001 0 0 0 0 0.034219999
2.332 -1.23 0.26499999 0 0 0 0 0.034230001
2.444 -1.2819999 0.27399999 0 0 0 0 0.03424
2.3659999 -1.234 0.26199999 0 0 0 0 0.034249999
2.3329999 -1.21 0.255 0 0 0 0 0.034260001
2.3369999 -1.205 0.252 0 0 0 0 0.03427
2.3659999 -1.214 0.25099999 0 0 0 0 0.034279998
2.3959999 -1.222 0.25099999 0 0 0 0 0.034290001
2.421 -1.228 0.25 0 0 0 0 0.034299999
2.368 -1.193 0.241 0 0 0 0 0.034309998
4.4850001 -2.2479999 0.45100001 96 0 0 0 0.034320001
3.4690001 -1.728 0.34400001 8 0 0 0 0.034329999
3.6789999 -1.821 0.36000001 9 0 0 0 0.034340002
3.6830001 -1.812 0.35499999 9 0 0 0 0.03435
3.6960001 -1.807 0.35100001 7 0 0 0 0.034359999
3.7130001 -1.804 0.34799999 5 0 0 0 0.034370001
4.4489999 -2.148 0.41100001 20 0 0 0 0.03438
4.3470001 -2.085 0.396 71 0 0 0 0.034389999
4.368 -2.082 0.39199999 31 0 0 0 0.034400001
4.408 -2.0880001 0.38999999 47 0 0 0 0.03441
4.4549999 -2.096 0.38800001 19 0 0 0 0.034419999
4.3920002 -2.052 0.377 8 0 0 0 0.034430001
4.402 -2.043 0.37200001 12 0 0 0 0.03444
3.9719999 -1.831 0.331 14 0 0 0 0.034449998
3.862 -1.768 0.317 8 0 0 0 0.034460001
3.8499999 -1.751 0.31099999 8 0 0 0 0.034469999
3.55 -1.603 0.28299999 4 0 0 0 0.034480002
3.5680001 -1.6 0.28 3 0 0 0 0.03449
3.5780001 -1.5930001 0.27599999 1 0 0 0 0.034499999
3.9430001 -1.743 0.30000001 11 0 0 0 0.034510002
3.921 -1.721 0.29300001 8 0 0 0 0.03452
3.993 -1.74 0.294 4 0 0 0 0.034529999
4.02 -1.738 0.29100001 3 0 0 0 0.034540001
0 0 0 0 0 0 0 0.03455
0 0 0 0 0 0 0 0.034559999
0 0 0 0 0 0 0 0.034570001
0 0 0 0 0 0 0 0.03458
0 0 0 0 0 0 0 0.034589998
0 0 0 0 0 0 0 0.034600001
0 0 0 0 0 0 0 0.03461
0 0 0 0 0 0 0 0.034619998
2.3670001 -0.95499998 0.148 0 0 0 0 0.034630001
2.332 -0.93300003 0.14399999 3 0 0 0 0.034639999
2.339 -0.92799997 0.141 6 0 0 0 0.034650002
2.342 -0.92199999 0.139 9 0 0 0 0.03466
2.336 -0.912 0.13699999 15 0 0 0 0.034669999
2.3340001 -0.903 0.134 20 0 0 0 0.034680001
2.332 -0.89499998 0.132 21 0 0 0 0.03469
2.3340001 -0.88800001 0.12899999 24 0 0 0 0.034699999
2.3329999 -0.88 0.127 22 0 0 0 0.034710001
2.3299999 -0.87099999 0.125 22 0 0 0 0.03472
2.3310001 -0.86400002 0.123 24 0 0 0 0.034729999
2.3329999 -0.85699999 0.121 25 0 0 0 0.034740001
2.3340001 -0.85000002 0.118 24 0 0 0 0.03475
2.332 -0.84100002 0.116 22 0 0 0 0.034759998
2.332 -0.83399999 0.114 18 0 0 0 0.034770001
2.3310001 -0.82599998 0.112 18 0 0 0 0.034779999
2.3310001 -0.81800002 0.11 21 0 0 0 0.034790002
2.3299999 -0.81 0.108 21 0 0 0 0.0348
2.3340001 -0.80299997 0.106 24 0 0 0 0.034809999
2.329 -0.79400003 0.104 24 0 0 0 0.034820002
2.336 -0.78899997 0.102 21 0 0 0 0.03483
2.3310001 -0.77999997 0.1 18 0 0 0 0.034839999
2.332 -0.77200001 0.097999997 17 0 0 0 0.034850001
2.339 -0.76700002 0.097000003 17 0 0 0 0.03486
2.3340001 -0.75700003 0.094999999 19 0 0 0 0.034869999
2.3329999 -0.75 0.093000002 16 0 0 0 0.034880001
2.3310001 -0.741 0.090999998 17 0 0 0 0.03489
2.335 -0.73500001 0.089000002 23 0 0 0 0.034899998
2.336 -0.727 0.086999997 24 0 0 0 0.034910001
2.3329999 -0.71899998 0.085000001 22 0 0 0 0.03492
2.332 -0.71100003 0.083999999 21 0 0 0 0.034929998
2.3340001 -0.704 0.082000002 18 0 0 0 0.034940001
2.3329999 -0.69499999 0.079999998 16 0 0 0 0.034949999
2.335 -0.68800002 0.079000004 18 0 0 0 0.034960002
2.329 -0.67900002 0.077 22 0 0 0 0.03497
2.3369999 -0.67400002 0.075999998 24 0 0 0 0.034979999
2.3310001 -0.66399997 0.074000001 24 0 0 0 0.034990001
2.3340001 -0.65700001 0.071999997 22 0 0 0 0.035
2.3369999 -0.64999998 0.071000002 21 0 0 0 0.035009999
2.332 -0.64099997 0.068999998 16 0 0 0 0.035020001
2.339 -0.63499999 0.068000004 14 0 0 0 0.03503
2.3340001 -0.62599999 0.066 16 0 0 0 0.035039999
2.329 -0.61699998 0.064000003 18 0 0 0 0.035050001
2.3299999 -0.61000001 0.063000001 18 0 0 0 0.03506
2.3369999 -0.60399997 0.061999999 18 0 0 0 0.035069998
2.3369999 -0.59600002 0.059999999 20 0 0 0 0.035080001
2.3380001 -0.58899999 0.059 22 0 0 0 0.035089999
2.3329999 -0.57999998 0.057 20 0 0 0 0.035100002
2.336 -0.57300001 0.056000002 19 0 0 0 0.035110001
2.3380001 -0.56599998 0.055 21 0 0 0 0.035119999
2.3329999 -0.55699998 0.052999999 21 0 0 0 0.035130002
2.3369999 -0.55000001 0.052000001 20 0 0 0 0.03514
2.3380001 -0.54299998 0.050999999 17 0 0 0 0.035149999
2.3329999 -0.53399998 0.048999999 16 0 0 0 0.035160001
2.3340001 -0.52700001 0.048 18 0 0 0 0.03517
2.332 -0.51800001 0.046999998 19 0 0 0 0.035179999
2.332 -0.51099998 0.046 19 0 0 0 0.035190001
2.332 -0.50300002 0.045000002 20 0 0 0 0.0352
2.329 -0.495 0.043000001 22 0 0 0 0.035209998
2.3499999 -0.49200001 0.043000001 27 0 0 0 0.035220001
2.3889999 -0.49200001 0.041999999 22 0 0 0 0.03523
2.4330001 -0.493 0.041999999 23 0 0 0 0.035239998
2.4960001 -0.498 0.041999999 30 0 0 0 0.035250001
2.559 -0.50199997 0.041000001 31 0 0 0 0.035259999
2.8429999 -0.54799998 0.045000002 150 0 0 0 0.035270002
3.1489999 -0.597 0.048 150 0 0 0 0.03528
3.1760001 -0.59200001 0.046999998 150 0 0 0 0.035289999
3.178 -0.58200002 0.046 150 0 0 0 0.035300002
3.177 -0.57099998 0.044 150 0 0 0 0.03531
3.1730001 -0.56 0.043000001 150 0 0 0 0.035319999
3.1789999 -0.55000001 0.041999999 150 0 0 0 0.035330001
3.2079999 -0.54500002 0.041000001 152 0 0 0 0.03534
3.2060001 -0.53399998 0.039000001 151 0 0 0 0.035349999
3.2049999 -0.52399999 0.037999999 151 0 0 0 0.035360001
3.2119999 -0.514 0.037 152 0 0 0 0.03537
3.2090001 -0.50300002 0.035999998 152 0 0 0 0.035379998
3.2119999 -0.493 0.035 150 0 0 0 0.035390001
3.3099999 -0.49700001 0.034000002 112 0 0 0 0.035399999
3.3210001 -0.48800001 0.033 152 0 0 0 0.035409998
3.3199999 -0.477 0.032000002 151 0 0 0 0.035420001
3.3180001 -0.46599999 0.030999999 151 0 0 0 0.035429999
3.326 -0.45699999 0.029999999 151 0 0 0 0.035440002
3.352 -0.449 0.028999999 151 0 0 0 0.03545
3.3469999 -0.43799999 0.028000001 151 0 0 0 0.035459999
3.348 -0.42699999 0.027000001 151 0 0 0 0.035470001
3.398 -0.42199999 0.026000001 153 0 0 0 0.03548
3.4130001 -0.41299999 0.025 152 0 0 0 0.035489999
3.4130001 -0.40200001 0.024 150 0 0 0 0.035500001
3.4119999 -0.391 0.023 150 0 0 0 0.03551
3.415 -0.38 0.022 150 0 0 0 0.035519999
3.414 -0.36899999 0.021 150 0 0 0 0.035530001
3.418 -0.35800001 0.02 150 0 0 0 0.03554
3.4119999 -0.34599999 0.018999999 150 0 0 0 0.035549998
3.4170001 -0.336 0.017999999 150 0 0 0 0.035560001
3.414 -0.324 0.017000001 150 0 0 0 0.035569999
3.4100001 -0.31299999 0.016000001 150 0 0 0 0.035580002
3.411 -0.30199999 0.015 150 0 0 0 0.03559
3.415 -0.29100001 0.014 150 0 0 0 0.035599999
3.4170001 -0.28 0.014 150 0 0 0 0.035610002
3.4130001 -0.26899999 0.013 151 0 0 0 0.03562
3.4100001 -0.25799999 0.012 150 0 0 0 0.035629999
3.411 -0.24699999 0.011 150 0 0 0 0.035640001
3.411 -0.236 0.0099999998 151 0 0 0 0.03565
3.4070001 -0.22400001 0.0099999998 151 0 0 0 0.035659999
3.4119999 -0.214 0.0089999996 151 0 0 0 0.035670001
3.415 -0.20299999 0.0080000004 152 0 0 0 0.03568
3.4130001 -0.192 0.0080000004 152 0 0 0 0.035689998
3.408 -0.18000001 0.0070000002 153 0 0 0 0.035700001
3.4030001 -0.169 0.0060000001 153 0 0 0 0.03571
3.401 -0.15800001 0.0060000001 154 0 0 0 0.035719998
3.3989999 -0.147 0.0049999999 154 0 0 0 0.035730001
3.3840001 -0.13500001 0.0049999999 154 0 0 0 0.035739999
3.381 -0.124 0.0040000002 155 0 0 0 0.035750002
3.3829999 -0.113 0.003 155 0 0 0 0.03576
3.3789999 -0.102 0.003 156 0 0 0 0.035769999
3.369 -0.090999998 0.0020000001 158 0 0 0 0.035780001
3.3670001 -0.079999998 0.0020000001 158 0 0 0 0.03579
3.368 -0.068999998 0.0020000001 159 0 0 0 0.035799999
3.3670001 -0.057999998 0.001 159 0 0 0 0.035810001
3.369 -0.046999998 0.001 159 0 0 0 0.03582
3.365 -0.035999998 0 160 0 0 0 0.035829999
3.368 -0.026000001 0 162 0 0 0 0.035840001
3.362 -0.015 0 160 0 0 0 0.03585
3.3659999 -0.0040000002 0 161 0 0 0 0.035859998
3.359 0.0060000001 0 162 0 0 0 0.035870001
3.3659999 0.017000001 0 163 0 0 0 0.035879999
3.3629999 0.028000001 -0.001 164 0 0 0 0.035890002
3.369 0.039000001 -0.001 163 0 0 0 0.0359
3.365 0.050000001 -0.001 162 0 0 0 0.035909999
3.365 0.061000001 -0.0020000001 162 0 0 0 0.035920002
3.3670001 0.071999997 -0.0020000001 160 0 0 0 0.03593
3.3699999 0.082999997 -0.0020000001 158 0 0 0 0.035939999
3.3659999 0.093999997 -0.0020000001 159 0 0 0 0.035950001
3.365 0.104 -0.0020000001 159 0 0 0 0.03596
3.3710001 0.115 -0.0020000001 158 0 0 0 0.035969999
3.3710001 0.126 -0.003 157 0 0 0 0.035980001
3.3800001 0.138 -0.003 156 0 0 0 0.03599
3.381 0.149 -0.003 155 0 0 0 0.035999998
3.3859999 0.16 -0.003 154 0 0 0 0.036010001
3.3870001 0.171 -0.003 154 0 0 0 0.03602
3.4030001 0.183 -0.003 153 0 0 0 0.036029998
3.4100001 0.19400001 -0.003 153 0 0 0 0.036040001
3.401 0.205 -0.003 153 0 0 0 0.036049999
3.4119999 0.21600001 -0.003 152 0 0 0 0.036060002
3.415 0.228 -0.003 152 0 0 0 0.03607
3.4119999 0.23899999 -0.003 152 0 0 0 0.036079999
3.4170001 0.25 -0.003 152 0 0 0 0.036090001
3.4089999 0.26100001 -0.003 153 0 0 0 0.0361
3.3710001 0.26899999 -0.0020000001 153 0 0 0 0.036109999
3.3510001 0.278 -0.0020000001 153 0 0 0 0.036120001
3.3529999 0.289 -0.0020000001 152 0 0 0 0.03613
3.322 0.29699999 -0.0020000001 151 0 0 0 0.036139999
3.3 0.30599999 -0.0020000001 154 0 0 0 0.036150001
3.299 0.31600001 -0.001 154 0 0 0 0.03616
3.2980001 0.32699999 -0.001 154 0 0 0 0.036169998
3.313 0.33899999 -0.001 152 0 0 0 0.036180001
3.2880001 0.347 -0.001 25 0 0 0 0.036189999
3.2360001 0.35299999 0 23 0 0 0 0.036200002
3.1619999 0.35499999 0 24 0 0 0 0.036210001
3.1110001 0.359 0 25 0 0 0 0.036219999
3.0190001 0.35800001 0 25 0 0 0 0.036230002
2.983 0.36399999 0 27 0 0 0 0.03624
2.918 0.36500001 0 28 0 0 0 0.036249999
2.793 0.359 0.001 25 0 0 0 0.036260001
2.6830001 0.354 0.001 23 0 0 0 0.03627
2.602 0.35100001 0.001 21 0 0 0 0.036279999
2.5339999 0.35100001 0.0020000001 20 0 0 0 0.036290001
2.47 0.34999999 0.0020000001 21 0 0 0 0.0363
2.4119999 0.34999999 0.0020000001 21 0 0 0 0.036309998
2.323 0.34400001 0.003 45 0 0 0 0.036320001
2.2909999 0.347 0.003 151 0 0 0 0.03633
2.2709999 0.35100001 0.003 151 0 0 0 0.036339998
2.2780001 0.36000001 0.0040000002 151 0 0 0 0.036350001
2.267 0.366 0.0040000002 150 0 0 0 0.036359999
2.26 0.37200001 0.0049999999 150 0 0 0 0.036370002
2.26 0.37900001 0.0049999999 151 0 0 0 0.03638
2.2590001 0.38600001 0.0060000001 151 0 0 0 0.036389999
2.257 0.39399999 0.0060000001 151 0 0 0 0.036400001
2.263 0.40200001 0.0070000002 151 0 0 0 0.03641
2.2620001 0.40900001 0.0070000002 151 0 0 0 0.036419999
2.2579999 0.41600001 0.0080000004 151 0 0 0 0.036430001
2.2579999 0.42300001 0.0080000004 150 0 0 0 0.03644
2.27 0.433 0.0089999996 151 0 0 0 0.036449999
2.2720001 0.44100001 0.0089999996 151 0 0 0 0.036460001
2.2739999 0.449 0.0099999998 151 0 0 0 0.03647
2.267 0.45500001 0.011 151 0 0 0 0.036479998
2.266 0.46200001 0.011 151 0 0 0 0.036490001
2.2839999 0.47400001 0.012 150 0 0 0 0.036499999
2.3840001 0.50199997 0.013 150 0 0 0 0.036509998
2.529 0.54100001 0.015 150 0 0 0 0.036520001
2.527 0.54900002 0.016000001 150 0 0 0 0.036529999
2.5280001 0.55800003 0.016000001 150 0 0 0 0.036540002
2.5309999 0.56699997 0.017000001 150 0 0 0 0.03655
2.385 0.542 0.017000001 150 0 0 0 0.036559999
2.5599999 0.58999997 0.018999999 130 0 0 0 0.036570001
1.531 0.35800001 0.012 1 0 0 0 0.03658
1.478 0.34999999 0.012 1 0 0 0 0.036589999
1.457 0.34999999 0.012 1 0 0 0 0.036600001
1.441 0.35100001 0.013 1 0 0 0 0.03661
1.427 0.35299999 0.013 0 0 0 0 0.036619999
1.4 0.35100001 0.013 0 0 0 0 0.036630001
1.385 0.352 0.014 0 0 0 0 0.03664
1.373 0.35299999 0.014 0 0 0 0 0.036649998
1.353 0.352 0.015 5 0 0 0 0.036660001
1.3329999 0.35100001 0.015 28 0 0 0 0.036669999
1.325 0.354 0.015 84 0 0 0 0.036680002
1.324 0.35800001 0.016000001 94 0 0 0 0.03669
1.325 0.36199999 0.017000001 96 0 0 0 0.036699999
1.323 0.36700001 0.017000001 102 0 0 0 0.036710002
1.3279999 0.37200001 0.017999999 104 0 0 0 0.03672
1.327 0.37599999 0.017999999 95 0 0 0 0.036729999
1.326 0.38 0.018999999 111 0 0 0 0.036740001
1.325 0.38499999 0.02 88 0 0 0 0.03675
1.326 0.389 0.02 95 0 0 0 0.036759999
1.325 0.39399999 0.021 83 0 0 0 0.036770001
1.336 0.40099999 0.022 12 0 0 0 0.03678
1.322 0.40099999 0.022 5 0 0 0 0.036789998
1.2920001 0.39700001 0.022 0 0 0 0 0.036800001
3.405 1.057 0.061999999 1 0 0 0 0.036809999
3.398 1.067 0.064000003 4 0 0 0 0.036819998
3.401 1.079 0.066 5 0 0 0 0.036830001
3.405 1.091 0.068000004 6 0 0 0 0.036839999
3.402 1.102 0.07 6 0 0 0 0.036850002
3.415 1.118 0.071999997 3 0 0 0 0.03686
3.3559999 1.109 0.072999999 2 0 0 0 0.036869999
3.3399999 1.115 0.074000001 4 0 0 0 0.036880001
3.336 1.125 0.075999998 4 0 0 0 0.03689
3.3540001 1.142 0.079000004 3 0 0 0 0.036899999
3.3310001 1.146 0.081 3 0 0 0 0.036910001
3.326 1.155 0.082999997 3 0 0 0 0.03692
3.3110001 1.161 0.083999999 4 0 0 0 0.036929999
3.312 1.1720001 0.086999997 5 0 0 0 0.036940001
3.3169999 1.1849999 0.089000002 3 0 0 0 0.03695
3.286 1.1849999 0.090000004 1 0 0 0 0.036959998
3.2590001 1.186 0.092 0 0 0 0 0.036970001
3.2090001 1.179 0.093000002 1 0 0 0 0.036979999
3.1930001 1.183 0.094999999 2 0 0 0 0.036990002
3.201 1.197 0.097000003 2 0 0 0 0.037
3.201 1.2079999 0.1 2 0 0 0 0.037009999
3.2090001 1.222 0.102 2 0 0 0 0.037020002
3.214 1.234 0.105 2 0 0 0 0.03703
3.1830001 1.233 0.107 2 0 0 0 0.037039999
3.168 1.237 0.109 2 0 0 0 0.037050001
3.1889999 1.256 0.112 2 0 0 0 0.03706
3.152 1.252 0.113 2 0 0 0 0.037069999
3.154 1.263 0.116 2 0 0 0 0.037080001
3.161 1.277 0.119 1 0 0 0 0.03709
3.2149999 1.309 0.123 1 0 0 0 0.037099998
3.267 1.341 0.12800001 2 0 0 0 0.037110001
0.95099998 0.39300001 0.037999999 0 0 0 0 0.03712
0.94499999 0.39399999 0.037999999 4 0 0 0 0.037129998
0.95099998 0.40000001 0.039999999 4 0 0 0 0.037140001
0.94700003 0.40099999 0.039999999 4 0 0 0 0.037149999
0.94 0.40099999 0.041000001 3 0 0 0 0.037160002
0.94400001 0.40599999 0.041999999 1 0 0 0 0.03717
0 0 0 0 0 0 0 0.037179999
0 0 0 0 0 0 0 0.037190001
0 0 0 0 0 0 0 0.0372
0 0 0 0 0 0 0 0.037209999
0 0 0 0 0 0 0 0.037220001
0 0 0 0 0 0 0 0.03723
0 0 0 0 0 0 0 0.037239999
0 0 0 0 0 0 0 0.037250001
3.8310001 1.761 0.205 1 0 0 0 0.03726
3.8180001 1.767 0.208 2 0 0 0 0.037269998
3.7939999 1.768 0.211 5 0 0 0 0.037280001
1.25 0.58600003 0.071000002 0 0 0 0 0.037289999
1.283 0.60600001 0.074000001 0 0 0 0 0.037300002
3.793 1.804 0.223 6 0 0 0 0.037310001
3.819 1.8279999 0.229 6 0 0 0 0.037319999
3.8210001 1.842 0.233 6 0 0 0 0.037330002
3.816 1.851 0.23800001 6 0 0 0 0.03734
3.819 1.865 0.242 6 0 0 0 0.037349999
3.8210001 1.878 0.24600001 4 0 0 0 0.037360001
3.835 1.897 0.252 2 0 0 0 0.03737
3.9070001 1.9450001 0.26100001 1 0 0 0 0.037379999
0 0 0 0 0 0 0 0.037390001
0 0 0 0 0 0 0 0.0374
3.8510001 1.952 0.27200001 1 0 0 0 0.037409998
3.8169999 1.947 0.27399999 7 0 0 0 0.037420001
3.8169999 1.9579999 0.27900001 14 0 0 0 0.03743
3.8239999 1.973 0.28400001 21 0 0 0 0.037439998
3.825 1.9859999 0.289 23 0 0 0 0.037450001
3.8210001 1.995 0.29300001 22 0 0 0 0.037459999
3.823 2.0079999 0.29800001 22 0 0 0 0.037470002
3.8239999 2.02 0.30399999 23 0 0 0 0.03748
3.819 2.0280001 0.308 24 0 0 0 0.037489999
3.8210001 2.0409999 0.31299999 23 0 0 0 0.037500001
3.819 2.0510001 0.31799999 23 0 0 0 0.03751
3.8210001 2.063 0.324 21 0 0 0 0.037519999
3.822 2.075 0.329 21 0 0 0 0.037530001
3.8280001 2.089 0.33500001 20 0 0 0 0.03754
3.823 2.098 0.34 19 0 0 0 0.037549999
1.5650001 0.86299998 0.141 0 0 0 0 0.037560001
0 0 0 0 0 0 0 0.03757
0 0 0 0 0 0 0 0.037579998
0 0 0 0 0 0 0 0.037590001
0 0 0 0 0 0 0 0.037599999
0 0 0 0 0 0 0 0.037610002
0 0 0 0 0 0 0 0.037620001
0 0 0 0 0 0 0 0.037629999
0 0 0 0 0 0 0 0.037640002
0 0 0 0 0 0 0 0.03765
0 0 0 0 0 0 0 0.037659999
0 0 0 0 0 0 0 0.037670001
0 0 0 0 0 0 0 0.03768
0.07 0.041000001 0.0070000002 0 0 0 0 0.037689999
0.059999999 0.035 0.0060000001 0 0 0 0 0.037700001
0.061000001 0.035999998 0.0060000001 0 0 0 0 0.03771
0.052000001 0.030999999 0.0049999999 0 0 0 0 0.037719999
0.068999998 0.041000001 0.0070000002 0 0 0 0 0.037730001
0.072999999 0.043000001 0.0080000004 0 0 0 0 0.03774
1.459 0.87699997 0.17299999 9 0 0 0 0.037749998
1.455 0.87800002 0.175 9 0 0 0 0.037760001
1.446 0.87699997 0.176 8 0 0 0 0.037769999
1.4450001 0.87900001 0.178 9 0 0 0 0.037780002
1.4349999 0.87699997 0.17900001 8 0 0 0 0.03779
1.434 0.87900001 0.18099999 12 0 0 0 0.037799999
1.424 0.87599999 0.182 12 0 0 0 0.037810002
1.4220001 0.87800002 0.184 12 0 0 0 0.03782
1.418 0.87800002 0.186 12 0 0 0 0.037829999
1.415 0.87900001 0.18799999 12 0 0 0 0.037840001
1.406 0.87699997 0.189 12 0 0 0 0.03785
1.408 0.88099998 0.192 12 0 0 0 0.037859999
1.402 0.88 0.193 11 0 0 0 0.037870001
1.399 0.88099998 0.19499999 11 0 0 0 0.03788
1.395 0.88099998 0.197 10 0 0 0 0.037889998
1.391 0.88099998 0.199 9 0 0 0 0.037900001
1.386 0.88099998 0.2 9 0 0 0 0.037909999
1.382 0.88099998 0.20200001 7 0 0 0 0.037919998
1.375 0.87800002 0.20299999 5 0 0 0 0.037930001
1.368 0.87599999 0.205 4 0 0 0 0.037939999
1.3660001 0.87699997 0.207 2 0 0 0 0.037950002
1.351 0.87 0.207 1 0 0 0 0.03796
0 0 0 0 0 0 0 0.037969999
1.054 0.68199998 0.16500001 0 0 0 0 0.037980001
0.972 0.63099998 0.153 0 0 0 0 0.03799
0.94300002 0.61299998 0.15000001 1 0 0 0 0.037999999
0.92699999 0.60399997 0.149 1 0 0 0 0.038010001
0.93800002 0.61199999 0.153 1 0 0 0 0.03802
0.92000002 0.602 0.15099999 1 0 0 0 0.038029999
0.93300003 0.61199999 0.155 1 0 0 0 0.038040001
0.92400002 0.60699999 0.155 0 0 0 0 0.03805
0.94300002 0.62099999 0.16 0 0 0 0 0.038059998
0.93800002 0.61799997 0.161 0 0 0 0 0.038070001
0.93699998 0.61900002 0.162 0 0 0 0 0.038079999
0.94 0.62099999 0.164 0 0 0 0 0.038090002
0.93099999 0.616 0.164 0 0 0 0 0.0381
0.92900002 0.616 0.16500001 0 0 0 0 0.038109999
0.977 0.64899999 0.176 0 0 0 0 0.038120002
0 0 0 0 0 0 0 0.03813
0 0 0 0 0 0 0 0.038139999
1.274 0.84899998 0.235 1 0 0 0 0.038150001
1.302 0.86900002 0.243 1 0 0 0 0.03816
1.306 0.87199998 0.245 1 0 0 0 0.038169999
1.308 0.875 0.248 1 0 0 0 0.038180001
1.313 0.87800002 0.25099999 1 0 0 0 0.03819
1.317 0.88200003 0.25400001 1 0 0 0 0.038199998
1.307 0.87599999 0.25400001 1 0 0 0 0.038210001
1.318 0.884 0.25799999 1 0 0 0 0.03822
1.309 0.87800002 0.25799999 1 0 0 0 0.038229998
1.308 0.87800002 0.25999999 1 0 0 0 0.038240001
1.304 0.875 0.26199999 2 0 0 0 0.038249999
1.296 0.87099999 0.26199999 2 0 0 0 0.038260002
1.3 0.87300003 0.26499999 1 0 0 0 0.03827
1.291 0.86699998 0.26499999 2 0 0 0 0.038279999
1.309 0.88 0.27000001 1 0 0 0 0.038290001
1.288 0.866 0.26800001 1 0 0 0 0.0383
1.2869999 0.86500001 0.27000001 1 0 0 0 0.038309999
1.296 0.87099999 0.273 1 0 0 0 0.038320001
1.3 0.87300003 0.27599999 1 0 0 0 0.03833
1.276 0.85699999 0.273 2 0 0 0 0.038339999
1.301 0.87300003 0.28 8 0 0 0 0.038350001
1.304 0.87400001 0.28200001 9 0 0 0 0.03836
1.3099999 0.87800002 0.285 9 0 0 0 0.038369998
1.312 0.87900001 0.28799999 10 0 0 0 0.038380001
1.316 0.88099998 0.28999999 10 0 0 0 0.038389999
2.3039999 0.345 0.242 109 0 0 0 0.040320002
2.3759999 0.34900001 0.245 17 0 0 0 0.04033
2.4200001 0.34799999 0.245 17 0 0 0 0.040339999
2.4719999 0.34900001 0.24600001 17 0 0 0 0.040350001
2.5350001 0.35100001 0.248 19 0 0 0 0.04036
2.6010001 0.35299999 0.25 21 0 0 0 0.040369999
2.6530001 0.35299999 0.25 22 0 0 0 0.040380001
2.71 0.35299999 0.25099999 21 0 0 0 0.04039
2.7809999 0.354 0.252 23 0 0 0 0.040399998
2.852 0.35499999 0.25400001 23 0 0 0 0.040410001
2.9100001 0.35499999 0.25400001 23 0 0 0 0.04042
2.983 0.35499999 0.255 23 0 0 0 0.040429998
3.0650001 0.35699999 0.25600001 24 0 0 0 0.040440001
3.1429999 0.35699999 0.257 24 0 0 0 0.040449999
3.2030001 0.35499999 0.25600001 24 0 0 0 0.040460002
3.2590001 0.352 0.255 24 0 0 0 0.04047
3.299 0.34799999 0.252 29 0 0 0 0.040479999
3.316 0.34099999 0.24699999 150 0 0 0 0.040490001
3.316 0.33199999 0.241 151 0 0 0 0.0405
3.3180001 0.32300001 0.235 151 0 0 0 0.040509999
3.319 0.31400001 0.229 151 0 0 0 0.040520001
3.3169999 0.30500001 0.223 151 0 0 0 0.04053
3.326 0.29699999 0.21699999 150 0 0 0 0.040539999
3.342 0.289 0.212 151 0 0 0 0.040550001
3.3469999 0.28099999 0.206 151 0 0 0 0.04056
3.3510001 0.27200001 0.2 150 0 0 0 0.040569998
3.4000001 0.26699999 0.197 151 0 0 0 0.040580001
3.4089999 0.259 0.191 151 0 0 0 0.040589999
3.3889999 0.248 0.184 24 0 0 0 0.040600002
3.3670001 0.237 0.176 6 0 0 0 0.04061
3.401 0.23100001 0.17200001 35 0 0 0 0.040619999
3.4119999 0.222 0.16599999 152 0 0 0 0.040630002
3.4130001 0.213 0.15899999 152 0 0 0 0.04064
3.4089999 0.204 0.153 151 0 0 0 0.040649999
3.408 0.19499999 0.146 151 0 0 0 0.040660001
3.4089999 0.186 0.14 151 0 0 0 0.04067
3.415 0.178 0.134 151 0 0 0 0.040679999
3.4170001 0.169 0.127 152 0 0 0 0.040690001
3.4119999 0.15899999 0.12 152 0 0 0 0.0407
3.4070001 0.15000001 0.114 152 0 0 0 0.040709998
3.4030001 0.141 0.107 153 0 0 0 0.040720001
3.392 0.132 0.1 154 0 0 0 0.04073
3.3829999 0.123 0.093000002 154 0 0 0 0.040739998
3.381 0.114 0.086999997 155 0 0 0 0.040750001
3.3710001 0.105 0.079999998 156 0 0 0 0.040759999
3.3699999 0.096000001 0.074000001 156 0 0 0 0.040770002
3.378 0.086999997 0.067000002 155 0 0 0 0.04078
3.3840001 0.079000004 0.061000001 155 0 0 0 0.040789999
3.372 0.07 0.054000001 156 0 0 0 0.040800001
3.3659999 0.061000001 0.046999998 158 0 0 0 0.04081
3.3629999 0.052000001 0.041000001 160 0 0 0 0.040819999
3.3629999 0.044 0.034000002 159 0 0 0 0.040830001
3.3629999 0.035 0.027000001 160 0 0 0 0.04084
3.368 0.026000001 0.021 161 0 0 0 0.040849999
3.3610001 0.017999999 0.014 162 0 0 0 0.040860001
3.362 0.0089999996 0.0070000002 163 0 0 0 0.04087
3.3640001 0 0.001 163 0 0 0 0.040879998
3.365 -0.0070000002 -0.0049999999 162 0 0 0 0.040890001
3.362 -0.016000001 -0.012 163 0 0 0 0.040899999
3.362 -0.024 -0.017999999 163 0 0 0 0.040910002
3.362 -0.033 -0.025 163 0 0 0 0.040920001
3.3610001 -0.041000001 -0.032000002 163 0 0 0 0.040929999
3.3640001 -0.050000001 -0.039000001 160 0 0 0 0.040940002
3.3670001 -0.059 -0.045000002 159 0 0 0 0.04095
3.3640001 -0.067000002 -0.052000001 159 0 0 0 0.040959999
3.362 -0.075999998 -0.059 158 0 0 0 0.040970001
3.3659999 -0.083999999 -0.066 158 0 0 0 0.04098
3.3710001 -0.093000002 -0.072999999 157 0 0 0 0.040989999
3.3770001 -0.101 -0.079999998 156 0 0 0 0.041000001
3.3840001 -0.11 -0.086999997 154 0 0 0 0.04101
3.382 -0.119 -0.093999997 154 0 0 0 0.041019998
3.388 -0.127 -0.101 154 0 0 0 0.041030001
3.395 -0.13600001 -0.108 154 0 0 0 0.04104
3.402 -0.145 -0.115 153 0 0 0 0.041049998
3.4089999 -0.154 -0.123 152 0 0 0 0.041060001
3.4119999 -0.162 -0.13 152 0 0 0 0.041069999
3.411 -0.171 -0.13699999 152 0 0 0 0.041080002
3.414 -0.17900001 -0.14399999 152 0 0 0 0.04109
3.408 -0.18799999 -0.15099999 151 0 0 0 0.041099999
3.4089999 -0.19599999 -0.15800001 151 0 0 0 0.041110002
3.4059999 -0.204 -0.16500001 151 0 0 0 0.04112
3.4089999 -0.213 -0.17200001 151 0 0 0 0.041129999
3.4070001 -0.221 -0.17900001 151 0 0 0 0.041140001
3.4119999 -0.23 -0.18700001 151 0 0 0 0.04115
3.411 -0.23899999 -0.19400001 151 0 0 0 0.041159999
3.4100001 -0.24699999 -0.20100001 151 0 0 0 0.041170001
3.4089999 -0.255 -0.208 151 0 0 0 0.04118
3.4070001 -0.264 -0.21600001 151 0 0 0 0.041189998
3.411 -0.27200001 -0.223 150 0 0 0 0.041200001
3.4089999 -0.28 -0.23 150 0 0 0 0.041209999
3.411 -0.289 -0.23800001 150 0 0 0 0.041219998
3.414 -0.29800001 -0.245 150 0 0 0 0.041230001
3.4089999 -0.30599999 -0.252 150 0 0 0 0.041239999
3.4130001 -0.31400001 -0.25999999 150 0 0 0 0.041250002
3.4130001 -0.32300001 -0.26699999 150 0 0 0 0.04126
3.4070001 -0.33000001 -0.27399999 150 0 0 0 0.041269999
3.4119999 -0.33899999 -0.28200001 150 0 0 0 0.041280001
3.4089999 -0.347 -0.289 150 0 0 0 0.04129
3.4089999 -0.35499999 -0.29699999 150 0 0 0 0.041299999
3.4119999 -0.36399999 -0.30500001 150 0 0 0 0.041310001
3.4100001 -0.37200001 -0.31200001 150 0 0 0 0.04132
3.4100001 -0.38 -0.31999999 150 0 0 0 0.041329999
3.4089999 -0.38800001 -0.32699999 150 0 0 0 0.041340001
3.4119999 -0.39700001 -0.33500001 150 0 0 0 0.04135
3.415 -0.405 -0.34299999 150 0 0 0 0.041359998
3.4159999 -0.414 -0.34999999 150 0 0 0 0.041370001
3.411 -0.421 -0.35800001 150 0 0 0 0.041379999
3.4130001 -0.43000001 -0.366 151 0 0 0 0.041390002
3.3840001 -0.43399999 -0.37 150 0 0 0 0.0414
3.3440001 -0.43700001 -0.373 150 0 0 0 0.041409999
3.346 -0.44600001 -0.38100001 150 0 0 0 0.041420002
3.3440001 -0.45300001 -0.38800001 151 0 0 0 0.04143
3.3469999 -0.461 -0.396 151 0 0 0 0.041439999
3.3210001 -0.46599999 -0.40099999 150 0 0 0 0.041450001
3.3099999 -0.472 -0.40700001 150 0 0 0 0.04146
3.3150001 -0.48100001 -0.41499999 150 0 0 0 0.041469999
3.312 -0.48800001 -0.42199999 150 0 0 0 0.041480001
3.3110001 -0.49599999 -0.43000001 151 0 0 0 0.04149
3.309 -0.50400001 -0.43700001 151 0 0 0 0.041499998
3.3010001 -0.50999999 -0.44400001 85 0 0 0 0.041510001
3.221 -0.505 -0.44100001 62 0 0 0 0.04152
3.211 -0.51099998 -0.447 150 0 0 0 0.041529998
3.2049999 -0.51800001 -0.454 150 0 0 0 0.041540001
3.2049999 -0.52600002 -0.461 150 0 0 0 0.041549999
3.2090001 -0.53399998 -0.46900001 150 0 0 0 0.041560002
3.211 -0.542 -0.477 150 0 0 0 0.04157
3.21 -0.54900002 -0.48500001 150 0 0 0 0.041579999
3.21 -0.55699998 -0.493 151 0 0 0 0.041590001
3.207 -0.56300002 -0.5 150 0 0 0 0.0416
3.184 -0.56699997 -0.50400001 150 0 0 0 0.041609999
3.175 -0.57300001 -0.50999999 150 0 0 0 0.041620001
3.178 -0.57999998 -0.51800001 150 0 0 0 0.04163
3.1760001 -0.58700001 -0.52499998 150 0 0 0 0.041639999
3.177 -0.59500003 -0.53299999 150 0 0 0 0.041650001
3.1800001 -0.60299999 -0.54100001 150 0 0 0 0.04166
3.177 -0.61000001 -0.54900002 150 0 0 0 0.041669998
3.165 -0.61500001 -0.55400002 150 0 0 0 0.041680001
2.8759999 -0.565 -0.51099998 150 0 0 0 0.041689999
2.7639999 -0.54900002 -0.49700001 93 0 0 0 0.041700002
2.523 -0.50700003 -0.46000001 21 0 0 0 0.04171
2.494 -0.50700003 -0.461 19 0 0 0 0.041719999
2.4630001 -0.50599998 -0.461 18 0 0 0 0.041730002
2.4319999 -0.505 -0.46200001 17 0 0 0 0.04174
2.398 -0.50400001 -0.461 16 0 0 0 0.041749999
2.375 -0.50400001 -0.463 18 0 0 0 0.041760001
2.3499999 -0.505 -0.46399999 18 0 0 0 0.04177
2.3310001 -0.50599998 -0.46599999 21 0 0 0 0.041779999
2.3280001 -0.50999999 -0.47099999 20 0 0 0 0.041790001
2.3310001 -0.51599997 -0.47799999 18 0 0 0 0.0418
2.335 -0.52200001 -0.484 18 0 0 0 0.041809998
2.3329999 -0.52700001 -0.49000001 18 0 0 0 0.041820001
2.3369999 -0.53299999 -0.49700001 14 0 0 0 0.04183
2.3440001 -0.54000002 -0.50400001 10 0 0 0 0.041839998
2.332 -0.542 -0.50800002 15 0 0 0 0.041850001
2.3269999 -0.546 -0.51200002 20 0 0 0 0.041859999
2.3280001 -0.55199999 -0.51899999 19 0 0 0 0.041870002
2.326 -0.55599999 -0.52399999 20 0 0 0 0.04188
2.323 -0.56 -0.52999997 24 0 0 0 0.041889999
2.3269999 -0.56699997 -0.53600001 26 0 0 0 0.041900001
2.326 -0.57099998 -0.542 26 0 0 0 0.04191
2.3239999 -0.57599998 -0.54799998 25 0 0 0 0.041919999
2.3239999 -0.58099997 -0.55400002 24 0 0 0 0.041930001
2.325 -0.58600003 -0.56 24 0 0 0 0.04194
2.3280001 -0.59200001 -0.56699997 24 0 0 0 0.041949999
2.326 -0.59600002 -0.57300001 22 0 0 0 0.041960001
2.325 -0.60100001 -0.579 22 0 0 0 0.04197
2.3269999 -0.60699999 -0.58600003 23 0 0 0 0.041979998
2.3269999 -0.61199999 -0.59200001 22 0 0 0 0.041990001
2.3299999 -0.61699998 -0.59899998 21 0 0 0 0.041999999
2.325 -0.62099999 -0.60399997 22 0 0 0 0.042010002
2.3239999 -0.62599999 -0.61000001 22 0 0 0 0.042020001
2.3239999 -0.63 -0.616 20 0 0 0 0.042029999
2.325 -0.63499999 -0.62300003 17 0 0 0 0.042040002
2.323 -0.63999999 -0.62900001 15 0 0 0 0.04205
2.325 -0.64499998 -0.63499999 15 0 0 0 0.042059999
2.3269999 -0.64999998 -0.64200002 15 0 0 0 0.042070001
2.3239999 -0.65399998 -0.648 15 0 0 0 0.04208
2.323 -0.65899998 -0.65399998 16 0 0 0 0.042089999
2.3239999 -0.66399997 -0.66000003 16 0 0 0 0.042100001
2.322 -0.66799998 -0.66600001 18 0 0 0 0.04211
2.3269999 -0.67400002 -0.67400002 18 0 0 0 0.042119998
2.323 -0.67699999 -0.67900002 19 0 0 0 0.042130001
2.326 -0.68300003 -0.68699998 20 0 0 0 0.04214
2.319 -0.68599999 -0.69099998 18 0 0 0 0.042149998
2.3280001 -0.69300002 -0.69999999 19 0 0 0 0.042160001
2.326 -0.69700003 -0.70599997 21 0 0 0 0.042169999
2.323 -0.69999999 -0.71200001 20 0 0 0 0.042180002
2.326 -0.70599997 -0.71899998 17 0 0 0 0.04219
2.3299999 -0.71100003 -0.727 16 0 0 0 0.042199999
2.325 -0.71399999 -0.73199999 17 0 0 0 0.042210001
2.3269999 -0.71899998 -0.73900002 19 0 0 0 0.04222
2.325 -0.72299999 -0.745 20 0 0 0 0.042229999
2.326 -0.72799999 -0.75199997 26 0 0 0 0.042240001
2.3199999 -0.73000002 -0.75700003 28 0 0 0 0.04225
2.3269999 -0.73699999 -0.76599997 28 0 0 0 0.042259999
2.3180001 -0.73799998 -0.76899999 27 0 0 0 0.042270001
2.326 -0.745 -0.77899998 23 0 0 0 0.04228
2.323 -0.74800003 -0.78399998 19 0 0 0 0.042289998
2.323 -0.75199997 -0.79100001 17 0 0 0 0.042300001
2.3269999 -0.75800002 -0.79900002 20 0 0 0 0.042309999
2.3299999 -0.76300001 -0.80699998 26 0 0 0 0.042319998
2.322 -0.764 -0.81099999 31 0 0 0 0.042330001
2.3069999 -0.764 -0.81199998 30 0 0 0 0.042339999
2.2850001 -0.75999999 -0.81099999 29 0 0 0 0.042350002
2.2639999 -0.75700003 -0.81 29 0 0 0 0.04236
2.2509999 -0.75700003 -0.81199998 29 0 0 0 0.042369999
2.23 -0.75300002 -0.81099999 29 0 0 0 0.042380001
2.21 -0.75 -0.81 28 0 0 0 0.04239
2.1960001 -0.74900001 -0.81099999 29 0 0 0 0.042399999
2.184 -0.74800003 -0.81300002 29 0 0 0 0.042410001
2.1670001 -0.74599999 -0.81300002 29 0 0 0 0.04242
2.1459999 -0.74199998 -0.81099999 29 0 0 0 0.042429999
2.1289999 -0.74000001 -0.81099999 29 0 0 0 0.042440001
2.1110001 -0.73699999 -0.81 28 0 0 0 0.04245
2.0869999 -0.73199999 -0.80699998 28 0 0 0 0.042459998
2.076 -0.73100001 -0.80900002 29 0 0 0 0.042470001
2.059 -0.72799999 -0.80900002 28 0 0 0 0.042479999
2.046 -0.727 -0.80900002 28 0 0 0 0.042490002
2.027 -0.72299999 -0.80800003 28 0 0 0 0.0425
2.013 -0.72100002 -0.80800003 29 0 0 0 0.042509999
2 -0.71899998 -0.80900002 29 0 0 0 0.042520002
1.9859999 -0.71700001 -0.80900002 29 0 0 0 0.04253
1.97 -0.71399999 -0.80800003 29 0 0 0 0.042539999
1.957 -0.71200001 -0.80800003 28 0 0 0 0.042550001
1.946 -0.70999998 -0.80900002 29 0 0 0 0.04256
1.9299999 -0.70700002 -0.80800003 30 0 0 0 0.042569999
1.9170001 -0.70499998 -0.80800003 29 0 0 0 0.042580001
1.906 -0.70300001 -0.80900002 29 0 0 0 0.04259
1.892 -0.69999999 -0.80800003 29 0 0 0 0.042599998
1.876 -0.69700003 -0.80699998 29 0 0 0 0.042610001
1.864 -0.69499999 -0.80699998 28 0 0 0 0.042619999
1.85 -0.69199997 -0.80599999 28 0 0 0 0.042629998
1.841 -0.69 -0.80800003 26 0 0 0 0.042640001
1.831 -0.68900001 -0.80900002 25 0 0 0 0.042649999
1.819 -0.68599999 -0.80900002 23 0 0 0 0.042660002
1.813 -0.68599999 -0.81099999 23 0 0 0 0.04267
1.799 -0.68300003 -0.81 22 0 0 0 0.042679999
1.789 -0.68099999 -0.81 23 0 0 0 0.042690001
1.773 -0.676 -0.80800003 26 0 0 0 0.0427
1.7640001 -0.67500001 -0.80900002 28 0 0 0 0.042709999
1.7460001 -0.67000002 -0.80599999 30 0 0 0 0.042720001
1.74 -0.66900003 -0.80800003 30 0 0 0 0.04273
1.7359999 -0.66900003 -0.81099999 31 0 0 0 0.042739999
1.723 -0.66500002 -0.80900002 31 0 0 0 0.042750001
1.712 -0.66299999 -0.80900002 35 0 0 0 0.04276
1.696 -0.65799999 -0.80599999 35 0 0 0 0.042769998
1.6900001 -0.65700001 -0.80800003 34 0 0 0 0.042780001
1.6799999 -0.65399998 -0.80800003 34 0 0 0 0.042789999
1.669 -0.65200001 -0.80699998 34 0 0 0 0.042800002
1.661 -0.64999998 -0.80800003 35 0 0 0 0.04281
1.652 -0.64700001 -0.80699998 35 0 0 0 0.042819999
1.649 -0.64700001 -0.81099999 14 0 0 0 0.042830002
1.641 -0.64499998 -0.81099999 14 0 0 0 0.04284
1.6339999 -0.64300001 -0.81099999 14 0 0 0 0.042849999
1.623 -0.63999999 -0.81 14 0 0 0 0.042860001
1.615 -0.63700002 -0.81099999 14 0 0 0 0.04287
1.607 -0.63499999 -0.81099999 14 0 0 0 0.042879999
1.602 -0.634 -0.81199998 14 0 0 0 0.042890001
1.5930001 -0.63099998 -0.81199998 14 0 0 0 0.0429
1.584 -0.62800002 -0.81099999 14 0 0 0 0.042909998
1.577 -0.62599999 -0.81099999 14 0 0 0 0.042920001
1.567 -0.62300003 -0.81 14 0 0 0 0.04293
1.564 -0.62199998 -0.81300002 14 0 0 0 0.042939998
1.559 -0.62 -0.81300002 14 0 0 0 0.042950001
1.549 -0.61699998 -0.81199998 14 0 0 0 0.042959999
1.5420001 -0.61400002 -0.81199998 14 0 0 0 0.042970002
1.533 -0.611 -0.81099999 14 0 0 0 0.04298
1.53 -0.61000001 -0.81300002 14 0 0 0 0.042989999
1.511 -0.60299999 -0.80599999 49 0 0 0 0.043000001
1.516 -0.60500002 -0.81199998 14 0 0 0 0.04301
1.507 -0.60100001 -0.81099999 14 0 0 0 0.043019999
1.489 -0.59399998 -0.80400002 46 0 0 0 0.043030001
1.497 -0.59799999 -0.81199998 14 0 0 0 0.04304
1.493 -0.59600002 -0.81300002 14 0 0 0 0.043049999
1.4859999 -0.59299999 -0.81199998 14 0 0 0 0.043060001
1.478 -0.58899999 -0.81099999 14 0 0 0 0.04307
1.472 -0.58700001 -0.81099999 14 0 0 0 0.043079998
1.4680001 -0.58499998 -0.81099999 14 0 0 0 0.043090001
1.46 -0.58099997 -0.81 12 0 0 0 0.043099999
1.4529999 -0.57800001 -0.80900002 12 0 0 0 0.043110002
1.452 -0.57700002 -0.81099999 12 0 0 0 0.043120001
1.447 -0.57499999 -0.81099999 13 0 0 0 0.043129999
1.439 -0.57099998 -0.80900002 13 0 0 0 0.043140002
1.436 -0.56900001 -0.81 13 0 0 0 0.04315
1.431 -0.56699997 -0.81 14 0 0 0 0.043159999
1.425 -0.56400001 -0.80900002 14 0 0 0 0.043170001
1.423 -0.56199998 -0.81 14 0 0 0 0.04318
1.419 -0.56 -0.81 14 0 0 0 0.043189999
1.414 -0.55699998 -0.81 14 0 0 0 0.043200001
1.41 -0.55500001 -0.81 14 0 0 0 0.04321
1.405 -0.55199999 -0.80900002 15 0 0 0 0.043219998
1.405 -0.551 -0.81099999 15 0 0 0 0.043230001
1.398 -0.54699999 -0.80900002 14 0 0 0 0.04324
1.396 -0.546 -0.81 15 0 0 0 0.043249998
1.3940001 -0.54400003 -0.81099999 15 0 0 0 0.043260001
1.392 -0.542 -0.81199998 15 0 0 0 0.043269999
1.386 -0.53799999 -0.81 14 0 0 0 0.043280002
1.383 -0.53600001 -0.81 15 0 0 0 0.04329
1.381 -0.53399998 -0.81 15 0 0 0 0.043299999
1.381 -0.53299999 -0.81199998 15 0 0 0 0.043310001
1.377 -0.52999997 -0.81099999 15 0 0 0 0.04332
1.373 -0.52700001 -0.81 15 0 0 0 0.043329999
1.372 -0.52499998 -0.81099999 15 0 0 0 0.043340001
1.369 -0.52200001 -0.81 15 0 0 0 0.04335
1.369 -0.52100003 -0.81099999 15 0 0 0 0.043359999
1.3660001 -0.51800001 -0.81099999 15 0 0 0 0.043370001
1.364 -0.51599997 -0.81099999 15 0 0 0 0.04338
1.36 -0.51300001 -0.81 15 0 0 0 0.043389998
1.36 -0.51099998 -0.81099999 15 0 0 0 0.043400001
1.36 -0.509 -0.81099999 15 0 0 0 0.043409999
1.358 -0.50700003 -0.81099999 15 0 0 0 0.043419998
1.357 -0.505 -0.81199998 15 0 0 0 0.043430001
1.3559999 -0.50199997 -0.81199998 15 0 0 0 0.043439999
1.358 -0.50099999 -0.81300002 15 0 0 0 0.043450002
1.3559999 -0.49900001 -0.81300002 15 0 0 0 0.04346
1.35 -0.495 -0.81 15 0 0 0 0.043469999
1.35 -0.493 -0.81099999 15 0 0 0 0.043480001
1.351 -0.491 -0.81099999 15 0 0 0 0.04349
1.351 -0.48899999 -0.81199998 15 0 0 0 0.043499999
1.351 -0.48699999 -0.81199998 16 0 0 0 0.043510001
1.349 -0.484 -0.81099999 16 0 0 0 0.04352
1.348 -0.48199999 -0.81099999 16 0 0 0 0.043529999
1.35 -0.47999999 -0.81199998 16 0 0 0 0.043540001
1.349 -0.47799999 -0.81099999 16 0 0 0 0.04355
1.35 -0.47600001 -0.81199998 16 0 0 0 0.043559998
1.349 -0.47299999 -0.81099999 16 0 0 0 0.043570001
1.349 -0.47099999 -0.81099999 16 0 0 0 0.043579999
1.351 -0.47 -0.81199998 16 0 0 0 0.043590002
1.354 -0.46799999 -0.81300002 16 0 0 0 0.0436
1.353 -0.465 -0.81199998 16 0 0 0 0.043609999
1.352 -0.463 -0.81099999 16 0 0 0 0.043620002
1.354 -0.461 -0.81199998 16 0 0 0 0.04363
1.355 -0.45899999 -0.81199998 16 0 0 0 0.043639999
1.3559999 -0.45699999 -0.81199998 16 0 0 0 0.043650001
1.357 -0.454 -0.81199998 16 0 0 0 0.04366
1.358 -0.45199999 -0.81199998 15 0 0 0 0.043669999
1.359 -0.44999999 -0.81099999 14 0 0 0 0.043680001
1.3609999 -0.44800001 -0.81199998 14 0 0 0 0.04369
1.363 -0.44600001 -0.81199998 15 0 0 0 0.043699998
1.3609999 -0.44299999 -0.81 14 0 0 0 0.043710001
1.363 -0.44100001 -0.81 14 0 0 0 0.043719999
1.368 -0.44 -0.81199998 15 0 0 0 0.043729998
1.372 -0.43900001 -0.81300002 15 0 0 0 0.043740001
1.372 -0.43599999 -0.81199998 14 0 0 0 0.043749999
1.377 -0.435 -0.81400001 14 0 0 0 0.043760002
1.3789999 -0.433 -0.81300002 15 0 0 0 0.04377
1.3789999 -0.43000001 -0.81199998 14 0 0 0 0.043779999
1.38 -0.42699999 -0.81099999 14 0 0 0 0.043790001
1.386 -0.426 -0.81300002 14 0 0 0 0.0438
1.392 -0.42500001 -0.815 14 0 0 0 0.043809999
1.393 -0.42300001 -0.81400001 14 0 0 0 0.043820001
1.392 -0.41999999 -0.81199998 14 0 0 0 0.04383
1.402 -0.41999999 -0.815 15 0 0 0 0.043839999
1.403 -0.417 -0.81400001 15 0 0 0 0.043850001
1.405 -0.41499999 -0.81300002 15 0 0 0 0.04386
1.409 -0.41299999 -0.81400001 14 0 0 0 0.043869998
1.4170001 -0.412 -0.81599998 15 0 0 0 0.043880001
1.4170001 -0.41 -0.81400001 15 0 0 0 0.043889999
1.423 -0.40799999 -0.81599998 15 0 0 0 0.043900002
1.427 -0.40599999 -0.81599998 15 0 0 0 0.04391
1.426 -0.403 -0.81300002 15 0 0 0 0.043919999
1.431 -0.40200001 -0.81300002 15 0 0 0 0.043930002
1.437 -0.40000001 -0.81400001 14 0 0 0 0.04394
1.444 -0.39899999 -0.81599998 13 0 0 0 0.043949999
1.448 -0.39700001 -0.815 13 0 0 0 0.043960001
1.455 -0.396 -0.81699997 13 0 0 0 0.04397
1.457 -0.39300001 -0.815 13 0 0 0 0.043979999
1.4630001 -0.39199999 -0.81599998 14 0 0 0 0.043990001
1.466 -0.38999999 -0.815 15 0 0 0 0.044
1.47 -0.38800001 -0.81400001 15 0 0 0 0.044009998
1.476 -0.38600001 -0.815 14 0 0 0 0.044020001
1.482 -0.38499999 -0.81599998 14 0 0 0 0.04403
1.484 -0.382 -0.81400001 14 0 0 0 0.044039998
1.489 -0.38 -0.81400001 14 0 0 0 0.044050001
1.502 -0.38 -0.81800002 15 0 0 0 0.044059999
1.507 -0.37799999 -0.81699997 15 0 0 0 0.044070002
1.511 -0.37599999 -0.81599998 15 0 0 0 0.04408
1.52 -0.375 -0.81800002 15 0 0 0 0.044089999
1.53 -0.37400001 -0.81900001 15 0 0 0 0.044100001
1.5369999 -0.373 -0.81999999 15 0 0 0 0.04411
1.5420001 -0.37099999 -0.81900001 15 0 0 0 0.044119999
1.552 -0.37 -0.82099998 14 0 0 0 0.044130001
1.5549999 -0.36700001 -0.81900001 14 0 0 0 0.04414
1.566 -0.36700001 -0.82200003 14 0 0 0 0.044149999
1.571 -0.36500001 -0.81999999 15 0 0 0 0.044160001
1.577 -0.36300001 -0.81999999 14 0 0 0 0.04417
1.574 -0.359 -0.815 59 0 0 0 0.044179998
1.5880001 -0.359 -0.81800002 14 0 0 0 0.044190001
1.589 -0.35600001 -0.815 63 0 0 0 0.044199999
1.608 -0.35699999 -0.82099998 14 0 0 0 0.044210002
1.615 -0.35499999 -0.81999999 14 0 0 0 0.044220001
1.624 -0.35299999 -0.82099998 14 0 0 0 0.044229999
1.633 -0.352 -0.82099998 13 0 0 0 0.044240002
1.636 -0.34999999 -0.81900001 38 0 0 0 0.04425
1.654 -0.34999999 -0.82300001 12 0 0 0 0.044259999
1.665 -0.34900001 -0.82499999 12 0 0 0 0.044270001
1.67 -0.347 -0.82300001 11 0 0 0 0.04428
1.6670001 -0.34299999 -0.81699997 25 0 0 0 0.044289999
1.686 -0.34299999 -0.82200003 9 0 0 0 0.044300001
1.698 -0.34299999 -0.824 12 0 0 0 0.04431
1.702 -0.34 -0.82099998 13 0 0 0 0.044319998
1.711 -0.338 -0.82099998 13 0 0 0 0.044330001
1.724 -0.338 -0.82300001 14 0 0 0 0.04434
1.73 -0.33500001 -0.82099998 14 0 0 0 0.044349998
1.745 -0.33500001 -0.82300001 14 0 0 0 0.044360001
1.755 -0.333 -0.824 15 0 0 0 0.044369999
1.758 -0.33000001 -0.81999999 43 0 0 0 0.044380002
1.766 -0.329 -0.81900001 41 0 0 0 0.04439
1.784 -0.329 -0.82200003 12 0 0 0 0.044399999
1.793 -0.32699999 -0.82200003 13 0 0 0 0.044410001
1.802 -0.32499999 -0.82099998 37 0 0 0 0.04442
1.8150001 -0.324 -0.82200003 13 0 0 0 0.044429999
1.825 -0.322 -0.82099998 38 0 0 0 0.044440001
1.842 -0.322 -0.824 13 0 0 0 0.04445
1.847 -0.31900001 -0.82099998 39 0 0 0 0.044459999
1.8559999 -0.31799999 -0.81900001 33 0 0 0 0.044470001
1.878 -0.31799999 -0.824 34 0 0 0 0.04448
1.883 -0.315 -0.82099998 33 0 0 0 0.044489998
1.898 -0.31400001 -0.82200003 33 0 0 0 0.044500001
1.909 -0.31299999 -0.82099998 33 0 0 0 0.044509999
1.92 -0.31099999 -0.81999999 33 0 0 0 0.044520002
1.931 -0.31 -0.81900001 33 0 0 0 0.044530001
1.9529999 -0.31 -0.82300001 34 0 0 0 0.044539999
1.965 -0.308 -0.82200003 33 0 0 0 0.044550002
1.979 -0.30700001 -0.82200003 32 0 0 0 0.04456
1.993 -0.30500001 -0.82200003 31 0 0 0 0.044569999
2.01 -0.30399999 -0.82300001 32 0 0 0 0.044580001
2.023 -0.303 -0.82300001 31 0 0 0 0.04459
2.039 -0.30199999 -0.82300001 30 0 0 0 0.044599999
2.0510001 -0.30000001 -0.82200003 29 0 0 0 0.044610001
2.0699999 -0.29899999 -0.82300001 31 0 0 0 0.04462
2.085 -0.29800001 -0.82300001 29 0 0 0 0.044629999
2.1040001 -0.29699999 -0.82499999 29 0 0 0 0.044640001
2.1199999 -0.296 -0.82499999 29 0 0 0 0.04465
2.1400001 -0.29499999 -0.82599998 29 0 0 0 0.044659998
2.1530001 -0.294 -0.824 31 0 0 0 0.044670001
2.1700001 -0.292 -0.824 28 0 0 0 0.044679999
2.1919999 -0.292 -0.82599998 30 0 0 0 0.044690002
2.214 -0.29100001 -0.82800001 30 0 0 0 0.0447
2.2279999 -0.28999999 -0.82599998 31 0 0 0 0.044709999
2.247 -0.28799999 -0.82599998 30 0 0 0 0.044720002
2.2690001 -0.28799999 -0.82800001 31 0 0 0 0.04473
2.289 -0.287 -0.82800001 32 0 0 0 0.044739999
2.3069999 -0.285 -0.82800001 31 0 0 0 0.044750001
2.326 -0.28400001 -0.82700002 31 0 0 0 0.04476
2.3469999 -0.28299999 -0.82800001 30 0 0 0 0.044769999
2.3640001 -0.28099999 -0.82599998 30 0 0 0 0.044780001
2.3829999 -0.28 -0.82599998 30 0 0 0 0.04479
2.4100001 -0.28 -0.82800001 31 0 0 0 0.044799998
2.4349999 -0.27900001 -0.829 29 0 0 0 0.044810001
2.454 -0.27700001 -0.82800001 29 0 0 0 0.044819999
2.477 -0.27599999 -0.82800001 29 0 0 0 0.044829998
2.497 -0.27500001 -0.82700002 29 0 0 0 0.044840001
2.5250001 -0.27399999 -0.82800001 30 0 0 0 0.044849999
2.55 -0.273 -0.829 30 0 0 0 0.044860002
2.582 -0.273 -0.83099997 32 0 0 0 0.04487
2.6040001 -0.27200001 -0.82999998 31 0 0 0 0.044879999
2.628 -0.271 -0.82999998 31 0 0 0 0.044890001
2.6559999 -0.27000001 -0.83099997 30 0 0 0 0.0449
2.687 -0.26899999 -0.83200002 31 0 0 0 0.044909999
2.7219999 -0.26899999 -0.83399999 32 0 0 0 0.044920001
2.744 -0.26699999 -0.833 30 0 0 0 0.04493
2.7709999 -0.266 -0.83200002 31 0 0 0 0.044939999
2.802 -0.26499999 -0.833 29 0 0 0 0.044950001
2.832 -0.264 -0.833 30 0 0 0 0.04496
2.8670001 -0.264 -0.83399999 31 0 0 0 0.044969998
2.898 -0.26300001 -0.83399999 30 0 0 0 0.044980001
2.938 -0.26199999 -0.83700001 31 0 0 0 0.044989999
2.984 -0.26199999 -0.84100002 32 0 0 0 0.045000002
3.016 -0.26100001 -0.83999997 32 0 0 0 0.04501
3.0580001 -0.26100001 -0.84200001 32 0 0 0 0.045019999
3.092 -0.25999999 -0.84200001 32 0 0 0 0.045030002
3.131 -0.259 -0.84299999 33 0 0 0 0.04504
3.1600001 -0.257 -0.84100002 29 0 0 0 0.045049999
3.1930001 -0.25600001 -0.83999997 29 0 0 0 0.045060001
3.233 -0.255 -0.83999997 30 0 0 0 0.04507
3.2739999 -0.25400001 -0.84100002 30 0 0 0 0.045079999
3.312 -0.25299999 -0.83999997 30 0 0 0 0.045090001
3.346 -0.252 -0.838 26 0 0 0 0.0451
3.3829999 -0.25 -0.83700001 27 0 0 0 0.045109998
3.408 -0.248 -0.833 45 0 0 0 0.045120001
3.4070001 -0.244 -0.82200003 150 0 0 0 0.04513
3.4059999 -0.23999999 -0.81099999 150 0 0 0 0.045139998
3.404 -0.236 -0.80000001 150 0 0 0 0.045150001
3.4059999 -0.23199999 -0.79000002 150 0 0 0 0.045159999
3.408 -0.228 -0.77899998 150 0 0 0 0.045170002
3.4089999 -0.22400001 -0.76899999 150 0 0 0 0.04518
3.408 -0.22 -0.75800002 150 0 0 0 0.045189999
3.4119999 -0.21600001 -0.74800003 150 0 0 0 0.045200001
3.4059999 -0.212 -0.736 150 0 0 0 0.04521
3.4059999 -0.208 -0.72600001 150 0 0 0 0.045219999
3.408 -0.204 -0.71499997 150 0 0 0 0.045230001
3.4070001 -0.2 -0.704 150 0 0 0 0.04524
3.4070001 -0.197 -0.69400001 150 0 0 0 0.045249999
3.408 -0.193 -0.68400002 150 0 0 0 0.045260001
3.4089999 -0.189 -0.67299998 150 0 0 0 0.04527
3.411 -0.186 -0.66299999 150 0 0 0 0.045279998
3.4089999 -0.182 -0.65200001 150 0 0 0 0.045290001
3.4070001 -0.178 -0.64099997 150 0 0 0 0.045299999
3.4089999 -0.175 -0.63 150 0 0 0 0.045310002
3.4130001 -0.171 -0.62 151 0 0 0 0.04532
3.411 -0.168 -0.60900003 150 0 0 0 0.045329999
3.4070001 -0.164 -0.59799999 150 0 0 0 0.045340002
3.4059999 -0.16 -0.58700001 151 0 0 0 0.04535
3.408 -0.15700001 -0.57700002 150 0 0 0 0.045359999
3.411 -0.153 -0.56699997 151 0 0 0 0.045370001
3.415 -0.15000001 -0.55699998 151 0 0 0 0.04538
3.4089999 -0.146 -0.54500002 151 0 0 0 0.045389999
3.411 -0.14300001 -0.53399998 151 0 0 0 0.045400001
3.4130001 -0.14 -0.52399999 151 0 0 0 0.04541
3.4100001 -0.13600001 -0.51300001 151 0 0 0 0.045419998
3.4070001 -0.133 -0.50199997 151 0 0 0 0.045430001
3.4089999 -0.13 -0.491 151 0 0 0 0.04544
3.408 -0.126 -0.48100001 151 0 0 0 0.045449998
3.4130001 -0.123 -0.47099999 151 0 0 0 0.045460001
3.4119999 -0.12 -0.46000001 151 0 0 0 0.045469999
3.4119999 -0.117 -0.449 151 0 0 0 0.045480002
3.4100001 -0.113 -0.43799999 151 0 0 0 0.04549
3.411 -0.11 -0.428 151 0 0 0 0.045499999
3.411 -0.107 -0.417 151 0 0 0 0.045510001
3.4130001 -0.104 -0.40700001 151 0 0 0 0.04552
3.414 -0.101 -0.396 151 0 0 0 0.045529999
3.405 -0.097000003 -0.384 151 0 0 0 0.045540001
3.4119999 -0.093999997 -0.37400001 151 0 0 0 0.04555
3.4130001 -0.090999998 -0.36399999 151 0 0 0 0.045559999
3.414 -0.088 -0.35299999 151 0 0 0 0.045570001
3.408 -0.085000001 -0.34200001 151 0 0 0 0.04558
3.404 -0.082000002 -0.331 151 0 0 0 0.045589998
3.4059999 -0.079000004 -0.31999999 151 0 0 0 0.045600001
3.4119999 -0.075999998 -0.31 151 0 0 0 0.045609999
3.411 -0.072999999 -0.29899999 151 0 0 0 0.045620002
3.4089999 -0.07 -0.28799999 151 0 0 0 0.045630001
3.4130001 -0.068000004 -0.278 151 0 0 0 0.045639999
3.4119999 -0.064999998 -0.26699999 151 0 0 0 0.045650002
3.411 -0.061999999 -0.25600001 151 0 0 0 0.04566
3.4119999 -0.059 -0.24600001 152 0 0 0 0.045669999
3.415 -0.056000002 -0.235 152 0 0 0 0.045680001
3.411 -0.052999999 -0.22400001 152 0 0 0 0.04569
3.4000001 -0.050000001 -0.213 153 0 0 0 0.045699999
3.3959999 -0.048 -0.20200001 153 0 0 0 0.045710001
3.3940001 -0.045000002 -0.191 153 0 0 0 0.04572
3.381 -0.041999999 -0.18000001 154 0 0 0 0.045729998
