# .PCD v0.7 - Point Cloud Data file format
VERSION 0.7
FIELDS x y z intensity normal_x normal_y normal_z curvature
SIZE 4 4 4 4 4 4 4 4
TYPE F F F F F F F F
COUNT 1 1 1 1 1 1 1 1
WIDTH 1056
HEIGHT 1
VIEWPOINT 0 0 0 1 0 0 0
POINTS 1056
DATA ascii
1.643 0.184 -0.79400003 15 0 0 0 0.033709999
1.651 0.18799999 -0.80299997 12 0 0 0 0.033720002
1.638 0.189 -0.801 44 0 0 0 0.03373
1.635 0.191 -0.80500001 12 0 0 0 0.033739999
1.624 0.192 -0.80400002 13 0 0 0 0.033750001
1.612 0.193 -0.80299997 76 0 0 0 0.03376
1.605 0.19499999 -0.80500001 15 0 0 0 0.033769999
1.597 0.19599999 -0.80500001 15 0 0 0 0.033780001
1.592 0.198 -0.80699998 15 0 0 0 0.03379
1.581 0.199 -0.80599999 13 0 0 0 0.033799998
1.571 0.2 -0.80599999 13 0 0 0 0.033810001
1.559 0.20100001 -0.80400002 14 0 0 0 0.03382
1.551 0.20299999 -0.80400002 15 0 0 0 0.033829998
1.54 0.20299999 -0.80299997 15 0 0 0 0.033840001
1.53 0.205 -0.80199999 12 0 0 0 0.033849999
1.527 0.207 -0.80500001 12 0 0 0 0.033860002
1.5140001 0.207 -0.80199999 13 0 0 0 0.03387
1.512 0.20999999 -0.80500001 13 0 0 0 0.033879999
1.505 0.211 -0.80599999 12 0 0 0 0.033890001
1.497 0.213 -0.80500001 10 0 0 0 0.0339
1.489 0.214 -0.80500001 10 0 0 0 0.033909999
1.483 0.215 -0.80599999 12 0 0 0 0.033920001
1.473 0.21600001 -0.80400002 13 0 0 0 0.03393
1.464 0.21799999 -0.80299997 14 0 0 0 0.033939999
1.462 0.22 -0.80599999 14 0 0 0 0.033950001
1.451 0.221 -0.80400002 14 0 0 0 0.03396
1.443 0.222 -0.80299997 15 0 0 0 0.033969998
1.439 0.22400001 -0.80400002 16 0 0 0 0.033980001
1.433 0.22499999 -0.80500001 16 0 0 0 0.033989999
1.424 0.226 -0.80299997 14 0 0 0 0.034000002
1.42 0.228 -0.80500001 13 0 0 0 0.034010001
1.415 0.23 -0.80500001 12 0 0 0 0.034019999
1.411 0.23199999 -0.80599999 12 0 0 0 0.034030002
1.404 0.233 -0.80500001 11 0 0 0 0.03404
1.403 0.235 -0.80800003 11 0 0 0 0.034049999
1.399 0.237 -0.80900002 10 0 0 0 0.034060001
1.393 0.23899999 -0.80900002 10 0 0 0 0.03407
1.3890001 0.23999999 -0.81 10 0 0 0 0.034079999
1.382 0.242 -0.80900002 10 0 0 0 0.034090001
1.377 0.243 -0.80900002 11 0 0 0 0.0341
1.369 0.244 -0.80699998 11 0 0 0 0.034109998
1.363 0.24600001 -0.80699998 10 0 0 0 0.034120001
1.358 0.248 -0.80699998 9 0 0 0 0.03413
1.353 0.249 -0.80599999 11 0 0 0 0.034139998
1.349 0.25099999 -0.80699998 14 0 0 0 0.034150001
1.341 0.252 -0.80500001 15 0 0 0 0.034159999
1.3329999 0.25299999 -0.80299997 17 0 0 0 0.034170002
1.33 0.25400001 -0.80299997 17 0 0 0 0.03418
1.326 0.25600001 -0.80299997 17 0 0 0 0.034189999
1.324 0.25799999 -0.80500001 15 0 0 0 0.034200002
1.3200001 0.25999999 -0.80500001 14 0 0 0 0.03421
1.317 0.26199999 -0.80500001 13 0 0 0 0.034219999
1.311 0.26300001 -0.80400002 15 0 0 0 0.034230001
1.3099999 0.26499999 -0.80599999 15 0 0 0 0.03424
1.306 0.26699999 -0.80500001 14 0 0 0 0.034249999
1.303 0.26800001 -0.80599999 13 0 0 0 0.034260001
1.301 0.27000001 -0.80699998 14 0 0 0 0.03427
1.299 0.273 -0.80800003 14 0 0 0 0.034279998
1.2970001 0.27399999 -0.80800003 13 0 0 0 0.034290001
1.295 0.27599999 -0.80900002 13 0 0 0 0.034299999
1.286 0.27700001 -0.80500001 14 0 0 0 0.034309998
1.284 0.27900001 -0.80599999 13 0 0 0 0.034320001
1.284 0.28099999 -0.80699998 14 0 0 0 0.034329999
1.2819999 0.28299999 -0.80800003 14 0 0 0 0.034340002
1.279 0.285 -0.80800003 13 0 0 0 0.03435
1.274 0.28600001 -0.80599999 15 0 0 0 0.034359999
1.274 0.28799999 -0.80800003 16 0 0 0 0.034370001
1.27 0.28999999 -0.80699998 18 0 0 0 0.03438
1.2690001 0.292 -0.80800003 20 0 0 0 0.034389999
1.265 0.29300001 -0.80599999 25 0 0 0 0.034400001
1.261 0.294 -0.80500001 87 0 0 0 0.03441
1.26 0.296 -0.80599999 85 0 0 0 0.034419999
1.257 0.29800001 -0.80500001 92 0 0 0 0.034430001
1.255 0.29899999 -0.80500001 92 0 0 0 0.03444
1.255 0.30199999 -0.80599999 91 0 0 0 0.034449998
1.253 0.303 -0.80599999 73 0 0 0 0.034460001
1.252 0.30500001 -0.80599999 73 0 0 0 0.034469999
1.237 0.30399999 -0.79699999 124 0 0 0 0.034480002
1.251 0.30899999 -0.80699998 65 0 0 0 0.03449
1.248 0.31099999 -0.80500001 64 0 0 0 0.034499999
1.245 0.31200001 -0.80500001 58 0 0 0 0.034510002
1.233 0.31099999 -0.79699999 120 0 0 0 0.03452
1.243 0.31600001 -0.80400002 45 0 0 0 0.034529999
1.23 0.31400001 -0.796 101 0 0 0 0.034540001
1.234 0.31799999 -0.79900002 98 0 0 0 0.03455
1.232 0.31900001 -0.79799998 90 0 0 0 0.034559999
1.232 0.32100001 -0.79900002 88 0 0 0 0.034570001
1.232 0.32300001 -0.79900002 93 0 0 0 0.03458
1.2309999 0.324 -0.79799998 97 0 0 0 0.034589998
1.232 0.32699999 -0.79900002 108 0 0 0 0.034600001
1.23 0.32800001 -0.79799998 123 0 0 0 0.03461
1.229 0.33000001 -0.79699999 128 0 0 0 0.034619998
1.234 0.333 -0.80000001 135 0 0 0 0.034630001
1.235 0.33500001 -0.801 150 0 0 0 0.034639999
1.232 0.336 -0.79900002 139 0 0 0 0.034650002
1.228 0.33700001 -0.796 135 0 0 0 0.03466
1.232 0.34 -0.79799998 130 0 0 0 0.034669999
1.245 0.345 -0.80599999 128 0 0 0 0.034680001
1.232 0.34299999 -0.79699999 108 0 0 0 0.03469
1.2359999 0.34599999 -0.79900002 99 0 0 0 0.034699999
1.2359999 0.34799999 -0.79900002 93 0 0 0 0.034710001
1.24 0.34999999 -0.801 81 0 0 0 0.03472
1.2410001 0.352 -0.80000001 75 0 0 0 0.034729999
1.245 0.35499999 -0.80199999 74 0 0 0 0.034740001
1.244 0.35600001 -0.80000001 67 0 0 0 0.03475
1.25 0.359 -0.80400002 61 0 0 0 0.034759998
1.248 0.36000001 -0.801 58 0 0 0 0.034770001
1.248 0.36199999 -0.80000001 57 0 0 0 0.034779999
1.2539999 0.36500001 -0.80299997 55 0 0 0 0.034790002
1.253 0.366 -0.801 58 0 0 0 0.0348
1.251 0.36700001 -0.79900002 69 0 0 0 0.034809999
1.258 0.37 -0.80199999 85 0 0 0 0.034820002
1.255 0.37099999 -0.79900002 97 0 0 0 0.03483
1.2589999 0.373 -0.79900002 109 0 0 0 0.034839999
1.262 0.375 -0.80000001 116 0 0 0 0.034850001
1.263 0.377 -0.79900002 137 0 0 0 0.03486
1.263 0.37799999 -0.79799998 150 0 0 0 0.034869999
1.267 0.38 -0.79799998 150 0 0 0 0.034880001
1.273 0.38299999 -0.80000001 150 0 0 0 0.03489
1.274 0.38499999 -0.79900002 150 0 0 0 0.034899998
1.276 0.38600001 -0.79900002 150 0 0 0 0.034910001
1.279 0.38800001 -0.79900002 150 0 0 0 0.03492
1.2819999 0.38999999 -0.79799998 150 0 0 0 0.034929998
1.289 0.39300001 -0.80000001 150 0 0 0 0.034940001
1.289 0.39399999 -0.79900002 150 0 0 0 0.034949999
1.293 0.39700001 -0.79900002 150 0 0 0 0.034960002
1.298 0.39899999 -0.80000001 150 0 0 0 0.03497
1.307 0.403 -0.80299997 120 0 0 0 0.034979999
1.309 0.40400001 -0.80199999 150 0 0 0 0.034990001
1.3150001 0.40599999 -0.80299997 111 0 0 0 0.035
1.323 0.41 -0.80500001 95 0 0 0 0.035009999
1.329 0.412 -0.80599999 74 0 0 0 0.035020001
1.336 0.41499999 -0.80800003 59 0 0 0 0.03503
1.34 0.417 -0.80800003 53 0 0 0 0.035039999
1.341 0.41800001 -0.80599999 64 0 0 0 0.035050001
1.348 0.41999999 -0.80699998 56 0 0 0 0.03506
1.348 0.421 -0.80400002 88 0 0 0 0.035069998
1.357 0.42399999 -0.80699998 89 0 0 0 0.035080001
1.36 0.426 -0.80599999 93 0 0 0 0.035089999
1.364 0.42699999 -0.80500001 76 0 0 0 0.035100002
1.373 0.43099999 -0.80699998 59 0 0 0 0.035110001
1.381 0.433 -0.80900002 42 0 0 0 0.035119999
1.387 0.43599999 -0.80900002 22 0 0 0 0.035130002
1.395 0.43799999 -0.81 4 0 0 0 0.03514
1.402 0.44 -0.81099999 2 0 0 0 0.035149999
1.41 0.44299999 -0.81199998 6 0 0 0 0.035160001
1.414 0.44400001 -0.81099999 12 0 0 0 0.03517
1.416 0.44499999 -0.80900002 15 0 0 0 0.035179999
1.42 0.447 -0.80800003 16 0 0 0 0.035190001
1.425 0.44800001 -0.80699998 16 0 0 0 0.0352
1.433 0.45100001 -0.80800003 16 0 0 0 0.035209998
1.4400001 0.45300001 -0.80800003 21 0 0 0 0.035220001
1.442 0.45300001 -0.80599999 25 0 0 0 0.03523
1.449 0.45500001 -0.80599999 28 0 0 0 0.035239998
1.4579999 0.458 -0.80699998 28 0 0 0 0.035250001
1.466 0.46000001 -0.80800003 30 0 0 0 0.035259999
1.471 0.46200001 -0.80599999 28 0 0 0 0.035270002
1.4809999 0.46399999 -0.80699998 27 0 0 0 0.03528
1.487 0.46599999 -0.80699998 25 0 0 0 0.035289999
1.498 0.46900001 -0.80800003 19 0 0 0 0.035300002
1.512 0.47299999 -0.81199998 14 0 0 0 0.03531
1.518 0.47400001 -0.81099999 15 0 0 0 0.035319999
1.521 0.47400001 -0.80800003 22 0 0 0 0.035330001
1.524 0.47499999 -0.80599999 28 0 0 0 0.03534
1.5319999 0.477 -0.80500001 27 0 0 0 0.035349999
1.541 0.479 -0.80599999 24 0 0 0 0.035360001
1.5549999 0.48300001 -0.80900002 20 0 0 0 0.03537
1.563 0.484 -0.80800003 18 0 0 0 0.035379998
1.575 0.48699999 -0.81 20 0 0 0 0.035390001
1.579 0.48800001 -0.80699998 23 0 0 0 0.035399999
1.589 0.49000001 -0.80800003 26 0 0 0 0.035409998
1.596 0.491 -0.80699998 27 0 0 0 0.035420001
1.6 0.491 -0.80400002 29 0 0 0 0.035429999
1.6109999 0.49399999 -0.80500001 150 0 0 0 0.035440002
1.622 0.49599999 -0.80500001 150 0 0 0 0.03545
1.633 0.498 -0.80599999 150 0 0 0 0.035459999
1.6390001 0.49900001 -0.80500001 150 0 0 0 0.035470001
1.65 0.50099999 -0.80500001 150 0 0 0 0.03548
1.6619999 0.50300002 -0.80599999 150 0 0 0 0.035489999
1.669 0.50400001 -0.80400002 32 0 0 0 0.035500001
1.682 0.50700003 -0.80500001 24 0 0 0 0.03551
1.691 0.50800002 -0.80400002 25 0 0 0 0.035519999
1.705 0.51099998 -0.80599999 20 0 0 0 0.035530001
1.7180001 0.514 -0.80699998 62 0 0 0 0.03554
1.724 0.514 -0.80400002 54 0 0 0 0.035549998
1.739 0.51700002 -0.80599999 40 0 0 0 0.035560001
1.744 0.51700002 -0.80299997 23 0 0 0 0.035569999
1.751 0.51700002 -0.80000001 24 0 0 0 0.035580002
1.767 0.51999998 -0.80199999 48 0 0 0 0.03559
1.783 0.523 -0.80400002 111 0 0 0 0.035599999
1.794 0.52399999 -0.80400002 132 0 0 0 0.035610002
1.806 0.52600002 -0.80299997 113 0 0 0 0.03562
1.821 0.52899998 -0.80500001 121 0 0 0 0.035629999
1.835 0.53100002 -0.80500001 130 0 0 0 0.035640001
1.845 0.53200001 -0.80400002 140 0 0 0 0.03565
1.852 0.53200001 -0.801 112 0 0 0 0.035659999
1.87 0.53500003 -0.80299997 109 0 0 0 0.035670001
1.8839999 0.537 -0.80299997 131 0 0 0 0.03568
1.901 0.53899997 -0.80400002 125 0 0 0 0.035689998
1.911 0.54000002 -0.80299997 138 0 0 0 0.035700001
1.923 0.54100001 -0.80199999 150 0 0 0 0.03571
1.852 0.51899999 -0.76599997 60 0 0 0 0.035719998
1.725 0.48100001 -0.708 66 0 0 0 0.035730001
1.638 0.45500001 -0.667 138 0 0 0 0.035739999
1.632 0.45100001 -0.66000003 21 0 0 0 0.035750002
1.633 0.44999999 -0.65499997 18 0 0 0 0.03576
1.6339999 0.44800001 -0.65100002 18 0 0 0 0.035769999
1.631 0.44499999 -0.64399999 20 0 0 0 0.035780001
1.633 0.44299999 -0.63999999 20 0 0 0 0.03579
1.623 0.43900001 -0.63099998 21 0 0 0 0.035799999
1.62 0.435 -0.625 20 0 0 0 0.035810001
1.619 0.433 -0.62 22 0 0 0 0.03582
1.615 0.43000001 -0.61299998 21 0 0 0 0.035829999
1.6160001 0.428 -0.60799998 22 0 0 0 0.035840001
1.6210001 0.42699999 -0.60500002 14 0 0 0 0.03585
1.608 0.421 -0.59500003 8 0 0 0 0.035859998
1.6109999 0.41999999 -0.59200001 14 0 0 0 0.035870001
1.607 0.41600001 -0.58499998 23 0 0 0 0.035879999
1.604 0.41299999 -0.579 25 0 0 0 0.035890002
1.605 0.41100001 -0.574 30 0 0 0 0.0359
1.597 0.40700001 -0.56699997 1 0 0 0 0.035909999
1.596 0.40400001 -0.56099999 23 0 0 0 0.035920002
1.594 0.40099999 -0.55599999 28 0 0 0 0.03593
1.585 0.39700001 -0.54799998 31 0 0 0 0.035939999
1.587 0.39500001 -0.54400003 37 0 0 0 0.035950001
1.582 0.391 -0.537 32 0 0 0 0.03596
1.582 0.389 -0.53200001 41 0 0 0 0.035969999
1.572 0.384 -0.52399999 37 0 0 0 0.035980001
1.571 0.38100001 -0.51899999 39 0 0 0 0.03599
1.567 0.37799999 -0.51300001 45 0 0 0 0.035999998
1.568 0.375 -0.50800002 43 0 0 0 0.036010001
1.564 0.37200001 -0.50199997 22 0 0 0 0.03602
1.5599999 0.36899999 -0.49700001 18 0 0 0 0.036029998
1.561 0.366 -0.49200001 19 0 0 0 0.036040001
1.5599999 0.36300001 -0.48699999 20 0 0 0 0.036049999
1.553 0.359 -0.47999999 18 0 0 0 0.036060002
1.551 0.35600001 -0.47499999 18 0 0 0 0.03607
1.548 0.35299999 -0.46900001 22 0 0 0 0.036079999
1.5470001 0.34999999 -0.46399999 66 0 0 0 0.036090001
1.541 0.34599999 -0.458 65 0 0 0 0.0361
1.541 0.34400001 -0.45300001 59 0 0 0 0.036109999
1.5369999 0.34 -0.44800001 66 0 0 0 0.036120001
1.534 0.33700001 -0.442 39 0 0 0 0.03613
1.53 0.333 -0.43700001 25 0 0 0 0.036139999
1.528 0.331 -0.43200001 21 0 0 0 0.036150001
1.523 0.32699999 -0.426 32 0 0 0 0.03616
1.525 0.32499999 -0.42199999 59 0 0 0 0.036169998
1.521 0.32100001 -0.41600001 100 0 0 0 0.036180001
1.5190001 0.31799999 -0.41100001 110 0 0 0 0.036189999
1.5190001 0.315 -0.40700001 115 0 0 0 0.036200002
1.513 0.31200001 -0.40099999 121 0 0 0 0.036210001
1.512 0.30899999 -0.396 117 0 0 0 0.036219999
1.51 0.30500001 -0.391 110 0 0 0 0.036230002
1.508 0.30199999 -0.38600001 23 0 0 0 0.03624
1.5039999 0.29899999 -0.38100001 16 0 0 0 0.036249999
1.5039999 0.296 -0.377 15 0 0 0 0.036260001
1.495 0.292 -0.37 17 0 0 0 0.03627
1.492 0.289 -0.36500001 21 0 0 0 0.036279999
1.492 0.28600001 -0.361 20 0 0 0 0.036290001
1.499 0.28400001 -0.35800001 9 0 0 0 0.0363
1.5140001 0.28400001 -0.35800001 2 0 0 0 0.036309998
1.522 0.28299999 -0.35499999 1 0 0 0 0.036320001
1.533 0.28200001 -0.35299999 0 0 0 0 0.03633
1.53 0.27900001 -0.34799999 0 0 0 0 0.036339998
1.5369999 0.27700001 -0.34599999 0 0 0 0 0.036350001
1.5470001 0.27599999 -0.34299999 0 0 0 0 0.036359999
1.548 0.27399999 -0.33899999 0 0 0 0 0.036370002
1.529 0.26699999 -0.331 0 0 0 0 0.03638
1.556 0.26899999 -0.33199999 0 0 0 0 0.036389999
1.556 0.266 -0.32800001 0 0 0 0 0.036400001
1.552 0.26300001 -0.32300001 0 0 0 0 0.03641
1.559 0.26100001 -0.31999999 0 0 0 0 0.036419999
1.554 0.257 -0.315 0 0 0 0 0.036430001
1.5470001 0.25299999 -0.30899999 0 0 0 0 0.03644
1.567 0.25299999 -0.30899999 0 0 0 0 0.036449999
1.569 0.25099999 -0.30500001 0 0 0 0 0.036460001
1.5650001 0.24699999 -0.30000001 0 0 0 0 0.03647
1.5930001 0.248 -0.301 0 0 0 0 0.036479998
1.624 0.25 -0.30199999 0 0 0 0 0.036490001
1.651 0.25099999 -0.303 0 0 0 0 0.036499999
1.675 0.25099999 -0.30199999 0 0 0 0 0.036509998
1.7130001 0.25400001 -0.30500001 0 0 0 0 0.036520001
1.74 0.25400001 -0.30500001 0 0 0 0 0.036529999
1.704 0.24600001 -0.294 0 0 0 0 0.036540002
1.562 0.222 -0.26499999 1 0 0 0 0.03655
1.457 0.204 -0.243 1 0 0 0 0.036559999
1.452 0.20100001 -0.23899999 5 0 0 0 0.036570001
1.459 0.199 -0.236 6 0 0 0 0.03658
1.464 0.197 -0.233 1 0 0 0 0.036589999
1.482 0.19599999 -0.23199999 0 0 0 0 0.036600001
1.516 0.198 -0.233 0 0 0 0 0.03661
1.536 0.197 -0.23199999 1 0 0 0 0.036619999
1.571 0.199 -0.233 1 0 0 0 0.036630001
1.585 0.197 -0.23100001 1 0 0 0 0.03664
1.632 0.2 -0.234 1 0 0 0 0.036649998
1.66 0.2 -0.233 1 0 0 0 0.036660001
1.654 0.19599999 -0.228 0 0 0 0 0.036669999
1.646 0.192 -0.223 0 0 0 0 0.036680002
1.642 0.18799999 -0.21799999 0 0 0 0 0.03669
1.64 0.184 -0.214 1 0 0 0 0.036699999
1.651 0.182 -0.211 1 0 0 0 0.036710002
1.642 0.178 -0.205 1 0 0 0 0.03672
1.728 0.184 -0.212 0 0 0 0 0.036729999
1.747 0.182 -0.20900001 8 0 0 0 0.036740001
1.747 0.17900001 -0.205 20 0 0 0 0.03675
1.7460001 0.175 -0.2 17 0 0 0 0.036759999
1.757 0.17200001 -0.197 15 0 0 0 0.036770001
1.757 0.169 -0.193 13 0 0 0 0.03678
1.76 0.16500001 -0.18799999 11 0 0 0 0.036789998
1.757 0.162 -0.184 10 0 0 0 0.036800001
1.75 0.15700001 -0.178 11 0 0 0 0.036809999
1.75 0.154 -0.17399999 12 0 0 0 0.036819998
1.748 0.15000001 -0.169 13 0 0 0 0.036830001
1.745 0.146 -0.16500001 15 0 0 0 0.036839999
1.7410001 0.142 -0.16 14 0 0 0 0.036850002
1.7410001 0.138 -0.155 15 0 0 0 0.03686
1.659 0.12800001 -0.14399999 66 0 0 0 0.036869999
1.585 0.119 -0.134 82 0 0 0 0.036880001
1.526 0.112 -0.125 80 0 0 0 0.03689
1.423 0.101 -0.113 41 0 0 0 0.036899999
1.302 0.090000004 -0.1 7 0 0 0 0.036910001
1.296 0.086999997 -0.096000001 7 0 0 0 0.03692
1.296 0.083999999 -0.093000002 7 0 0 0 0.036929999
1.303 0.082000002 -0.090000004 7 0 0 0 0.036940001
1.302 0.079000004 -0.086999997 6 0 0 0 0.03695
1.3099999 0.075999998 -0.083999999 5 0 0 0 0.036959998
1.314 0.074000001 -0.081 4 0 0 0 0.036970001
1.3200001 0.071000002 -0.078000002 4 0 0 0 0.036979999
1.323 0.068999998 -0.075000003 3 0 0 0 0.036990002
1.329 0.066 -0.071999997 3 0 0 0 0.037
1.332 0.063000001 -0.068999998 4 0 0 0 0.037009999
1.335 0.061000001 -0.066 45 0 0 0 0.037020002
1.335 0.057999998 -0.063000001 44 0 0 0 0.03703
1.341 0.055 -0.059999999 4 0 0 0 0.037039999
1.3430001 0.052000001 -0.057 4 0 0 0 0.037050001
1.347 0.050000001 -0.054000001 4 0 0 0 0.03706
1.349 0.046999998 -0.050999999 3 0 0 0 0.037069999
1.35 0.044 -0.046999998 3 0 0 0 0.037080001
1.352 0.041000001 -0.044 2 0 0 0 0.03709
1.3609999 0.037999999 -0.041000001 2 0 0 0 0.037099998
1.365 0.035999998 -0.037999999 2 0 0 0 0.037110001
1.368 0.033 -0.035 2 0 0 0 0.03712
1.374 0.029999999 -0.032000002 2 0 0 0 0.037129998
1.374 0.027000001 -0.028000001 2 0 0 0 0.037140001
1.375 0.024 -0.025 2 0 0 0 0.037149999
1.386 0.021 -0.022 2 0 0 0 0.037160002
1.382 0.017999999 -0.018999999 2 0 0 0 0.03717
1.388 0.015 -0.016000001 2 0 0 0 0.037179999
1.392 0.012 -0.012 2 0 0 0 0.037190001
1.395 0.0089999996 -0.0089999996 0 0 0 0 0.0372
1.398 0.0060000001 -0.0060000001 0 0 0 0 0.037209999
1.406 0.003 -0.0020000001 0 0 0 0 0.037220001
1.406 0 0 0 0 0 0 0.03723
1.411 -0.003 0.003 0 0 0 0 0.037239999
1.414 -0.0060000001 0.0070000002 0 0 0 0 0.037250001
1.414 -0.0089999996 0.0099999998 0 0 0 0 0.03726
1.423 -0.012 0.013 3 0 0 0 0.037269998
1.429 -0.016000001 0.017000001 0 0 0 0 0.037280001
1.426 -0.018999999 0.02 0 0 0 0 0.037289999
0 0 0 0 0 0 0 0.037300002
0 0 0 0 0 0 0 0.037310001
3.734 -0.075000003 0.079000004 1 0 0 0 0.037319999
3.9530001 -0.089000002 0.093000002 2 0 0 0 0.037330002
4.092 -0.101 0.105 0 0 0 0 0.03734
4.072 -0.11 0.114 0 0 0 0 0.037349999
4.0869999 -0.119 0.124 0 0 0 0 0.037360001
4.0869999 -0.12899999 0.133 0 0 0 0 0.03737
4.079 -0.138 0.142 0 0 0 0 0.037379999
1.4 -0.050000001 0.052000001 10 0 0 0 0.037390001
1.39 -0.052999999 0.055 36 0 0 0 0.0374
1.396 -0.056000002 0.057999998 37 0 0 0 0.037409998
1.4579999 -0.061999999 0.064000003 0 0 0 0 0.037420001
4.0300002 -0.182 0.18700001 0 0 0 0 0.03743
3.997 -0.19 0.19400001 0 0 0 0 0.037439998
4.013 -0.2 0.204 0 0 0 0 0.037450001
4.0320001 -0.211 0.214 0 0 0 0 0.037459999
3.9909999 -0.21799999 0.221 0 0 0 0 0.037470002
3.9890001 -0.227 0.23 0 0 0 0 0.03748
3.95 -0.234 0.237 0 0 0 0 0.037489999
3.9460001 -0.243 0.24600001 0 0 0 0 0.037500001
3.948 -0.252 0.255 0 0 0 0 0.03751
3.908 -0.259 0.26100001 0 0 0 0 0.037519999
3.8800001 -0.266 0.26800001 0 0 0 0 0.037530001
3.891 -0.27599999 0.27700001 0 0 0 0 0.03754
3.9230001 -0.28799999 0.28799999 0 0 0 0 0.037549999
1.543 -0.117 0.117 0 0 0 0 0.037560001
1.535 -0.12 0.119 6 0 0 0 0.03757
1.531 -0.123 0.122 7 0 0 0 0.037579998
1.521 -0.126 0.125 7 0 0 0 0.037590001
1.522 -0.13 0.12800001 1 0 0 0 0.037599999
1.527 -0.134 0.132 3 0 0 0 0.037610002
1.5650001 -0.141 0.139 1 0 0 0 0.037620001
0 0 0 0 0 0 0 0.037629999
0 0 0 0 0 0 0 0.037640002
3.8410001 -0.37400001 0.36700001 0 0 0 0 0.03765
3.8559999 -0.38499999 0.377 0 0 0 0 0.037659999
3.846 -0.39300001 0.38499999 0 0 0 0 0.037670001
3.941 -0.412 0.403 0 0 0 0 0.03768
3.9809999 -0.426 0.41600001 0 0 0 0 0.037689999
3.9790001 -0.43599999 0.42399999 0 0 0 0 0.037700001
3.9860001 -0.44600001 0.43399999 0 0 0 0 0.03771
4.0019999 -0.458 0.44400001 0 0 0 0 0.037719999
3.9630001 -0.463 0.449 0 0 0 0 0.037730001
3.97 -0.47400001 0.458 0 0 0 0 0.03774
3.987 -0.486 0.46900001 0 0 0 0 0.037749998
3.7349999 -0.46399999 0.447 0 0 0 0 0.037760001
3.7249999 -0.472 0.454 0 0 0 0 0.037769999
3.711 -0.47999999 0.46000001 0 0 0 0 0.037780002
3.723 -0.491 0.47 0 0 0 0 0.03779
3.7349999 -0.50099999 0.479 0 0 0 0 0.037799999
3.888 -0.53200001 0.50700003 0 0 0 0 0.037810002
3.8150001 -0.53200001 0.50599998 0 0 0 0 0.03782
3.6789999 -0.52200001 0.49599999 0 0 0 0 0.037829999
3.6370001 -0.52499998 0.498 0 0 0 0 0.037840001
3.6470001 -0.53600001 0.50700003 0 0 0 0 0.03785
3.674 -0.54900002 0.51800001 0 0 0 0 0.037859999
3.6240001 -0.551 0.51899999 0 0 0 0 0.037870001
3.654 -0.565 0.53100002 0 0 0 0 0.03788
3.645 -0.57300001 0.53799999 0 0 0 0 0.037889998
3.622 -0.579 0.542 0 0 0 0 0.037900001
3.615 -0.58700001 0.54799998 0 0 0 0 0.037909999
3.609 -0.59500003 0.55500001 0 0 0 0 0.037919998
3.5699999 -0.59799999 0.55699998 0 0 0 0 0.037930001
3.599 -0.61199999 0.56900001 0 0 0 0 0.037939999
3.6210001 -0.625 0.57999998 0 0 0 0 0.037950002
3.674 -0.64399999 0.59600002 1 0 0 0 0.03796
3.8 -0.676 0.62400001 1 0 0 0 0.037969999
3.941 -0.71100003 0.65499997 2 0 0 0 0.037980001
4.0890002 -0.74900001 0.68800002 4 0 0 0 0.03799
4.1149998 -0.764 0.70099998 5 0 0 0 0.037999999
4.1500001 -0.78200001 0.71600002 7 0 0 0 0.038010001
4.1500001 -0.79299998 0.72399998 7 0 0 0 0.03802
4.1209998 -0.79799998 0.72799999 7 0 0 0 0.038029999
4.085 -0.80199999 0.73000002 6 0 0 0 0.038040001
3.9059999 -0.77700001 0.70599997 4 0 0 0 0.03805
3.707 -0.74800003 0.67699999 2 0 0 0 0.038059998
3.674 -0.75099999 0.67900002 2 0 0 0 0.038070001
3.6949999 -0.76499999 0.69 2 0 0 0 0.038079999
3.6730001 -0.76999998 0.69300002 2 0 0 0 0.038090002
3.6670001 -0.77899998 0.69999999 2 0 0 0 0.0381
3.6240001 -0.77999997 0.699 2 0 0 0 0.038109999
3.6359999 -0.792 0.708 2 0 0 0 0.038120002
3.635 -0.80199999 0.71499997 2 0 0 0 0.03813
3.684 -0.82300001 0.73199999 2 0 0 0 0.038139999
3.803 -0.86000001 0.764 3 0 0 0 0.038150001
3.927 -0.89899999 0.796 4 0 0 0 0.03816
3.9749999 -0.921 0.81400001 5 0 0 0 0.038169999
3.96 -0.92799997 0.81900001 3 0 0 0 0.038180001
3.852 -0.91299999 0.80400002 1 0 0 0 0.03819
3.605 -0.86500001 0.759 0 0 0 0 0.038199998
3.556 -0.86299998 0.75599998 0 0 0 0 0.038210001
3.5280001 -0.866 0.75700003 0 0 0 0 0.03822
3.53 -0.87599999 0.764 0 0 0 0 0.038229998
3.493 -0.87699997 0.76300001 0 0 0 0 0.038240001
3.5039999 -0.889 0.77200001 0 0 0 0 0.038249999
3.4289999 -0.88 0.76200002 0 0 0 0 0.038260002
3.434 -0.89099997 0.76999998 0 0 0 0 0.03827
3.3929999 -0.88999999 0.76700002 0 0 0 0 0.038279999
3.3929999 -0.89999998 0.773 0 0 0 0 0.038290001
3.3670001 -0.90200001 0.77399999 0 0 0 0 0.0383
3.3410001 -0.90499997 0.77399999 1 0 0 0 0.038309999
0 0 0 0 0 0 0 0.038320001
0 0 0 0 0 0 0 0.03833
0.98400003 -0.27500001 0.233 0 0 0 0 0.038339999
1.002 -0.28299999 0.23899999 8 0 0 0 0.038350001
0.99199998 -0.28299999 0.23899999 12 0 0 0 0.03836
0.98500001 -0.28299999 0.23899999 16 0 0 0 0.038369998
0.98799998 -0.287 0.241 10 0 0 0 0.038380001
0.98900002 -0.28999999 0.243 6 0 0 0 0.038389999
2.02 -1.1569999 0.69700003 52 0 0 0 0.039360002
2.0539999 -1.1799999 0.708 23 0 0 0 0.03937
2.0880001 -1.205 0.71899998 22 0 0 0 0.039379999
2.1099999 -1.222 0.72600001 22 0 0 0 0.039390001
2.1329999 -1.24 0.73400003 22 0 0 0 0.0394
2.155 -1.257 0.741 23 0 0 0 0.039409999
2.1849999 -1.279 0.75 26 0 0 0 0.039420001
2.207 -1.2970001 0.75700003 26 0 0 0 0.03943
2.234 -1.317 0.76599997 27 0 0 0 0.039439999
2.2579999 -1.336 0.773 28 0 0 0 0.039450001
2.2809999 -1.353 0.77999997 29 0 0 0 0.03946
2.3039999 -1.3710001 0.78600001 29 0 0 0 0.039469998
2.3280001 -1.39 0.79299998 30 0 0 0 0.039480001
2.3570001 -1.411 0.80199999 30 0 0 0 0.039489999
2.3840001 -1.432 0.81 30 0 0 0 0.039500002
2.408 -1.45 0.81599998 31 0 0 0 0.03951
2.4349999 -1.47 0.824 32 0 0 0 0.039519999
2.4560001 -1.488 0.82999998 32 0 0 0 0.039530002
2.4860001 -1.51 0.838 33 0 0 0 0.03954
2.516 -1.5319999 0.84600002 34 0 0 0 0.039549999
2.5469999 -1.554 0.85500002 35 0 0 0 0.039560001
2.575 -1.575 0.86199999 35 0 0 0 0.03957
2.6070001 -1.598 0.87099999 36 0 0 0 0.039579999
2.6289999 -1.615 0.87599999 36 0 0 0 0.039590001
2.652 -1.633 0.88099998 36 0 0 0 0.0396
2.6760001 -1.651 0.88700002 37 0 0 0 0.039609998
2.6949999 -1.666 0.89099997 33 0 0 0 0.039620001
2.7130001 -1.681 0.89399999 30 0 0 0 0.03963
2.734 -1.697 0.898 32 0 0 0 0.039639998
2.7539999 -1.712 0.90200001 29 0 0 0 0.039650001
2.7620001 -1.72 0.90200001 29 0 0 0 0.039659999
2.7690001 -1.728 0.90100002 28 0 0 0 0.039670002
2.7780001 -1.7359999 0.90100002 30 0 0 0 0.03968
2.786 -1.743 0.89999998 29 0 0 0 0.039689999
2.7909999 -1.749 0.89899999 33 0 0 0 0.039700001
2.7980001 -1.755 0.898 40 0 0 0 0.03971
2.8039999 -1.761 0.89600003 42 0 0 0 0.039719999
2.8039999 -1.763 0.89300001 51 0 0 0 0.039730001
2.8050001 -1.765 0.889 64 0 0 0 0.03974
2.8069999 -1.7690001 0.88599998 78 0 0 0 0.039749999
2.8099999 -1.772 0.884 95 0 0 0 0.039760001
2.809 -1.773 0.88 112 0 0 0 0.03977
2.8110001 -1.775 0.87599999 150 0 0 0 0.039779998
2.809 -1.775 0.87199998 150 0 0 0 0.039790001
2.813 -1.778 0.86900002 150 0 0 0 0.039799999
2.8110001 -1.778 0.86400002 150 0 0 0 0.039810002
2.809 -1.777 0.86000001 150 0 0 0 0.039820001
2.813 -1.781 0.85699999 150 0 0 0 0.039829999
2.812 -1.781 0.852 150 0 0 0 0.039840002
2.8080001 -1.779 0.847 150 0 0 0 0.03985
2.8069999 -1.778 0.84200001 150 0 0 0 0.039859999
2.8069999 -1.778 0.838 150 0 0 0 0.039870001
2.8110001 -1.78 0.83399999 150 0 0 0 0.03988
2.812 -1.781 0.82999998 150 0 0 0 0.039889999
2.809 -1.778 0.82499999 150 0 0 0 0.039900001
2.8139999 -1.781 0.82200003 150 0 0 0 0.03991
2.813 -1.78 0.81699997 150 0 0 0 0.039919998
2.812 -1.778 0.81199998 150 0 0 0 0.039930001
2.8110001 -1.777 0.80699998 150 0 0 0 0.03994
2.8110001 -1.776 0.80199999 117 0 0 0 0.039949998
2.8080001 -1.773 0.79699999 93 0 0 0 0.039960001
2.8069999 -1.771 0.79100001 76 0 0 0 0.039969999
2.803 -1.766 0.78600001 61 0 0 0 0.039980002
2.803 -1.765 0.78100002 48 0 0 0 0.03999
2.7969999 -1.7589999 0.77399999 42 0 0 0 0.039999999
2.7939999 -1.755 0.76800001 35 0 0 0 0.040010002
2.786 -1.748 0.76099998 31 0 0 0 0.04002
2.7869999 -1.7460001 0.75599998 26 0 0 0 0.040029999
2.776 -1.737 0.74800003 27 0 0 0 0.040040001
2.7650001 -1.728 0.74000001 28 0 0 0 0.04005
2.7449999 -1.7130001 0.72899997 29 0 0 0 0.040059999
2.733 -1.7029999 0.72100002 30 0 0 0 0.040070001
2.7190001 -1.691 0.713 32 0 0 0 0.04008
2.7 -1.677 0.70300001 34 0 0 0 0.040089998
2.681 -1.6619999 0.69300002 32 0 0 0 0.040100001
2.6559999 -1.643 0.68099999 36 0 0 0 0.040109999
2.6359999 -1.628 0.671 36 0 0 0 0.040119998
2.609 -1.607 0.65899998 32 0 0 0 0.040130001
2.579 -1.586 0.64700001 32 0 0 0 0.040139999
2.553 -1.567 0.63499999 32 0 0 0 0.040150002
2.5220001 -1.544 0.62300003 31 0 0 0 0.04016
2.5 -1.527 0.61299998 30 0 0 0 0.040169999
2.484 -1.5140001 0.60399997 30 0 0 0 0.040180001
2.4630001 -1.497 0.59399998 30 0 0 0 0.04019
2.438 -1.478 0.583 29 0 0 0 0.040199999
2.4070001 -1.456 0.57099998 29 0 0 0 0.040210001
2.382 -1.437 0.56099999 28 0 0 0 0.04022
2.358 -1.418 0.551 27 0 0 0 0.040229999
2.329 -1.397 0.53899997 27 0 0 0 0.040240001
2.3039999 -1.378 0.52899998 26 0 0 0 0.04025
2.277 -1.358 0.51800001 26 0 0 0 0.040259998
2.257 -1.342 0.509 25 0 0 0 0.040270001
2.2349999 -1.324 0.5 24 0 0 0 0.040279999
2.207 -1.304 0.48899999 24 0 0 0 0.040290002
2.1889999 -1.289 0.48100001 24 0 0 0 0.0403
2.164 -1.27 0.472 24 0 0 0 0.040309999
2.142 -1.253 0.463 24 0 0 0 0.040320002
2.119 -1.235 0.45300001 24 0 0 0 0.04033
2.092 -1.216 0.44400001 24 0 0 0 0.040339999
2.073 -1.2 0.43599999 23 0 0 0 0.040350001
2.0220001 -1.166 0.421 42 0 0 0 0.04036
2.01 -1.155 0.41499999 150 0 0 0 0.040369999
2.007 -1.149 0.41 151 0 0 0 0.040380001
2.0120001 -1.148 0.40700001 151 0 0 0 0.04039
2.01 -1.142 0.403 151 0 0 0 0.040399998
2.013 -1.1390001 0.40000001 151 0 0 0 0.040410001
2.013 -1.1339999 0.396 151 0 0 0 0.04042
2.0079999 -1.127 0.391 150 0 0 0 0.040429998
1.994 -1.114 0.38499999 150 0 0 0 0.040440001
1.997 -1.112 0.382 150 0 0 0 0.040449999
2 -1.109 0.37799999 150 0 0 0 0.040460002
2.0020001 -1.105 0.375 150 0 0 0 0.04047
2.0050001 -1.102 0.37200001 150 0 0 0 0.040479999
2.0079999 -1.098 0.36899999 151 0 0 0 0.040490001
2.0109999 -1.095 0.36500001 151 0 0 0 0.0405
2.013 -1.091 0.36199999 151 0 0 0 0.040509999
2.02 -1.09 0.36000001 151 0 0 0 0.040520001
2.0179999 -1.084 0.35600001 151 0 0 0 0.04053
2.0250001 -1.082 0.35299999 151 0 0 0 0.040539999
2.0239999 -1.076 0.34900001 151 0 0 0 0.040550001
2.03 -1.074 0.347 151 0 0 0 0.04056
2.0380001 -1.073 0.34400001 151 0 0 0 0.040569998
2.052 -1.075 0.34299999 150 0 0 0 0.040580001
2.0580001 -1.072 0.34 55 0 0 0 0.040589999
2.0710001 -1.074 0.33899999 150 0 0 0 0.040600002
2.075 -1.0700001 0.336 150 0 0 0 0.04061
2.0739999 -1.064 0.33199999 85 0 0 0 0.040619999
2.1210001 -1.082 0.336 150 0 0 0 0.040630002
2.076 -1.053 0.32499999 150 0 0 0 0.04064
2.0999999 -1.0599999 0.32499999 150 0 0 0 0.040649999
2.175 -1.092 0.333 150 0 0 0 0.040660001
2.3110001 -1.154 0.34999999 150 0 0 0 0.04067
2.312 -1.148 0.34599999 139 0 0 0 0.040679999
2.3199999 -1.145 0.34400001 148 0 0 0 0.040690001
2.3180001 -1.137 0.33899999 150 0 0 0 0.0407
2.2609999 -1.103 0.32699999 150 0 0 0 0.040709998
2.1800001 -1.057 0.31200001 150 0 0 0 0.040720001
2.3239999 -1.12 0.329 69 0 0 0 0.04073
1.396 -0.66900003 0.19499999 1 0 0 0 0.040739998
1.3890001 -0.66100001 0.192 1 0 0 0 0.040750001
1.3710001 -0.64899999 0.18700001 1 0 0 0 0.040759999
1.36 -0.63999999 0.183 1 0 0 0 0.040770002
1.35 -0.63099998 0.18000001 1 0 0 0 0.04078
1.3380001 -0.62099999 0.176 1 0 0 0 0.040789999
1.3200001 -0.60900003 0.17200001 1 0 0 0 0.040800001
1.291 -0.59200001 0.16599999 1 0 0 0 0.04081
1.279 -0.58200002 0.162 1 0 0 0 0.040819999
1.279 -0.579 0.16 1 0 0 0 0.040830001
1.266 -0.56900001 0.15700001 10 0 0 0 0.04084
1.251 -0.55800003 0.153 78 0 0 0 0.040849999
1.253 -0.55599999 0.15099999 150 0 0 0 0.040860001
1.252 -0.551 0.149 150 0 0 0 0.04087
1.256 -0.54900002 0.148 150 0 0 0 0.040879998
1.253 -0.54400003 0.146 150 0 0 0 0.040890001
1.256 -0.54100001 0.14399999 145 0 0 0 0.040899999
1.258 -0.53799999 0.14300001 149 0 0 0 0.040910002
1.262 -0.53600001 0.141 136 0 0 0 0.040920001
1.27 -0.53600001 0.14 129 0 0 0 0.040929999
1.27 -0.53200001 0.139 145 0 0 0 0.040940002
1.272 -0.52899998 0.13699999 150 0 0 0 0.04095
1.274 -0.52600002 0.13500001 149 0 0 0 0.040959999
1.283 -0.52499998 0.13500001 32 0 0 0 0.040970001
1.288 -0.523 0.133 7 0 0 0 0.04098
1.26 -0.50800002 0.12899999 3 0 0 0 0.040989999
1.2460001 -0.49900001 0.126 0 0 0 0 0.041000001
3.303 -1.311 0.329 2 0 0 0 0.04101
3.3050001 -1.302 0.32499999 5 0 0 0 0.041019998
3.3080001 -1.293 0.32100001 5 0 0 0 0.041030001
3.316 -1.285 0.317 5 0 0 0 0.04104
3.3269999 -1.279 0.31400001 5 0 0 0 0.041049998
3.3269999 -1.2690001 0.31 5 0 0 0 0.041060001
3.3340001 -1.26 0.30599999 5 0 0 0 0.041069999
3.345 -1.2539999 0.303 3 0 0 0 0.041080002
3.3199999 -1.234 0.296 2 0 0 0 0.04109
3.3150001 -1.222 0.292 3 0 0 0 0.041099999
3.2980001 -1.205 0.28600001 5 0 0 0 0.041110002
3.3110001 -1.199 0.28299999 4 0 0 0 0.04112
3.3169999 -1.191 0.28 3 0 0 0 0.041129999
3.329 -1.1849999 0.27700001 3 0 0 0 0.041140001
3.3199999 -1.171 0.27200001 3 0 0 0 0.04115
3.3069999 -1.156 0.26699999 5 0 0 0 0.041159999
3.3139999 -1.148 0.264 4 0 0 0 0.041170001
3.3110001 -1.136 0.259 2 0 0 0 0.04118
3.2969999 -1.12 0.25400001 1 0 0 0 0.041189998
3.2739999 -1.102 0.249 1 0 0 0 0.041200001
3.224 -1.075 0.241 2 0 0 0 0.041209999
3.2279999 -1.066 0.23800001 2 0 0 0 0.041219998
3.2539999 -1.064 0.236 3 0 0 0 0.041230001
3.2539999 -1.054 0.233 3 0 0 0 0.041239999
3.26 -1.045 0.23 2 0 0 0 0.041250002
3.263 -1.036 0.226 3 0 0 0 0.04126
3.26 -1.024 0.223 2 0 0 0 0.041269999
3.267 -1.016 0.219 1 0 0 0 0.041280001
3.2449999 -0.99900001 0.215 1 0 0 0 0.04129
0.986 -0.30000001 0.064000003 0 0 0 0 0.041299999
0.98199999 -0.296 0.063000001 0 0 0 0 0.041310001
0.99400002 -0.296 0.061999999 3 0 0 0 0.04132
0.995 -0.29300001 0.061000001 3 0 0 0 0.041329999
0.98299998 -0.28600001 0.059999999 3 0 0 0 0.041340001
0.98500001 -0.28400001 0.059 0 0 0 0 0.04135
1.01 -0.28799999 0.059 0 0 0 0 0.041359998
0 0 0 0 0 0 0 0.041370001
0 0 0 0 0 0 0 0.041379999
0 0 0 0 0 0 0 0.041390002
0 0 0 0 0 0 0 0.0414
0 0 0 0 0 0 0 0.041409999
0 0 0 0 0 0 0 0.041420002
0 0 0 0 0 0 0 0.04143
0 0 0 0 0 0 0 0.041439999
3.477 -0.88999999 0.175 1 0 0 0 0.041450001
1.168 -0.29499999 0.057 150 0 0 0 0.04146
1.174 -0.29300001 0.057 8 0 0 0 0.041469999
1.1849999 -0.292 0.056000002 7 0 0 0 0.041480001
1.1849999 -0.28799999 0.055 5 0 0 0 0.04149
4.1469998 -0.995 0.19 1 0 0 0 0.041499998
4.1290002 -0.97799999 0.186 1 0 0 0 0.041510001
4.0180001 -0.93900001 0.177 1 0 0 0 0.04152
3.717 -0.85600001 0.161 1 0 0 0 0.041529998
3.579 -0.81300002 0.152 1 0 0 0 0.041540001
3.48 -0.77899998 0.145 1 0 0 0 0.041549999
3.4879999 -0.76899999 0.142 1 0 0 0 0.041560002
3.4749999 -0.75599998 0.139 1 0 0 0 0.04157
3.5109999 -0.75199997 0.13699999 1 0 0 0 0.041579999
3.5999999 -0.759 0.138 0 0 0 0 0.041590001
3.6440001 -0.75700003 0.13699999 0 0 0 0 0.0416
3.711 -0.759 0.13600001 1 0 0 0 0.041609999
0 0 0 0 0 0 0 0.041620001
3.717 -0.736 0.131 2 0 0 0 0.04163
1.661 -0.324 0.057 4 0 0 0 0.041639999
1.52 -0.29100001 0.050999999 151 0 0 0 0.041650001
1.393 -0.26199999 0.045000002 151 0 0 0 0.04166
1.362 -0.252 0.043000001 49 0 0 0 0.041669998
3.605 -0.65600002 0.113 0 0 0 0 0.041680001
3.6259999 -0.648 0.111 0 0 0 0 0.041689999
3.6329999 -0.63800001 0.109 0 0 0 0 0.041700002
3.632 -0.62599999 0.106 0 0 0 0 0.04171
0 0 0 0 0 0 0 0.041719999
1.8380001 -0.30500001 0.050999999 0 0 0 0 0.041730002
1.727 -0.28099999 0.046 0 0 0 0 0.04174
3.6400001 -0.57999998 0.096000001 1 0 0 0 0.041749999
3.6270001 -0.56699997 0.093000002 1 0 0 0 0.041760001
3.6229999 -0.55500001 0.090999998 0 0 0 0 0.04177
3.6289999 -0.54400003 0.088 0 0 0 0 0.041779999
3.6210001 -0.53100002 0.086000003 0 0 0 0 0.041790001
3.6860001 -0.52899998 0.085000001 0 0 0 0 0.0418
3.6340001 -0.509 0.081 0 0 0 0 0.041809998
3.681 -0.50400001 0.079999998 0 0 0 0 0.041820001
3.7190001 -0.49700001 0.078000002 0 0 0 0 0.04183
3.707 -0.484 0.075999998 1 0 0 0 0.041839998
3.6889999 -0.47 0.072999999 1 0 0 0 0.041850001
3.7190001 -0.46200001 0.071000002 1 0 0 0 0.041859999
0 0 0 0 0 0 0 0.041870002
0 0 0 0 0 0 0 0.04188
0 0 0 0 0 0 0 0.041889999
0 0 0 0 0 0 0 0.041900001
0 0 0 0 0 0 0 0.04191
0 0 0 0 0 0 0 0.041919999
0 0 0 0 0 0 0 0.041930001
1.604 -0.15800001 0.023 0 0 0 0 0.04194
1.5470001 -0.147 0.021 3 0 0 0 0.041949999
1.364 -0.125 0.017999999 4 0 0 0 0.041960001
1.427 -0.126 0.017999999 6 0 0 0 0.04197
1.5319999 -0.131 0.017999999 1 0 0 0 0.041979998
3.4719999 -0.28600001 0.041000001 4 0 0 0 0.041990001
3.4449999 -0.273 0.037999999 3 0 0 0 0.041999999
0 0 0 0 0 0 0 0.042010002
3.3929999 -0.24699999 0.034000002 0 0 0 0 0.042020001
3.451 -0.23999999 0.033 1 0 0 0 0.042029999
0 0 0 0 0 0 0 0.042040002
0 0 0 0 0 0 0 0.04205
3.47 -0.208 0.028000001 1 0 0 0 0.042059999
3.4909999 -0.198 0.026000001 2 0 0 0 0.042070001
3.4960001 -0.18700001 0.025 1 0 0 0 0.04208
0 0 0 0 0 0 0 0.042089999
0 0 0 0 0 0 0 0.042100001
0 0 0 0 0 0 0 0.04211
0 0 0 0 0 0 0 0.042119998
0 0 0 0 0 0 0 0.042130001
0 0 0 0 0 0 0 0.04214
3.586 -0.112 0.014 1 0 0 0 0.042149998
3.585 -0.1 0.012 1 0 0 0 0.042160001
0 0 0 0 0 0 0 0.042169999
0 0 0 0 0 0 0 0.042180002
1.433 -0.026000001 0.003 0 0 0 0 0.04219
1.427 -0.021 0.0020000001 0 0 0 0 0.042199999
1.419 -0.017000001 0.001 0 0 0 0 0.042210001
1.4170001 -0.012 0.001 1 0 0 0 0.04222
1.41 -0.0070000002 0 0 0 0 0 0.042229999
1.408 -0.003 0 0 0 0 0 0.042240001
1.396 0.001 0 0 0 0 0 0.04225
1.396 0.0049999999 0 0 0 0 0 0.042259999
1.3890001 0.0099999998 -0.001 0 0 0 0 0.042270001
1.381 0.014 -0.001 0 0 0 0 0.04228
1.377 0.017999999 -0.0020000001 0 0 0 0 0.042289998
1.3789999 0.023 -0.0020000001 0 0 0 0 0.042300001
1.374 0.027000001 -0.003 0 0 0 0 0.042309999
1.359 0.030999999 -0.003 0 0 0 0 0.042319998
1.3609999 0.035999998 -0.0040000002 0 0 0 0 0.042330001
1.351 0.039999999 -0.0040000002 0 0 0 0 0.042339999
1.351 0.044 -0.0049999999 0 0 0 0 0.042350002
1.342 0.048 -0.0049999999 0 0 0 0 0.04236
1.341 0.052000001 -0.0060000001 0 0 0 0 0.042369999
1.3380001 0.057 -0.0060000001 0 0 0 0 0.042380001
1.327 0.059999999 -0.0060000001 0 0 0 0 0.04239
1.327 0.064999998 -0.0070000002 0 0 0 0 0.042399999
1.317 0.068000004 -0.0070000002 4 0 0 0 0.042410001
1.301 0.071999997 -0.0070000002 7 0 0 0 0.04242
1.2869999 0.075000003 -0.0080000004 16 0 0 0 0.042429999
1.29 0.079999998 -0.0080000004 10 0 0 0 0.042440001
1.293 0.083999999 -0.0089999996 9 0 0 0 0.04245
1.439 0.097999997 -0.0099999998 57 0 0 0 0.042459998
1.573 0.112 -0.011 102 0 0 0 0.042470001
1.677 0.125 -0.013 75 0 0 0 0.042479999
1.773 0.138 -0.014 14 0 0 0 0.042490002
1.778 0.14399999 -0.014 14 0 0 0 0.0425
1.78 0.15000001 -0.015 14 0 0 0 0.042509999
1.788 0.15700001 -0.015 15 0 0 0 0.042520002
1.7869999 0.163 -0.016000001 42 0 0 0 0.04253
1.779 0.168 -0.016000001 79 0 0 0 0.042539999
1.789 0.17399999 -0.016000001 36 0 0 0 0.042550001
1.789 0.18000001 -0.017000001 15 0 0 0 0.04256
1.8200001 0.189 -0.017999999 12 0 0 0 0.042569999
1.841 0.197 -0.017999999 12 0 0 0 0.042580001
1.844 0.204 -0.018999999 12 0 0 0 0.04259
1.846 0.20999999 -0.018999999 66 0 0 0 0.042599998
1.855 0.21699999 -0.018999999 12 0 0 0 0.042610001
1.859 0.22400001 -0.02 12 0 0 0 0.042619999
1.859 0.23 -0.02 65 0 0 0 0.042629998
1.867 0.237 -0.021 65 0 0 0 0.042640001
1.872 0.243 -0.021 67 0 0 0 0.042649999
1.882 0.25099999 -0.021 68 0 0 0 0.042660002
1.885 0.25799999 -0.022 62 0 0 0 0.04267
1.893 0.26499999 -0.022 59 0 0 0 0.042679999
1.895 0.271 -0.022 63 0 0 0 0.042690001
1.904 0.27900001 -0.023 64 0 0 0 0.0427
1.909 0.28600001 -0.023 67 0 0 0 0.042709999
1.9119999 0.292 -0.023 63 0 0 0 0.042720001
1.924 0.301 -0.024 65 0 0 0 0.04273
1.925 0.30700001 -0.024 62 0 0 0 0.042739999
1.933 0.315 -0.024 64 0 0 0 0.042750001
1.936 0.322 -0.024 65 0 0 0 0.04276
1.944 0.329 -0.025 64 0 0 0 0.042769998
1.946 0.336 -0.025 63 0 0 0 0.042780001
1.954 0.34400001 -0.025 64 0 0 0 0.042789999
1.96 0.35100001 -0.025 59 0 0 0 0.042800002
1.9680001 0.359 -0.026000001 62 0 0 0 0.04281
1.976 0.36700001 -0.026000001 65 0 0 0 0.042819999
1.978 0.37400001 -0.026000001 64 0 0 0 0.042830002
1.983 0.382 -0.026000001 58 0 0 0 0.04284
1.9910001 0.38999999 -0.026000001 59 0 0 0 0.042849999
1.998 0.398 -0.026000001 59 0 0 0 0.042860001
2.007 0.40700001 -0.027000001 62 0 0 0 0.04287
2.0139999 0.41499999 -0.027000001 58 0 0 0 0.042879999
2.0150001 0.421 -0.027000001 58 0 0 0 0.042890001
2.0209999 0.42899999 -0.027000001 58 0 0 0 0.0429
2.023 0.43599999 -0.027000001 59 0 0 0 0.042909998
2.0380001 0.447 -0.027000001 62 0 0 0 0.042920001
2.043 0.45500001 -0.027000001 58 0 0 0 0.04293
2.0450001 0.46200001 -0.027000001 56 0 0 0 0.042939998
2.053 0.47 -0.027000001 56 0 0 0 0.042950001
2.059 0.479 -0.027000001 56 0 0 0 0.042959999
2.069 0.48800001 -0.027000001 54 0 0 0 0.042970002
2.0769999 0.49599999 -0.027000001 58 0 0 0 0.04298
2.082 0.505 -0.027000001 54 0 0 0 0.042989999
2.0899999 0.514 -0.027000001 55 0 0 0 0.043000001
2.098 0.523 -0.027000001 51 0 0 0 0.04301
2.102 0.53100002 -0.027000001 49 0 0 0 0.043019999
2.1129999 0.54100001 -0.027000001 50 0 0 0 0.043030001
2.1199999 0.54900002 -0.027000001 46 0 0 0 0.04304
2.1270001 0.55800003 -0.026000001 47 0 0 0 0.043049999
2.1329999 0.56699997 -0.026000001 51 0 0 0 0.043060001
2.1370001 0.57499999 -0.026000001 50 0 0 0 0.04307
2.1429999 0.58399999 -0.026000001 48 0 0 0 0.043079998
2.152 0.59399998 -0.026000001 46 0 0 0 0.043090001
2.1619999 0.60399997 -0.025 45 0 0 0 0.043099999
2.1689999 0.61299998 -0.025 42 0 0 0 0.043110002
2.1760001 0.62199998 -0.025 43 0 0 0 0.043120001
2.1849999 0.63200003 -0.025 35 0 0 0 0.043129999
2.1930001 0.64200002 -0.024 37 0 0 0 0.043140002
2.197 0.65100002 -0.024 38 0 0 0 0.04315
2.2079999 0.66100001 -0.024 36 0 0 0 0.043159999
2.2149999 0.671 -0.023 35 0 0 0 0.043170001
2.2260001 0.68199998 -0.023 35 0 0 0 0.04318
2.2349999 0.69199997 -0.022 33 0 0 0 0.043189999
2.217 0.69400001 -0.022 28 0 0 0 0.043200001
2.2539999 0.713 -0.021 5 0 0 0 0.04321
2.2509999 0.72000003 -0.021 5 0 0 0 0.043219998
2.256 0.72899997 -0.02 6 0 0 0 0.043230001
2.2590001 0.73799998 -0.02 8 0 0 0 0.04324
1.789 0.58999997 -0.015 0 0 0 0 0.043249998
1.521 0.50700003 -0.012 0 0 0 0 0.043260001
1.512 0.509 -0.012 0 0 0 0 0.043269999
1.506 0.51200002 -0.011 0 0 0 0 0.043280002
1.5 0.51499999 -0.011 0 0 0 0 0.04329
1.488 0.51599997 -0.0099999998 0 0 0 0 0.043299999
1.492 0.523 -0.0089999996 0 0 0 0 0.043310001
1.475 0.52200001 -0.0089999996 0 0 0 0 0.04332
1.47 0.52499998 -0.0080000004 0 0 0 0 0.043329999
1.495 0.53899997 -0.0080000004 0 0 0 0 0.043340001
1.467 0.53399998 -0.0070000002 0 0 0 0 0.04335
1.465 0.53799999 -0.0060000001 0 0 0 0 0.043359999
1.478 0.54799998 -0.0060000001 0 0 0 0 0.043370001
1.443 0.53899997 -0.0049999999 0 0 0 0 0.04338
1.475 0.55599999 -0.0049999999 0 0 0 0 0.043389998
1.479 0.56300002 -0.0040000002 0 0 0 0 0.043400001
1.469 0.56400001 -0.003 0 0 0 0 0.043409999
1.466 0.56800002 -0.003 0 0 0 0 0.043419998
1.465 0.57300001 -0.0020000001 0 0 0 0 0.043430001
1.473 0.58099997 -0.001 0 0 0 0 0.043439999
1.476 0.58700001 0 0 0 0 0 0.043450002
1.479 0.59299999 0 0 0 0 0 0.04346
1.4630001 0.59200001 0 0 0 0 0 0.043469999
1.485 0.60500002 0.001 0 0 0 0 0.043480001
1.493 0.61400002 0.0020000001 0 0 0 0 0.04349
1.4910001 0.61799997 0.003 0 0 0 0 0.043499999
1.497 0.62599999 0.003 0 0 0 0 0.043510001
1.495 0.63 0.0040000002 0 0 0 0 0.04352
1.5140001 0.64300001 0.0049999999 0 0 0 0 0.043529999
1.522 0.65100002 0.0060000001 0 0 0 0 0.043540001
1.52 0.65600002 0.0070000002 0 0 0 0 0.04355
1.531 0.66500002 0.0080000004 0 0 0 0 0.043559998
1.534 0.67199999 0.0089999996 0 0 0 0 0.043570001
1.572 0.69400001 0.0099999998 0 0 0 0 0.043579999
1.566 0.69599998 0.011 0 0 0 0 0.043590002
1.608 0.72000003 0.013 0 0 0 0 0.0436
1.589 0.71700001 0.014 0 0 0 0 0.043609999
1.594 0.72500002 0.015 0 0 0 0 0.043620002
1.5880001 0.727 0.016000001 0 0 0 0 0.04363
1.609 0.74199998 0.017000001 0 0 0 0 0.043639999
1.614 0.75 0.018999999 0 0 0 0 0.043650001
1.6 0.74800003 0.02 0 0 0 0 0.04366
1.618 0.76200002 0.021 0 0 0 0 0.043669999
1.608 0.76300001 0.022 0 0 0 0 0.043680001
1.62 0.77399999 0.024 0 0 0 0 0.04369
1.618 0.778 0.025 0 0 0 0 0.043699998
1.608 0.778 0.026000001 0 0 0 0 0.043710001
1.603 0.78100002 0.028000001 0 0 0 0 0.043719999
1.6160001 0.79299998 0.028999999 0 0 0 0 0.043729998
1.607 0.79400003 0.029999999 0 0 0 0 0.043740001
1.618 0.80500001 0.032000002 0 0 0 0 0.043749999
1.613 0.80699998 0.033 0 0 0 0 0.043760002
1.636 0.824 0.035 0 0 0 0 0.04377
1.623 0.82300001 0.035999998 0 0 0 0 0.043779999
1.617 0.82499999 0.037999999 0 0 0 0 0.043790001
1.631 0.83700001 0.039999999 0 0 0 0 0.0438
1.637 0.84500003 0.041000001 0 0 0 0 0.043809999
1.6569999 0.861 0.043000001 0 0 0 0 0.043820001
1.702 0.88999999 0.046 0 0 0 0 0.04383
1.8099999 0.95200002 0.050999999 0 0 0 0 0.043839999
1.8660001 0.98699999 0.054000001 2 0 0 0 0.043850001
1.893 1.007 0.057 12 0 0 0 0.04386
1.899 1.016 0.059 22 0 0 0 0.043869998
1.915 1.031 0.061999999 24 0 0 0 0.043880001
2.122 1.149 0.071000002 150 0 0 0 0.043889999
2.727 1.484 0.093999997 150 0 0 0 0.043900002
2.7620001 1.512 0.097999997 150 0 0 0 0.04391
2.7579999 1.518 0.101 150 0 0 0 0.043919999
2.7539999 1.524 0.104 150 0 0 0 0.043930002
2.7449999 1.527 0.107 150 0 0 0 0.04394
2.7379999 1.5319999 0.11 150 0 0 0 0.043949999
2.7360001 1.538 0.113 150 0 0 0 0.043960001
2.7219999 1.538 0.115 150 0 0 0 0.04397
2.72 1.545 0.118 150 0 0 0 0.043979999
2.7149999 1.55 0.121 150 0 0 0 0.043990001
2.7090001 1.554 0.124 150 0 0 0 0.044
2.7079999 1.561 0.127 150 0 0 0 0.044009998
2.6989999 1.564 0.13 150 0 0 0 0.044020001
2.6930001 1.568 0.133 150 0 0 0 0.04403
2.6849999 1.571 0.13600001 150 0 0 0 0.044039998
2.6860001 1.579 0.14 150 0 0 0 0.044050001
2.6789999 1.582 0.14300001 150 0 0 0 0.044059999
2.671 1.585 0.146 150 0 0 0 0.044070002
2.665 1.5880001 0.149 150 0 0 0 0.04408
2.661 1.5930001 0.152 150 0 0 0 0.044089999
2.658 1.598 0.156 150 0 0 0 0.044100001
2.6489999 1.599 0.15899999 150 0 0 0 0.04411
2.6459999 1.604 0.162 150 0 0 0 0.044119999
2.6470001 1.612 0.16599999 150 0 0 0 0.044130001
2.6400001 1.614 0.169 150 0 0 0 0.04414
2.632 1.6160001 0.17200001 150 0 0 0 0.044149999
2.6289999 1.62 0.175 150 0 0 0 0.044160001
2.625 1.624 0.17900001 150 0 0 0 0.04417
2.6210001 1.628 0.182 150 0 0 0 0.044179998
2.619 1.633 0.186 150 0 0 0 0.044190001
2.612 1.635 0.189 150 0 0 0 0.044199999
2.608 1.638 0.192 150 0 0 0 0.044210002
2.6059999 1.643 0.19599999 150 0 0 0 0.044220001
2.6010001 1.645 0.199 150 0 0 0 0.044229999
2.598 1.649 0.20299999 150 0 0 0 0.044240002
2.592 1.651 0.206 150 0 0 0 0.04425
2.5910001 1.656 0.20999999 150 0 0 0 0.044259999
2.586 1.658 0.213 150 0 0 0 0.044270001
2.586 1.663 0.21699999 150 0 0 0 0.04428
2.5769999 1.663 0.22 150 0 0 0 0.044289999
2.573 1.665 0.22400001 150 0 0 0 0.044300001
2.572 1.669 0.227 150 0 0 0 0.04431
2.5669999 1.671 0.23100001 150 0 0 0 0.044319998
2.5669999 1.676 0.235 150 0 0 0 0.044330001
2.559 1.676 0.23800001 150 0 0 0 0.04434
2.556 1.678 0.242 150 0 0 0 0.044349998
2.552 1.6799999 0.245 150 0 0 0 0.044360001
2.5480001 1.681 0.249 150 0 0 0 0.044369999
2.549 1.687 0.25299999 150 0 0 0 0.044380002
2.543 1.686 0.25600001 150 0 0 0 0.04439
2.5420001 1.6900001 0.25999999 150 0 0 0 0.044399999
2.5420001 1.693 0.264 150 0 0 0 0.044410001
2.5369999 1.694 0.26699999 150 0 0 0 0.04442
2.5350001 1.696 0.271 150 0 0 0 0.044429999
2.533 1.698 0.27500001 150 0 0 0 0.044440001
2.533 1.702 0.27900001 150 0 0 0 0.04445
2.5280001 1.701 0.28200001 150 0 0 0 0.044459999
2.5280001 1.704 0.28600001 150 0 0 0 0.044470001
2.5250001 1.705 0.28999999 150 0 0 0 0.04448
2.526 1.709 0.294 150 0 0 0 0.044489998
2.5209999 1.709 0.29699999 150 0 0 0 0.044500001
2.5179999 1.709 0.301 150 0 0 0 0.044509999
2.517 1.71 0.30399999 150 0 0 0 0.044520002
2.5150001 1.712 0.308 150 0 0 0 0.044530001
2.5139999 1.7130001 0.31200001 150 0 0 0 0.044539999
2.513 1.714 0.31600001 150 0 0 0 0.044550002
2.513 1.717 0.31999999 150 0 0 0 0.04456
2.51 1.716 0.32300001 150 0 0 0 0.044569999
2.5109999 1.7180001 0.32699999 150 0 0 0 0.044580001
2.51 1.719 0.331 150 0 0 0 0.04459
2.51 1.721 0.33500001 150 0 0 0 0.044599999
2.5079999 1.721 0.338 150 0 0 0 0.044610001
2.506 1.72 0.34200001 150 0 0 0 0.04462
2.5050001 1.72 0.345 150 0 0 0 0.044629999
2.5039999 1.721 0.34900001 150 0 0 0 0.044640001
2.5050001 1.722 0.35299999 150 0 0 0 0.04465
2.5039999 1.722 0.35699999 150 0 0 0 0.044659998
2.5039999 1.722 0.36000001 150 0 0 0 0.044670001
2.5090001 1.726 0.36500001 150 0 0 0 0.044679999
2.506 1.725 0.368 150 0 0 0 0.044690002
2.5039999 1.723 0.37099999 150 0 0 0 0.0447
2.503 1.722 0.375 150 0 0 0 0.044709999
2.5039999 1.723 0.37799999 150 0 0 0 0.044720002
2.5020001 1.721 0.382 150 0 0 0 0.04473
2.5050001 1.723 0.38600001 150 0 0 0 0.044739999
2.5039999 1.721 0.389 150 0 0 0 0.044750001
2.507 1.723 0.39300001 150 0 0 0 0.04476
2.506 1.721 0.396 150 0 0 0 0.044769999
2.507 1.721 0.40000001 150 0 0 0 0.044780001
2.507 1.72 0.403 150 0 0 0 0.04479
2.5090001 1.719 0.40700001 150 0 0 0 0.044799998
2.5139999 1.721 0.41100001 150 0 0 0 0.044810001
2.513 1.719 0.414 150 0 0 0 0.044819999
2.5150001 1.719 0.41800001 150 0 0 0 0.044829998
2.5150001 1.717 0.421 150 0 0 0 0.044840001
2.516 1.715 0.42399999 150 0 0 0 0.044849999
2.52 1.716 0.428 150 0 0 0 0.044860002
2.523 1.716 0.43200001 150 0 0 0 0.04487
2.5220001 1.7130001 0.435 150 0 0 0 0.044879999
2.523 1.711 0.43799999 150 0 0 0 0.044890001
2.526 1.71 0.44100001 150 0 0 0 0.0449
2.5280001 1.709 0.44499999 150 0 0 0 0.044909999
2.529 1.707 0.44800001 150 0 0 0 0.044920001
2.53 1.704 0.45100001 150 0 0 0 0.04493
2.5320001 1.702 0.454 150 0 0 0 0.044939999
2.5350001 1.701 0.45699999 150 0 0 0 0.044950001
2.536 1.699 0.46000001 150 0 0 0 0.04496
2.5420001 1.699 0.46399999 150 0 0 0 0.044969998
2.5409999 1.6950001 0.46599999 150 0 0 0 0.044980001
2.5420001 1.692 0.46900001 150 0 0 0 0.044989999
2.5469999 1.691 0.47299999 150 0 0 0 0.045000002
2.5480001 1.688 0.47499999 150 0 0 0 0.04501
2.55 1.6849999 0.47799999 150 0 0 0 0.045019999
2.559 1.686 0.48199999 150 0 0 0 0.045030002
2.556 1.6799999 0.484 150 0 0 0 0.04504
2.5599999 1.678 0.48699999 150 0 0 0 0.045049999
2.5610001 1.674 0.48899999 150 0 0 0 0.045060001
2.5680001 1.674 0.493 150 0 0 0 0.04507
2.5699999 1.671 0.495 150 0 0 0 0.045079999
2.575 1.668 0.498 150 0 0 0 0.045090001
2.5769999 1.665 0.5 150 0 0 0 0.0451
2.582 1.663 0.50300002 150 0 0 0 0.045109998
2.5840001 1.659 0.50599998 150 0 0 0 0.045120001
2.586 1.654 0.50800002 150 0 0 0 0.04513
2.5899999 1.652 0.51099998 150 0 0 0 0.045139998
2.596 1.65 0.51300001 150 0 0 0 0.045150001
2.6010001 1.648 0.51599997 150 0 0 0 0.045159999
2.6059999 1.645 0.51899999 150 0 0 0 0.045170002
2.608 1.64 0.52100003 150 0 0 0 0.04518
2.6129999 1.637 0.523 150 0 0 0 0.045189999
2.6140001 1.631 0.52499998 150 0 0 0 0.045200001
2.625 1.632 0.52899998 150 0 0 0 0.04521
2.6210001 1.623 0.52899998 150 0 0 0 0.045219999
