# .PCD v0.7 - Point Cloud Data file format
VERSION 0.7
FIELDS x y z intensity normal_x normal_y normal_z curvature
SIZE 4 4 4 4 4 4 4 4
TYPE F F F F F F F F
COUNT 1 1 1 1 1 1 1 1
WIDTH 1015
HEIGHT 1
VIEWPOINT 0 0 0 1 0 0 0
POINTS 1015
DATA ascii
2.5769999 0.91500002 1.367 66 0 0 0 0.025529999
2.585 0.912 1.369 65 0 0 0 0.02554
2.592 0.90799999 1.368 63 0 0 0 0.02555
2.5940001 0.903 1.3660001 65 0 0 0 0.025560001
2.602 0.89999998 1.3660001 65 0 0 0 0.02557
2.605 0.89499998 1.365 65 0 0 0 0.02558
2.6199999 0.89399999 1.368 66 0 0 0 0.025590001
2.6229999 0.889 1.3660001 65 0 0 0 0.025599999
2.635 0.88700002 1.368 67 0 0 0 0.02561
2.6389999 0.88200003 1.3660001 64 0 0 0 0.02562
2.654 0.88099998 1.37 66 0 0 0 0.025629999
2.6619999 0.87699997 1.369 68 0 0 0 0.02564
2.6670001 0.87199998 1.367 67 0 0 0 0.02565
2.6730001 0.86799997 1.3660001 68 0 0 0 0.025660001
2.6830001 0.86500001 1.367 67 0 0 0 0.025669999
2.6930001 0.86199999 1.3660001 67 0 0 0 0.02568
2.7060001 0.86000001 1.369 69 0 0 0 0.025690001
2.714 0.85600001 1.367 69 0 0 0 0.025699999
2.727 0.85299999 1.369 71 0 0 0 0.02571
2.7360001 0.85000002 1.368 69 0 0 0 0.02572
2.7449999 0.84600002 1.368 69 0 0 0 0.025730001
2.757 0.84299999 1.368 60 0 0 0 0.025739999
2.7690001 0.83999997 1.369 62 0 0 0 0.02575
2.7809999 0.838 1.369 63 0 0 0 0.025760001
2.8 0.83700001 1.373 71 0 0 0 0.025769999
2.859 0.84799999 1.396 115 0 0 0 0.02578
2.9059999 0.85500002 1.413 134 0 0 0 0.02579
2.9660001 0.866 1.436 84 0 0 0 0.025800001
2.983 0.86299998 1.438 72 0 0 0 0.02581
2.9979999 0.861 1.439 73 0 0 0 0.02582
3.0090001 0.85699999 1.438 75 0 0 0 0.025830001
3.0209999 0.85299999 1.437 76 0 0 0 0.025839999
3.0350001 0.85000002 1.437 73 0 0 0 0.02585
3.05 0.847 1.437 76 0 0 0 0.02586
3.0610001 0.84299999 1.436 75 0 0 0 0.025869999
3.0739999 0.83999997 1.4349999 74 0 0 0 0.02588
3.092 0.83700001 1.436 75 0 0 0 0.02589
3.1110001 0.83499998 1.439 76 0 0 0 0.025900001
3.119 0.82999998 1.4349999 72 0 0 0 0.025909999
3.1359999 0.82700002 1.4349999 71 0 0 0 0.02592
3.1530001 0.82499999 1.436 70 0 0 0 0.02593
3.1630001 0.81999999 1.433 69 0 0 0 0.025939999
3.181 0.81699997 1.433 71 0 0 0 0.02595
3.1960001 0.81400001 1.433 72 0 0 0 0.02596
3.21 0.81 1.431 71 0 0 0 0.025970001
3.2249999 0.80699998 1.4299999 72 0 0 0 0.025979999
3.2409999 0.80299997 1.4299999 72 0 0 0 0.02599
3.2590001 0.80000001 1.429 73 0 0 0 0.026000001
3.28 0.79799998 1.431 72 0 0 0 0.026009999
3.296 0.79500002 1.429 75 0 0 0 0.02602
3.3110001 0.79100001 1.428 73 0 0 0 0.02603
3.3299999 0.78799999 1.428 73 0 0 0 0.026040001
3.349 0.78500003 1.427 72 0 0 0 0.02605
3.365 0.78100002 1.425 71 0 0 0 0.02606
3.381 0.778 1.424 71 0 0 0 0.026070001
3.405 0.77600002 1.425 73 0 0 0 0.026079999
3.4230001 0.773 1.424 71 0 0 0 0.02609
3.444 0.76999998 1.423 70 0 0 0 0.0261
3.4679999 0.76800001 1.425 71 0 0 0 0.026110001
3.4849999 0.764 1.4220001 68 0 0 0 0.02612
3.513 0.76200002 1.425 72 0 0 0 0.02613
3.5380001 0.75999999 1.425 71 0 0 0 0.026140001
3.5569999 0.75700003 1.424 70 0 0 0 0.026149999
3.5880001 0.75599998 1.426 71 0 0 0 0.02616
3.605 0.75199997 1.424 69 0 0 0 0.02617
3.6289999 0.74900001 1.423 72 0 0 0 0.026179999
3.652 0.74599999 1.4220001 70 0 0 0 0.02619
3.675 0.74299997 1.4220001 71 0 0 0 0.0262
3.7019999 0.741 1.4220001 70 0 0 0 0.026210001
3.7260001 0.73799998 1.421 69 0 0 0 0.026219999
3.75 0.73500001 1.42 68 0 0 0 0.02623
3.7809999 0.73299998 1.4220001 68 0 0 0 0.026240001
3.8080001 0.73100001 1.4220001 69 0 0 0 0.026249999
3.836 0.72799999 1.421 70 0 0 0 0.02626
3.859 0.72500002 1.419 71 0 0 0 0.02627
3.8889999 0.72299999 1.419 69 0 0 0 0.026280001
3.9219999 0.72100002 1.421 69 0 0 0 0.026289999
3.9430001 0.71700001 1.418 69 0 0 0 0.0263
3.9760001 0.71499997 1.418 69 0 0 0 0.026310001
4.006 0.713 1.418 70 0 0 0 0.026319999
4.0300002 0.70899999 1.415 70 0 0 0 0.02633
4.0650001 0.70700002 1.416 70 0 0 0 0.02634
4.0999999 0.70499998 1.416 69 0 0 0 0.026350001
4.1259999 0.70200002 1.414 72 0 0 0 0.02636
4.164 0.69999999 1.415 72 0 0 0 0.02637
4.2030001 0.699 1.4170001 69 0 0 0 0.026380001
4.2340002 0.69599998 1.415 68 0 0 0 0.026389999
4.2690001 0.69300002 1.415 69 0 0 0 0.0264
4.3060002 0.69099998 1.415 69 0 0 0 0.02641
4.3369999 0.68800002 1.413 67 0 0 0 0.026419999
4.2880001 0.67199999 1.3839999 123 0 0 0 0.02643
4.1469998 0.64200002 1.327 150 0 0 0 0.02644
3.9960001 0.611 1.267 101 0 0 0 0.026450001
3.99 0.60299999 1.2539999 89 0 0 0 0.026459999
3.9860001 0.59500003 1.2410001 91 0 0 0 0.02647
3.9820001 0.58700001 1.229 94 0 0 0 0.02648
3.9749999 0.579 1.215 93 0 0 0 0.026489999
3.97 0.57099998 1.202 93 0 0 0 0.0265
3.964 0.56300002 1.189 91 0 0 0 0.02651
3.9579999 0.55500001 1.176 92 0 0 0 0.026520001
3.957 0.54799998 1.164 97 0 0 0 0.026529999
3.95 0.54000002 1.15 97 0 0 0 0.02654
3.9460001 0.53299999 1.138 96 0 0 0 0.026550001
3.944 0.52499998 1.126 99 0 0 0 0.026559999
3.938 0.51800001 1.113 101 0 0 0 0.02657
3.9300001 0.50999999 1.099 102 0 0 0 0.02658
3.9300001 0.50300002 1.087 105 0 0 0 0.026590001
3.9189999 0.495 1.073 105 0 0 0 0.0266
3.9170001 0.48800001 1.061 111 0 0 0 0.02661
3.9119999 0.48100001 1.048 119 0 0 0 0.026620001
3.9089999 0.47400001 1.036 122 0 0 0 0.026629999
3.904 0.46700001 1.024 124 0 0 0 0.02664
3.9000001 0.46000001 1.011 118 0 0 0 0.02665
3.891 0.45199999 0.99699998 122 0 0 0 0.026660001
3.891 0.44499999 0.986 124 0 0 0 0.02667
3.891 0.43900001 0.97500002 105 0 0 0 0.02668
3.882 0.43200001 0.96100003 121 0 0 0 0.026690001
3.8789999 0.42500001 0.949 122 0 0 0 0.026699999
3.8800001 0.419 0.93699998 132 0 0 0 0.02671
3.8710001 0.412 0.92400002 119 0 0 0 0.02672
3.8670001 0.405 0.912 134 0 0 0 0.026729999
3.862 0.398 0.89899999 126 0 0 0 0.02674
3.859 0.39199999 0.88700002 126 0 0 0 0.02675
3.8559999 0.38499999 0.875 141 0 0 0 0.026760001
3.852 0.37900001 0.86299998 130 0 0 0 0.026769999
3.845 0.37200001 0.85000002 135 0 0 0 0.02678
3.8399999 0.366 0.83700001 118 0 0 0 0.02679
3.839 0.36000001 0.82599998 131 0 0 0 0.026799999
3.835 0.35299999 0.81300002 130 0 0 0 0.02681
3.826 0.347 0.80000001 138 0 0 0 0.02682
3.829 0.34099999 0.79000002 135 0 0 0 0.026830001
3.819 0.33399999 0.77600002 137 0 0 0 0.026839999
3.816 0.32800001 0.764 142 0 0 0 0.02685
3.8150001 0.322 0.75300002 142 0 0 0 0.026860001
3.809 0.31600001 0.74000001 61 0 0 0 0.026869999
3.8099999 0.31099999 0.72899997 10 0 0 0 0.02688
3.826 0.30599999 0.72100002 7 0 0 0 0.02689
3.816 0.30000001 0.708 8 0 0 0 0.026900001
3.8310001 0.29499999 0.699 19 0 0 0 0.02691
3.882 0.294 0.69700003 30 0 0 0 0.02692
3.9419999 0.292 0.69599998 27 0 0 0 0.026930001
4.0029998 0.29100001 0.69499999 24 0 0 0 0.026939999
4.0700002 0.28999999 0.69499999 24 0 0 0 0.02695
4.125 0.28799999 0.69199997 27 0 0 0 0.02696
4.2020001 0.28799999 0.69199997 50 0 0 0 0.026969999
4.217 0.28299999 0.68199998 81 0 0 0 0.02698
4.217 0.27700001 0.66900003 79 0 0 0 0.02699
4.211 0.27000001 0.65600002 77 0 0 0 0.027000001
4.2090001 0.264 0.64300001 77 0 0 0 0.027009999
4.2090001 0.259 0.63099998 76 0 0 0 0.02702
4.2010002 0.252 0.61699998 78 0 0 0 0.02703
4.2010002 0.24600001 0.60399997 80 0 0 0 0.027039999
4.1919999 0.23999999 0.59100002 79 0 0 0 0.02705
4.1880002 0.234 0.57800001 81 0 0 0 0.02706
4.184 0.228 0.565 83 0 0 0 0.027070001
4.1789999 0.222 0.551 80 0 0 0 0.027079999
4.177 0.21699999 0.53899997 83 0 0 0 0.02709
4.1760001 0.211 0.52600002 82 0 0 0 0.027100001
4.165 0.205 0.51200002 79 0 0 0 0.027109999
4.165 0.199 0.5 82 0 0 0 0.02712
4.164 0.19400001 0.48699999 85 0 0 0 0.02713
4.1560001 0.18799999 0.47400001 86 0 0 0 0.027140001
4.152 0.182 0.461 86 0 0 0 0.02715
4.152 0.177 0.44800001 85 0 0 0 0.02716
4.1539998 0.17200001 0.43599999 76 0 0 0 0.027170001
4.1469998 0.16599999 0.42300001 63 0 0 0 0.027179999
2.0250001 0.078000002 0.2 1 0 0 0 0.02719
0 0 0 0 0 0 0 0.0272
2.0150001 0.072999999 0.18700001 12 0 0 0 0.027210001
2.0109999 0.07 0.18099999 123 0 0 0 0.02722
2.0020001 0.067000002 0.17399999 150 0 0 0 0.02723
2.0039999 0.064999998 0.168 150 0 0 0 0.027240001
2.0020001 0.061999999 0.162 150 0 0 0 0.027249999
2.0009999 0.059999999 0.156 150 0 0 0 0.02726
1.999 0.057 0.15000001 150 0 0 0 0.02727
2 0.055 0.14399999 150 0 0 0 0.027279999
2 0.052000001 0.138 150 0 0 0 0.02729
1.993 0.050000001 0.131 150 0 0 0 0.0273
1.9910001 0.046999998 0.125 150 0 0 0 0.027310001
1.993 0.045000002 0.119 150 0 0 0 0.027319999
1.982 0.041999999 0.113 150 0 0 0 0.02733
1.99 0.039999999 0.107 150 0 0 0 0.02734
1.984 0.037 0.101 150 0 0 0 0.027349999
1.9119999 0.034000002 0.090999998 150 0 0 0 0.02736
1.8329999 0.029999999 0.082000002 142 0 0 0 0.02737
1.737 0.027000001 0.071999997 31 0 0 0 0.027380001
1.715 0.024 0.066 34 0 0 0 0.027389999
1.711 0.022 0.061000001 39 0 0 0 0.0274
1.705 0.02 0.056000002 37 0 0 0 0.027410001
1.7029999 0.017999999 0.050000001 33 0 0 0 0.027419999
1.7029999 0.016000001 0.045000002 29 0 0 0 0.02743
1.699 0.014 0.039999999 18 0 0 0 0.02744
1.697 0.012 0.035 35 0 0 0 0.027450001
1.696 0.0099999998 0.029999999 13 0 0 0 0.02746
1.689 0.0080000004 0.024 39 0 0 0 0.02747
1.686 0.0060000001 0.018999999 50 0 0 0 0.027480001
1.682 0.0049999999 0.014 51 0 0 0 0.027489999
1.679 0.003 0.0089999996 51 0 0 0 0.0275
1.676 0.001 0.0040000002 54 0 0 0 0.02751
1.681 0 0 71 0 0 0 0.027519999
1.669 -0.0020000001 -0.0049999999 107 0 0 0 0.02753
1.6670001 -0.0040000002 -0.011 120 0 0 0 0.02754
1.67 -0.0060000001 -0.016000001 96 0 0 0 0.027550001
1.665 -0.0070000002 -0.021 109 0 0 0 0.027559999
1.659 -0.0089999996 -0.026000001 121 0 0 0 0.02757
1.666 -0.011 -0.030999999 143 0 0 0 0.02758
1.663 -0.013 -0.035999998 144 0 0 0 0.027589999
1.664 -0.014 -0.041000001 150 0 0 0 0.0276
1.658 -0.016000001 -0.046 150 0 0 0 0.02761
1.659 -0.017999999 -0.050999999 150 0 0 0 0.027620001
1.6569999 -0.02 -0.056000002 150 0 0 0 0.027629999
1.594 -0.02 -0.059 126 0 0 0 0.02764
1.4809999 -0.021 -0.059 64 0 0 0 0.027650001
1.327 -0.02 -0.057 15 0 0 0 0.027659999
1.317 -0.021 -0.061000001 13 0 0 0 0.02767
1.304 -0.022 -0.064000003 20 0 0 0 0.02768
1.291 -0.023 -0.068000004 1 0 0 0 0.027690001
1.077 -0.02 -0.059999999 0 0 0 0 0.0277
0.79699999 -0.016000001 -0.046 0 0 0 0 0.02771
0.736 -0.015 -0.045000002 0 0 0 0 0.027720001
0.72799999 -0.016000001 -0.046999998 0 0 0 0 0.027729999
0.68800002 -0.016000001 -0.046 0 0 0 0 0.02774
0.72600001 -0.017000001 -0.050999999 0 0 0 0 0.02775
0.71100003 -0.017000001 -0.052000001 0 0 0 0 0.027760001
0.66299999 -0.017000001 -0.050999999 0 0 0 0 0.02777
0.537 -0.014 -0.043000001 0 0 0 0 0.02778
0.55699998 -0.015 -0.046 0 0 0 0 0.027790001
0.56 -0.016000001 -0.048 0 0 0 0 0.027799999
0.551 -0.016000001 -0.048999999 0 0 0 0 0.02781
0.54400003 -0.016000001 -0.050000001 0 0 0 0 0.02782
0.542 -0.017000001 -0.052000001 0 0 0 0 0.027829999
0.53399998 -0.017000001 -0.052000001 0 0 0 0 0.02784
0.53799999 -0.017999999 -0.055 0 0 0 0 0.02785
0.54500002 -0.017999999 -0.057 0 0 0 0 0.027860001
0.54000002 -0.018999999 -0.057999998 0 0 0 0 0.027869999
0.53799999 -0.018999999 -0.059999999 0 0 0 0 0.02788
0.53399998 -0.02 -0.061000001 0 0 0 0 0.02789
0.54100001 -0.02 -0.063000001 0 0 0 0 0.027899999
0.53899997 -0.021 -0.064999998 0 0 0 0 0.02791
0.54299998 -0.021 -0.067000002 0 0 0 0 0.02792
0.542 -0.022 -0.068999998 0 0 0 0 0.027930001
0.54500002 -0.022 -0.071000002 0 0 0 0 0.027939999
0.54699999 -0.023 -0.072999999 0 0 0 0 0.02795
0.55500001 -0.024 -0.075999998 0 0 0 0 0.027960001
0.53799999 -0.023 -0.075000003 0 0 0 0 0.027969999
0.54000002 -0.024 -0.077 0 0 0 0 0.02798
0.551 -0.025 -0.079999998 0 0 0 0 0.02799
0.55400002 -0.026000001 -0.082000002 0 0 0 0 0.028000001
0.56800002 -0.027000001 -0.086000003 0 0 0 0 0.02801
0.74000001 -0.035999998 -0.115 0 0 0 0 0.02802
0 0 0 0 0 0 0 0.028030001
1.198 -0.059999999 -0.19400001 2 0 0 0 0.028039999
1.179 -0.059999999 -0.19499999 1 0 0 0 0.02805
1.175 -0.061000001 -0.198 0 0 0 0 0.02806
1.179 -0.061999999 -0.20200001 1 0 0 0 0.028069999
1.191 -0.063000001 -0.208 0 0 0 0 0.02808
1.191 -0.064000003 -0.212 1 0 0 0 0.02809
1.198 -0.066 -0.21699999 1 0 0 0 0.028100001
1.192 -0.066 -0.22 1 0 0 0 0.028109999
1.192 -0.067000002 -0.223 1 0 0 0 0.02812
1.193 -0.068000004 -0.228 1 0 0 0 0.02813
1.196 -0.068999998 -0.23199999 3 0 0 0 0.028139999
1.1900001 -0.07 -0.235 3 0 0 0 0.02815
1.193 -0.071000002 -0.23899999 3 0 0 0 0.02816
1.1950001 -0.071999997 -0.243 3 0 0 0 0.028170001
1.197 -0.072999999 -0.248 4 0 0 0 0.028179999
1.2 -0.074000001 -0.252 4 0 0 0 0.02819
1.194 -0.074000001 -0.255 4 0 0 0 0.028200001
1.189 -0.075000003 -0.25799999 5 0 0 0 0.028209999
1.1950001 -0.075999998 -0.26300001 5 0 0 0 0.02822
1.196 -0.077 -0.26699999 5 0 0 0 0.02823
1.196 -0.078000002 -0.271 5 0 0 0 0.028240001
1.193 -0.079000004 -0.27399999 5 0 0 0 0.02825
1.194 -0.079000004 -0.278 5 0 0 0 0.02826
1.1900001 -0.079999998 -0.28099999 5 0 0 0 0.028270001
1.196 -0.081 -0.28600001 5 0 0 0 0.028279999
1.192 -0.082000002 -0.289 5 0 0 0 0.02829
1.189 -0.082000002 -0.29300001 5 0 0 0 0.0283
1.188 -0.082999997 -0.296 5 0 0 0 0.028310001
1.187 -0.083999999 -0.30000001 5 0 0 0 0.02832
1.188 -0.083999999 -0.30399999 5 0 0 0 0.02833
1.191 -0.085000001 -0.30899999 5 0 0 0 0.028340001
1.186 -0.086000003 -0.31200001 5 0 0 0 0.028349999
1.188 -0.086999997 -0.31600001 5 0 0 0 0.02836
1.188 -0.086999997 -0.31999999 5 0 0 0 0.02837
1.186 -0.088 -0.32300001 5 0 0 0 0.028379999
1.184 -0.088 -0.32699999 5 0 0 0 0.02839
1.1849999 -0.089000002 -0.331 5 0 0 0 0.0284
1.184 -0.090000004 -0.33399999 5 0 0 0 0.028410001
1.186 -0.090999998 -0.33899999 5 0 0 0 0.028419999
1.183 -0.090999998 -0.34200001 6 0 0 0 0.02843
1.181 -0.092 -0.34599999 6 0 0 0 0.02844
1.187 -0.093000002 -0.35100001 6 0 0 0 0.028449999
1.187 -0.093000002 -0.35499999 6 0 0 0 0.02846
1.187 -0.093999997 -0.359 6 0 0 0 0.02847
1.186 -0.093999997 -0.36300001 6 0 0 0 0.028480001
1.186 -0.094999999 -0.36700001 6 0 0 0 0.028489999
1.1849999 -0.094999999 -0.37 6 0 0 0 0.0285
1.182 -0.096000001 -0.373 6 0 0 0 0.028510001
1.1849999 -0.097000003 -0.37799999 6 0 0 0 0.028519999
1.181 -0.097000003 -0.38100001 6 0 0 0 0.02853
1.182 -0.097000003 -0.38499999 7 0 0 0 0.02854
1.181 -0.097999997 -0.389 7 0 0 0 0.028550001
1.182 -0.097999997 -0.39300001 7 0 0 0 0.02856
1.183 -0.098999999 -0.398 7 0 0 0 0.02857
1.176 -0.098999999 -0.39899999 8 0 0 0 0.028580001
1.181 -0.1 -0.405 7 0 0 0 0.028589999
1.175 -0.1 -0.40700001 8 0 0 0 0.0286
1.171 -0.1 -0.40900001 5 0 0 0 0.02861
1.131 -0.097000003 -0.39899999 2 0 0 0 0.028620001
1.0420001 -0.090000004 -0.37200001 0 0 0 0 0.02863
1.016 -0.088 -0.366 0 0 0 0 0.02864
1.011 -0.088 -0.36700001 0 0 0 0 0.028650001
1.007 -0.088 -0.36899999 0 0 0 0 0.028659999
1.003 -0.088 -0.37099999 0 0 0 0 0.02867
0.991 -0.086999997 -0.37 0 0 0 0 0.02868
0.98799998 -0.086999997 -0.37200001 0 0 0 0 0.028689999
0.98400003 -0.086999997 -0.37400001 0 0 0 0 0.0287
0.97399998 -0.086000003 -0.37400001 0 0 0 0 0.02871
0.96499997 -0.086000003 -0.37400001 0 0 0 0 0.028720001
0.95200002 -0.085000001 -0.37200001 0 0 0 0 0.028729999
0.949 -0.085000001 -0.37400001 0 0 0 0 0.02874
0.93800002 -0.083999999 -0.373 0 0 0 0 0.028750001
0.92900002 -0.082999997 -0.37200001 0 0 0 0 0.028759999
0.94099998 -0.085000001 -0.38 0 0 0 0 0.02877
0.92400002 -0.082999997 -0.377 0 0 0 0 0.02878
0.91900003 -0.082999997 -0.37799999 0 0 0 0 0.028790001
0.921 -0.082999997 -0.382 0 0 0 0 0.0288
0.89300001 -0.081 -0.373 0 0 0 0 0.02881
0.88099998 -0.079999998 -0.37099999 0 0 0 0 0.028820001
0.88499999 -0.079999998 -0.37599999 0 0 0 0 0.028829999
0.86699998 -0.079000004 -0.37099999 0 0 0 0 0.02884
0.87099999 -0.079000004 -0.37599999 0 0 0 0 0.02885
0.866 -0.079000004 -0.37599999 0 0 0 0 0.028860001
0.84500003 -0.077 -0.37 0 0 0 0 0.02887
0.83999997 -0.077 -0.37099999 0 0 0 0 0.02888
0.85799998 -0.078000002 -0.382 0 0 0 0 0.028890001
0.85100001 -0.078000002 -0.38100001 0 0 0 0 0.028899999
0.838 -0.077 -0.37799999 0 0 0 0 0.02891
0.83700001 -0.075999998 -0.38100001 0 0 0 0 0.02892
0.82700002 -0.075999998 -0.37900001 0 0 0 0 0.028929999
0.81999999 -0.075000003 -0.37900001 0 0 0 0 0.02894
0.824 -0.075000003 -0.384 0 0 0 0 0.02895
0.81199998 -0.074000001 -0.38100001 0 0 0 0 0.028960001
0.80500001 -0.072999999 -0.38 0 0 0 0 0.028969999
0.81300002 -0.074000001 -0.38600001 0 0 0 0 0.02898
0.80400002 -0.072999999 -0.38499999 0 0 0 0 0.02899
0.80299997 -0.072999999 -0.38699999 0 0 0 0 0.028999999
0.78799999 -0.071999997 -0.382 0 0 0 0 0.02901
0.79000002 -0.071999997 -0.38600001 0 0 0 0 0.02902
0.78899997 -0.071000002 -0.38800001 0 0 0 0 0.029030001
0.78600001 -0.071000002 -0.38999999 0 0 0 0 0.029039999
0.77399999 -0.07 -0.38600001 0 0 0 0 0.02905
0.773 -0.07 -0.38800001 0 0 0 0 0.029060001
0.76800001 -0.068999998 -0.38800001 0 0 0 0 0.029069999
0.75800002 -0.068000004 -0.38600001 0 0 0 0 0.02908
0.76599997 -0.068000004 -0.39199999 0 0 0 0 0.02909
0.74800003 -0.067000002 -0.38600001 0 0 0 0 0.029100001
0.75 -0.067000002 -0.389 0 0 0 0 0.02911
0.73400003 -0.064999998 -0.38299999 0 0 0 0 0.02912
0.73299998 -0.064999998 -0.38499999 0 0 0 0 0.029130001
0.72000003 -0.063000001 -0.38100001 0 0 0 0 0.029139999
0.70899999 -0.061999999 -0.377 0 0 0 0 0.02915
0.71600002 -0.061999999 -0.38299999 0 0 0 0 0.02916
0.70700002 -0.061000001 -0.38 0 0 0 0 0.029170001
0.69700003 -0.059999999 -0.377 0 0 0 0 0.02918
0.69700003 -0.059999999 -0.37900001 0 0 0 0 0.02919
0.69999999 -0.059999999 -0.38299999 0 0 0 0 0.029200001
0.69599998 -0.059 -0.38299999 0 0 0 0 0.029209999
0.69099998 -0.059 -0.38299999 0 0 0 0 0.02922
0.69 -0.057999998 -0.384 0 0 0 0 0.02923
0.68699998 -0.057999998 -0.38499999 0 0 0 0 0.029239999
0.67900002 -0.057 -0.382 0 0 0 0 0.02925
0.67799997 -0.056000002 -0.384 0 0 0 0 0.02926
0.67699999 -0.056000002 -0.38499999 0 0 0 0 0.029270001
0.66399997 -0.054000001 -0.38 0 0 0 0 0.029279999
0.653 -0.052999999 -0.37599999 0 0 0 0 0.02929
0.65799999 -0.052999999 -0.38100001 0 0 0 0 0.029300001
0.65600002 -0.052000001 -0.38100001 0 0 0 0 0.029309999
0.65200001 -0.052000001 -0.38100001 0 0 0 0 0.02932
0.65200001 -0.050999999 -0.38299999 0 0 0 0 0.02933
0.64899999 -0.050999999 -0.38299999 0 0 0 0 0.029340001
0.65100002 -0.050000001 -0.38600001 0 0 0 0 0.02935
0.64700001 -0.050000001 -0.38600001 0 0 0 0 0.02936
0.648 -0.048999999 -0.38800001 0 0 0 0 0.029370001
0.65200001 -0.048999999 -0.39199999 0 0 0 0 0.029379999
0.648 -0.048 -0.391 0 0 0 0 0.02939
0.64999998 -0.048 -0.39500001 0 0 0 0 0.0294
0.64999998 -0.046999998 -0.396 0 0 0 0 0.029410001
0.65399998 -0.046999998 -0.40099999 0 0 0 0 0.02942
0.64999998 -0.046 -0.40000001 0 0 0 0 0.02943
0.65100002 -0.046 -0.40200001 0 0 0 0 0.029440001
0.65399998 -0.046 -0.40599999 0 0 0 0 0.029449999
0.65399998 -0.045000002 -0.40799999 0 0 0 0 0.02946
0.65499997 -0.045000002 -0.41 0 0 0 0 0.02947
0.65600002 -0.044 -0.412 0 0 0 0 0.029479999
0.65700001 -0.044 -0.41499999 0 0 0 0 0.02949
0.65499997 -0.043000001 -0.41499999 0 0 0 0 0.0295
0.65499997 -0.041999999 -0.41600001 0 0 0 0 0.029510001
0.65799999 -0.041999999 -0.41999999 1 0 0 0 0.029519999
0.685 -0.043000001 -0.43900001 3 0 0 0 0.02953
0.74299997 -0.046 -0.47799999 4 0 0 0 0.02954
0.87599999 -0.052999999 -0.56599998 5 0 0 0 0.029549999
1.02 -0.061000001 -0.66100001 6 0 0 0 0.02956
1.081 -0.064000003 -0.70300001 5 0 0 0 0.02957
1.091 -0.063000001 -0.71200001 2 0 0 0 0.029580001
1.0779999 -0.061000001 -0.70599997 2 0 0 0 0.029589999
1.077 -0.059999999 -0.70700002 3 0 0 0 0.0296
1.0700001 -0.057999998 -0.70499998 3 0 0 0 0.029610001
1.0700001 -0.057 -0.70700002 5 0 0 0 0.029619999
1.0700001 -0.056000002 -0.70899999 5 0 0 0 0.02963
1.067 -0.055 -0.70899999 5 0 0 0 0.02964
1.0700001 -0.054000001 -0.71399999 6 0 0 0 0.029650001
1.071 -0.052999999 -0.71600002 6 0 0 0 0.02966
1.0700001 -0.050999999 -0.71700001 6 0 0 0 0.02967
1.072 -0.050000001 -0.72100002 6 0 0 0 0.029680001
1.068 -0.048999999 -0.72000003 5 0 0 0 0.029689999
1.068 -0.046999998 -0.722 5 0 0 0 0.0297
1.072 -0.046 -0.727 4 0 0 0 0.02971
1.077 -0.045000002 -0.73100001 3 0 0 0 0.029720001
1.08 -0.044 -0.73500001 3 0 0 0 0.02973
1.0880001 -0.043000001 -0.74199998 5 0 0 0 0.02974
1.095 -0.041999999 -0.74900001 6 0 0 0 0.029750001
1.098 -0.041000001 -0.75199997 6 0 0 0 0.029759999
1.096 -0.039000001 -0.75300002 6 0 0 0 0.02977
1.1 -0.037999999 -0.75700003 7 0 0 0 0.02978
1.1 -0.035999998 -0.75800002 7 0 0 0 0.029789999
1.098 -0.035 -0.75800002 8 0 0 0 0.0298
1.099 -0.033 -0.76099998 8 0 0 0 0.02981
1.0930001 -0.032000002 -0.75700003 8 0 0 0 0.029820001
1.092 -0.029999999 -0.75800002 8 0 0 0 0.029829999
1.091 -0.028999999 -0.759 8 0 0 0 0.02984
1.087 -0.027000001 -0.75700003 8 0 0 0 0.029850001
1.0829999 -0.026000001 -0.755 7 0 0 0 0.029859999
1.0829999 -0.024 -0.755 7 0 0 0 0.02987
1.0779999 -0.022 -0.75300002 7 0 0 0 0.02988
1.074 -0.021 -0.75199997 7 0 0 0 0.029890001
1.072 -0.018999999 -0.75099999 7 0 0 0 0.029899999
1.072 -0.017999999 -0.75099999 7 0 0 0 0.02991
1.067 -0.016000001 -0.74800003 7 0 0 0 0.029920001
1.066 -0.015 -0.74800003 7 0 0 0 0.029929999
1.063 -0.013 -0.74699998 7 0 0 0 0.02994
1.063 -0.012 -0.74699998 7 0 0 0 0.02995
1.061 -0.0099999998 -0.74599999 7 0 0 0 0.029960001
1.058 -0.0089999996 -0.74400002 7 0 0 0 0.02997
1.054 -0.0070000002 -0.74199998 7 0 0 0 0.02998
1.053 -0.0060000001 -0.74199998 7 0 0 0 0.029990001
1.05 -0.0040000002 -0.74000001 7 0 0 0 0.029999999
1.048 -0.003 -0.73900002 7 0 0 0 0.03001
1.05 -0.001 -0.74000001 7 0 0 0 0.03002
1.044 0 -0.736 8 0 0 0 0.030029999
1.044 0.001 -0.736 8 0 0 0 0.03004
1.043 0.0020000001 -0.73500001 8 0 0 0 0.03005
1.039 0.0040000002 -0.73199999 8 0 0 0 0.030060001
1.04 0.0049999999 -0.73299998 8 0 0 0 0.030069999
1.04 0.0070000002 -0.73199999 8 0 0 0 0.03008
1.036 0.0080000004 -0.72899997 8 0 0 0 0.03009
1.031 0.0099999998 -0.72500002 8 0 0 0 0.030099999
1.03 0.011 -0.72399998 8 0 0 0 0.03011
1.026 0.012 -0.72000003 8 0 0 0 0.03012
1.023 0.014 -0.71799999 8 0 0 0 0.030130001
1.022 0.015 -0.71700001 8 0 0 0 0.030139999
1.021 0.017000001 -0.71499997 8 0 0 0 0.03015
1.021 0.017999999 -0.71499997 8 0 0 0 0.030160001
1.021 0.018999999 -0.713 8 0 0 0 0.030169999
1.018 0.021 -0.71100003 8 0 0 0 0.03018
1.011 0.022 -0.70499998 8 0 0 0 0.03019
1.012 0.024 -0.70499998 8 0 0 0 0.030200001
1.011 0.025 -0.70300001 8 0 0 0 0.03021
1.0089999 0.026000001 -0.70099998 8 0 0 0 0.03022
1.0039999 0.027000001 -0.69599998 8 0 0 0 0.030230001
1.002 0.028999999 -0.69400001 8 0 0 0 0.030239999
1.002 0.029999999 -0.69199997 8 0 0 0 0.03025
1.001 0.030999999 -0.69 8 0 0 0 0.03026
1 0.033 -0.68800002 8 0 0 0 0.030270001
0.99900001 0.034000002 -0.68599999 8 0 0 0 0.03028
0.995 0.035 -0.68300003 8 0 0 0 0.03029
0.99400002 0.035999998 -0.68000001 8 0 0 0 0.030300001
0.99599999 0.037999999 -0.68099999 8 0 0 0 0.030309999
0.995 0.039000001 -0.67799997 9 0 0 0 0.03032
0.99000001 0.039999999 -0.67299998 9 0 0 0 0.03033
0.991 0.041000001 -0.67199999 8 0 0 0 0.030339999
0.98699999 0.041999999 -0.66799998 8 0 0 0 0.03035
0.99199998 0.044 -0.66900003 9 0 0 0 0.03036
0.98500001 0.044 -0.66299999 8 0 0 0 0.030370001
0.98900002 0.046 -0.66399997 8 0 0 0 0.030379999
0.98299998 0.046999998 -0.65799999 8 0 0 0 0.03039
0.97899997 0.048 -0.65399998 8 0 0 0 0.030400001
0.98000002 0.048999999 -0.65200001 9 0 0 0 0.030409999
0.97799999 0.050000001 -0.64899999 9 0 0 0 0.03042
0.98100001 0.050999999 -0.64899999 9 0 0 0 0.03043
0.97899997 0.052000001 -0.64600003 9 0 0 0 0.030440001
0.97600001 0.052999999 -0.64200002 8 0 0 0 0.030449999
0.972 0.054000001 -0.63700002 8 0 0 0 0.03046
0.97399998 0.055 -0.63599998 8 0 0 0 0.030470001
0.97500002 0.056000002 -0.634 9 0 0 0 0.030479999
0.97000003 0.057 -0.62900001 9 0 0 0 0.03049
0.96899998 0.057999998 -0.62599999 9 0 0 0 0.0305
0.97000003 0.059 -0.625 9 0 0 0 0.030510001
0.96799999 0.059 -0.62199998 8 0 0 0 0.03052
0.96600002 0.059999999 -0.61799997 9 0 0 0 0.03053
0.96200001 0.061000001 -0.61299998 10 0 0 0 0.030540001
0.95700002 0.061000001 -0.60699999 10 0 0 0 0.030549999
0.95700002 0.061999999 -0.60500002 15 0 0 0 0.03056
0.95200002 0.063000001 -0.60000002 22 0 0 0 0.03057
0.94999999 0.064000003 -0.59600002 27 0 0 0 0.030579999
0.954 0.064999998 -0.59600002 30 0 0 0 0.03059
0.94499999 0.064999998 -0.588 20 0 0 0 0.0306
0.90799999 0.063000001 -0.56199998 21 0 0 0 0.030610001
0.87900001 0.061999999 -0.542 17 0 0 0 0.030619999
0.83099997 0.059 -0.50999999 6 0 0 0 0.03063
0.708 0.050999999 -0.433 2 0 0 0 0.03064
0.67900002 0.048999999 -0.41299999 0 0 0 0 0.030649999
0.68000001 0.050000001 -0.412 0 0 0 0 0.03066
0.68099999 0.050000001 -0.41 0 0 0 0 0.03067
0.68599999 0.050999999 -0.41100001 0 0 0 0 0.030680001
0.676 0.050999999 -0.40400001 0 0 0 0 0.030689999
0.68199998 0.052000001 -0.405 0 0 0 0 0.0307
0.68199998 0.052000001 -0.403 0 0 0 0 0.030710001
0.68000001 0.052999999 -0.40000001 0 0 0 0 0.030719999
0.685 0.054000001 -0.40099999 0 0 0 0 0.03073
0.68599999 0.054000001 -0.39899999 0 0 0 0 0.03074
0.68199998 0.054000001 -0.39500001 0 0 0 0 0.030750001
0.68000001 0.054000001 -0.39199999 0 0 0 0 0.03076
0.68300003 0.055 -0.39199999 0 0 0 0 0.03077
0.68199998 0.055 -0.389 0 0 0 0 0.030780001
0.68599999 0.056000002 -0.389 0 0 0 0 0.030789999
0.68699998 0.056000002 -0.38800001 0 0 0 0 0.0308
0.68599999 0.057 -0.38499999 0 0 0 0 0.03081
0.685 0.057 -0.382 0 0 0 0 0.030820001
0.68699998 0.057 -0.382 0 0 0 0 0.03083
0.68900001 0.057999998 -0.38 0 0 0 0 0.03084
0.68800002 0.057999998 -0.37799999 0 0 0 0 0.030850001
0.68800002 0.059 -0.37599999 0 0 0 0 0.030859999
0.70999998 0.061000001 -0.38499999 0 0 0 0 0.03087
0.69300002 0.059 -0.37400001 0 0 0 0 0.03088
0.699 0.059999999 -0.375 0 0 0 0 0.030889999
0.704 0.061000001 -0.375 0 0 0 0 0.0309
0.72799999 0.063000001 -0.38600001 0 0 0 0 0.03091
0.71499997 0.061999999 -0.37599999 0 0 0 0 0.030920001
0.72399998 0.063000001 -0.37900001 0 0 0 0 0.030929999
0.71700001 0.063000001 -0.373 0 0 0 0 0.03094
0.736 0.064999998 -0.38 0 0 0 0 0.030950001
0.74299997 0.066 -0.382 0 0 0 0 0.030959999
0.75199997 0.067000002 -0.38299999 0 0 0 0 0.03097
0.75400001 0.067000002 -0.382 0 0 0 0 0.03098
0.77200001 0.068999998 -0.389 0 0 0 0 0.030990001
0.77700001 0.068999998 -0.389 0 0 0 0 0.030999999
0.78600001 0.07 -0.38999999 0 0 0 0 0.03101
0.78600001 0.07 -0.38800001 0 0 0 0 0.031020001
0.79799998 0.071999997 -0.391 0 0 0 0 0.031029999
0.801 0.071999997 -0.38999999 0 0 0 0 0.03104
0.80199999 0.071999997 -0.38800001 0 0 0 0 0.03105
0.79500002 0.071999997 -0.382 0 0 0 0 0.031060001
0.81800002 0.074000001 -0.38999999 0 0 0 0 0.03107
0.81999999 0.074000001 -0.38800001 0 0 0 0 0.03108
0.82700002 0.075000003 -0.389 0 0 0 0 0.031090001
0.83899999 0.075999998 -0.39199999 0 0 0 0 0.031099999
0.83700001 0.075999998 -0.38800001 0 0 0 0 0.03111
0.83600003 0.075999998 -0.38499999 0 0 0 0 0.03112
0.84799999 0.077 -0.38699999 0 0 0 0 0.031129999
0.85500002 0.077 -0.38800001 0 0 0 0 0.03114
0.87599999 0.079000004 -0.39399999 0 0 0 0 0.03115
0.86199999 0.078000002 -0.38499999 0 0 0 0 0.031160001
0.87900001 0.079999998 -0.389 0 0 0 0 0.031169999
0.87900001 0.079999998 -0.38600001 0 0 0 0 0.03118
0.903 0.082000002 -0.39399999 0 0 0 0 0.03119
0.89600003 0.081 -0.38800001 0 0 0 0 0.031199999
0.921 0.082999997 -0.396 0 0 0 0 0.03121
0.91399997 0.082000002 -0.38999999 0 0 0 0 0.03122
1.594 0.14399999 -0.67400002 7 0 0 0 0.031230001
2.0639999 0.186 -0.866 150 0 0 0 0.031239999
2.0610001 0.186 -0.85799998 127 0 0 0 0.03125
2.039 0.183 -0.84100002 41 0 0 0 0.031259999
2.086 0.18700001 -0.85299999 141 0 0 0 0.031270001
2.1329999 0.191 -0.866 150 0 0 0 0.03128
0 0 0 0 0 0 0 0.031289998
1.084 0.096000001 -0.43200001 0 0 0 0 0.031300001
1.08 0.096000001 -0.42699999 0 0 0 0 0.03131
1.0599999 0.093999997 -0.41499999 0 0 0 0 0.031319998
1.066 0.093999997 -0.414 0 0 0 0 0.031330001
1.067 0.093999997 -0.41100001 0 0 0 0 0.031339999
1.066 0.093999997 -0.40700001 0 0 0 0 0.031350002
1.063 0.093000002 -0.40200001 0 0 0 0 0.03136
1.075 0.093999997 -0.403 0 0 0 0 0.031369999
1.074 0.093000002 -0.39899999 0 0 0 0 0.031380001
1.075 0.093000002 -0.396 0 0 0 0 0.03139
1.085 0.093999997 -0.396 0 0 0 0 0.031399999
1.08 0.093000002 -0.38999999 0 0 0 0 0.031410001
1.091 0.093000002 -0.38999999 0 0 0 0 0.03142
1.113 0.094999999 -0.39500001 0 0 0 0 0.031429999
1.114 0.093999997 -0.391 0 0 0 0 0.031440001
1.122 0.094999999 -0.38999999 0 0 0 0 0.03145
1.133 0.094999999 -0.38999999 0 0 0 0 0.031459998
1.152 0.096000001 -0.39300001 0 0 0 0 0.031470001
1.142 0.094999999 -0.38600001 0 0 0 0 0.031479999
1.145 0.094999999 -0.38299999 0 0 0 0 0.031490002
1.174 0.097000003 -0.38800001 0 0 0 0 0.031500001
1.1670001 0.096000001 -0.382 0 0 0 0 0.031509999
1.1849999 0.097000003 -0.384 0 0 0 0 0.031520002
1.191 0.097000003 -0.382 0 0 0 0 0.03153
1.194 0.096000001 -0.37900001 0 0 0 0 0.031539999
2.8280001 0.227 -0.889 150 0 0 0 0.031550001
2.8729999 0.23 -0.89300001 150 0 0 0 0.03156
2.9289999 0.233 -0.90100002 25 0 0 0 0.031569999
2.9630001 0.234 -0.90100002 25 0 0 0 0.031580001
2.961 0.23199999 -0.89099997 49 0 0 0 0.03159
2.9579999 0.23100001 -0.88 150 0 0 0 0.031599998
1.497 0.116 -0.44 1 0 0 0 0.031610001
1.494 0.115 -0.43399999 2 0 0 0 0.03162
1.449 0.11 -0.41600001 7 0 0 0 0.031629998
1.374 0.104 -0.38999999 8 0 0 0 0.031640001
1.2869999 0.097000003 -0.361 9 0 0 0 0.031649999
1.159 0.086000003 -0.32100001 6 0 0 0 0.031660002
1.0650001 0.079000004 -0.292 4 0 0 0 0.03167
1.008 0.074000001 -0.273 3 0 0 0 0.031679999
1.001 0.072999999 -0.26699999 2 0 0 0 0.031690001
0.995 0.071999997 -0.26300001 2 0 0 0 0.0317
0.99400002 0.071000002 -0.259 2 0 0 0 0.031709999
0.991 0.07 -0.255 1 0 0 0 0.031720001
0.98500001 0.068999998 -0.25 1 0 0 0 0.03173
0.98400003 0.068000004 -0.24699999 1 0 0 0 0.031739999
0.98699999 0.068000004 -0.244 1 0 0 0 0.031750001
0.97899997 0.067000002 -0.23899999 0 0 0 0 0.03176
0.98299998 0.066 -0.237 0 0 0 0 0.031769998
0.98100001 0.066 -0.233 0 0 0 0 0.031780001
0.98799998 0.066 -0.23199999 0 0 0 0 0.031789999
0.99000001 0.064999998 -0.229 0 0 0 0 0.031800002
0.99000001 0.064000003 -0.22499999 0 0 0 0 0.031810001
0.99599999 0.064000003 -0.223 0 0 0 0 0.031819999
0.98799998 0.063000001 -0.21799999 0 0 0 0 0.031830002
0.995 0.063000001 -0.21699999 0 0 0 0 0.03184
0.99599999 0.061999999 -0.214 0 0 0 0 0.031849999
0.99900001 0.061000001 -0.211 0 0 0 0 0.031860001
0.99900001 0.061000001 -0.208 0 0 0 0 0.03187
0.99599999 0.059999999 -0.204 0 0 0 0 0.031879999
1.003 0.059 -0.20200001 0 0 0 0 0.031890001
1.006 0.059 -0.2 0 0 0 0 0.0319
0.99900001 0.057999998 -0.19499999 0 0 0 0 0.031909999
1.005 0.057 -0.193 0 0 0 0 0.031920001
1.001 0.056000002 -0.189 0 0 0 0 0.03193
1.013 0.056000002 -0.18799999 0 0 0 0 0.031939998
1.002 0.055 -0.183 0 0 0 0 0.031950001
1.003 0.054000001 -0.18000001 0 0 0 0 0.031959999
1.007 0.054000001 -0.177 0 0 0 0 0.031970002
1.01 0.052999999 -0.175 0 0 0 0 0.03198
1.008 0.052000001 -0.171 0 0 0 0 0.031989999
1.0650001 0.054000001 -0.177 0 0 0 0 0.032000002
1.039 0.052000001 -0.17 0 0 0 0 0.03201
1.053 0.052000001 -0.168 0 0 0 0 0.032019999
1.024 0.048999999 -0.161 0 0 0 0 0.032030001
0.79699999 0.037999999 -0.122 0 0 0 0 0.03204
0.62599999 0.028999999 -0.093999997 0 0 0 0 0.032049999
0.58099997 0.026000001 -0.085000001 0 0 0 0 0.032060001
0.57300001 0.026000001 -0.082000002 0 0 0 0 0.03207
0.583 0.026000001 -0.082000002 0 0 0 0 0.032079998
0.583 0.025 -0.079999998 0 0 0 0 0.032090001
0.58099997 0.024 -0.078000002 0 0 0 0 0.032099999
0.58099997 0.024 -0.075999998 0 0 0 0 0.032109998
0.57599998 0.023 -0.074000001 0 0 0 0 0.032120001
0.574 0.023 -0.071999997 0 0 0 0 0.032129999
0.56199998 0.022 -0.068000004 0 0 0 0 0.032140002
0.55699998 0.021 -0.066 0 0 0 0 0.03215
0.54900002 0.02 -0.063000001 0 0 0 0 0.032159999
0.55199999 0.02 -0.061999999 0 0 0 0 0.032170001
0.55199999 0.018999999 -0.059999999 0 0 0 0 0.03218
0.55500001 0.018999999 -0.059 0 0 0 0 0.032189999
0.55800003 0.017999999 -0.057 0 0 0 0 0.032200001
0.55800003 0.017999999 -0.056000002 0 0 0 0 0.03221
0.56300002 0.017999999 -0.054000001 0 0 0 0 0.032219999
0.56300002 0.017000001 -0.052999999 0 0 0 0 0.032230001
0.56999999 0.017000001 -0.050999999 0 0 0 0 0.03224
0.579 0.016000001 -0.050000001 0 0 0 0 0.032249998
0.611 0.017000001 -0.050999999 0 0 0 0 0.032260001
1.895 0.050999999 -0.155 1 0 0 0 0.032269999
1.974 0.052000001 -0.155 8 0 0 0 0.032280002
1.998 0.050000001 -0.15000001 8 0 0 0 0.03229
1.9859999 0.048 -0.14300001 4 0 0 0 0.032299999
2.036 0.046999998 -0.141 0 0 0 0 0.032310002
0.69999999 0.015 -0.046 0 0 0 0 0.03232
0.81599998 0.017000001 -0.050999999 0 0 0 0 0.032329999
1.0369999 0.021 -0.061999999 0 0 0 0 0.032340001
1.441 0.028000001 -0.082000002 0 0 0 0 0.03235
1.351 0.025 -0.071999997 5 0 0 0 0.032359999
1.355 0.023 -0.068000004 43 0 0 0 0.032370001
1.3559999 0.022 -0.064000003 35 0 0 0 0.03238
1.375 0.021 -0.061000001 35 0 0 0 0.032389998
1.5880001 0.023 -0.064999998 13 0 0 0 0.032400001
1.6950001 0.022 -0.064999998 9 0 0 0 0.03241
1.705 0.021 -0.059999999 10 0 0 0 0.032419998
1.701 0.018999999 -0.054000001 11 0 0 0 0.032430001
1.693 0.017000001 -0.048999999 12 0 0 0 0.032439999
1.7 0.015 -0.044 16 0 0 0 0.032450002
1.697 0.014 -0.039000001 18 0 0 0 0.03246
1.693 0.012 -0.033 22 0 0 0 0.032469999
1.702 0.0099999998 -0.028000001 20 0 0 0 0.032480001
1.697 0.0080000004 -0.023 18 0 0 0 0.03249
1.6950001 0.0060000001 -0.017999999 17 0 0 0 0.032499999
1.687 0.0040000002 -0.013 14 0 0 0 0.032510001
1.697 0.003 -0.0080000004 11 0 0 0 0.03252
1.699 0.001 -0.0020000001 9 0 0 0 0.032529999
1.702 0 0.0020000001 7 0 0 0 0.032540001
1.7 -0.0020000001 0.0070000002 6 0 0 0 0.03255
1.7 -0.0040000002 0.012 6 0 0 0 0.032559998
1.7029999 -0.0060000001 0.017000001 6 0 0 0 0.032570001
1.71 -0.0080000004 0.023 6 0 0 0 0.032579999
1.7029999 -0.0099999998 0.028000001 4 0 0 0 0.032590002
1.7079999 -0.011 0.033 4 0 0 0 0.032600001
1.7079999 -0.013 0.037999999 4 0 0 0 0.032609999
1.705 -0.015 0.043000001 6 0 0 0 0.032620002
1.705 -0.017000001 0.048 7 0 0 0 0.03263
1.707 -0.018999999 0.054000001 8 0 0 0 0.032639999
1.704 -0.021 0.059 8 0 0 0 0.032650001
1.707 -0.023 0.064000003 9 0 0 0 0.03266
1.701 -0.025 0.068999998 10 0 0 0 0.032669999
1.762 -0.028000001 0.077 19 0 0 0 0.032680001
1.868 -0.032000002 0.086999997 127 0 0 0 0.03269
1.938 -0.035 0.096000001 150 0 0 0 0.032699998
1.929 -0.037999999 0.102 150 0 0 0 0.032710001
1.937 -0.039999999 0.108 150 0 0 0 0.03272
1.926 -0.041999999 0.113 150 0 0 0 0.032729998
1.936 -0.045000002 0.119 150 0 0 0 0.032740001
1.9349999 -0.046999998 0.125 150 0 0 0 0.032749999
1.92 -0.048999999 0.13 150 0 0 0 0.032760002
1.92 -0.050999999 0.13600001 150 0 0 0 0.03277
1.919 -0.054000001 0.142 150 0 0 0 0.032779999
1.918 -0.056000002 0.147 150 0 0 0 0.032790001
1.915 -0.057999998 0.153 150 0 0 0 0.0328
1.916 -0.061000001 0.15899999 150 0 0 0 0.032809999
1.915 -0.063000001 0.164 150 0 0 0 0.032820001
1.909 -0.064999998 0.17 150 0 0 0 0.03283
1.908 -0.068000004 0.175 150 0 0 0 0.032839999
1.916 -0.07 0.182 150 0 0 0 0.032850001
1.918 -0.072999999 0.18799999 150 0 0 0 0.03286
1.898 -0.074000001 0.191 36 0 0 0 0.032869998
1.8789999 -0.075999998 0.19499999 14 0 0 0 0.032880001
1.877 -0.078000002 0.2 11 0 0 0 0.032889999
1.91 -0.082000002 0.20999999 10 0 0 0 0.032900002
1.988 -0.088 0.22400001 11 0 0 0 0.032910001
2.0150001 -0.092 0.233 9 0 0 0 0.032919999
1.952 -0.092 0.23199999 14 0 0 0 0.032930002
1.9529999 -0.093999997 0.23800001 34 0 0 0 0.03294
1.9579999 -0.097000003 0.244 36 0 0 0 0.032949999
1.962 -0.1 0.25099999 30 0 0 0 0.032960001
1.967 -0.103 0.257 23 0 0 0 0.03297
1.973 -0.106 0.264 19 0 0 0 0.032979999
0 0 0 0 0 0 0 0.032990001
2.0239999 -0.114 0.28299999 0 0 0 0 0.033
2.0250001 -0.117 0.289 2 0 0 0 0.033009999
2.0009999 -0.118 0.29100001 6 0 0 0 0.033020001
1.982 -0.12 0.29499999 7 0 0 0 0.03303
1.977 -0.122 0.30000001 4 0 0 0 0.033039998
1.925 -0.122 0.29800001 8 0 0 0 0.033050001
1.916 -0.124 0.30199999 39 0 0 0 0.033059999
1.924 -0.127 0.30899999 60 0 0 0 0.033070002
1.924 -0.13 0.315 48 0 0 0 0.03308
1.932 -0.133 0.322 42 0 0 0 0.033089999
0.079000004 -0.0049999999 0.013 0 0 0 0 0.033100002
0.086000003 -0.0060000001 0.014 0 0 0 0 0.03311
0.077 -0.0049999999 0.013 0 0 0 0 0.033119999
2.007 -0.15000001 0.35800001 3 0 0 0 0.033130001
0.064999998 -0.0049999999 0.011 0 0 0 0 0.03314
0 0 0 0 0 0 0 0.033149999
1.932 -0.153 0.36199999 7 0 0 0 0.033160001
1.926 -0.155 0.36700001 3 0 0 0 0.03317
1.916 -0.15700001 0.37 8 0 0 0 0.033179998
1.906 -0.15899999 0.37400001 21 0 0 0 0.033190001
1.91 -0.162 0.38100001 30 0 0 0 0.033199999
1.925 -0.167 0.389 150 0 0 0 0.033209998
1.933 -0.17 0.39700001 150 0 0 0 0.033220001
0 0 0 0 0 0 0 0.033229999
0 0 0 0 0 0 0 0.033240002
0 0 0 0 0 0 0 0.03325
1.9680001 -0.185 0.42699999 9 0 0 0 0.033259999
1.933 -0.185 0.42500001 9 0 0 0 0.033270001
1.9119999 -0.186 0.426 9 0 0 0 0.03328
1.906 -0.18799999 0.43099999 9 0 0 0 0.033289999
1.892 -0.19 0.433 11 0 0 0 0.033300001
1.892 -0.193 0.43799999 14 0 0 0 0.03331
1.904 -0.197 0.447 13 0 0 0 0.033319999
1.908 -0.20100001 0.45300001 9 0 0 0 0.033330001
1.918 -0.205 0.461 3 0 0 0 0.03334
0 0 0 0 0 0 0 0.033349998
0 0 0 0 0 0 0 0.033360001
3.358 -0.375 0.838 150 0 0 0 0.033369999
3.3770001 -0.38299999 0.85299999 150 0 0 0 0.033380002
3.3770001 -0.389 0.86299998 150 0 0 0 0.03339
3.3710001 -0.39399999 0.87099999 150 0 0 0 0.033399999
3.368 -0.39899999 0.88 150 0 0 0 0.033410002
3.3629999 -0.40400001 0.88800001 150 0 0 0 0.03342
3.362 -0.40900001 0.898 150 0 0 0 0.033429999
3.358 -0.41499999 0.90700001 150 0 0 0 0.033440001
3.355 -0.41999999 0.91600001 150 0 0 0 0.03345
3.352 -0.42500001 0.92500001 150 0 0 0 0.033459999
3.355 -0.43099999 0.935 150 0 0 0 0.033470001
3.349 -0.43599999 0.94300002 150 0 0 0 0.03348
3.3410001 -0.44100001 0.95099998 150 0 0 0 0.033489998
3.3399999 -0.447 0.95999998 150 0 0 0 0.033500001
3.332 -0.45199999 0.96799999 150 0 0 0 0.03351
3.3329999 -0.458 0.977 150 0 0 0 0.033519998
3.3299999 -0.463 0.986 150 0 0 0 0.033530001
3.326 -0.46900001 0.995 150 0 0 0 0.033539999
3.3169999 -0.47299999 1.002 150 0 0 0 0.033550002
3.3210001 -0.47999999 1.012 150 0 0 0 0.03356
3.3139999 -0.48500001 1.02 150 0 0 0 0.033569999
3.3139999 -0.491 1.029 150 0 0 0 0.033580001
3.3099999 -0.49599999 1.0369999 150 0 0 0 0.03359
3.3 -0.50099999 1.044 150 0 0 0 0.033599999
3.2980001 -0.50700003 1.053 150 0 0 0 0.033610001
3.299 -0.51300001 1.062 150 0 0 0 0.03362
3.223 -0.50700003 1.0470001 151 0 0 0 0.033629999
2.4419999 -0.389 0.80000001 151 0 0 0 0.033640001
2.323 -0.37400001 0.76800001 152 0 0 0 0.03365
2.2579999 -0.368 0.75300002 150 0 0 0 0.033659998
2.142 -0.35299999 0.72000003 55 0 0 0 0.033670001
2.1270001 -0.35499999 0.72100002 58 0 0 0 0.033679999
2.1059999 -0.35499999 0.72000003 65 0 0 0 0.033690002
2.0940001 -0.35699999 0.722 72 0 0 0 0.0337
2.0769999 -0.35800001 0.722 80 0 0 0 0.033709999
2.0599999 -0.36000001 0.722 80 0 0 0 0.033720002
2.046 -0.361 0.722 77 0 0 0 0.03373
2.0309999 -0.36199999 0.72299999 81 0 0 0 0.033739999
2.0209999 -0.36500001 0.72500002 87 0 0 0 0.033750001
2.003 -0.36500001 0.72399998 90 0 0 0 0.03376
1.99 -0.36700001 0.72500002 92 0 0 0 0.033769999
1.972 -0.36700001 0.72399998 89 0 0 0 0.033780001
1.957 -0.36899999 0.72399998 92 0 0 0 0.03379
1.944 -0.37 0.72399998 95 0 0 0 0.033799998
1.931 -0.37200001 0.72399998 99 0 0 0 0.033810001
1.915 -0.373 0.72399998 98 0 0 0 0.03382
1.905 -0.37400001 0.72500002 97 0 0 0 0.033829998
1.893 -0.37599999 0.72600001 101 0 0 0 0.033840001
1.88 -0.377 0.72600001 105 0 0 0 0.033849999
1.8710001 -0.37900001 0.72799999 104 0 0 0 0.033860002
1.859 -0.38100001 0.72799999 104 0 0 0 0.03387
1.844 -0.382 0.727 104 0 0 0 0.033879999
1.831 -0.38299999 0.727 108 0 0 0 0.033890001
1.823 -0.38499999 0.72799999 111 0 0 0 0.0339
1.811 -0.38600001 0.72799999 111 0 0 0 0.033909999
1.801 -0.38800001 0.72899997 106 0 0 0 0.033920001
1.7869999 -0.389 0.72799999 106 0 0 0 0.03393
1.779 -0.391 0.73000002 111 0 0 0 0.033939999
1.768 -0.39199999 0.72899997 116 0 0 0 0.033950001
1.756 -0.39300001 0.72899997 115 0 0 0 0.03396
1.745 -0.39500001 0.72899997 121 0 0 0 0.033969998
1.734 -0.396 0.72899997 150 0 0 0 0.033980001
1.726 -0.398 0.73000002 150 0 0 0 0.033989999
1.722 -0.40099999 0.73299998 150 0 0 0 0.034000002
1.719 -0.40400001 0.736 150 0 0 0 0.034010001
1.7180001 -0.40799999 0.74000001 150 0 0 0 0.034019999
1.717 -0.41100001 0.74400002 150 0 0 0 0.034030002
1.719 -0.41499999 0.74900001 150 0 0 0 0.03404
1.7180001 -0.419 0.75300002 150 0 0 0 0.034049999
1.719 -0.42300001 0.75700003 150 0 0 0 0.034060001
1.724 -0.428 0.76300001 150 0 0 0 0.03407
1.729 -0.43399999 0.76999998 150 0 0 0 0.034079999
1.748 -0.442 0.78299999 150 0 0 0 0.034090001
1.762 -0.44999999 0.79299998 150 0 0 0 0.0341
1.762 -0.454 0.79699999 150 0 0 0 0.034109998
1.7589999 -0.45699999 0.80000001 150 0 0 0 0.034120001
1.757 -0.461 0.80299997 150 0 0 0 0.03413
1.752 -0.463 0.80500001 150 0 0 0 0.034139998
1.75 -0.46700001 0.80800003 150 0 0 0 0.034150001
1.7460001 -0.47 0.81 150 0 0 0 0.034159999
1.745 -0.47400001 0.81400001 150 0 0 0 0.034170002
1.743 -0.477 0.81699997 150 0 0 0 0.03418
1.7410001 -0.47999999 0.81999999 150 0 0 0 0.034189999
1.739 -0.484 0.82300001 150 0 0 0 0.034200002
1.7359999 -0.48699999 0.82499999 150 0 0 0 0.03421
1.732 -0.49000001 0.82700002 150 0 0 0 0.034219999
1.729 -0.493 0.829 150 0 0 0 0.034230001
1.724 -0.49599999 0.83099997 150 0 0 0 0.03424
1.714 -0.49700001 0.829 124 0 0 0 0.034249999
1.709 -0.5 0.83099997 68 0 0 0 0.034260001
1.694 -0.49900001 0.82700002 41 0 0 0 0.03427
1.674 -0.49700001 0.81999999 42 0 0 0 0.034279998
1.656 -0.49599999 0.815 31 0 0 0 0.034290001
1.666 -0.50300002 0.82300001 34 0 0 0 0.034299999
1.67 -0.50800002 0.82800001 38 0 0 0 0.034309998
1.664 -0.50999999 0.82800001 50 0 0 0 0.034320001
1.65 -0.50999999 0.82499999 67 0 0 0 0.034329999
1.648 -0.51300001 0.82700002 88 0 0 0 0.034340002
1.665 -0.52200001 0.83899999 109 0 0 0 0.03435
1.692 -0.53500003 0.85500002 150 0 0 0 0.034359999
1.697 -0.54000002 0.861 150 0 0 0 0.034370001
1.7 -0.54500002 0.866 150 0 0 0 0.03438
1.6950001 -0.54699999 0.866 150 0 0 0 0.034389999
1.693 -0.551 0.86799997 150 0 0 0 0.034400001
1.691 -0.55400002 0.86900002 150 0 0 0 0.03441
1.689 -0.55699998 0.87099999 150 0 0 0 0.034419999
1.687 -0.56099999 0.87300003 150 0 0 0 0.034430001
1.6849999 -0.56400001 0.875 150 0 0 0 0.03444
1.683 -0.56699997 0.87599999 150 0 0 0 0.034449998
1.681 -0.57099998 0.87800002 150 0 0 0 0.034460001
1.679 -0.574 0.87900001 150 0 0 0 0.034469999
1.677 -0.57700002 0.88099998 150 0 0 0 0.034480002
1.675 -0.57999998 0.88200003 150 0 0 0 0.03449
1.673 -0.583 0.884 150 0 0 0 0.034499999
1.6720001 -0.58700001 0.88499999 150 0 0 0 0.034510002
1.67 -0.58999997 0.88599998 150 0 0 0 0.03452
1.668 -0.59299999 0.88700002 150 0 0 0 0.034529999
1.666 -0.59600002 0.889 150 0 0 0 0.034540001
1.664 -0.59899998 0.88999999 150 0 0 0 0.03455
1.663 -0.602 0.89099997 150 0 0 0 0.034559999
1.659 -0.60500002 0.88999999 150 0 0 0 0.034570001
1.659 -0.60900003 0.89300001 150 0 0 0 0.03458
1.6569999 -0.611 0.89300001 150 0 0 0 0.034589998
1.655 -0.61500001 0.89399999 150 0 0 0 0.034600001
1.654 -0.61799997 0.89499998 150 0 0 0 0.03461
1.651 -0.62 0.89499998 150 0 0 0 0.034619998
1.645 -0.62099999 0.89300001 150 0 0 0 0.034630001
1.649 -0.62699997 0.89700001 150 0 0 0 0.034639999
1.646 -0.62900001 0.89700001 150 0 0 0 0.034650002
1.645 -0.63200003 0.89700001 150 0 0 0 0.03466
1.637 -0.63200003 0.89399999 150 0 0 0 0.034669999
1.642 -0.63800001 0.898 150 0 0 0 0.034680001
1.6339999 -0.63800001 0.89499998 150 0 0 0 0.03469
1.635 -0.64200002 0.89700001 150 0 0 0 0.034699999
1.6339999 -0.64499998 0.89700001 150 0 0 0 0.034710001
1.63 -0.64700001 0.89600003 150 0 0 0 0.03472
1.628 -0.64899999 0.89499998 150 0 0 0 0.034729999
1.627 -0.65200001 0.89600003 150 0 0 0 0.034740001
1.626 -0.65499997 0.89600003 150 0 0 0 0.03475
1.626 -0.65799999 0.89600003 150 0 0 0 0.034759998
1.624 -0.66000003 0.89600003 150 0 0 0 0.034770001
1.623 -0.66299999 0.89499998 150 0 0 0 0.034779999
1.6210001 -0.66500002 0.89499998 150 0 0 0 0.034790002
1.618 -0.667 0.89399999 150 0 0 0 0.0348
1.617 -0.66900003 0.89300001 150 0 0 0 0.034809999
1.6160001 -0.67199999 0.89300001 150 0 0 0 0.034820002
1.615 -0.67400002 0.89200002 150 0 0 0 0.03483
1.614 -0.67699999 0.89200002 150 0 0 0 0.034839999
1.6160001 -0.68000001 0.89300001 150 0 0 0 0.034850001
1.608 -0.68000001 0.889 150 0 0 0 0.03486
1.608 -0.68199998 0.88800001 150 0 0 0 0.034869999
1.607 -0.685 0.88800001 150 0 0 0 0.034880001
1.605 -0.68599999 0.88599998 150 0 0 0 0.03489
1.604 -0.68800002 0.88499999 150 0 0 0 0.034899998
1.603 -0.69 0.884 150 0 0 0 0.034910001
1.603 -0.69300002 0.884 150 0 0 0 0.03492
1.6 -0.69400001 0.88099998 150 0 0 0 0.034929998
1.598 -0.69599998 0.88 150 0 0 0 0.034940001
1.5930001 -0.69599998 0.87599999 150 0 0 0 0.034949999
1.58 -0.69199997 0.86799997 150 0 0 0 0.034960002
1.573 -0.69099998 0.86400002 150 0 0 0 0.03497
1.561 -0.68800002 0.85600001 150 0 0 0 0.034979999
1.55 -0.685 0.84899998 150 0 0 0 0.034990001
1.5420001 -0.68400002 0.84399998 150 0 0 0 0.035
1.536 -0.68300003 0.83899999 150 0 0 0 0.035009999
1.529 -0.68199998 0.83399999 150 0 0 0 0.035020001
1.53 -0.68400002 0.83399999 150 0 0 0 0.03503
1.53 -0.68599999 0.83200002 150 0 0 0 0.035039999
1.53 -0.68699998 0.82999998 150 0 0 0 0.035050001
1.526 -0.68699998 0.82700002 150 0 0 0 0.03506
1.528 -0.69 0.82700002 150 0 0 0 0.035069998
1.531 -0.69199997 0.82599998 150 0 0 0 0.035080001
1.525 -0.69099998 0.82200003 150 0 0 0 0.035089999
1.529 -0.69499999 0.82200003 150 0 0 0 0.035100002
1.53 -0.69599998 0.82099998 136 0 0 0 0.035110001
1.531 -0.69800001 0.81900001 98 0 0 0 0.035119999
1.528 -0.69800001 0.81599998 67 0 0 0 0.035130002
1.531 -0.70099998 0.81599998 39 0 0 0 0.03514
1.5319999 -0.70200002 0.81400001 30 0 0 0 0.035149999
1.535 -0.70499998 0.81400001 27 0 0 0 0.035160001
1.533 -0.704 0.81 27 0 0 0 0.03517
1.53 -0.704 0.80699998 28 0 0 0 0.035179999
1.53 -0.70499998 0.80500001 32 0 0 0 0.035190001
1.525 -0.70300001 0.80000001 36 0 0 0 0.0352
1.522 -0.70300001 0.796 45 0 0 0 0.035209998
1.525 -0.70499998 0.79500002 51 0 0 0 0.035220001
1.524 -0.70499998 0.792 53 0 0 0 0.03523
1.521 -0.704 0.78799999 56 0 0 0 0.035239998
1.524 -0.70599997 0.78600001 60 0 0 0 0.035250001
1.52 -0.70499998 0.78200001 64 0 0 0 0.035259999
1.523 -0.70599997 0.78100002 70 0 0 0 0.035270002
1.5190001 -0.70499998 0.77600002 72 0 0 0 0.03528
1.52 -0.70599997 0.77399999 66 0 0 0 0.035289999
1.523 -0.70700002 0.77200001 60 0 0 0 0.035300002
1.52 -0.70599997 0.76800001 51 0 0 0 0.03531
1.521 -0.70599997 0.76499999 41 0 0 0 0.035319999
1.522 -0.70700002 0.76300001 33 0 0 0 0.035330001
1.522 -0.70700002 0.75999999 29 0 0 0 0.03534
1.522 -0.70700002 0.75700003 26 0 0 0 0.035349999
1.522 -0.70700002 0.75400001 23 0 0 0 0.035360001
1.527 -0.70899999 0.75300002 21 0 0 0 0.03537
1.526 -0.708 0.75 19 0 0 0 0.035379998
1.528 -0.70899999 0.74699998 19 0 0 0 0.035390001
1.525 -0.70700002 0.74299997 19 0 0 0 0.035399999
1.5319999 -0.70999998 0.74299997 23 0 0 0 0.035409998
1.534 -0.70999998 0.74000001 27 0 0 0 0.035420001
1.544 -0.71499997 0.74199998 32 0 0 0 0.035429999
1.551 -0.71700001 0.741 45 0 0 0 0.035440002
1.559 -0.72000003 0.74199998 60 0 0 0 0.03545
1.567 -0.72299999 0.74199998 62 0 0 0 0.035459999
1.5779999 -0.72799999 0.74400002 72 0 0 0 0.035470001
1.587 -0.73100001 0.74400002 77 0 0 0 0.03548
1.596 -0.73400003 0.745 80 0 0 0 0.035489999
1.6059999 -0.73799998 0.74599999 82 0 0 0 0.035500001
1.618 -0.74199998 0.74699998 82 0 0 0 0.03551
1.627 -0.745 0.74699998 85 0 0 0 0.035519999
1.637 -0.74900001 0.74800003 81 0 0 0 0.035530001
1.645 -0.75099999 0.74699998 77 0 0 0 0.03554
1.652 -0.75300002 0.74699998 77 0 0 0 0.035549998
1.661 -0.755 0.74699998 75 0 0 0 0.035560001
1.67 -0.75800002 0.74699998 75 0 0 0 0.035569999
1.675 -0.759 0.745 74 0 0 0 0.035580002
1.6849999 -0.76200002 0.745 72 0 0 0 0.03559
1.7 -0.76700002 0.74699998 71 0 0 0 0.035599999
1.71 -0.76999998 0.74699998 72 0 0 0 0.035610002
1.721 -0.773 0.74699998 69 0 0 0 0.03562
1.7309999 -0.77600002 0.74800003 66 0 0 0 0.035629999
1.7460001 -0.78100002 0.74900001 66 0 0 0 0.035640001
1.751 -0.78100002 0.74699998 63 0 0 0 0.03565
1.755 -0.78100002 0.74400002 58 0 0 0 0.035659999
1.775 -0.78799999 0.74800003 58 0 0 0 0.035670001
