# .PCD v0.7 - Point Cloud Data file format
VERSION 0.7
FIELDS x y z intensity normal_x normal_y normal_z curvature
SIZE 4 4 4 4 4 4 4 4
TYPE F F F F F F F F
COUNT 1 1 1 1 1 1 1 1
WIDTH 1030
HEIGHT 1
VIEWPOINT 0 0 0 1 0 0 0
POINTS 1030
DATA ascii
1.973 0.73500001 -0.14399999 150 0 0 0 0.048670001
1.972 0.72799999 -0.142 145 0 0 0 0.04868
1.975 0.72299999 -0.14 139 0 0 0 0.048689999
1.969 0.71499997 -0.13699999 140 0 0 0 0.048700001
1.972 0.70899999 -0.13500001 146 0 0 0 0.04871
1.972 0.70300001 -0.133 150 0 0 0 0.048719998
1.974 0.69700003 -0.131 150 0 0 0 0.048730001
1.976 0.69099998 -0.12899999 148 0 0 0 0.04874
1.98 0.68599999 -0.12800001 150 0 0 0 0.048749998
1.976 0.67900002 -0.125 140 0 0 0 0.048760001
1.984 0.67500001 -0.124 136 0 0 0 0.048769999
1.98 0.667 -0.121 149 0 0 0 0.048780002
1.9859999 0.66299999 -0.12 146 0 0 0 0.04879
1.988 0.65700001 -0.118 150 0 0 0 0.048799999
1.99 0.65100002 -0.116 150 0 0 0 0.048810001
1.992 0.64499998 -0.114 150 0 0 0 0.04882
1.999 0.64099997 -0.113 150 0 0 0 0.048829999
2.0009999 0.63499999 -0.111 150 0 0 0 0.048840001
2.0039999 0.62900001 -0.109 150 0 0 0 0.04885
2.0109999 0.625 -0.108 150 0 0 0 0.048859999
2.013 0.61900002 -0.106 140 0 0 0 0.048870001
2.02 0.61500001 -0.105 120 0 0 0 0.04888
2.0250001 0.61000001 -0.103 104 0 0 0 0.048889998
2.033 0.60500002 -0.102 93 0 0 0 0.048900001
2.0320001 0.59799999 -0.1 76 0 0 0 0.048909999
2.046 0.59600002 -0.098999999 76 0 0 0 0.048920002
2.0510001 0.59100002 -0.097000003 74 0 0 0 0.048930001
2.056 0.58600003 -0.096000001 67 0 0 0 0.048939999
2.0639999 0.58099997 -0.093999997 68 0 0 0 0.048950002
2.069 0.57599998 -0.093000002 73 0 0 0 0.04896
2.0780001 0.57200003 -0.090999998 76 0 0 0 0.048969999
2.095 0.56900001 -0.090000004 79 0 0 0 0.048980001
2.1129999 0.56699997 -0.089000002 83 0 0 0 0.04899
2.148 0.56999999 -0.089000002 117 0 0 0 0.048999999
2.1800001 0.57099998 -0.089000002 128 0 0 0 0.049010001
2.2049999 0.56999999 -0.088 124 0 0 0 0.04902
2.234 0.57099998 -0.086999997 112 0 0 0 0.049029998
2.257 0.56900001 -0.086999997 149 0 0 0 0.049040001
2.3269999 0.579 -0.086999997 150 0 0 0 0.04905
2.4389999 0.59899998 -0.090000004 150 0 0 0 0.049059998
2.5840001 0.62599999 -0.093000002 150 0 0 0 0.049070001
2.688 0.64300001 -0.094999999 150 0 0 0 0.049079999
2.7479999 0.648 -0.094999999 150 0 0 0 0.049090002
2.773 0.64499998 -0.093999997 150 0 0 0 0.0491
2.78 0.63800001 -0.092 150 0 0 0 0.049109999
2.78 0.62900001 -0.090000004 150 0 0 0 0.049120001
2.7820001 0.62 -0.088 150 0 0 0 0.04913
2.7920001 0.61299998 -0.086999997 150 0 0 0 0.049139999
2.806 0.60699999 -0.085000001 150 0 0 0 0.049150001
2.799 0.597 -0.082999997 150 0 0 0 0.04916
2.806 0.58899999 -0.082000002 150 0 0 0 0.049169999
2.8180001 0.58200002 -0.079999998 150 0 0 0 0.049180001
2.826 0.57499999 -0.079000004 137 0 0 0 0.04919
2.812 0.56300002 -0.075999998 150 0 0 0 0.049199998
2.8080001 0.55299997 -0.074000001 150 0 0 0 0.049210001
2.803 0.54299998 -0.071999997 150 0 0 0 0.049219999
2.812 0.53500003 -0.071000002 150 0 0 0 0.049229998
2.8629999 0.53600001 -0.07 146 0 0 0 0.049240001
2.8859999 0.53100002 -0.068999998 150 0 0 0 0.049249999
2.8510001 0.51499999 -0.067000002 135 0 0 0 0.049260002
2.8139999 0.49900001 -0.064000003 150 0 0 0 0.04927
2.799 0.48699999 -0.061999999 150 0 0 0 0.049279999
2.793 0.477 -0.059999999 150 0 0 0 0.049290001
2.789 0.46799999 -0.059 150 0 0 0 0.0493
2.789 0.45899999 -0.057 150 0 0 0 0.049309999
2.7839999 0.449 -0.055 151 0 0 0 0.049320001
2.783 0.43900001 -0.054000001 150 0 0 0 0.04933
2.7939999 0.43200001 -0.052999999 150 0 0 0 0.049339999
2.803 0.42399999 -0.050999999 150 0 0 0 0.049350001
2.793 0.414 -0.050000001 150 0 0 0 0.04936
2.786 0.40400001 -0.048 150 0 0 0 0.049369998
2.7750001 0.39300001 -0.046 150 0 0 0 0.049380001
2.783 0.38499999 -0.045000002 150 0 0 0 0.049389999
2.8080001 0.38 -0.044 150 0 0 0 0.049400002
2.816 0.37200001 -0.043000001 150 0 0 0 0.04941
2.8 0.36000001 -0.041000001 150 0 0 0 0.049419999
2.7839999 0.34900001 -0.039000001 150 0 0 0 0.049430002
2.7750001 0.33899999 -0.037999999 150 0 0 0 0.04944
2.776 0.33000001 -0.037 150 0 0 0 0.049449999
2.8169999 0.32600001 -0.035999998 150 0 0 0 0.049460001
2.8310001 0.31900001 -0.035 150 0 0 0 0.04947
2.8269999 0.30899999 -0.033 150 0 0 0 0.049479999
2.8139999 0.29899999 -0.032000002 150 0 0 0 0.049490001
2.842 0.292 -0.030999999 150 0 0 0 0.0495
2.8840001 0.287 -0.029999999 150 0 0 0 0.049509998
2.8859999 0.278 -0.028999999 150 0 0 0 0.049520001
2.9030001 0.27000001 -0.028000001 48 0 0 0 0.049529999
3.0079999 0.271 -0.028000001 15 0 0 0 0.049539998
3.0320001 0.26300001 -0.027000001 7 0 0 0 0.049550001
3.036 0.25400001 -0.025 9 0 0 0 0.049559999
3.0239999 0.243 -0.024 12 0 0 0 0.049570002
3.006 0.23199999 -0.023 12 0 0 0 0.04958
2.9920001 0.221 -0.021 14 0 0 0 0.049589999
2.9909999 0.211 -0.02 16 0 0 0 0.049600001
3 0.20200001 -0.018999999 19 0 0 0 0.04961
3.0050001 0.193 -0.017999999 20 0 0 0 0.049619999
3.0039999 0.183 -0.017000001 20 0 0 0 0.049630001
2.97 0.17200001 -0.016000001 17 0 0 0 0.04964
2.9159999 0.15899999 -0.014 150 0 0 0 0.049649999
2.9130001 0.149 -0.013 151 0 0 0 0.049660001
2.9159999 0.14 -0.012 151 0 0 0 0.04967
2.957 0.133 -0.011 145 0 0 0 0.049679998
3.0420001 0.127 -0.011 47 0 0 0 0.049690001
2.98 0.115 -0.0099999998 150 0 0 0 0.049699999
2.97 0.104 -0.0089999996 151 0 0 0 0.049710002
2.97 0.094999999 -0.0080000004 151 0 0 0 0.04972
2.9749999 0.086000003 -0.0070000002 151 0 0 0 0.049729999
2.974 0.075999998 -0.0060000001 151 0 0 0 0.049740002
3.0550001 0.068000004 -0.0049999999 150 0 0 0 0.04975
3.1400001 0.059999999 -0.0040000002 150 0 0 0 0.049759999
3.141 0.050000001 -0.003 150 0 0 0 0.049770001
3.1370001 0.039999999 -0.0020000001 150 0 0 0 0.04978
3.1370001 0.028999999 -0.0020000001 150 0 0 0 0.049789999
3.1329999 0.018999999 -0.001 150 0 0 0 0.049800001
3.141 0.0089999996 0 150 0 0 0 0.04981
3.141 0 0 150 0 0 0 0.049819998
3.141 -0.0099999998 0.001 150 0 0 0 0.049830001
3.1530001 -0.02 0.0020000001 150 0 0 0 0.04984
3.1600001 -0.030999999 0.0020000001 150 0 0 0 0.049849998
3.1659999 -0.041000001 0.003 150 0 0 0 0.049860001
3.1830001 -0.050999999 0.0040000002 150 0 0 0 0.049869999
3.164 -0.061000001 0.0049999999 150 0 0 0 0.049880002
3.1589999 -0.071000002 0.0049999999 150 0 0 0 0.04989
3.184 -0.082000002 0.0060000001 150 0 0 0 0.049899999
3.1949999 -0.093000002 0.0070000002 150 0 0 0 0.049910001
3.1949999 -0.103 0.0070000002 150 0 0 0 0.04992
3.194 -0.114 0.0080000004 150 0 0 0 0.049929999
3.1949999 -0.124 0.0089999996 150 0 0 0 0.049940001
3.2 -0.134 0.0089999996 150 0 0 0 0.04995
3.1930001 -0.14399999 0.0099999998 150 0 0 0 0.049959999
3.1889999 -0.155 0.0099999998 150 0 0 0 0.049970001
3.197 -0.16500001 0.011 150 0 0 0 0.04998
3.197 -0.176 0.012 150 0 0 0 0.049989998
3.198 -0.186 0.012 150 0 0 0 0.050000001
3.1989999 -0.197 0.013 150 0 0 0 0.050009999
3.198 -0.207 0.013 150 0 0 0 0.050020002
3.191 -0.21699999 0.014 150 0 0 0 0.050030001
3.1860001 -0.227 0.014 150 0 0 0 0.050039999
3.1889999 -0.237 0.014 150 0 0 0 0.050050002
3.1919999 -0.248 0.015 150 0 0 0 0.05006
3.178 -0.257 0.015 150 0 0 0 0.050069999
3.1819999 -0.26800001 0.016000001 150 0 0 0 0.050080001
3.1789999 -0.278 0.016000001 150 0 0 0 0.05009
3.1800001 -0.28799999 0.016000001 150 0 0 0 0.050099999
3.1789999 -0.29800001 0.017000001 150 0 0 0 0.050110001
3.175 -0.308 0.017000001 150 0 0 0 0.05012
3.177 -0.31900001 0.017000001 150 0 0 0 0.050129998
3.178 -0.329 0.017000001 150 0 0 0 0.050140001
3.1800001 -0.34 0.017999999 150 0 0 0 0.05015
3.1849999 -0.35100001 0.017999999 150 0 0 0 0.050159998
3.1930001 -0.36199999 0.017999999 150 0 0 0 0.050170001
3.211 -0.375 0.018999999 150 0 0 0 0.050179999
3.1919999 -0.38299999 0.018999999 150 0 0 0 0.050190002
3.1930001 -0.39300001 0.018999999 150 0 0 0 0.0502
3.201 -0.405 0.018999999 150 0 0 0 0.050209999
3.204 -0.41600001 0.018999999 150 0 0 0 0.050220001
3.2049999 -0.426 0.018999999 150 0 0 0 0.05023
3.2079999 -0.43700001 0.018999999 150 0 0 0 0.050239999
3.2049999 -0.447 0.018999999 150 0 0 0 0.050250001
3.2609999 -0.46599999 0.02 150 0 0 0 0.05026
3.2920001 -0.48100001 0.02 150 0 0 0 0.050269999
3.263 -0.48800001 0.02 150 0 0 0 0.050280001
3.2260001 -0.493 0.018999999 150 0 0 0 0.05029
3.221 -0.50300002 0.018999999 150 0 0 0 0.050299998
3.217 -0.51200002 0.018999999 150 0 0 0 0.050310001
3.2190001 -0.523 0.018999999 150 0 0 0 0.050319999
3.2390001 -0.537 0.018999999 150 0 0 0 0.050330002
3.2449999 -0.54900002 0.018999999 150 0 0 0 0.050340001
3.244 -0.56 0.018999999 56 0 0 0 0.050349999
3.438 -0.60399997 0.02 75 0 0 0 0.050360002
3.4519999 -0.61799997 0.02 120 0 0 0 0.05037
3.391 -0.61799997 0.018999999 58 0 0 0 0.050379999
3.3280001 -0.61799997 0.018999999 74 0 0 0 0.050390001
3.052 -0.57700002 0.017000001 151 0 0 0 0.0504
2.9909999 -0.57499999 0.016000001 151 0 0 0 0.050409999
2.9719999 -0.58099997 0.016000001 151 0 0 0 0.050420001
2.9300001 -0.583 0.015 150 0 0 0 0.05043
2.9330001 -0.59299999 0.015 151 0 0 0 0.050439999
2.9349999 -0.60299999 0.015 151 0 0 0 0.050450001
2.9349999 -0.61299998 0.014 151 0 0 0 0.05046
2.905 -0.616 0.014 150 0 0 0 0.050469998
2.859 -0.616 0.013 50 0 0 0 0.050480001
2.816 -0.616 0.012 3 0 0 0 0.050489999
2.168 -0.48100001 0.0089999996 1 0 0 0 0.050500002
2.1170001 -0.477 0.0089999996 1 0 0 0 0.05051
2.092 -0.479 0.0080000004 0 0 0 0 0.050519999
2.0550001 -0.477 0.0080000004 0 0 0 0 0.050530002
2.036 -0.479 0.0070000002 0 0 0 0 0.05054
1.983 -0.47299999 0.0070000002 0 0 0 0 0.050549999
1.97 -0.477 0.0060000001 0 0 0 0 0.050560001
1.9299999 -0.47400001 0.0060000001 0 0 0 0 0.05057
1.908 -0.47499999 0.0049999999 0 0 0 0 0.050579999
1.8710001 -0.472 0.0049999999 0 0 0 0 0.050590001
1.865 -0.47600001 0.0040000002 0 0 0 0 0.0506
1.842 -0.477 0.0040000002 0 0 0 0 0.050609998
1.802 -0.472 0.003 0 0 0 0 0.050620001
1.789 -0.47499999 0.003 0 0 0 0 0.050629999
1.7819999 -0.479 0.0020000001 0 0 0 0 0.050639998
1.757 -0.47799999 0.0020000001 0 0 0 0 0.050650001
1.7359999 -0.47799999 0.001 0 0 0 0 0.050659999
1.7410001 -0.48500001 0.001 0 0 0 0 0.050670002
1.71 -0.48199999 0 0 0 0 0 0.05068
1.696 -0.484 0 0 0 0 0 0.050689999
1.691 -0.48899999 0 0 0 0 0 0.050700001
1.676 -0.49000001 -0.001 0 0 0 0 0.05071
1.6799999 -0.49599999 -0.001 0 0 0 0 0.050719999
1.6619999 -0.49700001 -0.0020000001 0 0 0 0 0.050730001
1.6339999 -0.49399999 -0.0020000001 0 0 0 0 0.05074
1.618 -0.49399999 -0.003 0 0 0 0 0.050749999
1.604 -0.495 -0.003 0 0 0 0 0.050760001
1.571 -0.491 -0.0040000002 0 0 0 0 0.05077
1.5700001 -0.49599999 -0.0040000002 0 0 0 0 0.050779998
1.569 -0.50099999 -0.0049999999 0 0 0 0 0.050790001
1.562 -0.50400001 -0.0060000001 0 0 0 0 0.050799999
1.529 -0.498 -0.0060000001 0 0 0 0 0.050810002
1.523 -0.50099999 -0.0070000002 0 0 0 0 0.05082
1.498 -0.498 -0.0070000002 0 0 0 0 0.050829999
1.495 -0.50199997 -0.0080000004 0 0 0 0 0.050840002
1.475 -0.5 -0.0089999996 0 0 0 0 0.05085
1.495 -0.51200002 -0.0089999996 0 0 0 0 0.050859999
1.475 -0.50999999 -0.0099999998 0 0 0 0 0.050870001
1.4299999 -0.49900001 -0.0099999998 0 0 0 0 0.05088
1.406 -0.49599999 -0.011 0 0 0 0 0.050889999
1.411 -0.50199997 -0.012 0 0 0 0 0.050900001
1.406 -0.50599998 -0.012 0 0 0 0 0.05091
1.393 -0.50599998 -0.013 0 0 0 0 0.050919998
1.402 -0.514 -0.014 0 0 0 0 0.050930001
1.368 -0.50599998 -0.014 0 0 0 0 0.05094
1.355 -0.505 -0.015 0 0 0 0 0.050949998
1.359 -0.51200002 -0.016000001 0 0 0 0 0.050960001
1.358 -0.51599997 -0.016000001 0 0 0 0 0.050969999
1.351 -0.51700002 -0.017000001 0 0 0 0 0.050980002
1.355 -0.523 -0.017999999 0 0 0 0 0.05099
1.3559999 -0.52899998 -0.018999999 0 0 0 0 0.050999999
1.346 -0.52899998 -0.02 0 0 0 0 0.051010001
1.342 -0.53200001 -0.02 0 0 0 0 0.05102
1.34 -0.53600001 -0.021 0 0 0 0 0.051029999
1.344 -0.542 -0.022 0 0 0 0 0.051040001
1.348 -0.54799998 -0.023 0 0 0 0 0.05105
1.346 -0.55199999 -0.024 0 0 0 0 0.051059999
1.336 -0.55199999 -0.025 0 0 0 0 0.051070001
1.3329999 -0.55500001 -0.026000001 0 0 0 0 0.05108
1.331 -0.55900002 -0.027000001 0 0 0 0 0.051089998
1.322 -0.55900002 -0.027000001 0 0 0 0 0.051100001
1.322 -0.56400001 -0.028000001 0 0 0 0 0.051109999
1.3329999 -0.57300001 -0.029999999 0 0 0 0 0.051120002
1.3200001 -0.57200003 -0.029999999 0 0 0 0 0.051130001
1.3329999 -0.58200002 -0.032000002 0 0 0 0 0.051139999
1.336 -0.588 -0.033 0 0 0 0 0.051150002
1.326 -0.588 -0.034000002 0 0 0 0 0.05116
1.331 -0.59399998 -0.035 0 0 0 0 0.051169999
1.33 -0.59799999 -0.035999998 0 0 0 0 0.051180001
1.3329999 -0.60399997 -0.037 0 0 0 0 0.05119
1.354 -0.61799997 -0.039000001 0 0 0 0 0.051199999
1.352 -0.62099999 -0.039999999 0 0 0 0 0.051210001
1.341 -0.62099999 -0.041000001 0 0 0 0 0.05122
1.351 -0.63 -0.041999999 0 0 0 0 0.051229998
1.35 -0.634 -0.043000001 0 0 0 0 0.051240001
1.354 -0.63999999 -0.045000002 0 0 0 0 0.05125
1.349 -0.64200002 -0.046 0 0 0 0 0.051259998
1.352 -0.648 -0.046999998 0 0 0 0 0.051270001
1.34 -0.64600003 -0.048 0 0 0 0 0.051279999
1.341 -0.65100002 -0.048999999 0 0 0 0 0.051290002
1.334 -0.65200001 -0.050000001 0 0 0 0 0.0513
1.347 -0.66299999 -0.052000001 0 0 0 0 0.051309999
1.344 -0.66500002 -0.054000001 0 0 0 0 0.051320001
1.342 -0.66900003 -0.055 0 0 0 0 0.05133
1.3430001 -0.67400002 -0.056000002 0 0 0 0 0.051339999
1.34 -0.67699999 -0.057999998 0 0 0 0 0.051350001
1.334 -0.67799997 -0.059 0 0 0 0 0.05136
1.339 -0.68400002 -0.059999999 0 0 0 0 0.051369999
1.342 -0.69 -0.061999999 0 0 0 0 0.051380001
1.332 -0.68900001 -0.063000001 0 0 0 0 0.05139
1.322 -0.68800002 -0.064000003 0 0 0 0 0.051399998
1.339 -0.70099998 -0.066 0 0 0 0 0.051410001
1.3380001 -0.704 -0.068000004 0 0 0 0 0.051419999
1.339 -0.70899999 -0.068999998 0 0 0 0 0.051430002
1.36 -0.72399998 -0.071999997 0 0 0 0 0.051440001
1.432 -0.76700002 -0.077 0 0 0 0 0.051449999
0 0 0 0 0 0 0 0.051460002
2.096 -1.135 -0.118 26 0 0 0 0.05147
2.066 -1.125 -0.119 19 0 0 0 0.051479999
2.0710001 -1.1339999 -0.122 36 0 0 0 0.051490001
2.056 -1.132 -0.124 25 0 0 0 0.0515
2.0309999 -1.124 -0.124 14 0 0 0 0.051509999
1.88 -1.0470001 -0.118 6 0 0 0 0.051520001
1.8279999 -1.023 -0.117 7 0 0 0 0.05153
1.818 -1.022 -0.118 14 0 0 0 0.051539999
1.813 -1.025 -0.12 11 0 0 0 0.051550001
1.854 -1.053 -0.125 7 0 0 0 0.05156
1.952 -1.114 -0.13500001 17 0 0 0 0.051569998
1.949 -1.118 -0.13699999 18 0 0 0 0.051580001
1.9529999 -1.126 -0.14 17 0 0 0 0.051589999
1.934 -1.12 -0.141 16 0 0 0 0.051600002
1.882 -1.095 -0.14 4 0 0 0 0.05161
1.864 -1.089 -0.141 1 0 0 0 0.051619999
1.7920001 -1.052 -0.138 0 0 0 0 0.051630002
1.85 -1.092 -0.145 0 0 0 0 0.05164
1.87 -1.108 -0.149 1 0 0 0 0.051649999
1.881 -1.119 -0.153 8 0 0 0 0.051660001
1.8839999 -1.126 -0.156 34 0 0 0 0.05167
1.882 -1.13 -0.15899999 127 0 0 0 0.051679999
1.881 -1.1339999 -0.161 150 0 0 0 0.051690001
1.88 -1.138 -0.164 150 0 0 0 0.0517
1.874 -1.1390001 -0.16599999 150 0 0 0 0.051709998
1.869 -1.141 -0.168 67 0 0 0 0.051720001
1.863 -1.141 -0.17 22 0 0 0 0.051729999
1.835 -1.1289999 -0.171 13 0 0 0 0.051739998
1.807 -1.115 -0.171 6 0 0 0 0.051750001
1.785 -1.1059999 -0.171 4 0 0 0 0.051759999
1.767 -1.099 -0.17200001 5 0 0 0 0.051770002
1.747 -1.09 -0.17299999 6 0 0 0 0.05178
1.73 -1.0829999 -0.17399999 9 0 0 0 0.051789999
1.715 -1.0779999 -0.175 11 0 0 0 0.051800001
1.71 -1.0779999 -0.177 14 0 0 0 0.05181
1.707 -1.08 -0.18000001 15 0 0 0 0.051819999
1.689 -1.072 -0.18000001 15 0 0 0 0.051830001
1.6569999 -1.0549999 -0.17900001 14 0 0 0 0.05184
1.619 -1.034 -0.178 12 0 0 0 0.051849999
1.608 -1.03 -0.17900001 2 0 0 0 0.051860001
1.599 -1.028 -0.18099999 2 0 0 0 0.05187
1.59 -1.025 -0.182 2 0 0 0 0.051879998
1.5880001 -1.027 -0.184 2 0 0 0 0.051890001
1.5880001 -1.029 -0.18700001 2 0 0 0 0.051899999
1.573 -1.022 -0.18799999 2 0 0 0 0.051910002
1.561 -1.017 -0.189 2 0 0 0 0.05192
1.478 -0.96499997 -0.18099999 3 0 0 0 0.051929999
1.471 -0.96399999 -0.183 5 0 0 0 0.051940002
1.464 -0.96100003 -0.184 10 0 0 0 0.05195
1.457 -0.95899999 -0.186 12 0 0 0 0.051959999
1.4529999 -0.958 -0.18700001 12 0 0 0 0.051970001
1.4529999 -0.96100003 -0.19 13 0 0 0 0.05198
1.455 -0.963 -0.192 19 0 0 0 0.051989999
1.511 -1.003 -0.20200001 36 0 0 0 0.052000001
1.6160001 -1.075 -0.219 103 0 0 0 0.05201
1.681 -1.12 -0.23 131 0 0 0 0.052019998
1.757 -1.173 -0.244 80 0 0 0 0.052030001
1.829 -1.223 -0.257 28 0 0 0 0.05204
1.844 -1.235 -0.26199999 71 0 0 0 0.052049998
1.845 -1.238 -0.26499999 68 0 0 0 0.052060001
1.84 -1.237 -0.26699999 59 0 0 0 0.052069999
1.839 -1.238 -0.27000001 60 0 0 0 0.052080002
1.844 -1.243 -0.273 64 0 0 0 0.05209
1.836 -1.239 -0.27500001 76 0 0 0 0.052099999
1.836 -1.24 -0.278 82 0 0 0 0.052110001
1.836 -1.242 -0.28099999 73 0 0 0 0.05212
1.829 -1.239 -0.28299999 45 0 0 0 0.052129999
1.829 -1.239 -0.28600001 31 0 0 0 0.052140001
1.821 -1.235 -0.287 22 0 0 0 0.05215
1.806 -1.226 -0.28799999 17 0 0 0 0.052159999
1.793 -1.2180001 -0.28799999 16 0 0 0 0.052170001
1.777 -1.2079999 -0.289 14 0 0 0 0.05218
1.768 -1.202 -0.28999999 9 0 0 0 0.052189998
1.74 -1.184 -0.28799999 4 0 0 0 0.052200001
1.7079999 -1.163 -0.285 1 0 0 0 0.052209999
1.638 -1.1160001 -0.27599999 1 0 0 0 0.052220002
1.603 -1.092 -0.273 1 0 0 0 0.05223
1.579 -1.076 -0.271 1 0 0 0 0.052239999
1.563 -1.0650001 -0.271 0 0 0 0 0.052250002
1.568 -1.069 -0.27399999 0 0 0 0 0.05226
1.527 -1.041 -0.26899999 0 0 0 0 0.052269999
1.517 -1.034 -0.26899999 0 0 0 0 0.052280001
1.4809999 -1.0089999 -0.26499999 0 0 0 0 0.05229
1.473 -1.003 -0.26499999 0 0 0 0 0.052299999
1.421 -0.96700001 -0.25799999 0 0 0 0 0.052310001
1.388 -0.94499999 -0.25400001 0 0 0 0 0.05232
1.3660001 -0.92900002 -0.252 0 0 0 0 0.052329998
1.358 -0.92299998 -0.252 0 0 0 0 0.052340001
1.346 -0.91399997 -0.252 0 0 0 0 0.05235
0 0 0 0 0 0 0 0.052359998
1.3430001 -0.91100001 -0.255 0 0 0 0 0.052370001
1.3329999 -0.903 -0.255 0 0 0 0 0.052379999
1.35 -0.91299999 -0.25999999 0 0 0 0 0.052390002
1.346 -0.91000003 -0.26100001 0 0 0 0 0.0524
1.347 -0.91000003 -0.26199999 0 0 0 0 0.052409999
1.331 -0.898 -0.26100001 0 0 0 0 0.052420001
0 0 0 0 0 0 0 0.05243
1.347 -0.90600002 -0.26699999 0 0 0 0 0.052439999
1.3789999 -0.926 -0.27599999 0 0 0 0 0.052450001
1.368 -0.91799998 -0.27500001 1 0 0 0 0.05246
1.3609999 -0.91100001 -0.27500001 1 0 0 0 0.052469999
1.38 -0.92199999 -0.28 2 0 0 0 0.052480001
1.3710001 -0.91500002 -0.28 2 0 0 0 0.05249
1.369 -0.912 -0.28099999 1 0 0 0 0.052499998
1.358 -0.90200001 -0.28 1 0 0 0 0.052510001
1.374 -0.91100001 -0.285 0 0 0 0 0.052519999
1.33 -0.88099998 -0.27700001 0 0 0 0 0.052530002
1.332 -0.88 -0.27900001 0 0 0 0 0.052540001
1.327 -0.87400001 -0.27900001 0 0 0 0 0.052549999
1.327 -0.87199998 -0.28 0 0 0 0 0.052560002
1.322 -0.86699998 -0.28099999 0 0 0 0 0.05257
1.327 -0.86900002 -0.28299999 0 0 0 0 0.052579999
1.331 -0.86799997 -0.285 0 0 0 0 0.052590001
1.334 -0.86799997 -0.287 0 0 0 0 0.0526
1.37 -0.88999999 -0.296 0 0 0 0 0.052609999
1.373 -0.889 -0.29699999 0 0 0 0 0.052620001
1.426 -0.921 -0.31 0 0 0 0 0.05263
1.476 -0.94999999 -0.322 1 0 0 0 0.052639998
1.476 -0.94700003 -0.32300001 1 0 0 0 0.052650001
1.48 -0.94700003 -0.32499999 4 0 0 0 0.05266
1.478 -0.94300002 -0.32600001 10 0 0 0 0.052669998
1.488 -0.94599998 -0.329 13 0 0 0 0.052680001
1.495 -0.94700003 -0.331 15 0 0 0 0.052689999
1.5 -0.94700003 -0.333 15 0 0 0 0.052700002
1.502 -0.94599998 -0.33500001 15 0 0 0 0.05271
1.506 -0.94499999 -0.33700001 15 0 0 0 0.052719999
1.5190001 -0.949 -0.34 18 0 0 0 0.052730002
1.544 -0.96100003 -0.347 18 0 0 0 0.05274
2.026 -1.257 -0.456 21 0 0 0 0.052749999
1.774 -1.096 -0.40000001 22 0 0 0 0.052760001
1.939 -1.194 -0.43900001 5 0 0 0 0.05277
1.985 -1.217 -0.44999999 5 0 0 0 0.052779999
1.929 -1.178 -0.43799999 4 0 0 0 0.052790001
1.734 -1.0549999 -0.39399999 6 0 0 0 0.0528
1.76 -1.066 -0.40099999 32 0 0 0 0.052809998
1.7920001 -1.081 -0.40900001 39 0 0 0 0.052820001
1.821 -1.095 -0.41600001 51 0 0 0 0.052829999
1.842 -1.102 -0.421 61 0 0 0 0.052839998
1.8660001 -1.1109999 -0.42699999 66 0 0 0 0.052850001
1.9220001 -1.14 -0.44100001 39 0 0 0 0.052859999
2.072 -1.224 -0.47499999 26 0 0 0 0.052870002
2.1619999 -1.271 -0.49599999 12 0 0 0 0.05288
2.168 -1.2690001 -0.498 13 0 0 0 0.052889999
2.1789999 -1.2690001 -0.50099999 16 0 0 0 0.052900001
2.1889999 -1.268 -0.50400001 20 0 0 0 0.05291
2.198 -1.268 -0.50599998 21 0 0 0 0.052919999
2.2090001 -1.268 -0.509 21 0 0 0 0.052930001
2.2160001 -1.266 -0.50999999 22 0 0 0 0.05294
2.2290001 -1.267 -0.51300001 23 0 0 0 0.052949999
2.2460001 -1.27 -0.51700002 24 0 0 0 0.052960001
2.2420001 -1.262 -0.51599997 24 0 0 0 0.05297
2.237 -1.252 -0.51499999 24 0 0 0 0.052979998
2.2390001 -1.247 -0.51599997 24 0 0 0 0.052990001
2.237 -1.239 -0.51499999 24 0 0 0 0.052999999
2.164 -1.192 -0.498 33 0 0 0 0.053010002
2.1070001 -1.155 -0.484 37 0 0 0 0.05302
2.158 -1.176 -0.49599999 33 0 0 0 0.053029999
2.2349999 -1.211 -0.51300001 23 0 0 0 0.053040002
2.2320001 -1.2029999 -0.51200002 22 0 0 0 0.05305
2.2349999 -1.197 -0.51200002 22 0 0 0 0.053059999
2.2349999 -1.191 -0.51200002 22 0 0 0 0.053070001
2.237 -1.1849999 -0.51099998 22 0 0 0 0.05308
2.2349999 -1.177 -0.50999999 21 0 0 0 0.053089999
2.24 -1.173 -0.51099998 21 0 0 0 0.053100001
2.2390001 -1.165 -0.50999999 21 0 0 0 0.05311
2.2460001 -1.1619999 -0.51099998 23 0 0 0 0.053119998
2.253 -1.158 -0.51200002 34 0 0 0 0.053130001
2.25 -1.15 -0.50999999 58 0 0 0 0.05314
2.253 -1.1440001 -0.50999999 134 0 0 0 0.053149998
2.25 -1.136 -0.50800002 150 0 0 0 0.053160001
2.2509999 -1.1289999 -0.50800002 150 0 0 0 0.053169999
2.2550001 -1.124 -0.50700003 150 0 0 0 0.053180002
2.2509999 -1.115 -0.505 150 0 0 0 0.05319
2.2579999 -1.1109999 -0.50599998 150 0 0 0 0.053199999
2.2539999 -1.102 -0.50400001 150 0 0 0 0.053210001
2.253 -1.094 -0.50199997 150 0 0 0 0.05322
2.2520001 -1.086 -0.50099999 150 0 0 0 0.053229999
2.253 -1.08 -0.5 150 0 0 0 0.053240001
2.2479999 -1.0700001 -0.49700001 150 0 0 0 0.05325
2.2509999 -1.064 -0.49700001 150 0 0 0 0.053259999
2.253 -1.058 -0.49599999 150 0 0 0 0.053270001
2.2539999 -1.051 -0.495 150 0 0 0 0.05328
2.25 -1.0420001 -0.49200001 150 0 0 0 0.053289998
2.2460001 -1.033 -0.49000001 150 0 0 0 0.053300001
2.2479999 -1.026 -0.48899999 150 0 0 0 0.053309999
2.247 -1.018 -0.48699999 150 0 0 0 0.053320002
2.2490001 -1.012 -0.486 150 0 0 0 0.05333
2.247 -1.0039999 -0.484 150 0 0 0 0.053339999
2.244 -0.995 -0.48100001 150 0 0 0 0.053350002
2.244 -0.98799998 -0.47999999 150 0 0 0 0.05336
2.2420001 -0.97899997 -0.477 150 0 0 0 0.053369999
2.247 -0.97500002 -0.477 150 0 0 0 0.053380001
2.244 -0.96600002 -0.47400001 150 0 0 0 0.05339
2.247 -0.95999998 -0.47299999 111 0 0 0 0.053399999
2.2490001 -0.95300001 -0.47099999 115 0 0 0 0.053410001
2.247 -0.94499999 -0.46900001 150 0 0 0 0.05342
2.2449999 -0.93699998 -0.46700001 143 0 0 0 0.053429998
2.2620001 -0.93599999 -0.46799999 150 0 0 0 0.053440001
2.267 -0.93099999 -0.46700001 150 0 0 0 0.05345
2.263 -0.92199999 -0.46399999 150 0 0 0 0.053459998
2.2950001 -0.92799997 -0.46900001 150 0 0 0 0.053470001
2.4189999 -0.97000003 -0.49200001 150 0 0 0 0.053479999
2.4489999 -0.97399998 -0.49599999 149 0 0 0 0.053490002
2.3010001 -0.90700001 -0.463 19 0 0 0 0.0535
1.789 -0.69999999 -0.35800001 0 0 0 0 0.053509999
1.767 -0.68599999 -0.352 0 0 0 0 0.053520001
1.7640001 -0.67900002 -0.34999999 0 0 0 0 0.05353
1.761 -0.67199999 -0.347 0 0 0 0 0.053539999
2.2709999 -0.85900003 -0.44600001 20 0 0 0 0.053550001
2.223 -0.833 -0.43399999 150 0 0 0 0.05356
2.0829999 -0.77399999 -0.40400001 150 0 0 0 0.053569999
2.043 -0.75300002 -0.39399999 125 0 0 0 0.053580001
2.1140001 -0.77200001 -0.40599999 112 0 0 0 0.05359
1.9960001 -0.722 -0.38100001 13 0 0 0 0.053599998
1.835 -0.65799999 -0.34799999 0 0 0 0 0.053610001
1.829 -0.64999998 -0.345 0 0 0 0 0.053619999
1.819 -0.64099997 -0.34099999 0 0 0 0 0.053630002
1.835 -0.63999999 -0.34200001 0 0 0 0 0.053640001
2.677 -0.926 -0.49599999 4 0 0 0 0.053649999
2.7149999 -0.93000001 -0.5 29 0 0 0 0.053660002
2.7620001 -0.93699998 -0.50599998 47 0 0 0 0.05367
2.779 -0.93400002 -0.505 52 0 0 0 0.053679999
2.7980001 -0.93199998 -0.50599998 48 0 0 0 0.053690001
2.7980001 -0.92299998 -0.50199997 42 0 0 0 0.0537
2.78 -0.90799999 -0.49599999 150 0 0 0 0.053709999
2.839 -0.91799998 -0.50300002 150 0 0 0 0.053720001
2.9430001 -0.94199997 -0.51700002 150 0 0 0 0.05373
2.954 -0.93699998 -0.51599997 150 0 0 0 0.053739998
2.9419999 -0.92299998 -0.50999999 150 0 0 0 0.053750001
2.9419999 -0.91399997 -0.50599998 150 0 0 0 0.05376
2.954 -0.90799999 -0.50400001 150 0 0 0 0.053769998
2.951 -0.898 -0.5 150 0 0 0 0.053780001
2.951 -0.889 -0.49599999 150 0 0 0 0.053789999
2.948 -0.87900001 -0.49200001 150 0 0 0 0.053800002
2.944 -0.86900002 -0.48800001 150 0 0 0 0.05381
2.8829999 -0.84100002 -0.47400001 36 0 0 0 0.053819999
2.562 -0.74000001 -0.41800001 5 0 0 0 0.053830002
2.8759999 -0.82200003 -0.465 63 0 0 0 0.05384
2.8759999 -0.81300002 -0.461 52 0 0 0 0.053849999
2.8710001 -0.80199999 -0.45699999 150 0 0 0 0.053860001
2.8399999 -0.78500003 -0.44800001 76 0 0 0 0.05387
2.885 -0.78799999 -0.45100001 150 0 0 0 0.053879999
2.9030001 -0.78399998 -0.44999999 150 0 0 0 0.053890001
2.865 -0.76499999 -0.44 46 0 0 0 0.0539
2.694 -0.71100003 -0.41 2 0 0 0 0.053909998
2.7119999 -0.70700002 -0.40900001 2 0 0 0 0.053920001
2.6470001 -0.68199998 -0.39500001 2 0 0 0 0.053929999
2.5380001 -0.64600003 -0.37599999 3 0 0 0 0.053939998
2.5810001 -0.64899999 -0.37799999 4 0 0 0 0.053950001
2.573 -0.639 -0.373 3 0 0 0 0.053959999
2.5639999 -0.62900001 -0.368 3 0 0 0 0.053970002
2.562 -0.62099999 -0.36500001 4 0 0 0 0.05398
2.563 -0.61400002 -0.361 8 0 0 0 0.053989999
2.566 -0.60600001 -0.35800001 6 0 0 0 0.054000001
2.556 -0.59600002 -0.35299999 4 0 0 0 0.05401
2.549 -0.58700001 -0.34799999 3 0 0 0 0.054019999
2.5569999 -0.58099997 -0.345 3 0 0 0 0.054030001
2.5639999 -0.57499999 -0.34299999 2 0 0 0 0.05404
2.5680001 -0.56800002 -0.33899999 2 0 0 0 0.054049999
2.5699999 -0.56099999 -0.336 2 0 0 0 0.054060001
2.575 -0.55400002 -0.33199999 2 0 0 0 0.05407
2.7539999 -0.58399999 -0.35100001 20 0 0 0 0.054079998
2.8740001 -0.60100001 -0.36199999 28 0 0 0 0.054090001
2.8859999 -0.59500003 -0.36000001 32 0 0 0 0.054099999
2.9260001 -0.59500003 -0.36000001 38 0 0 0 0.054110002
2.9489999 -0.59100002 -0.359 89 0 0 0 0.05412
2.977 -0.58700001 -0.35699999 50 0 0 0 0.054129999
3.112 -0.60500002 -0.36899999 62 0 0 0 0.054140002
3.3440001 -0.63999999 -0.391 61 0 0 0 0.05415
3.3280001 -0.62699997 -0.384 54 0 0 0 0.054159999
3.3239999 -0.61699998 -0.37900001 65 0 0 0 0.054170001
3.3610001 -0.61400002 -0.37799999 54 0 0 0 0.05418
3.2750001 -0.588 -0.36300001 52 0 0 0 0.054189999
2.779 -0.491 -0.30399999 13 0 0 0 0.054200001
3.9579999 -0.68800002 -0.426 151 0 0 0 0.05421
4.2420001 -0.72500002 -0.44999999 150 0 0 0 0.054219998
3.6029999 -0.60500002 -0.377 150 0 0 0 0.054230001
3.405 -0.56199998 -0.34999999 150 0 0 0 0.05424
3.402 -0.55199999 -0.345 150 0 0 0 0.054249998
3.404 -0.542 -0.34 150 0 0 0 0.054260001
3.405 -0.53299999 -0.33399999 150 0 0 0 0.054269999
3.4130001 -0.52399999 -0.329 150 0 0 0 0.054280002
3.408 -0.51300001 -0.32300001 150 0 0 0 0.05429
3.4100001 -0.50400001 -0.31799999 150 0 0 0 0.054299999
3.404 -0.493 -0.31200001 150 0 0 0 0.054310001
3.4059999 -0.484 -0.30700001 150 0 0 0 0.05432
3.404 -0.47400001 -0.301 150 0 0 0 0.054329999
3.3970001 -0.463 -0.29499999 142 0 0 0 0.054340001
3.3929999 -0.45300001 -0.289 125 0 0 0 0.05435
3.3900001 -0.44299999 -0.28299999 150 0 0 0 0.054359999
3.3150001 -0.42399999 -0.27200001 150 0 0 0 0.054370001
3.244 -0.405 -0.25999999 150 0 0 0 0.05438
3.247 -0.396 -0.255 150 0 0 0 0.054389998
3.244 -0.38699999 -0.25 150 0 0 0 0.054400001
3.2420001 -0.37799999 -0.244 150 0 0 0 0.054409999
3.244 -0.36899999 -0.23899999 150 0 0 0 0.054420002
3.2420001 -0.359 -0.233 150 0 0 0 0.05443
3.233 -0.34900001 -0.227 150 0 0 0 0.054439999
3.2090001 -0.338 -0.22 150 0 0 0 0.054450002
3.23 -0.331 -0.21600001 150 0 0 0 0.05446
3.2360001 -0.322 -0.211 150 0 0 0 0.054469999
3.227 -0.31299999 -0.205 150 0 0 0 0.054480001
3.227 -0.30399999 -0.199 150 0 0 0 0.05449
3.2279999 -0.29499999 -0.19400001 150 0 0 0 0.054499999
3.2290001 -0.28600001 -0.18799999 150 0 0 0 0.054510001
3.224 -0.27599999 -0.183 150 0 0 0 0.05452
3.2290001 -0.26800001 -0.177 150 0 0 0 0.054529998
3.227 -0.259 -0.17200001 150 0 0 0 0.054540001
3.233 -0.25 -0.16599999 150 0 0 0 0.05455
3.2320001 -0.241 -0.161 150 0 0 0 0.054559998
3.224 -0.23199999 -0.155 150 0 0 0 0.054570001
3.224 -0.223 -0.149 150 0 0 0 0.054579999
3.2249999 -0.214 -0.14399999 150 0 0 0 0.054590002
3.2260001 -0.205 -0.138 150 0 0 0 0.0546
3.23 -0.197 -0.132 150 0 0 0 0.054609999
3.2279999 -0.18799999 -0.127 150 0 0 0 0.054620001
3.223 -0.17900001 -0.121 150 0 0 0 0.05463
3.223 -0.17 -0.115 150 0 0 0 0.054639999
3.221 -0.161 -0.109 150 0 0 0 0.054650001
3.221 -0.152 -0.104 150 0 0 0 0.05466
3.221 -0.14399999 -0.097999997 150 0 0 0 0.054669999
3.2119999 -0.13500001 -0.092 150 0 0 0 0.054680001
3.2179999 -0.126 -0.086000003 150 0 0 0 0.05469
3.2179999 -0.117 -0.081 150 0 0 0 0.054699998
3.214 -0.109 -0.075000003 150 0 0 0 0.054710001
3.214 -0.1 -0.068999998 150 0 0 0 0.054719999
3.2190001 -0.092 -0.063000001 150 0 0 0 0.054730002
3.2149999 -0.082999997 -0.057 150 0 0 0 0.054740001
3.21 -0.074000001 -0.050999999 150 0 0 0 0.054749999
3.2090001 -0.064999998 -0.045000002 150 0 0 0 0.054760002
3.21 -0.057 -0.039999999 150 0 0 0 0.05477
3.21 -0.048 -0.034000002 150 0 0 0 0.054779999
3.21 -0.039000001 -0.028000001 150 0 0 0 0.054790001
3.21 -0.030999999 -0.022 150 0 0 0 0.0548
3.21 -0.022 -0.016000001 150 0 0 0 0.054809999
3.1849999 -0.014 -0.0099999998 150 0 0 0 0.054820001
3.148 -0.0049999999 -0.0040000002 150 0 0 0 0.05483
3.1860001 0.0020000001 0.001 150 0 0 0 0.054839998
3.2620001 0.011 0.0070000002 150 0 0 0 0.054850001
3.4960001 0.021 0.014 49 0 0 0 0.05486
3.6210001 0.030999999 0.021 42 0 0 0 0.054869998
3.675 0.041000001 0.028000001 11 0 0 0 0.054880001
4.4879999 0.061999999 0.043000001 0 0 0 0 0.054889999
4.5120001 0.074000001 0.052000001 0 0 0 0 0.054900002
3.1459999 0.059999999 0.041999999 152 0 0 0 0.05491
0 0 0 0 0 0 0 0.054919999
2.931 0.071000002 0.050000001 158 0 0 0 0.054930001
2.9230001 0.079000004 0.056000002 156 0 0 0 0.05494
2.931 0.086999997 0.061000001 155 0 0 0 0.054949999
2.95 0.094999999 0.067000002 153 0 0 0 0.054960001
2.9349999 0.102 0.072999999 155 0 0 0 0.05497
2.9760001 0.111 0.079000004 152 0 0 0 0.054979999
3.049 0.122 0.086999997 150 0 0 0 0.054990001
3.013 0.12899999 0.092 150 0 0 0 0.055
2.9130001 0.132 0.094999999 150 0 0 0 0.055009998
2.911 0.139 0.1 151 0 0 0 0.055020001
2.9170001 0.147 0.106 150 0 0 0 0.055029999
2.918 0.155 0.112 150 0 0 0 0.055039998
2.9619999 0.16500001 0.119 24 0 0 0 0.055050001
3.0190001 0.176 0.127 30 0 0 0 0.055059999
3.0109999 0.183 0.133 33 0 0 0 0.055070002
3.017 0.191 0.139 29 0 0 0 0.05508
3.036 0.2 0.146 29 0 0 0 0.055089999
3.059 0.20999999 0.153 30 0 0 0 0.055100001
3.079 0.219 0.16 29 0 0 0 0.05511
3.062 0.226 0.16599999 27 0 0 0 0.055119999
3.0610001 0.234 0.17200001 27 0 0 0 0.055130001
3.066 0.242 0.178 23 0 0 0 0.05514
3.062 0.249 0.184 17 0 0 0 0.055149999
3.059 0.257 0.19 11 0 0 0 0.055160001
3.053 0.264 0.19599999 6 0 0 0 0.05517
3.6400001 0.32499999 0.241 6 0 0 0 0.055179998
3.7379999 0.34299999 0.255 8 0 0 0 0.055190001
3.796 0.35800001 0.26699999 10 0 0 0 0.055199999
2.9089999 0.28200001 0.20999999 26 0 0 0 0.055210002
2.869 0.285 0.213 93 0 0 0 0.05522
2.8670001 0.292 0.219 150 0 0 0 0.055229999
2.8729999 0.30000001 0.22499999 150 0 0 0 0.055240002
2.868 0.30700001 0.23100001 150 0 0 0 0.05525
2.8310001 0.31 0.234 150 0 0 0 0.055259999
2.7980001 0.31299999 0.237 124 0 0 0 0.055270001
2.8050001 0.32100001 0.243 150 0 0 0 0.05528
2.8110001 0.329 0.25 150 0 0 0 0.055289999
2.8369999 0.33899999 0.25799999 150 0 0 0 0.055300001
2.8299999 0.34599999 0.26300001 150 0 0 0 0.05531
2.8210001 0.352 0.26800001 150 0 0 0 0.055319998
2.8050001 0.35699999 0.273 123 0 0 0 0.055330001
2.7780001 0.36000001 0.27599999 110 0 0 0 0.055339999
2.773 0.366 0.28099999 150 0 0 0 0.055349998
2.77 0.373 0.287 150 0 0 0 0.055360001
2.789 0.38299999 0.29499999 150 0 0 0 0.055369999
2.8039999 0.39199999 0.30199999 150 0 0 0 0.055380002
2.809 0.39899999 0.30899999 151 0 0 0 0.05539
2.809 0.40599999 0.315 150 0 0 0 0.055399999
2.8 0.412 0.31999999 150 0 0 0 0.055410001
2.7980001 0.419 0.32600001 150 0 0 0 0.05542
2.773 0.42199999 0.329 150 0 0 0 0.055429999
2.75 0.42500001 0.33199999 150 0 0 0 0.055440001
2.7550001 0.433 0.33899999 150 0 0 0 0.05545
2.7590001 0.44 0.34599999 150 0 0 0 0.055459999
2.76 0.447 0.352 150 0 0 0 0.055470001
2.7679999 0.456 0.359 150 0 0 0 0.05548
2.7720001 0.463 0.366 150 0 0 0 0.055489998
2.7650001 0.46900001 0.37099999 150 0 0 0 0.055500001
2.76 0.47499999 0.37599999 150 0 0 0 0.055509999
2.7609999 0.48199999 0.38299999 150 0 0 0 0.055520002
2.7550001 0.48699999 0.38800001 150 0 0 0 0.05553
2.7579999 0.495 0.39500001 150 0 0 0 0.055539999
2.7609999 0.50199997 0.40099999 150 0 0 0 0.055550002
2.779 0.51200002 0.41 150 0 0 0 0.05556
2.7839999 0.51999998 0.417 105 0 0 0 0.055569999
2.836 0.53600001 0.43099999 98 0 0 0 0.055580001
2.8469999 0.546 0.44 150 0 0 0 0.05559
2.816 0.546 0.44100001 150 0 0 0 0.055599999
2.8080001 0.55199999 0.447 150 0 0 0 0.055610001
2.803 0.55699998 0.45199999 150 0 0 0 0.05562
2.8039999 0.565 0.45899999 149 0 0 0 0.055629998
2.8050001 0.57099998 0.46599999 88 0 0 0 0.055640001
2.8169999 0.58099997 0.47400001 139 0 0 0 0.05565
2.826 0.58899999 0.48199999 150 0 0 0 0.055659998
2.823 0.59600002 0.48800001 150 0 0 0 0.055670001
2.8139999 0.60000002 0.493 150 0 0 0 0.055679999
2.8 0.60399997 0.498 150 0 0 0 0.055690002
2.7969999 0.61000001 0.50400001 150 0 0 0 0.0557
2.7880001 0.61500001 0.509 150 0 0 0 0.055709999
2.7850001 0.62099999 0.51499999 134 0 0 0 0.055720001
2.783 0.62699997 0.52100003 150 0 0 0 0.05573
2.783 0.634 0.528 150 0 0 0 0.055739999
2.783 0.63999999 0.53399998 150 0 0 0 0.055750001
2.7869999 0.648 0.542 145 0 0 0 0.05576
2.7880001 0.65499997 0.54900002 150 0 0 0 0.055769999
2.79 0.66100001 0.55599999 105 0 0 0 0.055780001
2.806 0.67199999 0.56599998 56 0 0 0 0.05579
2.8080001 0.67900002 0.57300001 106 0 0 0 0.055799998
2.8 0.68400002 0.57800001 103 0 0 0 0.055810001
2.776 0.68400002 0.57999998 63 0 0 0 0.055819999
2.757 0.68599999 0.583 77 0 0 0 0.055830002
2.7460001 0.68900001 0.588 142 0 0 0 0.055840001
2.743 0.69499999 0.59399998 96 0 0 0 0.055849999
2.7709999 0.70899999 0.60699999 51 0 0 0 0.055860002
2.7939999 0.72100002 0.61900002 55 0 0 0 0.05587
2.789 0.72600001 0.625 62 0 0 0 0.055879999
2.777 0.72899997 0.62900001 68 0 0 0 0.055890001
2.7679999 0.73299998 0.634 66 0 0 0 0.0559
2.7650001 0.73900002 0.63999999 55 0 0 0 0.055909999
2.7590001 0.74299997 0.64600003 40 0 0 0 0.055920001
2.753 0.74800003 0.65200001 48 0 0 0 0.05593
2.75 0.75300002 0.65799999 76 0 0 0 0.055939998
2.7479999 0.759 0.66500002 84 0 0 0 0.055950001
2.75 0.76599997 0.67199999 56 0 0 0 0.05596
2.7620001 0.77600002 0.68199998 60 0 0 0 0.055969998
2.766 0.78299999 0.69 136 0 0 0 0.055980001
2.7690001 0.79000002 0.69800001 150 0 0 0 0.055989999
2.767 0.79500002 0.70499998 150 0 0 0 0.056000002
2.766 0.801 0.71200001 150 0 0 0 0.05601
2.766 0.80699998 0.71899998 131 0 0 0 0.056019999
2.7709999 0.815 0.72799999 52 0 0 0 0.056030001
2.7750001 0.82200003 0.736 39 0 0 0 0.05604
2.783 0.82999998 0.74599999 42 0 0 0 0.056049999
2.7869999 0.83700001 0.75400001 34 0 0 0 0.056060001
2.79 0.84399998 0.76200002 44 0 0 0 0.05607
2.7869999 0.84899998 0.76899999 68 0 0 0 0.056079999
2.78 0.85299999 0.77399999 90 0 0 0 0.056090001
2.776 0.85799998 0.78100002 96 0 0 0 0.0561
2.7709999 0.86199999 0.787 103 0 0 0 0.056109998
2.7639999 0.866 0.792 99 0 0 0 0.056120001
2.7679999 0.87300003 0.801 114 0 0 0 0.056129999
2.7720001 0.88 0.81 68 0 0 0 0.056139998
2.7690001 0.88499999 0.81599998 40 0 0 0 0.056150001
2.777 0.89300001 0.82599998 32 0 0 0 0.056159999
2.78 0.89899999 0.83399999 31 0 0 0 0.056170002
2.789 0.90799999 0.84500003 30 0 0 0 0.05618
2.8010001 0.91799998 0.85600001 48 0 0 0 0.056189999
2.7920001 0.92000002 0.861 81 0 0 0 0.056200001
2.7920001 0.926 0.86900002 121 0 0 0 0.05621
2.79 0.93099999 0.875 111 0 0 0 0.056219999
2.7909999 0.93699998 0.884 79 0 0 0 0.056230001
2.7880001 0.94099998 0.88999999 59 0 0 0 0.05624
2.7909999 0.94800001 0.89899999 50 0 0 0 0.056249999
2.789 0.95200002 0.90600002 48 0 0 0 0.056260001
2.7920001 0.95899999 0.91500002 43 0 0 0 0.05627
2.79 0.963 0.92199999 46 0 0 0 0.056279998
2.7850001 0.96700001 0.92799997 56 0 0 0 0.056290001
2.786 0.97299999 0.93599999 70 0 0 0 0.056299999
2.7869999 0.97799999 0.94400001 69 0 0 0 0.056310002
2.803 0.98900002 0.958 67 0 0 0 0.05632
2.8139999 0.99800003 0.96899998 63 0 0 0 0.056329999
2.8210001 1.006 0.98000002 54 0 0 0 0.056340002
2.8110001 1.007 0.98400003 57 0 0 0 0.05635
2.8039999 1.01 0.98900002 59 0 0 0 0.056359999
2.799 1.012 0.995 68 0 0 0 0.056370001
2.7909999 1.015 1.001 73 0 0 0 0.05638
2.7980001 1.022 1.011 51 0 0 0 0.056389999
2.813 1.033 1.025 49 0 0 0 0.056400001
2.819 1.039 1.034 65 0 0 0 0.05641
2.823 1.046 1.044 94 0 0 0 0.056419998
2.8210001 1.05 1.051 102 0 0 0 0.056430001
2.8169999 1.053 1.058 99 0 0 0 0.056439999
2.823 1.0599999 1.068 71 0 0 0 0.056449998
2.8280001 1.066 1.0779999 60 0 0 0 0.056460001
2.832 1.072 1.087 53 0 0 0 0.056469999
2.835 1.0779999 1.097 57 0 0 0 0.056480002
2.829 1.08 1.102 47 0 0 0 0.05649
2.8210001 1.081 1.107 40 0 0 0 0.056499999
2.806 1.079 1.109 39 0 0 0 0.056510001
2.793 1.0779999 1.112 46 0 0 0 0.05652
2.7909999 1.082 1.119 54 0 0 0 0.056529999
2.79 1.085 1.126 58 0 0 0 0.056540001
2.7909999 1.09 1.135 58 0 0 0 0.05655
2.7909999 1.094 1.143 59 0 0 0 0.056559999
2.7850001 1.095 1.148 57 0 0 0 0.056570001
2.7850001 1.099 1.156 55 0 0 0 0.05658
2.7869999 1.103 1.164 50 0 0 0 0.056589998
2.789 1.108 1.173 47 0 0 0 0.056600001
2.7939999 1.114 1.183 45 0 0 0 0.056609999
2.8010001 1.12 1.194 43 0 0 0 0.056620002
2.799 1.123 1.201 37 0 0 0 0.05663
2.793 1.124 1.206 35 0 0 0 0.056639999
2.7909999 1.126 1.212 35 0 0 0 0.056650002
2.7880001 1.128 1.219 36 0 0 0 0.05666
2.779 1.128 1.223 43 0 0 0 0.056669999
2.7850001 1.133 1.233 52 0 0 0 0.056680001
2.7839999 1.135 1.24 59 0 0 0 0.05669
2.783 1.138 1.247 59 0 0 0 0.056699999
2.7850001 1.142 1.256 59 0 0 0 0.056710001
2.786 1.145 1.2640001 57 0 0 0 0.05672
2.789 1.149 1.273 57 0 0 0 0.056729998
2.7869999 1.15 1.279 58 0 0 0 0.056740001
2.79 1.154 1.288 58 0 0 0 0.05675
2.7880001 1.156 1.295 59 0 0 0 0.056759998
2.786 1.1569999 1.301 59 0 0 0 0.056770001
2.789 1.161 1.309 60 0 0 0 0.056779999
2.7909999 1.164 1.318 59 0 0 0 0.056790002
2.793 1.1670001 1.326 58 0 0 0 0.0568
2.7909999 1.168 1.332 53 0 0 0 0.056809999
2.7920001 1.171 1.34 50 0 0 0 0.056820001
2.7950001 1.174 1.349 49 0 0 0 0.05683
2.7939999 1.175 1.355 47 0 0 0 0.056839999
2.7969999 1.178 1.364 46 0 0 0 0.056850001
2.7969999 1.179 1.37 46 0 0 0 0.05686
2.7939999 1.179 1.376 46 0 0 0 0.056869999
2.8010001 1.184 1.386 45 0 0 0 0.056880001
2.799 1.184 1.392 45 0 0 0 0.05689
2.799 1.1849999 1.399 43 0 0 0 0.056899998
2.8 1.187 1.406 40 0 0 0 0.056910001
2.799 1.187 1.4119999 40 0 0 0 0.056919999
2.7969999 1.188 1.418 39 0 0 0 0.056930002
2.799 1.189 1.425 39 0 0 0 0.056940001
2.803 1.192 1.434 40 0 0 0 0.056949999
2.8010001 1.192 1.439 39 0 0 0 0.056960002
2.8 1.191 1.4450001 39 0 0 0 0.05697
2.803 1.193 1.4529999 39 0 0 0 0.056979999
2.803 1.194 1.459 39 0 0 0 0.056990001
2.8010001 1.193 1.464 40 0 0 0 0.057
2.8050001 1.1950001 1.472 40 0 0 0 0.057009999
2.8 1.193 1.475 39 0 0 0 0.057020001
2.8050001 1.1950001 1.484 40 0 0 0 0.05703
2.8039999 1.194 1.489 40 0 0 0 0.057039998
2.8 1.192 1.492 40 0 0 0 0.057050001
2.8 1.192 1.498 40 0 0 0 0.05706
2.806 1.194 1.506 41 0 0 0 0.057069998
2.8039999 1.192 1.511 49 0 0 0 0.057080001
2.8010001 1.1900001 1.5140001 54 0 0 0 0.057089999
2.8039999 1.191 1.521 58 0 0 0 0.057100002
2.7980001 1.188 1.523 61 0 0 0 0.05711
2.7969999 1.186 1.527 62 0 0 0 0.057119999
2.799 1.186 1.534 58 0 0 0 0.057130001
2.8 1.1849999 1.539 55 0 0 0 0.05714
2.7969999 1.183 1.5420001 53 0 0 0 0.057149999
2.799 1.182 1.548 53 0 0 0 0.057160001
2.7969999 1.179 1.551 54 0 0 0 0.05717
2.7950001 1.177 1.554 57 0 0 0 0.057179999
2.793 1.175 1.557 61 0 0 0 0.057190001
2.7969999 1.174 1.563 65 0 0 0 0.0572
2.7909999 1.17 1.564 68 0 0 0 0.057209998
2.79 1.168 1.567 70 0 0 0 0.057220001
2.7920001 1.1670001 1.572 71 0 0 0 0.057229999
2.7869999 1.1619999 1.573 69 0 0 0 0.057240002
2.7869999 1.16 1.577 67 0 0 0 0.057250001
2.7839999 1.156 1.5779999 64 0 0 0 0.057259999
2.7839999 1.154 1.582 64 0 0 0 0.057270002
2.7809999 1.15 1.5829999 64 0 0 0 0.05728
2.78 1.147 1.586 64 0 0 0 0.057289999
2.779 1.1440001 1.5880001 62 0 0 0 0.057300001
2.777 1.14 1.59 59 0 0 0 0.05731
2.779 1.138 1.5930001 57 0 0 0 0.057319999
2.7750001 1.1339999 1.594 61 0 0 0 0.057330001
2.7750001 1.13 1.596 71 0 0 0 0.05734
2.7739999 1.126 1.598 86 0 0 0 0.057349999
2.773 1.123 1.599 97 0 0 0 0.057360001
2.7739999 1.12 1.602 121 0 0 0 0.05737
2.7739999 1.1160001 1.604 130 0 0 0 0.057379998
2.773 1.112 1.605 142 0 0 0 0.057390001
2.7720001 1.108 1.6059999 146 0 0 0 0.057399999
2.77 1.104 1.607 144 0 0 0 0.057410002
2.7709999 1.1 1.608 150 0 0 0 0.05742
2.7709999 1.096 1.61 145 0 0 0 0.057429999
2.7679999 1.091 1.609 150 0 0 0 0.057440002
2.7720001 1.089 1.612 148 0 0 0 0.05745
2.7679999 1.0829999 1.6109999 140 0 0 0 0.057459999
2.7690001 1.079 1.613 136 0 0 0 0.057470001
2.7709999 1.075 1.614 137 0 0 0 0.05748
2.7679999 1.0700001 1.613 150 0 0 0 0.057489999
2.7690001 1.066 1.614 149 0 0 0 0.057500001
2.7650001 1.0599999 1.612 148 0 0 0 0.05751
2.7679999 1.057 1.614 140 0 0 0 0.057519998
2.7720001 1.054 1.6160001 144 0 0 0 0.057530001
2.773 1.049 1.6160001 135 0 0 0 0.057539999
2.7720001 1.044 1.615 142 0 0 0 0.057549998
2.7739999 1.04 1.6160001 150 0 0 0 0.057560001
2.777 1.036 1.618 150 0 0 0 0.057569999
2.773 1.03 1.614 150 0 0 0 0.057580002
2.777 1.026 1.6160001 150 0 0 0 0.05759
2.7820001 1.023 1.618 150 0 0 0 0.057599999
2.7839999 1.0190001 1.618 150 0 0 0 0.057610001
2.786 1.0140001 1.618 150 0 0 0 0.05762
2.7909999 1.011 1.619 150 0 0 0 0.057629999
2.7920001 1.006 1.618 149 0 0 0 0.057640001
2.7920001 1.001 1.617 108 0 0 0 0.05765
2.79 0.99400002 1.614 99 0 0 0 0.057659999
2.789 0.98900002 1.6109999 105 0 0 0 0.057670001
2.7869999 0.98199999 1.608 87 0 0 0 0.05768
2.7809999 0.97500002 1.603 64 0 0 0 0.057689998
2.7850001 0.97000003 1.603 51 0 0 0 0.057700001
2.776 0.96200001 1.596 55 0 0 0 0.057709999
2.7750001 0.95599997 1.5930001 68 0 0 0 0.057720002
2.7739999 0.94999999 1.589 83 0 0 0 0.05773
2.773 0.94400001 1.586 92 0 0 0 0.057739999
2.776 0.93900001 1.585 90 0 0 0 0.057750002
2.7780001 0.93400002 1.5829999 87 0 0 0 0.05776
2.7820001 0.92900002 1.5829999 78 0 0 0 0.057769999
2.7850001 0.92400002 1.581 75 0 0 0 0.057780001
2.793 0.921 1.582 82 0 0 0 0.05779
2.7869999 0.91299999 1.576 65 0 0 0 0.057799999
2.7780001 0.90399998 1.567 57 0 0 0 0.057810001
2.7750001 0.89700001 1.562 64 0 0 0 0.05782
2.7780001 0.89300001 1.5599999 68 0 0 0 0.057829998
2.7850001 0.889 1.5599999 83 0 0 0 0.057840001
2.7920001 0.88499999 1.5599999 123 0 0 0 0.05785
2.7869999 0.87699997 1.554 92 0 0 0 0.057859998
2.777 0.86799997 1.544 93 0 0 0 0.057870001
2.779 0.86199999 1.541 142 0 0 0 0.057879999
2.777 0.85600001 1.535 126 0 0 0 0.057890002
2.7809999 0.85100001 1.533 115 0 0 0 0.0579
2.789 0.847 1.533 107 0 0 0 0.057909999
2.796 0.84299999 1.533 107 0 0 0 0.057920001
2.802 0.83899999 1.531 61 0 0 0 0.05793
2.7880001 0.829 1.5190001 42 0 0 0 0.057939999
2.7709999 0.81699997 1.505 47 0 0 0 0.057950001
2.7690001 0.81099999 1.499 62 0 0 0 0.05796
2.767 0.80400002 1.493 70 0 0 0 0.057969999
2.77 0.79900002 1.489 64 0 0 0 0.057980001
2.7709999 0.79299998 1.485 50 0 0 0 0.05799
2.7750001 0.78799999 1.482 39 0 0 0 0.057999998
2.7880001 0.78500003 1.483 33 0 0 0 0.058010001
2.8039999 0.78399998 1.4859999 33 0 0 0 0.058019999
2.816 0.78100002 1.487 34 0 0 0 0.058030002
2.823 0.77600002 1.485 32 0 0 0 0.05804
2.8199999 0.76899999 1.478 20 0 0 0 0.058049999
2.793 0.75599998 1.4579999 31 0 0 0 0.058060002
2.7780001 0.74599999 1.444 43 0 0 0 0.05807
2.7780001 0.73900002 1.438 58 0 0 0 0.058079999
2.7739999 0.73199999 1.431 69 0 0 0 0.058090001
2.7739999 0.72600001 1.425 69 0 0 0 0.0581
2.7780001 0.72100002 1.42 56 0 0 0 0.058109999
2.789 0.71799999 1.42 42 0 0 0 0.058120001
2.802 0.71499997 1.42 33 0 0 0 0.05813
2.816 0.71200001 1.421 26 0 0 0 0.058139998
2.826 0.70899999 1.42 33 0 0 0 0.058150001
2.8299999 0.704 1.415 37 0 0 0 0.05816
2.823 0.69599998 1.405 34 0 0 0 0.058169998
2.8110001 0.68699998 1.392 40 0 0 0 0.058180001
2.7950001 0.67699999 1.378 55 0 0 0 0.058189999
2.7920001 0.67000002 1.37 55 0 0 0 0.058200002
2.789 0.66299999 1.362 59 0 0 0 0.05821
2.7880001 0.65700001 1.354 52 0 0 0 0.058219999
2.7980001 0.653 1.352 34 0 0 0 0.058230001
2.8150001 0.65100002 1.354 25 0 0 0 0.05824
2.8169999 0.64600003 1.348 27 0 0 0 0.058249999
2.825 0.64200002 1.345 28 0 0 0 0.058260001
2.8310001 0.63700002 1.34 29 0 0 0 0.05827
2.829 0.63099998 1.332 31 0 0 0 0.058279999
2.8150001 0.62199998 1.318 28 0 0 0 0.058290001
2.8010001 0.61299998 1.3049999 34 0 0 0 0.0583
2.803 0.60799998 1.298 39 0 0 0 0.058309998
2.8010001 0.60100001 1.29 40 0 0 0 0.058320001
2.809 0.597 1.286 44 0 0 0 0.058329999
2.8050001 0.59100002 1.277 45 0 0 0 0.058340002
2.7950001 0.583 1.266 48 0 0 0 0.058350001
2.786 0.57499999 1.2539999 42 0 0 0 0.058359999
2.779 0.56800002 1.244 37 0 0 0 0.058370002
2.766 0.56 1.23 38 0 0 0 0.05838
2.7679999 0.55500001 1.224 40 0 0 0 0.058389999
2.7709999 0.55000001 1.2180001 34 0 0 0 0.058400001
2.7780001 0.546 1.2130001 41 0 0 0 0.05841
2.776 0.54000002 1.205 55 0 0 0 0.058419999
2.7750001 0.53399998 1.196 56 0 0 0 0.058430001
2.7639999 0.52700001 1.184 50 0 0 0 0.05844
2.7620001 0.52100003 1.176 40 0 0 0 0.058449998
2.7639999 0.51599997 1.169 29 0 0 0 0.058460001
2.763 0.50999999 1.161 25 0 0 0 0.05847
2.7609999 0.50400001 1.152 26 0 0 0 0.058479998
2.757 0.498 1.143 37 0 0 0 0.058490001
2.7520001 0.49200001 1.133 41 0 0 0 0.058499999
2.7520001 0.48699999 1.125 35 0 0 0 0.058510002
2.7620001 0.484 1.122 30 0 0 0 0.05852
2.7690001 0.47999999 1.117 31 0 0 0 0.058529999
2.773 0.47499999 1.11 34 0 0 0 0.058540002
2.77 0.46900001 1.101 39 0 0 0 0.05855
2.7720001 0.46399999 1.094 40 0 0 0 0.058559999
2.7809999 0.461 1.09 40 0 0 0 0.058570001
2.783 0.456 1.082 40 0 0 0 0.05858
2.786 0.45100001 1.076 40 0 0 0 0.058589999
2.79 0.447 1.069 41 0 0 0 0.058600001
2.786 0.44100001 1.059 43 0 0 0 0.05861
2.7850001 0.43599999 1.051 54 0 0 0 0.058619998
2.783 0.43099999 1.0420001 67 0 0 0 0.058630001
2.783 0.426 1.034 75 0 0 0 0.058639999
2.7839999 0.421 1.026 59 0 0 0 0.058649998
2.7909999 0.41800001 1.021 45 0 0 0 0.058660001
2.8010001 0.414 1.016 40 0 0 0 0.058669999
2.8199999 0.412 1.015 40 0 0 0 0.058680002
2.829 0.40799999 1.0089999 41 0 0 0 0.05869
2.8269999 0.403 1.001 38 0 0 0 0.058699999
2.826 0.398 0.99199998 39 0 0 0 0.058710001
2.826 0.39399999 0.98299998 40 0 0 0 0.05872
2.8169999 0.38800001 0.972 37 0 0 0 0.058729999
2.8169999 0.38299999 0.963 43 0 0 0 0.058740001
2.813 0.37799999 0.954 63 0 0 0 0.05875
2.8110001 0.373 0.94499999 112 0 0 0 0.058759999
2.8050001 0.36700001 0.93400002 145 0 0 0 0.058770001
2.8050001 0.36300001 0.926 150 0 0 0 0.05878
2.802 0.35800001 0.91600001 150 0 0 0 0.058789998
2.8 0.35299999 0.90700001 150 0 0 0 0.058800001
2.796 0.34799999 0.898 150 0 0 0 0.058809999
2.7939999 0.34299999 0.889 94 0 0 0 0.058820002
2.7980001 0.33899999 0.88200003 51 0 0 0 0.05883
2.793 0.33399999 0.87199998 44 0 0 0 0.058839999
2.7920001 0.33000001 0.86299998 49 0 0 0 0.058850002
2.7880001 0.32499999 0.85299999 57 0 0 0 0.05886
2.7809999 0.31999999 0.84299999 48 0 0 0 0.058869999
2.7820001 0.31600001 0.83499998 25 0 0 0 0.058880001
2.7969999 0.31299999 0.83099997 5 0 0 0 0.05889
3.0109999 0.33199999 0.88499999 0 0 0 0 0.058899999
3.0079999 0.32699999 0.875 0 0 0 0 0.058910001
3.0220001 0.324 0.87 0 0 0 0 0.05892
3.017 0.31900001 0.85900003 0 0 0 0 0.058929998
3.003 0.31299999 0.84600002 0 0 0 0 0.058940001
2.9300001 0.301 0.81699997 0 0 0 0 0.05895
2.941 0.29800001 0.81099999 0 0 0 0 0.058959998
