# .PCD v0.7 - Point Cloud Data file format
VERSION 0.7
FIELDS x y z intensity normal_x normal_y normal_z curvature
SIZE 4 4 4 4 4 4 4 4
TYPE F F F F F F F F
COUNT 1 1 1 1 1 1 1 1
WIDTH 1051
HEIGHT 1
VIEWPOINT 0 0 0 1 0 0 0
POINTS 1051
DATA ascii
1.664 -0.096000001 -0.0080000004 1 0 0 0 0.067270003
3.4400001 -0.20999999 -0.017999999 0 0 0 0 0.067280002
3.4200001 -0.22 -0.018999999 0 0 0 0 0.067290001
3.401 -0.23 -0.02 0 0 0 0 0.067299999
3.3469999 -0.237 -0.021 0 0 0 0 0.067309998
3.2650001 -0.242 -0.021 0 0 0 0 0.067319997
3.26 -0.252 -0.023 0 0 0 0 0.067330003
3.247 -0.26100001 -0.024 0 0 0 0 0.067340001
3.2190001 -0.26899999 -0.025 0 0 0 0 0.06735
3.2420001 -0.28200001 -0.026000001 0 0 0 0 0.067359999
3.201 -0.289 -0.027000001 3 0 0 0 0.067369998
3.2420001 -0.303 -0.028999999 1 0 0 0 0.067380004
3.257 -0.315 -0.029999999 0 0 0 0 0.067390002
3.2460001 -0.324 -0.030999999 0 0 0 0 0.067400001
3.2130001 -0.331 -0.032000002 0 0 0 0 0.06741
0 0 0 0 0 0 0 0.067419998
3.2550001 -0.35600001 -0.035999998 1 0 0 0 0.067429997
2.7809999 -0.31400001 -0.030999999 23 0 0 0 0.067440003
1.773 -0.206 -0.021 21 0 0 0 0.067450002
1.781 -0.212 -0.022 35 0 0 0 0.067460001
3.7479999 -0.45899999 -0.048 1 0 0 0 0.067469999
3.7739999 -0.47499999 -0.050000001 1 0 0 0 0.067479998
0 0 0 0 0 0 0 0.067489997
0 0 0 0 0 0 0 0.067500003
3.7320001 -0.505 -0.054000001 3 0 0 0 0.067510001
0 0 0 0 0 0 0 0.06752
3.7449999 -0.53200001 -0.057999998 20 0 0 0 0.067529999
3.74 -0.54299998 -0.059999999 24 0 0 0 0.067539997
0 0 0 0 0 0 0 0.067550004
3.7090001 -0.56300002 -0.063000001 5 0 0 0 0.067560002
3.6760001 -0.56900001 -0.064000003 1 0 0 0 0.067570001
1.274 -0.20100001 -0.023 0 0 0 0 0.06758
3.075 -0.49599999 -0.057 4 0 0 0 0.067589998
1.249 -0.205 -0.024 0 0 0 0 0.067599997
1.2690001 -0.213 -0.025 0 0 0 0 0.067610003
3.744 -0.64099997 -0.075999998 1 0 0 0 0.067620002
3.6849999 -0.64300001 -0.077 5 0 0 0 0.06763
3.717 -0.66000003 -0.079000004 14 0 0 0 0.067639999
3.704 -0.67000002 -0.081 15 0 0 0 0.067649998
3.677 -0.67699999 -0.082999997 6 0 0 0 0.067659996
3.625 -0.67900002 -0.083999999 1 0 0 0 0.067670003
3.625 -0.69099998 -0.086000003 1 0 0 0 0.067680001
3.5969999 -0.69800001 -0.086999997 5 0 0 0 0.06769
3.6110001 -0.71200001 -0.090000004 7 0 0 0 0.067699999
3.619 -0.72500002 -0.092 5 0 0 0 0.067709997
3.615 -0.736 -0.093999997 23 0 0 0 0.067720003
3.6170001 -0.74800003 -0.097000003 12 0 0 0 0.067730002
3.6059999 -0.75800002 -0.098999999 14 0 0 0 0.067740001
3.575 -0.76300001 -0.1 11 0 0 0 0.067749999
3.5369999 -0.76599997 -0.101 3 0 0 0 0.067759998
3.54 -0.77899998 -0.104 3 0 0 0 0.067769997
3.5550001 -0.79400003 -0.106 3 0 0 0 0.067780003
3.553 -0.80500001 -0.109 3 0 0 0 0.067790002
0.99699998 -0.229 -0.030999999 0 0 0 0 0.0678
0.99400002 -0.23100001 -0.030999999 3 0 0 0 0.067809999
1.005 -0.237 -0.033 3 0 0 0 0.067819998
0.98799998 -0.236 -0.033 3 0 0 0 0.067829996
0.99299997 -0.241 -0.034000002 0 0 0 0 0.067840002
0.99800003 -0.245 -0.034000002 0 0 0 0 0.067850001
3.3010001 -0.82300001 -0.117 1 0 0 0 0.06786
3.303 -0.83399999 -0.12 2 0 0 0 0.067869999
3.322 -0.85000002 -0.123 2 0 0 0 0.067879997
3.3169999 -0.86000001 -0.125 3 0 0 0 0.067890003
3.342 -0.87699997 -0.12899999 3 0 0 0 0.067900002
3.322 -0.88300002 -0.131 3 0 0 0 0.067910001
3.316 -0.89200002 -0.133 3 0 0 0 0.067919999
3.3080001 -0.90100002 -0.13500001 2 0 0 0 0.067929998
3.2839999 -0.90499997 -0.13699999 2 0 0 0 0.067939997
3.335 -0.93000001 -0.142 1 0 0 0 0.067950003
3.3570001 -0.94700003 -0.146 2 0 0 0 0.067960002
3.382 -0.96499997 -0.149 4 0 0 0 0.06797
3.3640001 -0.97100002 -0.15099999 5 0 0 0 0.067979999
3.3629999 -0.98100001 -0.154 5 0 0 0 0.067989998
3.3529999 -0.98900002 -0.15700001 5 0 0 0 0.068000004
3.3510001 -1 -0.15899999 4 0 0 0 0.068010002
3.355 -1.012 -0.162 5 0 0 0 0.068020001
3.3659999 -1.026 -0.16599999 5 0 0 0 0.06803
3.3529999 -1.033 -0.168 5 0 0 0 0.068039998
3.3699999 -1.049 -0.17200001 3 0 0 0 0.068049997
3.411 -1.073 -0.177 3 0 0 0 0.068060003
3.4030001 -1.082 -0.18000001 6 0 0 0 0.068070002
3.398 -1.091 -0.183 6 0 0 0 0.068080001
3.391 -1.1 -0.186 6 0 0 0 0.068089999
3.382 -1.109 -0.18799999 6 0 0 0 0.068099998
3.3789999 -1.118 -0.192 6 0 0 0 0.068109997
3.3640001 -1.124 -0.19400001 5 0 0 0 0.068120003
3.3740001 -1.1390001 -0.198 2 0 0 0 0.068130001
1.27 -0.43200001 -0.075000003 0 0 0 0 0.06814
1.302 -0.44800001 -0.079000004 6 0 0 0 0.068149999
1.308 -0.454 -0.079999998 13 0 0 0 0.068159997
1.302 -0.456 -0.081 95 0 0 0 0.068170004
1.296 -0.458 -0.082000002 150 0 0 0 0.068180002
1.293 -0.461 -0.082999997 150 0 0 0 0.068190001
1.2920001 -0.465 -0.085000001 150 0 0 0 0.0682
1.29 -0.46900001 -0.086000003 150 0 0 0 0.068209998
1.288 -0.472 -0.086999997 150 0 0 0 0.068219997
1.284 -0.47499999 -0.088 150 0 0 0 0.068230003
1.285 -0.479 -0.090000004 150 0 0 0 0.068240002
1.2819999 -0.48199999 -0.090999998 150 0 0 0 0.06825
1.28 -0.486 -0.092 150 0 0 0 0.068259999
1.277 -0.48899999 -0.093000002 150 0 0 0 0.068269998
1.288 -0.49700001 -0.096000001 42 0 0 0 0.068279997
1.3049999 -0.50800002 -0.097999997 6 0 0 0 0.068290003
1.316 -0.51700002 -0.101 1 0 0 0 0.068300001
1.3329999 -0.528 -0.104 1 0 0 0 0.06831
1.351 -0.53899997 -0.107 1 0 0 0 0.068319999
1.359 -0.54699999 -0.109 1 0 0 0 0.068329997
1.386 -0.56199998 -0.113 1 0 0 0 0.068340003
1.403 -0.57300001 -0.116 1 0 0 0 0.068350002
1.415 -0.58200002 -0.118 1 0 0 0 0.068360001
1.429 -0.59299999 -0.121 1 0 0 0 0.06837
1.441 -0.602 -0.124 8 0 0 0 0.068379998
2.1860001 -0.921 -0.191 150 0 0 0 0.068389997
2.283 -0.96899998 -0.20299999 150 0 0 0 0.068400003
2.3859999 -1.021 -0.215 150 0 0 0 0.068410002
2.381 -1.026 -0.21699999 150 0 0 0 0.06842
2.378 -1.0319999 -0.22 150 0 0 0 0.068429999
2.3410001 -1.023 -0.22 150 0 0 0 0.068439998
2.171 -0.95599997 -0.207 150 0 0 0 0.068449996
2.1259999 -0.94199997 -0.205 151 0 0 0 0.068460003
2.118 -0.94499999 -0.207 151 0 0 0 0.068470001
2.1199999 -0.95300001 -0.20999999 151 0 0 0 0.06848
2.108 -0.954 -0.212 151 0 0 0 0.068489999
2.102 -0.958 -0.214 151 0 0 0 0.068499997
2.105 -0.96600002 -0.21799999 151 0 0 0 0.068510003
2.0940001 -0.96700001 -0.219 151 0 0 0 0.068520002
2.092 -0.97299999 -0.222 151 0 0 0 0.068530001
2.086 -0.977 -0.22499999 151 0 0 0 0.068539999
2.0829999 -0.98199999 -0.227 151 0 0 0 0.068549998
2.0810001 -0.98699999 -0.23 151 0 0 0 0.068559997
2.076 -0.991 -0.23199999 151 0 0 0 0.068570003
2.073 -0.995 -0.235 151 0 0 0 0.068580002
2.0710001 -1.001 -0.23800001 151 0 0 0 0.06859
2.0669999 -1.005 -0.241 151 0 0 0 0.068599999
2.063 -1.0089999 -0.243 151 0 0 0 0.068609998
2.0599999 -1.0140001 -0.24600001 151 0 0 0 0.068619996
2.059 -1.0190001 -0.249 150 0 0 0 0.068630002
2.0669999 -1.03 -0.25299999 151 0 0 0 0.068640001
2.0699999 -1.0369999 -0.257 151 0 0 0 0.06865
2.073 -1.044 -0.25999999 151 0 0 0 0.068659998
2.069 -1.048 -0.26300001 151 0 0 0 0.068669997
2.0710001 -1.0549999 -0.266 150 0 0 0 0.068680003
2.1029999 -1.0779999 -0.27399999 31 0 0 0 0.068690002
2.1559999 -1.1109999 -0.28400001 30 0 0 0 0.068700001
2.184 -1.132 -0.292 27 0 0 0 0.068709999
2.2179999 -1.156 -0.30000001 25 0 0 0 0.068719998
2.25 -1.179 -0.308 26 0 0 0 0.068729997
2.2869999 -1.205 -0.31600001 27 0 0 0 0.068740003
2.322 -1.229 -0.32499999 27 0 0 0 0.068750001
2.3640001 -1.258 -0.33500001 28 0 0 0 0.06876
2.411 -1.29 -0.34599999 31 0 0 0 0.068769999
2.47 -1.3279999 -0.35800001 33 0 0 0 0.068779998
2.55 -1.378 -0.37400001 36 0 0 0 0.068790004
2.5999999 -1.4119999 -0.38600001 36 0 0 0 0.068800002
2.6429999 -1.442 -0.396 36 0 0 0 0.068810001
2.684 -1.472 -0.40700001 36 0 0 0 0.06882
2.71 -1.493 -0.41600001 36 0 0 0 0.068829998
2.73 -1.511 -0.42399999 35 0 0 0 0.068839997
2.757 -1.533 -0.433 35 0 0 0 0.068850003
2.8080001 -1.568 -0.44600001 35 0 0 0 0.068860002
2.8440001 -1.595 -0.456 30 0 0 0 0.068870001
2.862 -1.613 -0.46399999 28 0 0 0 0.068879999
2.8929999 -1.638 -0.47400001 52 0 0 0 0.068889998
2.8970001 -1.647 -0.47999999 150 0 0 0 0.068899997
2.898 -1.654 -0.48500001 151 0 0 0 0.068910003
2.8940001 -1.659 -0.49000001 150 0 0 0 0.068920001
2.8959999 -1.6670001 -0.495 150 0 0 0 0.06893
2.8889999 -1.67 -0.5 150 0 0 0 0.068939999
2.8859999 -1.674 -0.50400001 150 0 0 0 0.068949997
2.8800001 -1.677 -0.50800002 150 0 0 0 0.068960004
2.888 -1.689 -0.51499999 150 0 0 0 0.068970002
2.9030001 -1.704 -0.523 150 0 0 0 0.068980001
2.902 -1.71 -0.528 150 0 0 0 0.06899
2.8989999 -1.714 -0.53299999 150 0 0 0 0.068999998
2.898 -1.72 -0.53799999 150 0 0 0 0.069009997
2.8889999 -1.721 -0.542 150 0 0 0 0.069020003
2.904 -1.735 -0.54900002 150 0 0 0 0.069030002
2.9330001 -1.758 -0.56 150 0 0 0 0.06904
2.941 -1.7690001 -0.56699997 150 0 0 0 0.069049999
2.9400001 -1.774 -0.57300001 150 0 0 0 0.069059998
2.9400001 -1.78 -0.57800001 150 0 0 0 0.069069996
2.937 -1.784 -0.583 150 0 0 0 0.069080003
2.928 -1.784 -0.58700001 150 0 0 0 0.069090001
2.9319999 -1.7920001 -0.59299999 150 0 0 0 0.0691
2.928 -1.794 -0.597 150 0 0 0 0.069109999
2.925 -1.7970001 -0.602 150 0 0 0 0.069119997
2.918 -1.798 -0.60600001 150 0 0 0 0.069130003
2.9189999 -1.803 -0.61199999 150 0 0 0 0.069140002
2.918 -1.807 -0.61699998 150 0 0 0 0.069150001
2.918 -1.812 -0.62199998 150 0 0 0 0.069159999
2.9130001 -1.814 -0.62699997 150 0 0 0 0.069169998
2.9119999 -1.817 -0.63200003 150 0 0 0 0.069179997
2.908 -1.819 -0.63599998 150 0 0 0 0.069190003
2.9089999 -1.824 -0.64200002 150 0 0 0 0.069200002
2.905 -1.825 -0.64600003 150 0 0 0 0.06921
2.9030001 -1.827 -0.65100002 150 0 0 0 0.069219999
2.9000001 -1.83 -0.65600002 150 0 0 0 0.069229998
2.8989999 -1.8329999 -0.66100001 150 0 0 0 0.069239996
2.8970001 -1.835 -0.66600001 150 0 0 0 0.069250003
2.8970001 -1.8380001 -0.671 150 0 0 0 0.069260001
2.8929999 -1.8380001 -0.67500001 150 0 0 0 0.06927
2.8929999 -1.842 -0.68000001 150 0 0 0 0.069279999
2.891 -1.8430001 -0.685 150 0 0 0 0.069289997
2.8870001 -1.844 -0.68900001 150 0 0 0 0.069300003
2.888 -1.847 -0.69499999 150 0 0 0 0.069310002
2.8859999 -1.848 -0.699 150 0 0 0 0.069320001
2.8859999 -1.851 -0.704 150 0 0 0 0.069329999
2.8840001 -1.851 -0.70899999 150 0 0 0 0.069339998
2.8829999 -1.853 -0.71399999 150 0 0 0 0.069349997
2.8840001 -1.855 -0.71899998 150 0 0 0 0.069360003
2.882 -1.8559999 -0.72299999 150 0 0 0 0.069370002
2.8800001 -1.8559999 -0.72799999 150 0 0 0 0.06938
2.8789999 -1.857 -0.73199999 150 0 0 0 0.069389999
2.8829999 -1.8609999 -0.73799998 150 0 0 0 0.069399998
2.8789999 -1.86 -0.74199998 150 0 0 0 0.069410004
2.881 -1.862 -0.74699998 150 0 0 0 0.069420002
2.8789999 -1.862 -0.75099999 150 0 0 0 0.069430001
2.881 -1.863 -0.75700003 150 0 0 0 0.06944
2.8840001 -1.8660001 -0.76200002 78 0 0 0 0.069449998
2.8829999 -1.8660001 -0.76599997 51 0 0 0 0.069459997
2.8759999 -1.862 -0.76899999 40 0 0 0 0.069470003
2.855 -1.848 -0.76800001 29 0 0 0 0.069480002
2.8440001 -1.841 -0.76899999 26 0 0 0 0.069490001
2.8310001 -1.8329999 -0.76999998 27 0 0 0 0.069499999
2.8110001 -1.819 -0.76899999 28 0 0 0 0.069509998
2.8039999 -1.814 -0.77100003 27 0 0 0 0.069519997
2.789 -1.804 -0.77100003 27 0 0 0 0.069530003
2.776 -1.796 -0.77100003 27 0 0 0 0.069540001
2.7690001 -1.79 -0.773 29 0 0 0 0.06955
2.757 -1.781 -0.77399999 31 0 0 0 0.069559999
2.7409999 -1.77 -0.773 28 0 0 0 0.069569997
2.723 -1.757 -0.77200001 31 0 0 0 0.069580004
2.711 -1.748 -0.77200001 35 0 0 0 0.069590002
2.698 -1.738 -0.77200001 30 0 0 0 0.069600001
2.691 -1.732 -0.773 33 0 0 0 0.06961
2.6830001 -1.725 -0.77399999 33 0 0 0 0.069619998
2.671 -1.715 -0.77399999 34 0 0 0 0.069629997
2.665 -1.71 -0.77600002 38 0 0 0 0.069640003
2.6589999 -1.704 -0.77700001 38 0 0 0 0.069650002
2.6459999 -1.693 -0.77600002 38 0 0 0 0.069660001
2.6400001 -1.686 -0.77700001 38 0 0 0 0.069669999
2.628 -1.676 -0.77700001 38 0 0 0 0.069679998
2.622 -1.67 -0.778 38 0 0 0 0.069689997
2.6140001 -1.6619999 -0.778 38 0 0 0 0.069700003
2.6040001 -1.653 -0.778 38 0 0 0 0.069710001
2.5929999 -1.643 -0.77700001 37 0 0 0 0.06972
2.582 -1.633 -0.77700001 37 0 0 0 0.069729999
2.576 -1.626 -0.77700001 35 0 0 0 0.069739997
2.575 -1.622 -0.77899998 36 0 0 0 0.069750004
2.563 -1.6109999 -0.778 35 0 0 0 0.069760002
2.5569999 -1.604 -0.77899998 35 0 0 0 0.069770001
2.55 -1.595 -0.77899998 35 0 0 0 0.06978
2.543 -1.587 -0.77899998 35 0 0 0 0.069789998
2.5339999 -1.5779999 -0.778 35 0 0 0 0.069799997
2.527 -1.5700001 -0.778 35 0 0 0 0.069810003
2.523 -1.563 -0.778 34 0 0 0 0.069820002
2.5150001 -1.554 -0.778 34 0 0 0 0.06983
2.5079999 -1.545 -0.77700001 34 0 0 0 0.069839999
2.503 -1.538 -0.778 34 0 0 0 0.069849998
2.5020001 -1.5319999 -0.77899998 34 0 0 0 0.069859996
2.4920001 -1.522 -0.77700001 33 0 0 0 0.069870003
2.4920001 -1.517 -0.778 33 0 0 0 0.069880001
2.483 -1.507 -0.77700001 33 0 0 0 0.06989
2.4790001 -1.5 -0.77700001 33 0 0 0 0.069899999
2.477 -1.494 -0.77700001 33 0 0 0 0.069909997
2.47 -1.485 -0.77600002 32 0 0 0 0.069920003
2.4679999 -1.479 -0.77700001 32 0 0 0 0.069930002
2.4690001 -1.474 -0.778 33 0 0 0 0.069940001
2.47 -1.469 -0.77899998 32 0 0 0 0.069949999
2.4619999 -1.459 -0.77700001 32 0 0 0 0.069959998
2.461 -1.4529999 -0.778 32 0 0 0 0.069969997
2.454 -1.444 -0.77600002 32 0 0 0 0.069980003
2.4560001 -1.439 -0.778 32 0 0 0 0.069990002
2.4579999 -1.4349999 -0.77899998 32 0 0 0 0.07
2.454 -1.427 -0.778 32 0 0 0 0.070009999
2.454 -1.421 -0.778 32 0 0 0 0.070019998
2.4530001 -1.415 -0.778 32 0 0 0 0.070029996
2.4549999 -1.41 -0.77899998 32 0 0 0 0.070040002
2.4519999 -1.402 -0.778 31 0 0 0 0.070050001
2.4449999 -1.392 -0.77600002 30 0 0 0 0.07006
2.4400001 -1.383 -0.77499998 29 0 0 0 0.070069999
2.441 -1.378 -0.77499998 29 0 0 0 0.070079997
2.441 -1.372 -0.77499998 29 0 0 0 0.070090003
2.438 -1.363 -0.77399999 27 0 0 0 0.070100002
2.4430001 -1.36 -0.77499998 27 0 0 0 0.070110001
2.444 -1.354 -0.77499998 27 0 0 0 0.070119999
2.444 -1.348 -0.77399999 27 0 0 0 0.070129998
2.4489999 -1.344 -0.77600002 25 0 0 0 0.070139997
2.451 -1.3380001 -0.77600002 16 0 0 0 0.070150003
2.444 -1.3279999 -0.773 8 0 0 0 0.070160002
2.391 -1.293 -0.75599998 7 0 0 0 0.07017
2.3429999 -1.26 -0.74000001 8 0 0 0 0.070179999
2.3110001 -1.237 -0.72899997 8 0 0 0 0.070189998
2.27 -1.2079999 -0.71499997 8 0 0 0 0.070200004
2.2390001 -1.1849999 -0.704 9 0 0 0 0.070210002
2.2 -1.159 -0.69199997 8 0 0 0 0.070220001
2.1619999 -1.133 -0.67900002 9 0 0 0 0.07023
2.1359999 -1.113 -0.66900003 11 0 0 0 0.070239998
2.085 -1.08 -0.65200001 22 0 0 0 0.070249997
2.063 -1.063 -0.64399999 150 0 0 0 0.070260003
2.069 -1.0599999 -0.64499998 151 0 0 0 0.070270002
2.069 -1.054 -0.64399999 151 0 0 0 0.070280001
2.069 -1.048 -0.64300001 151 0 0 0 0.070289999
2.059 -1.0369999 -0.639 150 0 0 0 0.070299998
2.0569999 -1.03 -0.63700002 150 0 0 0 0.070309997
2.0569999 -1.024 -0.63499999 151 0 0 0 0.070320003
2.0599999 -1.0190001 -0.63499999 151 0 0 0 0.070330001
2.062 -1.0140001 -0.634 151 0 0 0 0.07034
2.0710001 -1.012 -0.63499999 151 0 0 0 0.070349999
2.075 -1.008 -0.63499999 151 0 0 0 0.070359997
2.0769999 -1.003 -0.634 151 0 0 0 0.070370004
2.076 -0.99599999 -0.63200003 151 0 0 0 0.070380002
2.0799999 -0.99199998 -0.63200003 151 0 0 0 0.070390001
2.079 -0.98500001 -0.63 151 0 0 0 0.0704
2.0869999 -0.98199999 -0.63 151 0 0 0 0.070409998
2.0969999 -0.98000002 -0.63099998 151 0 0 0 0.070419997
2.0999999 -0.97600001 -0.63099998 151 0 0 0 0.070430003
2.1070001 -0.972 -0.63 151 0 0 0 0.070440002
2.109 -0.96700001 -0.62900001 151 0 0 0 0.07045
2.108 -0.95999998 -0.62699997 151 0 0 0 0.070459999
2.1110001 -0.95499998 -0.62599999 151 0 0 0 0.070469998
2.1259999 -0.95499998 -0.62800002 150 0 0 0 0.070479997
2.2019999 -0.98199999 -0.648 150 0 0 0 0.070490003
2.3540001 -1.043 -0.69099998 150 0 0 0 0.070500001
2.378 -1.046 -0.69499999 150 0 0 0 0.07051
2.3800001 -1.04 -0.69300002 150 0 0 0 0.070519999
2.3889999 -1.036 -0.69300002 150 0 0 0 0.070529997
2.3280001 -1.002 -0.67299998 150 0 0 0 0.070540003
2.2460001 -0.95999998 -0.64700001 150 0 0 0 0.070550002
2.4000001 -1.018 -0.68800002 133 0 0 0 0.070560001
1.431 -0.60299999 -0.40900001 1 0 0 0 0.07057
1.418 -0.59299999 -0.403 2 0 0 0 0.070579998
1.402 -0.58200002 -0.39700001 2 0 0 0 0.070589997
1.39 -0.57200003 -0.39199999 2 0 0 0 0.070600003
1.38 -0.56400001 -0.38699999 1 0 0 0 0.070610002
1.363 -0.55299997 -0.38100001 1 0 0 0 0.07062
1.348 -0.542 -0.375 1 0 0 0 0.070629999
1.336 -0.53399998 -0.37 1 0 0 0 0.070639998
1.3099999 -0.51899999 -0.361 5 0 0 0 0.070649996
1.291 -0.50700003 -0.354 24 0 0 0 0.070660003
1.271 -0.49599999 -0.347 150 0 0 0 0.070670001
1.268 -0.491 -0.34400001 150 0 0 0 0.07068
1.27 -0.48800001 -0.34299999 150 0 0 0 0.070689999
1.277 -0.486 -0.34400001 150 0 0 0 0.070699997
1.279 -0.48300001 -0.34200001 150 0 0 0 0.070710003
1.28 -0.47999999 -0.34099999 150 0 0 0 0.070720002
1.284 -0.477 -0.34 150 0 0 0 0.070730001
1.284 -0.47299999 -0.338 150 0 0 0 0.070739999
1.289 -0.47099999 -0.338 150 0 0 0 0.070749998
1.291 -0.46799999 -0.336 150 0 0 0 0.070759997
1.2920001 -0.46399999 -0.33500001 150 0 0 0 0.070770003
1.296 -0.461 -0.33399999 150 0 0 0 0.070780002
1.3049999 -0.461 -0.33399999 41 0 0 0 0.07079
1.304 -0.456 -0.33199999 9 0 0 0 0.070799999
1.273 -0.442 -0.322 5 0 0 0 0.070809998
1.249 -0.42899999 -0.31400001 2 0 0 0 0.070819996
1.228 -0.419 -0.30700001 1 0 0 0 0.070830002
1.2180001 -0.412 -0.303 1 0 0 0 0.070840001
1.212 -0.40599999 -0.29899999 1 0 0 0 0.07085
1.201 -0.398 -0.29499999 1 0 0 0 0.070859998
1.192 -0.39199999 -0.29100001 1 0 0 0 0.070869997
1.183 -0.38499999 -0.287 0 0 0 0 0.070880003
1.1799999 -0.38100001 -0.28400001 0 0 0 0 0.070890002
1.168 -0.373 -0.27900001 0 0 0 0 0.070900001
1.166 -0.36899999 -0.27700001 0 0 0 0 0.070909999
1.154 -0.36199999 -0.27200001 0 0 0 0 0.070919998
1.1440001 -0.35499999 -0.26800001 0 0 0 0 0.070929997
1.138 -0.34999999 -0.26499999 0 0 0 0 0.070940003
1.128 -0.34299999 -0.25999999 0 0 0 0 0.070950001
1.123 -0.33899999 -0.257 0 0 0 0 0.07096
1.115 -0.333 -0.25400001 0 0 0 0 0.070969999
1.1109999 -0.32800001 -0.25099999 0 0 0 0 0.070979998
1.101 -0.322 -0.24699999 0 0 0 0 0.070990004
1.094 -0.317 -0.243 0 0 0 0 0.071000002
1.086 -0.31099999 -0.23999999 0 0 0 0 0.071010001
1.081 -0.30700001 -0.237 0 0 0 0 0.07102
1.0599999 -0.29800001 -0.23 0 0 0 0 0.071029998
1.057 -0.294 -0.228 0 0 0 0 0.071039997
1.05 -0.289 -0.22499999 0 0 0 0 0.071050003
1.0369999 -0.28200001 -0.22 0 0 0 0 0.071060002
1.0369999 -0.27900001 -0.21799999 0 0 0 0 0.071070001
1.029 -0.27399999 -0.215 0 0 0 0 0.071079999
1.024 -0.27000001 -0.212 0 0 0 0 0.071089998
1.021 -0.266 -0.20900001 0 0 0 0 0.071099997
1.013 -0.26100001 -0.206 0 0 0 0 0.071110003
1.011 -0.25799999 -0.204 0 0 0 0 0.071120001
1.002 -0.252 -0.2 0 0 0 0 0.07113
1.005 -0.25 -0.199 3 0 0 0 0.071139999
1.0039999 -0.24699999 -0.197 4 0 0 0 0.071149997
1.002 -0.244 -0.19400001 6 0 0 0 0.071160004
1 -0.23999999 -0.192 7 0 0 0 0.071170002
1.005 -0.23899999 -0.191 6 0 0 0 0.071180001
1.003 -0.235 -0.189 5 0 0 0 0.07119
1.008 -0.234 -0.18799999 4 0 0 0 0.071199998
1.0140001 -0.23199999 -0.18799999 4 0 0 0 0.071209997
1.015 -0.23 -0.186 4 0 0 0 0.071220003
1.016 -0.227 -0.184 3 0 0 0 0.071230002
1.013 -0.223 -0.182 1 0 0 0 0.07124
1.024 -0.223 -0.182 0 0 0 0 0.071249999
1.024 -0.22 -0.18000001 0 0 0 0 0.071259998
1.122 -0.23800001 -0.19499999 0 0 0 0 0.071269996
1.133 -0.237 -0.19499999 0 0 0 0 0.071280003
1.127 -0.233 -0.191 0 0 0 0 0.071290001
1.133 -0.23100001 -0.19 0 0 0 0 0.0713
0 0 0 0 0 0 0 0.071309999
0 0 0 0 0 0 0 0.071319997
1.186 -0.23199999 -0.192 0 0 0 0 0.071330003
1.161 -0.22400001 -0.186 0 0 0 0 0.071340002
1.189 -0.226 -0.18799999 1 0 0 0 0.071350001
1.186 -0.222 -0.186 3 0 0 0 0.071359999
1.187 -0.219 -0.183 3 0 0 0 0.071369998
1.178 -0.214 -0.18000001 3 0 0 0 0.071379997
1.171 -0.20999999 -0.176 3 0 0 0 0.071390003
1.163 -0.205 -0.17299999 3 0 0 0 0.071400002
1.1569999 -0.20100001 -0.17 3 0 0 0 0.07141
1.15 -0.197 -0.16599999 3 0 0 0 0.071419999
1.115 -0.18799999 -0.15899999 3 0 0 0 0.071429998
1.082 -0.17900001 -0.152 3 0 0 0 0.071439996
1.069 -0.17399999 -0.148 3 0 0 0 0.071450002
1.056 -0.17 -0.14399999 3 0 0 0 0.071460001
1.064 -0.168 -0.14300001 3 0 0 0 0.07147
1.064 -0.16500001 -0.141 3 0 0 0 0.071479999
1.067 -0.163 -0.14 4 0 0 0 0.071489997
1.072 -0.161 -0.138 4 0 0 0 0.071500003
1.0700001 -0.15800001 -0.13600001 4 0 0 0 0.071510002
1.064 -0.154 -0.133 4 0 0 0 0.071520001
1.064 -0.15099999 -0.131 4 0 0 0 0.071529999
1.066 -0.149 -0.12899999 5 0 0 0 0.071539998
1.064 -0.146 -0.126 5 0 0 0 0.071549997
1.073 -0.14399999 -0.125 5 0 0 0 0.071560003
1.073 -0.141 -0.123 4 0 0 0 0.071570002
1.077 -0.139 -0.121 3 0 0 0 0.07158
1.092 -0.138 -0.121 2 0 0 0 0.071589999
1.235 -0.153 -0.134 0 0 0 0 0.071599998
1.3279999 -0.161 -0.141 0 0 0 0 0.071610004
1.367 -0.163 -0.14300001 0 0 0 0 0.071620002
1.363 -0.15899999 -0.14 0 0 0 0 0.071630001
1.325 -0.15099999 -0.133 0 0 0 0 0.07164
0 0 0 0 0 0 0 0.071649998
1.3430001 -0.146 -0.12899999 0 0 0 0 0.071659997
3.148 -0.33500001 -0.29699999 3 0 0 0 0.071670003
3.1440001 -0.32600001 -0.28999999 3 0 0 0 0.071680002
3.1500001 -0.31900001 -0.28400001 2 0 0 0 0.071690001
1.454 -0.14300001 -0.12800001 0 0 0 0 0.071699999
3.2479999 -0.31200001 -0.27900001 0 0 0 0 0.071709998
3.302 -0.30899999 -0.27700001 0 0 0 0 0.071719997
3.1630001 -0.28799999 -0.259 0 0 0 0 0.071730003
3.2290001 -0.28600001 -0.257 0 0 0 0 0.071740001
3.1600001 -0.27200001 -0.245 0 0 0 0 0.07175
1.476 -0.123 -0.111 5 0 0 0 0.071759999
1.4910001 -0.121 -0.109 6 0 0 0 0.071769997
1.494 -0.117 -0.106 85 0 0 0 0.071780004
1.4910001 -0.113 -0.103 86 0 0 0 0.071790002
1.493 -0.11 -0.1 80 0 0 0 0.071800001
1.497 -0.106 -0.097000003 83 0 0 0 0.07181
1.507 -0.103 -0.093999997 6 0 0 0 0.071819998
1.541 -0.102 -0.093000002 3 0 0 0 0.071829997
3.385 -0.21600001 -0.198 0 0 0 0 0.071840003
3.4260001 -0.20999999 -0.193 0 0 0 0 0.071850002
3.448 -0.20299999 -0.18700001 0 0 0 0 0.07186
3.431 -0.19400001 -0.17900001 0 0 0 0 0.071869999
3.4219999 -0.185 -0.171 0 0 0 0 0.071879998
3.3829999 -0.175 -0.162 0 0 0 0 0.071889997
3.3659999 -0.16599999 -0.154 0 0 0 0 0.071900003
3.359 -0.15700001 -0.146 0 0 0 0 0.071910001
1.62 -0.071999997 -0.067000002 1 0 0 0 0.07192
1.599 -0.067000002 -0.061999999 0 0 0 0 0.071929999
1.521 -0.059999999 -0.056000002 1 0 0 0 0.071939997
1.502 -0.056000002 -0.052000001 2 0 0 0 0.071950004
1.518 -0.052000001 -0.048999999 6 0 0 0 0.071960002
1.522 -0.048999999 -0.046 6 0 0 0 0.071970001
1.536 -0.046 -0.043000001 7 0 0 0 0.07198
1.541 -0.041999999 -0.039999999 7 0 0 0 0.071989998
1.5420001 -0.039000001 -0.035999998 8 0 0 0 0.071999997
1.545 -0.035 -0.033 8 0 0 0 0.072010003
1.546 -0.030999999 -0.029999999 6 0 0 0 0.072020002
1.54 -0.028000001 -0.026000001 4 0 0 0 0.07203
1.538 -0.024 -0.023 2 0 0 0 0.072039999
1.531 -0.02 -0.018999999 2 0 0 0 0.072049998
1.526 -0.017000001 -0.016000001 2 0 0 0 0.072059996
1.521 -0.013 -0.012 1 0 0 0 0.072070003
3.457 -0.022 -0.021 3 0 0 0 0.072080001
0 0 0 0 0 0 0 0.07209
0 0 0 0 0 0 0 0.072099999
3.4560001 0.0020000001 0.001 1 0 0 0 0.072109997
3.5150001 0.0099999998 0.0089999996 1 0 0 0 0.072120003
3.523 0.017999999 0.017000001 1 0 0 0 0.072130002
3.549 0.027000001 0.025 1 0 0 0 0.072140001
3.5439999 0.035 0.033 1 0 0 0 0.072149999
0 0 0 0 0 0 0 0.072159998
0 0 0 0 0 0 0 0.072169997
0 0 0 0 0 0 0 0.072180003
3.7090001 0.071000002 0.068000004 1 0 0 0 0.072190002
3.79 0.081 0.078000002 2 0 0 0 0.0722
4.0250001 0.094999999 0.092 0 0 0 0 0.072209999
4.0960002 0.107 0.103 0 0 0 0 0.072219998
4.0339999 0.114 0.111 0 0 0 0 0.072229996
4.0630002 0.124 0.121 0 0 0 0 0.072240002
4.1090002 0.13500001 0.132 0 0 0 0 0.072250001
4.0780001 0.14300001 0.14 0 0 0 0 0.07226
4.072 0.152 0.149 0 0 0 0 0.072269998
4.0960002 0.163 0.16 0 0 0 0 0.072279997
4.1170001 0.17299999 0.17 0 0 0 0 0.072290003
1.42 0.063000001 0.061999999 0 0 0 0 0.072300002
1.42 0.066 0.064999998 0 0 0 0 0.072310001
1.4170001 0.068999998 0.068000004 0 0 0 0 0.072319999
1.4119999 0.071999997 0.071000002 0 0 0 0 0.072329998
1.4069999 0.075000003 0.074000001 0 0 0 0 0.072339997
1.411 0.078000002 0.078000002 0 0 0 0 0.072350003
1.399 0.081 0.079999998 0 0 0 0 0.072360002
1.396 0.083999999 0.082999997 0 0 0 0 0.07237
1.395 0.086999997 0.086999997 0 0 0 0 0.072379999
1.39 0.089000002 0.090000004 0 0 0 0 0.072389998
1.382 0.092 0.092 0 0 0 0 0.072400004
1.386 0.094999999 0.096000001 0 0 0 0 0.072410002
1.377 0.097999997 0.098999999 0 0 0 0 0.072420001
1.374 0.101 0.102 0 0 0 0 0.07243
1.372 0.104 0.105 0 0 0 0 0.072439998
1.367 0.106 0.108 0 0 0 0 0.072449997
1.3660001 0.109 0.111 0 0 0 0 0.072460003
1.355 0.111 0.113 0 0 0 0 0.072470002
1.358 0.115 0.117 0 0 0 0 0.072480001
1.352 0.117 0.119 0 0 0 0 0.072489999
1.352 0.12 0.123 0 0 0 0 0.072499998
1.3430001 0.122 0.125 0 0 0 0 0.072509997
1.3430001 0.125 0.12800001 0 0 0 0 0.072520003
1.342 0.12800001 0.131 0 0 0 0 0.072530001
1.334 0.13 0.134 0 0 0 0 0.07254
1.3279999 0.132 0.13699999 0 0 0 0 0.072549999
1.33 0.13600001 0.14 0 0 0 0 0.072559997
1.325 0.138 0.14300001 0 0 0 0 0.072570004
1.326 0.141 0.146 0 0 0 0 0.072580002
1.322 0.14300001 0.149 0 0 0 0 0.072590001
1.318 0.146 0.152 0 0 0 0 0.0726
1.3099999 0.148 0.154 0 0 0 0 0.072609998
1.303 0.15000001 0.156 5 0 0 0 0.072619997
1.303 0.152 0.16 6 0 0 0 0.072630003
1.293 0.154 0.162 7 0 0 0 0.072640002
1.293 0.15700001 0.16500001 8 0 0 0 0.07265
1.293 0.16 0.168 7 0 0 0 0.072659999
1.2920001 0.162 0.171 7 0 0 0 0.072669998
1.3710001 0.175 0.185 27 0 0 0 0.072679996
1.473 0.191 0.20299999 67 0 0 0 0.072690003
1.535 0.20299999 0.215 90 0 0 0 0.072700001
1.596 0.214 0.228 81 0 0 0 0.07271
1.676 0.229 0.244 33 0 0 0 0.072719999
1.687 0.234 0.25 20 0 0 0 0.072729997
1.6900001 0.23800001 0.25400001 22 0 0 0 0.072740003
1.697 0.242 0.25999999 24 0 0 0 0.072750002
1.6950001 0.24600001 0.264 27 0 0 0 0.072760001
1.702 0.25 0.26899999 25 0 0 0 0.07277
1.706 0.25400001 0.27399999 26 0 0 0 0.072779998
1.706 0.25799999 0.27900001 25 0 0 0 0.072789997
1.707 0.26199999 0.28299999 24 0 0 0 0.072800003
1.7079999 0.26499999 0.28799999 23 0 0 0 0.072810002
1.717 0.27000001 0.294 22 0 0 0 0.07282
1.716 0.27399999 0.29800001 23 0 0 0 0.072829999
1.721 0.278 0.30399999 23 0 0 0 0.072839998
1.721 0.28200001 0.308 21 0 0 0 0.072849996
1.727 0.28600001 0.31400001 22 0 0 0 0.072860003
1.729 0.28999999 0.31900001 22 0 0 0 0.072870001
1.728 0.29300001 0.32300001 24 0 0 0 0.07288
1.733 0.29800001 0.32800001 23 0 0 0 0.072889999
1.733 0.301 0.333 20 0 0 0 0.072899997
1.739 0.30599999 0.33899999 21 0 0 0 0.072910003
1.7460001 0.31 0.345 21 0 0 0 0.072920002
1.75 0.315 0.34999999 22 0 0 0 0.072930001
1.749 0.31799999 0.35499999 24 0 0 0 0.072939999
1.748 0.322 0.359 23 0 0 0 0.072949998
1.748 0.32499999 0.36399999 26 0 0 0 0.072959997
1.748 0.329 0.36899999 26 0 0 0 0.072970003
1.762 0.33500001 0.377 24 0 0 0 0.072980002
1.761 0.338 0.38100001 24 0 0 0 0.07299
1.7640001 0.34200001 0.38699999 23 0 0 0 0.072999999
1.773 0.347 0.39399999 22 0 0 0 0.073009998
1.772 0.35100001 0.398 22 0 0 0 0.073019996
1.776 0.35499999 0.40400001 23 0 0 0 0.073030002
1.776 0.35800001 0.40900001 23 0 0 0 0.073040001
1.776 0.36199999 0.414 141 0 0 0 0.07305
1.78 0.366 0.41999999 150 0 0 0 0.073059998
1.784 0.37099999 0.42500001 143 0 0 0 0.073069997
1.784 0.37400001 0.43099999 24 0 0 0 0.073080003
1.789 0.37900001 0.43700001 133 0 0 0 0.073090002
1.794 0.38299999 0.44299999 137 0 0 0 0.073100001
1.793 0.38600001 0.44800001 137 0 0 0 0.073109999
1.794 0.38999999 0.45300001 130 0 0 0 0.073119998
1.795 0.39399999 0.458 136 0 0 0 0.073129997
1.801 0.398 0.465 131 0 0 0 0.073140003
1.807 0.403 0.472 142 0 0 0 0.073150001
1.811 0.40700001 0.47799999 133 0 0 0 0.07316
1.813 0.41100001 0.484 135 0 0 0 0.073169999
1.814 0.41499999 0.48899999 139 0 0 0 0.073179998
1.822 0.41999999 0.49599999 136 0 0 0 0.073190004
1.825 0.42399999 0.50199997 137 0 0 0 0.073200002
1.824 0.42699999 0.50700003 137 0 0 0 0.073210001
1.83 0.43200001 0.514 128 0 0 0 0.07322
1.8329999 0.43599999 0.51999998 138 0 0 0 0.073229998
1.835 0.44 0.52600002 127 0 0 0 0.073239997
1.84 0.44400001 0.53299999 121 0 0 0 0.073250003
1.8380001 0.447 0.53799999 125 0 0 0 0.073260002
1.844 0.45199999 0.54500002 123 0 0 0 0.073270001
1.846 0.456 0.551 122 0 0 0 0.073279999
1.848 0.46000001 0.55699998 133 0 0 0 0.073289998
1.852 0.46399999 0.56300002 122 0 0 0 0.073299997
1.85 0.46599999 0.56800002 103 0 0 0 0.073310003
1.852 0.47 0.574 52 0 0 0 0.073320001
1.8279999 0.46700001 0.57200003 24 0 0 0 0.07333
1.7589999 0.45300001 0.55599999 10 0 0 0 0.073339999
1.719 0.44499999 0.54799998 4 0 0 0 0.073349997
1.719 0.44800001 0.55299997 3 0 0 0 0.073360004
1.71 0.449 0.55599999 2 0 0 0 0.073370002
1.707 0.45100001 0.56 1 0 0 0 0.073380001
1.714 0.456 0.56699997 1 0 0 0 0.07339
1.709 0.45699999 0.57099998 0 0 0 0 0.073399998
1.7359999 0.46700001 0.58499998 0 0 0 0 0.073409997
1.727 0.46799999 0.58700001 0 0 0 0 0.073420003
1.716 0.46700001 0.588 0 0 0 0 0.073430002
1.745 0.47799999 0.60299999 0 0 0 0 0.07344
1.7410001 0.47999999 0.60699999 0 0 0 0 0.073449999
1.7539999 0.486 0.61699998 0 0 0 0 0.073459998
1.758 0.49000001 0.62400001 0 0 0 0 0.073469996
1.763 0.49399999 0.63099998 0 0 0 0 0.073480003
1.758 0.495 0.634 0 0 0 0 0.073490001
1.753 0.49700001 0.63800001 0 0 0 0 0.0735
1.762 0.50199997 0.64600003 0 0 0 0 0.073509999
1.77 0.50700003 0.65499997 0 0 0 0 0.073519997
1.755 0.505 0.65499997 0 0 0 0 0.073530003
1.766 0.51099998 0.66399997 0 0 0 0 0.073540002
1.765 0.51300001 0.66900003 0 0 0 0 0.073550001
1.7640001 0.51499999 0.67400002 0 0 0 0 0.073559999
1.77 0.51999998 0.68199998 0 0 0 0 0.073569998
1.762 0.51999998 0.68400002 0 0 0 0 0.073579997
1.78 0.528 0.69700003 0 0 0 0 0.073590003
1.781 0.52999997 0.70200002 0 0 0 0 0.073600002
1.781 0.53299999 0.708 0 0 0 0 0.07361
1.796 0.54000002 0.71899998 0 0 0 0 0.073619999
1.794 0.542 0.72399998 0 0 0 0 0.073629998
1.779 0.53899997 0.72299999 0 0 0 0 0.073639996
1.7869999 0.54400003 0.73199999 0 0 0 0 0.073650002
1.7920001 0.54799998 0.73900002 0 0 0 0 0.073660001
1.774 0.54500002 0.73799998 1 0 0 0 0.07367
1.814 0.55900002 0.759 1 0 0 0 0.073679999
1.9299999 0.59799999 0.81400001 10 0 0 0 0.073689997
1.944 0.60399997 0.82599998 34 0 0 0 0.073700003
1.95 0.60799998 0.83399999 90 0 0 0 0.073710002
1.947 0.61000001 0.83899999 90 0 0 0 0.073720001
1.947 0.61199999 0.84500003 82 0 0 0 0.073729999
1.95 0.61500001 0.852 103 0 0 0 0.073739998
1.951 0.61799997 0.85799998 105 0 0 0 0.073749997
1.957 0.62199998 0.86699998 150 0 0 0 0.073760003
1.955 0.62300003 0.87199998 95 0 0 0 0.073770002
1.9630001 0.62800002 0.88099998 79 0 0 0 0.07378
1.965 0.63099998 0.889 106 0 0 0 0.073789999
1.964 0.63200003 0.89399999 82 0 0 0 0.073799998
1.964 0.634 0.89999998 93 0 0 0 0.073810004
1.967 0.63700002 0.90700001 80 0 0 0 0.073820002
1.97 0.63999999 0.91399997 73 0 0 0 0.073830001
1.9859999 0.64700001 0.92799997 76 0 0 0 0.07384
2.0339999 0.66500002 0.95599997 77 0 0 0 0.073849998
2.0940001 0.68599999 0.991 45 0 0 0 0.073859997
2.112 0.69400001 1.006 38 0 0 0 0.073870003
2.1140001 0.69599998 1.013 39 0 0 0 0.073880002
2.1170001 0.699 1.021 38 0 0 0 0.073890001
2.1199999 0.70099998 1.028 37 0 0 0 0.073899999
2.118 0.70300001 1.033 37 0 0 0 0.073909998
2.118 0.704 1.039 38 0 0 0 0.073919997
2.1199999 0.70599997 1.046 39 0 0 0 0.073930003
2.1199999 0.708 1.053 44 0 0 0 0.073940001
2.1159999 0.708 1.057 45 0 0 0 0.07395
2.108 0.70599997 1.059 38 0 0 0 0.073959999
2.0929999 0.70300001 1.057 34 0 0 0 0.073969997
2.0810001 0.69999999 1.057 34 0 0 0 0.073980004
2.0680001 0.69700003 1.056 35 0 0 0 0.073990002
2.0580001 0.69400001 1.057 35 0 0 0 0.074000001
2.0439999 0.69099998 1.056 35 0 0 0 0.07401
2.0380001 0.69 1.058 36 0 0 0 0.074019998
2.0280001 0.68699998 1.058 35 0 0 0 0.074029997
2.0090001 0.68199998 1.054 34 0 0 0 0.074040003
2.0020001 0.68000001 1.056 34 0 0 0 0.074050002
1.993 0.67799997 1.056 35 0 0 0 0.07406
1.98 0.67400002 1.0549999 34 0 0 0 0.074069999
1.969 0.671 1.054 35 0 0 0 0.074079998
1.96 0.66900003 1.0549999 36 0 0 0 0.074089997
1.95 0.66500002 1.054 35 0 0 0 0.074100003
1.943 0.66399997 1.0549999 35 0 0 0 0.074110001
1.931 0.66000003 1.054 34 0 0 0 0.07412
1.918 0.65600002 1.052 34 0 0 0 0.074129999
1.913 0.65399998 1.054 34 0 0 0 0.074139997
1.901 0.65100002 1.052 35 0 0 0 0.074150003
1.893 0.648 1.052 35 0 0 0 0.074160002
1.887 0.64600003 1.053 35 0 0 0 0.074170001
1.878 0.64300001 1.053 35 0 0 0 0.07418
1.869 0.63999999 1.052 36 0 0 0 0.074189998
1.86 0.63700002 1.052 35 0 0 0 0.074199997
1.855 0.63499999 1.054 34 0 0 0 0.074210003
1.847 0.63200003 1.053 35 0 0 0 0.074220002
1.839 0.62900001 1.053 36 0 0 0 0.07423
1.831 0.62599999 1.052 36 0 0 0 0.074239999
1.826 0.62400001 1.053 38 0 0 0 0.074249998
1.819 0.62099999 1.054 36 0 0 0 0.074259996
1.8150001 0.61900002 1.0549999 35 0 0 0 0.074270003
1.808 0.616 1.0549999 31 0 0 0 0.074280001
1.803 0.61400002 1.0549999 29 0 0 0 0.07429
1.8049999 0.61400002 1.0599999 27 0 0 0 0.074299999
1.804 0.61299998 1.064 25 0 0 0 0.074309997
1.798 0.61000001 1.063 25 0 0 0 0.074320003
1.798 0.61000001 1.067 26 0 0 0 0.074330002
1.8 0.61000001 1.072 29 0 0 0 0.074340001
1.801 0.60900003 1.076 33 0 0 0 0.074349999
1.799 0.60699999 1.0779999 39 0 0 0 0.074359998
1.7970001 0.60600001 1.08 49 0 0 0 0.074369997
1.798 0.60500002 1.0829999 71 0 0 0 0.074380003
1.794 0.60299999 1.084 83 0 0 0 0.074390002
1.7920001 0.60100001 1.086 103 0 0 0 0.0744
1.791 0.59899998 1.0880001 113 0 0 0 0.074409999
1.7920001 0.59799999 1.092 113 0 0 0 0.074419998
1.7970001 0.59899998 1.097 86 0 0 0 0.074429996
1.7970001 0.597 1.1 44 0 0 0 0.074440002
1.806 0.59899998 1.108 28 0 0 0 0.074450001
1.8200001 0.602 1.119 17 0 0 0 0.07446
1.872 0.61699998 1.154 19 0 0 0 0.074469998
1.954 0.64300001 1.207 25 0 0 0 0.074479997
1.998 0.65499997 1.237 34 0 0 0 0.074490003
2.03 0.66399997 1.2589999 51 0 0 0 0.074500002
2.0610001 0.67199999 1.281 57 0 0 0 0.074510001
2.0799999 0.676 1.295 71 0 0 0 0.074519999
2.0869999 0.67699999 1.302 65 0 0 0 0.074529998
2.099 0.67799997 1.311 69 0 0 0 0.074539997
2.105 0.67799997 1.317 70 0 0 0 0.074550003
2.119 0.68000001 1.3279999 70 0 0 0 0.074560001
2.119 0.67699999 1.329 82 0 0 0 0.07457
2.1210001 0.676 1.332 87 0 0 0 0.074579999
2.1170001 0.67199999 1.331 79 0 0 0 0.074589998
2.112 0.66799998 1.33 71 0 0 0 0.074600004
2.108 0.66399997 1.329 63 0 0 0 0.074610002
2.1070001 0.66100001 1.33 56 0 0 0 0.074620001
2.1010001 0.65600002 1.327 54 0 0 0 0.07463
2.0969999 0.65200001 1.326 53 0 0 0 0.074639998
2.095 0.64899999 1.325 54 0 0 0 0.074649997
2.092 0.64499998 1.324 51 0 0 0 0.074660003
2.089 0.64099997 1.324 50 0 0 0 0.074670002
2.086 0.63700002 1.323 53 0 0 0 0.074680001
2.0829999 0.63300002 1.321 52 0 0 0 0.074689999
2.079 0.62900001 1.319 53 0 0 0 0.074699998
2.0780001 0.625 1.319 54 0 0 0 0.074709997
2.073 0.62099999 1.316 54 0 0 0 0.074720003
2.072 0.61699998 1.3150001 52 0 0 0 0.074730001
2.0710001 0.61400002 1.3150001 53 0 0 0 0.07474
2.069 0.61000001 1.313 53 0 0 0 0.074749999
2.0639999 0.60500002 1.3099999 54 0 0 0 0.074759997
2.059 0.60100001 1.307 52 0 0 0 0.074770004
2.056 0.59600002 1.3049999 54 0 0 0 0.074780002
2.049 0.59100002 1.3 63 0 0 0 0.074790001
2.0280001 0.58099997 1.286 92 0 0 0 0.0748
1.985 0.56599998 1.258 148 0 0 0 0.074809998
1.943 0.551 1.2309999 150 0 0 0 0.074819997
1.903 0.53600001 1.205 150 0 0 0 0.074830003
1.873 0.52499998 1.184 150 0 0 0 0.074840002
1.845 0.514 1.166 150 0 0 0 0.07485
1.826 0.505 1.153 150 0 0 0 0.074859999
1.802 0.495 1.137 100 0 0 0 0.074869998
1.723 0.47 1.086 34 0 0 0 0.074879996
1.696 0.46000001 1.067 26 0 0 0 0.074890003
1.697 0.45699999 1.067 26 0 0 0 0.074900001
1.688 0.45199999 1.0599999 27 0 0 0 0.07491
1.686 0.44800001 1.057 31 0 0 0 0.074919999
1.688 0.44600001 1.056 33 0 0 0 0.074929997
1.6900001 0.44299999 1.057 39 0 0 0 0.074940003
1.692 0.44 1.056 43 0 0 0 0.074950002
1.694 0.43799999 1.0549999 42 0 0 0 0.074960001
1.6950001 0.435 1.054 46 0 0 0 0.074969999
1.699 0.433 1.0549999 50 0 0 0 0.074979998
1.7029999 0.43099999 1.0549999 47 0 0 0 0.074989997
1.706 0.428 1.0549999 48 0 0 0 0.075000003
1.7079999 0.42500001 1.054 46 0 0 0 0.075010002
1.715 0.42399999 1.056 49 0 0 0 0.07502
1.716 0.421 1.0549999 43 0 0 0 0.075029999
1.721 0.419 1.0549999 43 0 0 0 0.075039998
1.728 0.417 1.057 43 0 0 0 0.075049996
1.73 0.414 1.056 43 0 0 0 0.075060003
1.7309999 0.41100001 1.054 42 0 0 0 0.075070001
1.7410001 0.41 1.057 40 0 0 0 0.07508
1.7460001 0.40799999 1.057 42 0 0 0 0.075089999
1.7460001 0.405 1.054 38 0 0 0 0.075099997
1.753 0.403 1.056 40 0 0 0 0.075110003
1.762 0.40200001 1.058 39 0 0 0 0.075120002
1.766 0.39899999 1.058 42 0 0 0 0.075130001
1.771 0.39700001 1.057 44 0 0 0 0.075139999
1.775 0.39399999 1.057 39 0 0 0 0.075149998
1.78 0.39199999 1.056 41 0 0 0 0.075159997
1.784 0.38999999 1.0549999 42 0 0 0 0.075170003
1.791 0.38800001 1.056 42 0 0 0 0.075180002
1.801 0.38600001 1.058 45 0 0 0 0.07519
1.804 0.38299999 1.056 41 0 0 0 0.075199999
1.813 0.382 1.058 41 0 0 0 0.075209998
1.818 0.37900001 1.057 39 0 0 0 0.075220004
1.829 0.37799999 1.0599999 38 0 0 0 0.075230002
1.834 0.37599999 1.059 39 0 0 0 0.075240001
1.841 0.37400001 1.059 38 0 0 0 0.07525
1.846 0.37099999 1.058 35 0 0 0 0.075259998
1.857 0.37 1.0599999 37 0 0 0 0.075269997
1.865 0.368 1.061 45 0 0 0 0.075280003
1.8710001 0.366 1.0599999 68 0 0 0 0.075290002
1.872 0.36199999 1.056 75 0 0 0 0.075300001
1.8710001 0.35800001 1.051 63 0 0 0 0.075309999
1.867 0.354 1.044 55 0 0 0 0.075319998
1.862 0.34999999 1.0369999 53 0 0 0 0.075329997
1.8609999 0.34599999 1.0319999 55 0 0 0 0.075340003
1.8559999 0.34200001 1.025 57 0 0 0 0.075350001
1.852 0.338 1.018 57 0 0 0 0.07536
1.853 0.33399999 1.015 62 0 0 0 0.075369999
1.851 0.331 1.008 62 0 0 0 0.075379997
1.836 0.32499999 0.99599999 68 0 0 0 0.075390004
1.789 0.31299999 0.96600002 116 0 0 0 0.075400002
1.751 0.303 0.94099998 144 0 0 0 0.075410001
1.719 0.294 0.91900003 150 0 0 0 0.07542
1.7180001 0.29100001 0.91399997 150 0 0 0 0.075429998
1.715 0.28799999 0.90799999 150 0 0 0 0.075439997
1.714 0.28400001 0.903 150 0 0 0 0.075450003
1.7079999 0.28 0.89600003 150 0 0 0 0.075460002
1.704 0.27700001 0.88800001 150 0 0 0 0.075470001
1.7029999 0.27399999 0.884 150 0 0 0 0.075479999
0 0 0 0 0 0 0 0.075489998
1.702 0.26800001 0.87400001 150 0 0 0 0.075499997
0 0 0 0 0 0 0 0.075510003
0 0 0 0 0 0 0 0.075520001
1.694 0.257 0.85600001 150 0 0 0 0.07553
1.692 0.25400001 0.85000002 148 0 0 0 0.075539999
1.687 0.25099999 0.84200001 141 0 0 0 0.075549997
1.682 0.24699999 0.83499998 142 0 0 0 0.075560004
1.679 0.244 0.829 141 0 0 0 0.075570002
1.6799999 0.241 0.82499999 148 0 0 0 0.075580001
1.683 0.23899999 0.82099998 149 0 0 0 0.07559
1.674 0.235 0.81199998 135 0 0 0 0.075599998
1.673 0.23199999 0.80699998 138 0 0 0 0.075609997
1.673 0.229 0.80199999 141 0 0 0 0.075620003
1.67 0.226 0.79500002 140 0 0 0 0.075630002
1.666 0.223 0.78799999 150 0 0 0 0.07564
1.6670001 0.22 0.78399998 150 0 0 0 0.075649999
1.663 0.21699999 0.77700001 143 0 0 0 0.075659998
1.661 0.214 0.77200001 137 0 0 0 0.075669996
1.658 0.211 0.76499999 138 0 0 0 0.075680003
1.659 0.20900001 0.76099998 142 0 0 0 0.075690001
1.658 0.206 0.755 150 0 0 0 0.0757
1.653 0.20299999 0.74800003 145 0 0 0 0.075709999
1.655 0.20100001 0.74400002 150 0 0 0 0.075719997
1.651 0.198 0.73699999 150 0 0 0 0.075730003
1.648 0.19499999 0.73100001 150 0 0 0 0.075740002
1.649 0.193 0.72600001 150 0 0 0 0.075750001
1.647 0.19 0.72000003 150 0 0 0 0.075759999
1.645 0.18700001 0.71399999 150 0 0 0 0.075769998
1.642 0.185 0.708 150 0 0 0 0.075779997
1.642 0.182 0.70300001 150 0 0 0 0.075790003
1.64 0.18000001 0.69700003 150 0 0 0 0.075800002
1.64 0.177 0.69199997 150 0 0 0 0.07581
1.628 0.17399999 0.68199998 150 0 0 0 0.075819999
1.5779999 0.16599999 0.65600002 150 0 0 0 0.075829998
1.4220001 0.148 0.58700001 150 0 0 0 0.075839996
1.271 0.13 0.51999998 110 0 0 0 0.075850002
1.224 0.124 0.49700001 56 0 0 0 0.075860001
1.226 0.122 0.49399999 57 0 0 0 0.07587
1.226 0.121 0.49000001 54 0 0 0 0.075879999
1.223 0.119 0.48500001 55 0 0 0 0.075889997
1.227 0.117 0.48300001 32 0 0 0 0.075900003
1.238 0.117 0.48300001 19 0 0 0 0.075910002
1.249 0.116 0.484 13 0 0 0 0.075920001
1.26 0.116 0.484 13 0 0 0 0.075929999
1.275 0.116 0.486 8 0 0 0 0.075939998
1.29 0.115 0.48800001 5 0 0 0 0.075949997
1.303 0.115 0.48800001 5 0 0 0 0.075960003
1.314 0.114 0.48800001 0 0 0 0 0.075970002
1.326 0.114 0.48800001 0 0 0 0 0.07598
1.336 0.113 0.48800001 0 0 0 0 0.075989999
1.349 0.112 0.48800001 0 0 0 0 0.075999998
1.355 0.111 0.486 0 0 0 0 0.076010004
1.364 0.11 0.48500001 0 0 0 0 0.076020002
1.3660001 0.109 0.48100001 0 0 0 0 0.076030001
1.367 0.107 0.477 0 0 0 0 0.07604
1.365 0.106 0.472 0 0 0 0 0.076049998
1.367 0.104 0.46799999 0 0 0 0 0.076059997
1.374 0.103 0.46599999 0 0 0 0 0.076070003
1.373 0.101 0.46200001 0 0 0 0 0.076080002
1.375 0.1 0.458 0 0 0 0 0.076090001
1.377 0.098999999 0.454 0 0 0 0 0.076099999
1.382 0.097999997 0.45100001 0 0 0 0 0.076109998
1.385 0.096000001 0.44800001 0 0 0 0 0.076119997
1.381 0.093999997 0.442 0 0 0 0 0.076130003
1.383 0.093000002 0.43799999 0 0 0 0 0.076140001
1.382 0.092 0.43399999 0 0 0 0 0.07615
1.387 0.090000004 0.43099999 0 0 0 0 0.076159999
1.3890001 0.089000002 0.42699999 0 0 0 0 0.076169997
1.397 0.088 0.42500001 0 0 0 0 0.076180004
1.3890001 0.086000003 0.41800001 0 0 0 0 0.076190002
1.397 0.085000001 0.41600001 0 0 0 0 0.076200001
1.396 0.083999999 0.41100001 0 0 0 0 0.07621
1.398 0.082000002 0.40700001 0 0 0 0 0.076219998
1.399 0.081 0.403 0 0 0 0 0.076229997
1.398 0.079999998 0.398 0 0 0 0 0.076240003
1.399 0.078000002 0.39399999 0 0 0 0 0.076250002
1.398 0.077 0.389 0 0 0 0 0.07626
1.402 0.075999998 0.38600001 0 0 0 0 0.076269999
1.406 0.075000003 0.382 0 0 0 0 0.076279998
1.4069999 0.074000001 0.37799999 0 0 0 0 0.076289997
1.413 0.072999999 0.375 0 0 0 0 0.076300003
1.4069999 0.071000002 0.36899999 0 0 0 0 0.076310001
1.41 0.07 0.36500001 0 0 0 0 0.07632
1.411 0.068999998 0.361 0 0 0 0 0.076329999
1.411 0.067000002 0.35600001 0 0 0 0 0.076339997
1.413 0.066 0.352 0 0 0 0 0.076350003
1.415 0.064999998 0.34799999 0 0 0 0 0.076360002
1.4170001 0.064000003 0.34400001 0 0 0 0 0.076370001
1.4220001 0.063000001 0.34 0 0 0 0 0.07638
1.419 0.061999999 0.33500001 0 0 0 0 0.076389998
1.42 0.059999999 0.331 0 0 0 0 0.076399997
1.425 0.059 0.32699999 0 0 0 0 0.076410003
1.4220001 0.057999998 0.322 0 0 0 0 0.076420002
1.423 0.057 0.31799999 0 0 0 0 0.07643
1.428 0.056000002 0.31400001 0 0 0 0 0.076439999
1.429 0.055 0.31 0 0 0 0 0.076449998
1.4349999 0.054000001 0.30700001 0 0 0 0 0.076459996
1.431 0.052999999 0.301 0 0 0 0 0.076470003
1.434 0.052000001 0.29699999 0 0 0 0 0.076480001
1.433 0.050999999 0.292 0 0 0 0 0.07649
1.434 0.050000001 0.28799999 0 0 0 0 0.076499999
1.436 0.048 0.28400001 0 0 0 0 0.076509997
1.428 0.046999998 0.27700001 0 0 0 0 0.076520003
4.0450001 0.131 0.773 0 0 0 0 0.076530002
1.4220001 0.045000002 0.26699999 0 0 0 0 0.076540001
4.0599999 0.126 0.75 0 0 0 0 0.076549999
4.046 0.123 0.73500001 0 0 0 0 0.076559998
4.039 0.119 0.72000003 0 0 0 0 0.076569997
4.0500002 0.117 0.70899999 0 0 0 0 0.076580003
4.0320001 0.114 0.69300002 0 0 0 0 0.076590002
4.0320001 0.111 0.68000001 0 0 0 0 0.0766
4.0339999 0.108 0.667 0 0 0 0 0.076609999
4.0869999 0.107 0.66299999 0 0 0 0 0.076619998
1.4450001 0.035999998 0.229 0 0 0 0 0.076629996
1.444 0.035 0.22499999 0 0 0 0 0.076640002
1.419 0.034000002 0.21600001 10 0 0 0 0.076650001
1.413 0.033 0.211 10 0 0 0 0.07666
1.446 0.033 0.211 0 0 0 0 0.076669998
1.442 0.032000002 0.206 0 0 0 0 0.076679997
1.443 0.030999999 0.20100001 0 0 0 0 0.076690003
1.45 0.029999999 0.198 0 0 0 0 0.076700002
1.444 0.028999999 0.192 0 0 0 0 0.076710001
1.4400001 0.028000001 0.18700001 0 0 0 0 0.076719999
1.448 0.027000001 0.183 0 0 0 0 0.076729998
1.443 0.026000001 0.178 0 0 0 0 0.076739997
1.45 0.026000001 0.17399999 0 0 0 0 0.076750003
1.452 0.025 0.17 0 0 0 0 0.076760001
1.45 0.024 0.16500001 0 0 0 0 0.07677
1.447 0.023 0.16 0 0 0 0 0.076779999
1.456 0.022 0.156 0 0 0 0 0.076789998
1.451 0.021 0.15099999 0 0 0 0 0.076800004
1.428 0.02 0.14399999 15 0 0 0 0.076810002
1.431 0.018999999 0.14 11 0 0 0 0.076820001
1.434 0.018999999 0.13500001 11 0 0 0 0.07683
1.428 0.017999999 0.13 10 0 0 0 0.076839998
1.436 0.017000001 0.126 12 0 0 0 0.076849997
1.431 0.016000001 0.121 16 0 0 0 0.076860003
1.438 0.016000001 0.117 11 0 0 0 0.076870002
1.4400001 0.015 0.113 6 0 0 0 0.076880001
1.438 0.014 0.108 5 0 0 0 0.076889999
1.441 0.014 0.104 5 0 0 0 0.076899998
1.446 0.013 0.098999999 5 0 0 0 0.076909997
1.443 0.012 0.094999999 5 0 0 0 0.076920003
1.442 0.011 0.090000004 5 0 0 0 0.076930001
1.444 0.011 0.086000003 5 0 0 0 0.07694
1.446 0.0099999998 0.081 5 0 0 0 0.076949999
1.444 0.0089999996 0.075999998 5 0 0 0 0.076959997
1.443 0.0089999996 0.071999997 5 0 0 0 0.076970004
1.45 0.0080000004 0.067000002 5 0 0 0 0.076980002
1.4349999 0.0070000002 0.061999999 8 0 0 0 0.076990001
1.392 0.0060000001 0.056000002 33 0 0 0 0.077
1.348 0.0060000001 0.050000001 150 0 0 0 0.077009998
1.304 0.0049999999 0.044 150 0 0 0 0.077019997
1.286 0.0040000002 0.039000001 150 0 0 0 0.077030003
4.02 0.013 0.11 0 0 0 0 0.077040002
1.442 0.0040000002 0.034000002 5 0 0 0 0.07705
1.452 0.003 0.029999999 5 0 0 0 0.077059999
1.456 0.0020000001 0.025 5 0 0 0 0.077069998
1.46 0.0020000001 0.021 5 0 0 0 0.077079996
1.466 0.001 0.016000001 4 0 0 0 0.077090003
1.472 0.001 0.011 4 0 0 0 0.077100001
1.479 0 0.0070000002 4 0 0 0 0.07711
1.472 0 0.0020000001 1 0 0 0 0.077119999
1.478 0 -0.0020000001 0 0 0 0 0.077129997
1.462 -0.001 -0.0060000001 0 0 0 0 0.077140003
1.464 -0.001 -0.011 0 0 0 0 0.077150002
3.4590001 -0.0040000002 -0.037999999 24 0 0 0 0.077160001
3.506 -0.0060000001 -0.050000001 0 0 0 0 0.077169999
1.488 -0.003 -0.026000001 6 0 0 0 0.077179998
1.488 -0.003 -0.029999999 6 0 0 0 0.077189997
1.493 -0.0040000002 -0.035 6 0 0 0 0.077200003
1.4910001 -0.0040000002 -0.039999999 6 0 0 0 0.077210002
1.488 -0.0049999999 -0.045000002 6 0 0 0 0.07722
1.493 -0.0049999999 -0.050000001 6 0 0 0 0.077229999
1.497 -0.0060000001 -0.055 6 0 0 0 0.077239998
1.4910001 -0.0060000001 -0.059 6 0 0 0 0.077249996
1.497 -0.0070000002 -0.064000003 6 0 0 0 0.077260002
1.497 -0.0070000002 -0.068999998 6 0 0 0 0.077270001
1.501 -0.0070000002 -0.074000001 7 0 0 0 0.07728
1.499 -0.0080000004 -0.079000004 6 0 0 0 0.077289999
1.501 -0.0080000004 -0.083999999 6 0 0 0 0.077299997
1.503 -0.0089999996 -0.089000002 6 0 0 0 0.077310003
0 0 0 0 0 0 0 0.077320002
0 0 0 0 0 0 0 0.077330001
0 0 0 0 0 0 0 0.077339999
1.4859999 -0.0099999998 -0.107 8 0 0 0 0.077349998
0 0 0 0 0 0 0 0.077359997
0 0 0 0 0 0 0 0.077370003
0 0 0 0 0 0 0 0.077380002
0 0 0 0 0 0 0 0.07739
3.1270001 -0.026000001 -0.27700001 4 0 0 0 0.077399999
1.416 -0.012 -0.13 0 0 0 0 0.077409998
1.399 -0.012 -0.133 0 0 0 0 0.077420004
1.347 -0.012 -0.132 0 0 0 0 0.077430002
1.194 -0.011 -0.121 2 0 0 0 0.077440001
1.168 -0.011 -0.122 5 0 0 0 0.07745
1.165 -0.011 -0.126 6 0 0 0 0.077459998
1.1720001 -0.011 -0.13 7 0 0 0 0.077469997
1.169 -0.011 -0.134 6 0 0 0 0.077480003
1.1720001 -0.011 -0.138 5 0 0 0 0.077490002
1.176 -0.012 -0.142 5 0 0 0 0.077500001
1.1849999 -0.012 -0.147 3 0 0 0 0.077509999
1.219 -0.012 -0.155 3 0 0 0 0.077519998
1.278 -0.013 -0.167 4 0 0 0 0.077529997
1.286 -0.014 -0.17200001 4 0 0 0 0.077540003
1.284 -0.014 -0.176 4 0 0 0 0.077550001
1.29 -0.014 -0.18099999 4 0 0 0 0.07756
1.289 -0.014 -0.185 4 0 0 0 0.077569999
1.286 -0.014 -0.189 4 0 0 0 0.077579997
1.286 -0.014 -0.193 4 0 0 0 0.077590004
1.284 -0.014 -0.197 4 0 0 0 0.077600002
1.288 -0.015 -0.20200001 4 0 0 0 0.077610001
1.2869999 -0.015 -0.206 4 0 0 0 0.07762
1.284 -0.015 -0.20999999 4 0 0 0 0.077629998
1.29 -0.015 -0.215 2 0 0 0 0.077639997
1.2410001 -0.014 -0.211 0 0 0 0 0.077650003
1.1849999 -0.014 -0.205 0 0 0 0 0.077660002
1.159 -0.014 -0.205 0 0 0 0 0.07767
1.176 -0.014 -0.212 0 0 0 0 0.077679999
1.1440001 -0.014 -0.20999999 0 0 0 0 0.077689998
1.154 -0.014 -0.215 0 0 0 0 0.077699997
1.288 -0.015 -0.245 0 0 0 0 0.077710003
1.288 -0.015 -0.249 2 0 0 0 0.077720001
1.28 -0.015 -0.25099999 4 0 0 0 0.07773
1.278 -0.015 -0.255 1 0 0 0 0.077739999
1.245 -0.015 -0.25299999 0 0 0 0 0.077749997
1.222 -0.015 -0.252 0 0 0 0 0.077760004
1.1950001 -0.014 -0.25099999 0 0 0 0 0.077770002
