# .PCD v0.7 - Point Cloud Data file format
VERSION 0.7
FIELDS x y z intensity normal_x normal_y normal_z curvature
SIZE 4 4 4 4 4 4 4 4
TYPE F F F F F F F F
COUNT 1 1 1 1 1 1 1 1
WIDTH 1004
HEIGHT 1
VIEWPOINT 0 0 0 1 0 0 0
POINTS 1004
DATA ascii
2.2119999 -0.78899997 -0.27000001 33 0 0 0 0.02816
2.224 -0.78600001 -0.27000001 32 0 0 0 0.028170001
2.237 -0.78299999 -0.27000001 31 0 0 0 0.028179999
2.247 -0.77899998 -0.27000001 32 0 0 0 0.02819
2.256 -0.77499998 -0.27000001 32 0 0 0 0.028200001
2.2709999 -0.77200001 -0.27000001 31 0 0 0 0.028209999
2.28 -0.76700002 -0.26899999 30 0 0 0 0.02822
2.197 -0.73199999 -0.25799999 98 0 0 0 0.02823
1.994 -0.65799999 -0.23199999 150 0 0 0 0.028240001
1.882 -0.61500001 -0.21799999 19 0 0 0 0.02825
1.874 -0.60600001 -0.21600001 23 0 0 0 0.02826
1.867 -0.597 -0.213 25 0 0 0 0.028270001
1.863 -0.58999997 -0.212 34 0 0 0 0.028279999
1.862 -0.583 -0.20999999 47 0 0 0 0.02829
1.863 -0.57800001 -0.20900001 54 0 0 0 0.0283
1.863 -0.57099998 -0.207 82 0 0 0 0.028310001
1.8559999 -0.56300002 -0.205 89 0 0 0 0.02832
1.857 -0.55699998 -0.204 88 0 0 0 0.02833
1.857 -0.551 -0.20200001 117 0 0 0 0.028340001
1.859 -0.546 -0.20100001 127 0 0 0 0.028349999
1.8609999 -0.54000002 -0.199 150 0 0 0 0.02836
1.86 -0.53399998 -0.198 150 0 0 0 0.02837
1.8609999 -0.528 -0.19599999 150 0 0 0 0.028379999
1.86 -0.52200001 -0.19400001 150 0 0 0 0.02839
1.8660001 -0.51700002 -0.19400001 150 0 0 0 0.0284
1.8660001 -0.51099998 -0.192 150 0 0 0 0.028410001
1.865 -0.505 -0.19 150 0 0 0 0.028419999
1.869 -0.5 -0.189 150 0 0 0 0.02843
1.87 -0.49399999 -0.18700001 150 0 0 0 0.02844
1.875 -0.48899999 -0.186 150 0 0 0 0.028449999
1.883 -0.48500001 -0.185 150 0 0 0 0.02846
1.8839999 -0.479 -0.183 150 0 0 0 0.02847
1.886 -0.47400001 -0.182 150 0 0 0 0.028480001
1.89 -0.46900001 -0.18099999 150 0 0 0 0.028489999
1.8940001 -0.46399999 -0.17900001 150 0 0 0 0.0285
1.899 -0.45899999 -0.178 124 0 0 0 0.028510001
1.902 -0.45300001 -0.176 122 0 0 0 0.028519999
1.904 -0.44800001 -0.175 109 0 0 0 0.02853
1.913 -0.44400001 -0.17399999 97 0 0 0 0.02854
1.915 -0.43799999 -0.17200001 82 0 0 0 0.028550001
1.921 -0.433 -0.171 99 0 0 0 0.02856
1.9220001 -0.42699999 -0.169 79 0 0 0 0.02857
1.927 -0.42199999 -0.167 92 0 0 0 0.028580001
1.9349999 -0.41800001 -0.16599999 75 0 0 0 0.028589999
1.936 -0.412 -0.164 74 0 0 0 0.0286
1.952 -0.40900001 -0.164 150 0 0 0 0.02861
1.943 -0.40099999 -0.161 62 0 0 0 0.028620001
1.954 -0.39700001 -0.16 56 0 0 0 0.02863
1.9630001 -0.39300001 -0.15800001 58 0 0 0 0.02864
1.967 -0.38800001 -0.15700001 53 0 0 0 0.028650001
1.972 -0.382 -0.155 41 0 0 0 0.028659999
1.974 -0.37599999 -0.153 39 0 0 0 0.02867
1.985 -0.37200001 -0.152 35 0 0 0 0.02868
1.992 -0.36700001 -0.15000001 29 0 0 0 0.028689999
1.999 -0.36300001 -0.149 150 0 0 0 0.0287
2.0020001 -0.35699999 -0.147 29 0 0 0 0.02871
2.0190001 -0.35299999 -0.146 23 0 0 0 0.028720001
2.029 -0.34900001 -0.14399999 75 0 0 0 0.028729999
2.04 -0.34400001 -0.14300001 58 0 0 0 0.02874
2.0539999 -0.34 -0.141 70 0 0 0 0.028750001
2.066 -0.336 -0.14 102 0 0 0 0.028759999
2.0840001 -0.333 -0.139 148 0 0 0 0.02877
2.0929999 -0.32800001 -0.13699999 133 0 0 0 0.02878
2.1099999 -0.324 -0.13600001 84 0 0 0 0.028790001
2.187 -0.329 -0.138 75 0 0 0 0.0288
2.2880001 -0.33700001 -0.142 109 0 0 0 0.02881
2.2980001 -0.331 -0.14 150 0 0 0 0.028820001
2.2909999 -0.32300001 -0.13699999 137 0 0 0 0.028829999
2.26 -0.31200001 -0.133 103 0 0 0 0.02884
2.2509999 -0.30399999 -0.13 92 0 0 0 0.02885
2.233 -0.294 -0.126 98 0 0 0 0.028860001
2.2179999 -0.28600001 -0.122 76 0 0 0 0.02887
2.1860001 -0.27500001 -0.118 79 0 0 0 0.02888
2.1730001 -0.266 -0.115 125 0 0 0 0.028890001
2.1619999 -0.259 -0.112 99 0 0 0 0.028899999
2.138 -0.249 -0.108 52 0 0 0 0.02891
2.1099999 -0.23899999 -0.104 68 0 0 0 0.02892
2.096 -0.23199999 -0.101 59 0 0 0 0.028929999
2.079 -0.223 -0.097000003 49 0 0 0 0.02894
2.0650001 -0.215 -0.093999997 68 0 0 0 0.02895
2.0610001 -0.20900001 -0.092 71 0 0 0 0.028960001
2.049 -0.20100001 -0.089000002 36 0 0 0 0.028969999
2.017 -0.192 -0.085000001 26 0 0 0 0.02898
1.998 -0.184 -0.081 11 0 0 0 0.02899
1.989 -0.177 -0.079000004 12 0 0 0 0.028999999
1.973 -0.17 -0.075000003 14 0 0 0 0.02901
1.962 -0.163 -0.072999999 16 0 0 0 0.02902
1.9579999 -0.15700001 -0.07 20 0 0 0 0.029030001
1.95 -0.15099999 -0.067000002 23 0 0 0 0.029039999
1.934 -0.14399999 -0.064000003 30 0 0 0 0.02905
1.934 -0.138 -0.061999999 29 0 0 0 0.029060001
1.927 -0.131 -0.059 26 0 0 0 0.029069999
1.925 -0.126 -0.057 23 0 0 0 0.02908
1.9220001 -0.12 -0.054000001 24 0 0 0 0.02909
1.91 -0.113 -0.050999999 24 0 0 0 0.029100001
1.905 -0.107 -0.048999999 23 0 0 0 0.02911
1.899 -0.101 -0.046 30 0 0 0 0.02912
1.8940001 -0.094999999 -0.043000001 46 0 0 0 0.029130001
1.891 -0.090000004 -0.041000001 62 0 0 0 0.029139999
1.883 -0.083999999 -0.037999999 47 0 0 0 0.02915
1.876 -0.078000002 -0.035999998 37 0 0 0 0.02916
1.887 -0.072999999 -0.033 150 0 0 0 0.029170001
1.873 -0.067000002 -0.030999999 150 0 0 0 0.02918
1.874 -0.061000001 -0.028000001 127 0 0 0 0.02919
1.872 -0.055 -0.026000001 64 0 0 0 0.029200001
1.862 -0.050000001 -0.023 15 0 0 0 0.029209999
1.844 -0.044 -0.02 11 0 0 0 0.02922
1.819 -0.037999999 -0.017999999 78 0 0 0 0.02923
1.811 -0.032000002 -0.015 13 0 0 0 0.029239999
1.796 -0.027000001 -0.013 11 0 0 0 0.02925
1.793 -0.021 -0.0099999998 11 0 0 0 0.02926
1.785 -0.016000001 -0.0080000004 10 0 0 0 0.029270001
1.778 -0.011 -0.0049999999 10 0 0 0 0.029279999
1.766 -0.0060000001 -0.003 11 0 0 0 0.02929
1.766 0 0 15 0 0 0 0.029300001
1.762 0.0040000002 0.001 15 0 0 0 0.029309999
1.757 0.0089999996 0.0040000002 12 0 0 0 0.02932
1.75 0.014 0.0060000001 10 0 0 0 0.02933
1.747 0.018999999 0.0089999996 10 0 0 0 0.029340001
1.7359999 0.024 0.011 11 0 0 0 0.02935
1.726 0.028999999 0.013 13 0 0 0 0.02936
1.7130001 0.034000002 0.016000001 13 0 0 0 0.029370001
1.706 0.039000001 0.017999999 33 0 0 0 0.029379999
1.702 0.043000001 0.02 15 0 0 0 0.02939
1.696 0.048 0.023 9 0 0 0 0.0294
1.704 0.052999999 0.025 9 0 0 0 0.029410001
1.7130001 0.059 0.028000001 9 0 0 0 0.02942
1.714 0.064000003 0.029999999 9 0 0 0 0.02943
1.7130001 0.068999998 0.033 8 0 0 0 0.029440001
1.716 0.074000001 0.035999998 8 0 0 0 0.029449999
1.7130001 0.078000002 0.037999999 8 0 0 0 0.02946
1.711 0.082999997 0.039999999 8 0 0 0 0.02947
1.714 0.088 0.043000001 7 0 0 0 0.029479999
1.709 0.093000002 0.045000002 7 0 0 0 0.02949
1.71 0.097999997 0.048 7 0 0 0 0.0295
1.724 0.104 0.050999999 7 0 0 0 0.029510001
1.7359999 0.11 0.054000001 7 0 0 0 0.029519999
1.756 0.116 0.057 8 0 0 0 0.02953
1.773 0.122 0.059999999 9 0 0 0 0.02954
1.794 0.12899999 0.064000003 10 0 0 0 0.029549999
1.857 0.139 0.068999998 16 0 0 0 0.02956
1.901 0.147 0.074000001 22 0 0 0 0.02957
1.934 0.155 0.078000002 114 0 0 0 0.029580001
1.9960001 0.16599999 0.082999997 69 0 0 0 0.029589999
2.0050001 0.17299999 0.086999997 13 0 0 0 0.0296
2.006 0.17900001 0.090000004 12 0 0 0 0.029610001
1.997 0.183 0.093000002 42 0 0 0 0.029619999
2.027 0.192 0.097000003 12 0 0 0 0.02963
2.102 0.205 0.104 19 0 0 0 0.02964
2.1429999 0.215 0.11 137 0 0 0 0.029650001
2.1949999 0.227 0.116 135 0 0 0 0.02966
2.1960001 0.233 0.119 134 0 0 0 0.02967
2.187 0.23800001 0.122 128 0 0 0 0.029680001
2.181 0.244 0.125 131 0 0 0 0.029689999
2.1689999 0.249 0.12800001 140 0 0 0 0.0297
2.1619999 0.25400001 0.131 140 0 0 0 0.02971
2.152 0.259 0.134 141 0 0 0 0.029720001
2.145 0.264 0.13699999 150 0 0 0 0.02973
2.1370001 0.27000001 0.14 141 0 0 0 0.02974
2.1300001 0.27500001 0.14300001 150 0 0 0 0.029750001
2.1170001 0.27900001 0.146 146 0 0 0 0.029759999
2.1070001 0.28400001 0.148 145 0 0 0 0.02977
2.105 0.289 0.152 147 0 0 0 0.02978
2.0940001 0.294 0.155 143 0 0 0 0.029789999
2.082 0.29800001 0.15700001 150 0 0 0 0.0298
2.072 0.303 0.16 148 0 0 0 0.02981
2.0610001 0.30700001 0.162 150 0 0 0 0.029820001
2.056 0.31200001 0.16599999 150 0 0 0 0.029829999
2.052 0.317 0.169 150 0 0 0 0.02984
2.039 0.32100001 0.171 150 0 0 0 0.029850001
2.036 0.32600001 0.17399999 150 0 0 0 0.029859999
2.0239999 0.33000001 0.177 150 0 0 0 0.02987
2.0190001 0.33500001 0.18000001 150 0 0 0 0.02988
2.01 0.33899999 0.182 150 0 0 0 0.029890001
2.0009999 0.34299999 0.185 150 0 0 0 0.029899999
1.9960001 0.34799999 0.18799999 150 0 0 0 0.02991
1.985 0.35100001 0.19 150 0 0 0 0.029920001
1.98 0.35600001 0.193 150 0 0 0 0.029929999
1.975 0.361 0.19599999 150 0 0 0 0.02994
1.969 0.36500001 0.199 150 0 0 0 0.02995
1.961 0.36899999 0.20200001 150 0 0 0 0.029960001
1.9529999 0.373 0.205 150 0 0 0 0.02997
1.943 0.377 0.207 150 0 0 0 0.02998
1.941 0.382 0.20999999 150 0 0 0 0.029990001
1.9299999 0.38499999 0.213 150 0 0 0 0.029999999
1.924 0.389 0.21600001 150 0 0 0 0.03001
1.915 0.39300001 0.21799999 150 0 0 0 0.03002
1.9119999 0.39700001 0.221 150 0 0 0 0.030029999
1.908 0.40200001 0.22400001 150 0 0 0 0.03004
1.895 0.405 0.226 150 0 0 0 0.03005
1.8890001 0.40900001 0.229 150 0 0 0 0.030060001
1.8789999 0.41100001 0.23100001 150 0 0 0 0.030069999
1.8710001 0.41499999 0.234 38 0 0 0 0.03008
1.865 0.419 0.237 34 0 0 0 0.03009
1.859 0.42300001 0.23899999 39 0 0 0 0.030099999
1.847 0.42500001 0.241 43 0 0 0 0.03011
1.842 0.42899999 0.244 37 0 0 0 0.03012
1.8380001 0.433 0.24699999 35 0 0 0 0.030130001
1.8329999 0.43700001 0.25 42 0 0 0 0.030139999
1.827 0.44100001 0.25299999 44 0 0 0 0.03015
1.822 0.44400001 0.255 43 0 0 0 0.030160001
1.819 0.449 0.259 41 0 0 0 0.030169999
1.804 0.44999999 0.25999999 42 0 0 0 0.03018
1.801 0.454 0.26300001 42 0 0 0 0.03019
1.7970001 0.458 0.266 36 0 0 0 0.030200001
1.7869999 0.46000001 0.26800001 52 0 0 0 0.03021
1.785 0.465 0.271 53 0 0 0 0.03022
1.777 0.46700001 0.273 44 0 0 0 0.030230001
1.7690001 0.47 0.27599999 55 0 0 0 0.030239999
1.766 0.47400001 0.27900001 150 0 0 0 0.03025
1.761 0.47799999 0.28200001 150 0 0 0 0.03026
1.744 0.47799999 0.28200001 56 0 0 0 0.030270001
1.749 0.484 0.287 150 0 0 0 0.03028
1.744 0.48699999 0.28999999 150 0 0 0 0.03029
1.7309999 0.48800001 0.29100001 56 0 0 0 0.030300001
1.725 0.491 0.29300001 54 0 0 0 0.030309999
1.719 0.49399999 0.296 56 0 0 0 0.03032
1.715 0.498 0.29899999 50 0 0 0 0.03033
1.7130001 0.50199997 0.30199999 54 0 0 0 0.030339999
1.7029999 0.50300002 0.30399999 60 0 0 0 0.03035
1.697 0.50599998 0.30599999 55 0 0 0 0.03036
1.6950001 0.50999999 0.31 150 0 0 0 0.030370001
1.689 0.51300001 0.31200001 150 0 0 0 0.030379999
1.687 0.51700002 0.315 150 0 0 0 0.03039
1.684 0.51999998 0.31900001 150 0 0 0 0.030400001
1.675 0.52200001 0.31999999 150 0 0 0 0.030409999
1.673 0.52600002 0.324 150 0 0 0 0.03042
1.6619999 0.52700001 0.32499999 150 0 0 0 0.03043
1.653 0.528 0.32699999 143 0 0 0 0.030440001
1.652 0.53200001 0.33000001 134 0 0 0 0.030449999
1.647 0.53500003 0.333 135 0 0 0 0.03046
1.643 0.53799999 0.336 120 0 0 0 0.030470001
1.64 0.54100001 0.33899999 127 0 0 0 0.030479999
1.637 0.54400003 0.34200001 130 0 0 0 0.03049
1.63 0.546 0.34400001 121 0 0 0 0.0305
1.626 0.54900002 0.347 103 0 0 0 0.030510001
1.619 0.551 0.34900001 111 0 0 0 0.03052
1.6160001 0.55400002 0.352 117 0 0 0 0.03053
1.612 0.55699998 0.35499999 110 0 0 0 0.030540001
1.601 0.55699998 0.35600001 111 0 0 0 0.030549999
1.599 0.56099999 0.359 110 0 0 0 0.03056
1.595 0.56300002 0.36199999 114 0 0 0 0.03057
1.592 0.56599998 0.36500001 113 0 0 0 0.030579999
1.59 0.56900001 0.368 114 0 0 0 0.03059
1.584 0.57099998 0.37 111 0 0 0 0.0306
1.582 0.574 0.373 104 0 0 0 0.030610001
1.571 0.574 0.375 104 0 0 0 0.030619999
1.5700001 0.57800001 0.37799999 150 0 0 0 0.03063
1.5650001 0.57999998 0.38 150 0 0 0 0.03064
1.559 0.58099997 0.38299999 150 0 0 0 0.030649999
1.558 0.58499998 0.38600001 150 0 0 0 0.03066
1.553 0.58700001 0.389 150 0 0 0 0.03067
1.549 0.58899999 0.391 150 0 0 0 0.030680001
1.5420001 0.58999997 0.39300001 150 0 0 0 0.030689999
1.5369999 0.59200001 0.396 150 0 0 0 0.0307
1.536 0.59500003 0.39899999 150 0 0 0 0.030710001
1.533 0.597 0.40200001 150 0 0 0 0.030719999
1.525 0.59799999 0.403 150 0 0 0 0.03073
1.518 0.59899998 0.405 150 0 0 0 0.03074
1.516 0.602 0.40799999 150 0 0 0 0.030750001
1.5140001 0.60399997 0.41100001 150 0 0 0 0.03076
1.512 0.60699999 0.41499999 150 0 0 0 0.03077
1.51 0.61000001 0.41800001 150 0 0 0 0.030780001
1.5039999 0.611 0.41999999 150 0 0 0 0.030789999
1.503 0.61400002 0.42300001 150 0 0 0 0.0308
1.492 0.61299998 0.42399999 150 0 0 0 0.03081
1.49 0.61500001 0.42699999 150 0 0 0 0.030820001
1.489 0.61799997 0.43099999 150 0 0 0 0.03083
1.48 0.61699998 0.43099999 150 0 0 0 0.03084
1.479 0.62099999 0.435 150 0 0 0 0.030850001
1.476 0.62199998 0.43799999 150 0 0 0 0.030859999
1.469 0.62300003 0.43900001 150 0 0 0 0.03087
1.467 0.625 0.442 150 0 0 0 0.03088
1.465 0.62699997 0.44600001 150 0 0 0 0.030889999
1.464 0.63 0.449 150 0 0 0 0.0309
1.46 0.63099998 0.45100001 150 0 0 0 0.03091
1.4579999 0.63300002 0.454 150 0 0 0 0.030920001
1.456 0.63499999 0.45699999 150 0 0 0 0.030929999
1.451 0.63599998 0.45899999 150 0 0 0 0.03094
1.449 0.63800001 0.46200001 150 0 0 0 0.030950001
1.4450001 0.639 0.465 150 0 0 0 0.030959999
1.443 0.64099997 0.46799999 150 0 0 0 0.03097
1.439 0.64200002 0.47 150 0 0 0 0.03098
1.432 0.64200002 0.47099999 150 0 0 0 0.030990001
1.4349999 0.64600003 0.47600001 150 0 0 0 0.030999999
1.426 0.64499998 0.477 150 0 0 0 0.03101
1.423 0.64600003 0.479 150 0 0 0 0.031020001
1.421 0.648 0.48199999 150 0 0 0 0.031029999
1.419 0.64899999 0.48500001 150 0 0 0 0.03104
1.415 0.64999998 0.48699999 150 0 0 0 0.03105
1.413 0.65100002 0.49000001 150 0 0 0 0.031060001
1.41 0.653 0.493 150 0 0 0 0.03107
1.409 0.65499997 0.49599999 150 0 0 0 0.03108
1.403 0.65399998 0.498 150 0 0 0 0.031090001
1.405 0.65700001 0.50199997 150 0 0 0 0.031099999
1.398 0.65600002 0.50300002 150 0 0 0 0.03111
1.392 0.65600002 0.50400001 150 0 0 0 0.03112
1.395 0.65899998 0.509 150 0 0 0 0.031129999
1.3890001 0.65899998 0.50999999 150 0 0 0 0.03114
1.387 0.66000003 0.51300001 150 0 0 0 0.03115
1.387 0.662 0.51599997 150 0 0 0 0.031160001
1.3839999 0.662 0.51899999 150 0 0 0 0.031169999
1.3839999 0.66399997 0.52200001 150 0 0 0 0.03118
1.38 0.66500002 0.52399999 150 0 0 0 0.03119
1.377 0.66500002 0.52600002 150 0 0 0 0.031199999
1.377 0.667 0.52999997 150 0 0 0 0.03121
1.375 0.66799998 0.53299999 150 0 0 0 0.03122
1.3710001 0.66799998 0.53500003 150 0 0 0 0.031230001
1.372 0.67000002 0.53799999 150 0 0 0 0.031239999
1.3710001 0.671 0.54100001 150 0 0 0 0.03125
1.365 0.67000002 0.542 150 0 0 0 0.031259999
1.365 0.671 0.546 150 0 0 0 0.031270001
1.365 0.67299998 0.54900002 150 0 0 0 0.03128
1.363 0.67299998 0.551 150 0 0 0 0.031289998
1.363 0.67500001 0.55500001 150 0 0 0 0.031300001
1.359 0.67400002 0.55599999 150 0 0 0 0.03131
1.359 0.67500001 0.55900002 150 0 0 0 0.031319998
1.357 0.676 0.56199998 150 0 0 0 0.031330001
1.355 0.676 0.56400001 150 0 0 0 0.031339999
1.355 0.67699999 0.56699997 150 0 0 0 0.031350002
1.353 0.67699999 0.56900001 150 0 0 0 0.03136
1.352 0.67799997 0.57200003 150 0 0 0 0.031369999
1.347 0.676 0.57300001 150 0 0 0 0.031380001
1.345 0.67699999 0.57499999 150 0 0 0 0.03139
1.348 0.67900002 0.579 150 0 0 0 0.031399999
1.346 0.67900002 0.58200002 150 0 0 0 0.031410001
1.345 0.67900002 0.58399999 150 0 0 0 0.03142
1.345 0.68000001 0.58700001 150 0 0 0 0.031429999
1.349 0.68199998 0.59200001 150 0 0 0 0.031440001
1.3380001 0.67799997 0.58999997 150 0 0 0 0.03145
1.341 0.68000001 0.59399998 150 0 0 0 0.031459998
1.342 0.68099999 0.597 150 0 0 0 0.031470001
1.341 0.68099999 0.60000002 150 0 0 0 0.031479999
1.3430001 0.68300003 0.60399997 150 0 0 0 0.031490002
1.342 0.68199998 0.60600001 150 0 0 0 0.031500001
1.347 0.685 0.611 150 0 0 0 0.031509999
1.346 0.685 0.61299998 150 0 0 0 0.031520002
1.344 0.68400002 0.61400002 150 0 0 0 0.03153
1.34 0.68199998 0.61500001 150 0 0 0 0.031539999
1.344 0.68400002 0.62 150 0 0 0 0.031550001
1.345 0.685 0.62300003 150 0 0 0 0.03156
1.344 0.68400002 0.625 150 0 0 0 0.031569999
1.3430001 0.68400002 0.62699997 150 0 0 0 0.031580001
1.346 0.68599999 0.63099998 150 0 0 0 0.03159
1.346 0.685 0.63300002 150 0 0 0 0.031599998
1.346 0.685 0.63499999 150 0 0 0 0.031610001
1.345 0.68400002 0.63700002 150 0 0 0 0.03162
1.345 0.68400002 0.639 150 0 0 0 0.031629998
1.348 0.685 0.64300001 150 0 0 0 0.031640001
1.349 0.685 0.64600003 150 0 0 0 0.031649999
1.349 0.68400002 0.648 150 0 0 0 0.031660002
1.349 0.68400002 0.64999998 150 0 0 0 0.03167
1.349 0.68300003 0.65200001 150 0 0 0 0.031679999
1.348 0.68199998 0.653 150 0 0 0 0.031690001
1.349 0.68199998 0.65600002 150 0 0 0 0.0317
1.355 0.68400002 0.66000003 150 0 0 0 0.031709999
1.354 0.68300003 0.662 150 0 0 0 0.031720001
1.358 0.68400002 0.66600001 150 0 0 0 0.03173
1.354 0.68099999 0.66500002 150 0 0 0 0.031739999
1.359 0.68199998 0.66900003 150 0 0 0 0.031750001
1.3609999 0.68300003 0.67199999 150 0 0 0 0.03176
1.3609999 0.68199998 0.67400002 150 0 0 0 0.031769998
1.36 0.68000001 0.67500001 150 0 0 0 0.031780001
1.36 0.67799997 0.676 150 0 0 0 0.031789999
1.363 0.67900002 0.67900002 150 0 0 0 0.031800002
1.363 0.67699999 0.68099999 150 0 0 0 0.031810001
1.37 0.68000001 0.68599999 150 0 0 0 0.031819999
1.365 0.67500001 0.68400002 150 0 0 0 0.031830002
1.3710001 0.67699999 0.68900001 150 0 0 0 0.03184
1.375 0.67699999 0.69199997 150 0 0 0 0.031849999
1.3710001 0.67400002 0.69099998 150 0 0 0 0.031860001
1.375 0.67400002 0.69400001 150 0 0 0 0.03187
1.375 0.67199999 0.69499999 150 0 0 0 0.031879999
1.3839999 0.67500001 0.69999999 150 0 0 0 0.031890001
1.38 0.671 0.699 150 0 0 0 0.0319
1.383 0.671 0.70200002 150 0 0 0 0.031909999
1.385 0.67000002 0.704 150 0 0 0 0.031920001
1.39 0.67000002 0.70700002 150 0 0 0 0.03193
1.388 0.667 0.70700002 150 0 0 0 0.031939998
1.396 0.66900003 0.71100003 150 0 0 0 0.031950001
1.395 0.66600001 0.71200001 150 0 0 0 0.031959999
1.398 0.66600001 0.71399999 150 0 0 0 0.031970002
1.401 0.66500002 0.71600002 150 0 0 0 0.03198
1.404 0.66399997 0.71700001 150 0 0 0 0.031989999
1.4069999 0.66299999 0.71899998 150 0 0 0 0.032000002
1.409 0.66100001 0.72100002 150 0 0 0 0.03201
1.41 0.65899998 0.72100002 150 0 0 0 0.032019999
1.413 0.65799999 0.72299999 150 0 0 0 0.032030001
1.419 0.65899998 0.72600001 150 0 0 0 0.03204
1.42 0.65700001 0.727 150 0 0 0 0.032049999
1.423 0.65600002 0.72799999 150 0 0 0 0.032060001
1.427 0.65399998 0.73000002 150 0 0 0 0.03207
1.4299999 0.653 0.73199999 150 0 0 0 0.032079998
1.431 0.65100002 0.73199999 150 0 0 0 0.032090001
1.432 0.648 0.73199999 150 0 0 0 0.032099999
1.4349999 0.64700001 0.73299998 150 0 0 0 0.032109998
1.444 0.648 0.73799998 150 0 0 0 0.032120001
1.443 0.64499998 0.736 150 0 0 0 0.032129999
1.449 0.64399999 0.73900002 150 0 0 0 0.032140002
1.45 0.64200002 0.73900002 150 0 0 0 0.03215
1.455 0.64099997 0.741 150 0 0 0 0.032159999
1.4579999 0.639 0.74199998 150 0 0 0 0.032170001
1.459 0.63700002 0.74199998 150 0 0 0 0.03218
1.466 0.63599998 0.74400002 150 0 0 0 0.032189999
1.467 0.634 0.74400002 150 0 0 0 0.032200001
1.471 0.63200003 0.745 150 0 0 0 0.03221
1.472 0.63 0.745 150 0 0 0 0.032219999
1.48 0.63 0.74800003 150 0 0 0 0.032230001
1.483 0.62699997 0.74800003 150 0 0 0 0.03224
1.484 0.625 0.74800003 150 0 0 0 0.032249998
1.489 0.62300003 0.74900001 150 0 0 0 0.032260001
1.495 0.62199998 0.75099999 150 0 0 0 0.032269999
1.498 0.62 0.75099999 150 0 0 0 0.032280002
1.5039999 0.61900002 0.75300002 150 0 0 0 0.03229
1.507 0.61699998 0.75300002 150 0 0 0 0.032299999
1.5089999 0.61400002 0.75199997 150 0 0 0 0.032310002
1.515 0.61299998 0.75300002 150 0 0 0 0.03232
1.517 0.61000001 0.75300002 150 0 0 0 0.032329999
1.5190001 0.60699999 0.75199997 150 0 0 0 0.032340001
1.526 0.60600001 0.75400001 150 0 0 0 0.03235
1.528 0.60299999 0.75300002 150 0 0 0 0.032359999
1.53 0.60000002 0.75199997 150 0 0 0 0.032370001
1.538 0.60000002 0.75400001 150 0 0 0 0.03238
1.5420001 0.597 0.75400001 150 0 0 0 0.032389998
1.543 0.59399998 0.75300002 150 0 0 0 0.032400001
1.5470001 0.59200001 0.75300002 150 0 0 0 0.03241
1.553 0.58999997 0.75300002 150 0 0 0 0.032419998
1.558 0.588 0.75400001 150 0 0 0 0.032430001
1.5599999 0.58499998 0.75300002 150 0 0 0 0.032439999
1.568 0.58399999 0.75400001 150 0 0 0 0.032450002
1.571 0.58200002 0.75300002 150 0 0 0 0.03246
1.573 0.57800001 0.75199997 150 0 0 0 0.032469999
1.58 0.57700002 0.75300002 150 0 0 0 0.032480001
1.585 0.57499999 0.75300002 150 0 0 0 0.03249
1.589 0.57200003 0.75199997 150 0 0 0 0.032499999
1.594 0.56999999 0.75199997 150 0 0 0 0.032510001
1.596 0.56699997 0.75 150 0 0 0 0.03252
1.601 0.56400001 0.75 150 0 0 0 0.032529999
1.608 0.56300002 0.75 150 0 0 0 0.032540001
1.6109999 0.56 0.74900001 150 0 0 0 0.03255
1.614 0.55699998 0.74699998 150 0 0 0 0.032559998
1.6210001 0.55500001 0.74800003 150 0 0 0 0.032570001
1.623 0.55199999 0.74599999 150 0 0 0 0.032579999
1.627 0.54900002 0.745 150 0 0 0 0.032590002
1.635 0.54699999 0.745 150 0 0 0 0.032600001
1.64 0.54500002 0.745 150 0 0 0 0.032609999
1.645 0.54299998 0.74400002 150 0 0 0 0.032620002
1.65 0.54000002 0.74299997 150 0 0 0 0.03263
1.654 0.537 0.741 150 0 0 0 0.032639999
1.659 0.53399998 0.74000001 150 0 0 0 0.032650001
1.661 0.53100002 0.73799998 150 0 0 0 0.03266
1.67 0.52999997 0.73900002 150 0 0 0 0.032669999
1.674 0.52700001 0.73699999 150 0 0 0 0.032680001
1.677 0.523 0.73500001 150 0 0 0 0.03269
1.684 0.52100003 0.73400003 150 0 0 0 0.032699998
1.686 0.51800001 0.73199999 150 0 0 0 0.032710001
1.699 0.51700002 0.73400003 150 0 0 0 0.03272
1.701 0.514 0.73100001 150 0 0 0 0.032729998
1.7029999 0.50999999 0.72799999 150 0 0 0 0.032740001
1.712 0.509 0.72899997 150 0 0 0 0.032749999
1.719 0.50599998 0.72799999 150 0 0 0 0.032760002
1.721 0.50300002 0.72500002 150 0 0 0 0.03277
1.725 0.5 0.72299999 150 0 0 0 0.032779999
1.732 0.49700001 0.722 150 0 0 0 0.032790001
1.739 0.495 0.72100002 150 0 0 0 0.0328
1.743 0.49200001 0.71899998 150 0 0 0 0.032809999
1.75 0.48899999 0.71700001 150 0 0 0 0.032820001
1.757 0.48699999 0.71700001 150 0 0 0 0.03283
1.7589999 0.484 0.713 150 0 0 0 0.032839999
1.766 0.48100001 0.71200001 150 0 0 0 0.032850001
1.7690001 0.477 0.70899999 150 0 0 0 0.03286
1.774 0.47499999 0.70700002 150 0 0 0 0.032869998
1.777 0.47099999 0.704 150 0 0 0 0.032880001
1.788 0.47 0.704 150 0 0 0 0.032889999
1.7920001 0.46700001 0.70200002 150 0 0 0 0.032900002
1.796 0.463 0.699 150 0 0 0 0.032910001
1.802 0.461 0.69700003 150 0 0 0 0.032919999
1.812 0.45899999 0.69599998 150 0 0 0 0.032930002
1.809 0.454 0.69099998 150 0 0 0 0.03294
1.816 0.45100001 0.68900001 150 0 0 0 0.032949999
1.8200001 0.44800001 0.68599999 150 0 0 0 0.032960001
1.825 0.44499999 0.68400002 150 0 0 0 0.03297
1.837 0.44299999 0.68300003 150 0 0 0 0.032979999
1.841 0.44 0.68000001 150 0 0 0 0.032990001
1.844 0.43700001 0.67699999 150 0 0 0 0.033
1.851 0.43399999 0.67500001 150 0 0 0 0.033009999
1.853 0.43000001 0.671 150 0 0 0 0.033020001
1.8609999 0.428 0.66900003 150 0 0 0 0.03303
1.864 0.42399999 0.66500002 150 0 0 0 0.033039998
1.87 0.421 0.66299999 150 0 0 0 0.033050001
1.872 0.417 0.65899998 150 0 0 0 0.033059999
1.883 0.41600001 0.65799999 150 0 0 0 0.033070002
1.888 0.412 0.65499997 150 0 0 0 0.03308
1.893 0.40900001 0.65200001 150 0 0 0 0.033089999
1.898 0.40599999 0.648 150 0 0 0 0.033100002
1.903 0.403 0.64499998 150 0 0 0 0.03311
1.904 0.39899999 0.64099997 150 0 0 0 0.033119999
1.915 0.39700001 0.639 150 0 0 0 0.033130001
1.919 0.39300001 0.63599998 150 0 0 0 0.03314
1.924 0.38999999 0.63200003 150 0 0 0 0.033149999
1.928 0.38699999 0.62800002 150 0 0 0 0.033160001
1.934 0.384 0.625 150 0 0 0 0.03317
1.939 0.38100001 0.62199998 150 0 0 0 0.033179998
1.944 0.377 0.61799997 148 0 0 0 0.033190001
1.951 0.375 0.616 140 0 0 0 0.033199999
1.956 0.37099999 0.61199999 145 0 0 0 0.033209998
1.962 0.368 0.60900003 150 0 0 0 0.033220001
1.966 0.36500001 0.60500002 150 0 0 0 0.033229999
1.976 0.36300001 0.602 150 0 0 0 0.033240002
1.978 0.359 0.59799999 150 0 0 0 0.03325
1.982 0.35499999 0.59299999 147 0 0 0 0.033259999
1.987 0.352 0.58999997 150 0 0 0 0.033270001
1.99 0.34799999 0.58499998 148 0 0 0 0.03328
2.0090001 0.34799999 0.58499998 146 0 0 0 0.033289999
2.013 0.34400001 0.58099997 143 0 0 0 0.033300001
2.0150001 0.34 0.57599998 146 0 0 0 0.03331
2.0209999 0.33700001 0.57200003 141 0 0 0 0.033319999
2.027 0.33399999 0.56900001 136 0 0 0 0.033330001
2.0320001 0.331 0.56400001 146 0 0 0 0.03334
2.0409999 0.32800001 0.56099999 147 0 0 0 0.033349998
2.0439999 0.32499999 0.55699998 143 0 0 0 0.033360001
2.05 0.32100001 0.55299997 150 0 0 0 0.033369999
2.0550001 0.31799999 0.54799998 142 0 0 0 0.033380002
2.0639999 0.315 0.54500002 141 0 0 0 0.03339
2.069 0.31200001 0.54100001 143 0 0 0 0.033399999
2.072 0.308 0.53600001 141 0 0 0 0.033410002
2.0769999 0.30500001 0.53200001 143 0 0 0 0.03342
2.0840001 0.30199999 0.528 141 0 0 0 0.033429999
2.0910001 0.29899999 0.52399999 148 0 0 0 0.033440001
2.0940001 0.29499999 0.51899999 141 0 0 0 0.03345
2.099 0.292 0.514 148 0 0 0 0.033459999
2.1059999 0.289 0.50999999 142 0 0 0 0.033470001
2.1110001 0.28600001 0.505 150 0 0 0 0.03348
2.1159999 0.28200001 0.50099999 134 0 0 0 0.033489998
2.1229999 0.27900001 0.49599999 134 0 0 0 0.033500001
2.1289999 0.27599999 0.49200001 131 0 0 0 0.03351
2.1340001 0.27200001 0.48699999 142 0 0 0 0.033519998
2.141 0.26899999 0.48300001 139 0 0 0 0.033530001
2.1440001 0.266 0.477 138 0 0 0 0.033539999
2.1500001 0.26300001 0.47299999 128 0 0 0 0.033550002
2.1570001 0.259 0.46799999 129 0 0 0 0.03356
2.161 0.25600001 0.463 128 0 0 0 0.033569999
2.171 0.25299999 0.45899999 127 0 0 0 0.033580001
2.1800001 0.25 0.45500001 128 0 0 0 0.03359
2.1819999 0.24600001 0.449 126 0 0 0 0.033599999
2.187 0.243 0.44400001 131 0 0 0 0.033610001
2.1930001 0.23999999 0.43900001 121 0 0 0 0.03362
2.1949999 0.236 0.433 125 0 0 0 0.033629999
2.204 0.233 0.42899999 125 0 0 0 0.033640001
2.211 0.23 0.42399999 119 0 0 0 0.03365
2.2149999 0.226 0.419 122 0 0 0 0.033659998
2.223 0.223 0.414 124 0 0 0 0.033670001
2.2290001 0.22 0.40900001 126 0 0 0 0.033679999
2.2279999 0.21600001 0.40200001 125 0 0 0 0.033690002
2.2320001 0.213 0.39700001 121 0 0 0 0.0337
2.237 0.20900001 0.391 128 0 0 0 0.033709999
2.243 0.206 0.38600001 135 0 0 0 0.033720002
2.2539999 0.20299999 0.382 139 0 0 0 0.03373
2.2579999 0.199 0.37599999 135 0 0 0 0.033739999
2.263 0.19599999 0.37 128 0 0 0 0.033750001
2.2690001 0.193 0.36500001 122 0 0 0 0.03376
2.273 0.189 0.359 123 0 0 0 0.033769999
2.279 0.186 0.354 124 0 0 0 0.033780001
2.29 0.183 0.34900001 111 0 0 0 0.03379
2.293 0.17900001 0.34299999 111 0 0 0 0.033799998
2.303 0.176 0.338 110 0 0 0 0.033810001
2.3080001 0.17299999 0.33199999 108 0 0 0 0.03382
2.312 0.169 0.32600001 106 0 0 0 0.033829998
2.316 0.16599999 0.31999999 106 0 0 0 0.033840001
2.3280001 0.163 0.315 109 0 0 0 0.033849999
2.332 0.15899999 0.30899999 107 0 0 0 0.033860002
2.3380001 0.156 0.303 107 0 0 0 0.03387
2.339 0.152 0.296 100 0 0 0 0.033879999
2.345 0.149 0.28999999 101 0 0 0 0.033890001
2.3540001 0.146 0.285 102 0 0 0 0.0339
2.3659999 0.142 0.27900001 106 0 0 0 0.033909999
2.3629999 0.138 0.27200001 98 0 0 0 0.033920001
2.3699999 0.13500001 0.266 103 0 0 0 0.03393
2.3770001 0.132 0.25999999 100 0 0 0 0.033939999
2.3840001 0.12800001 0.25400001 99 0 0 0 0.033950001
2.3889999 0.125 0.248 96 0 0 0 0.03396
2.398 0.122 0.242 94 0 0 0 0.033969998
2.402 0.118 0.236 91 0 0 0 0.033980001
2.4070001 0.115 0.229 90 0 0 0 0.033989999
2.4170001 0.111 0.223 94 0 0 0 0.034000002
2.4200001 0.108 0.21699999 95 0 0 0 0.034010001
2.4300001 0.105 0.20999999 98 0 0 0 0.034019999
2.4319999 0.101 0.204 102 0 0 0 0.034030002
2.4419999 0.097999997 0.197 102 0 0 0 0.03404
2.4430001 0.093999997 0.191 98 0 0 0 0.034049999
2.4549999 0.090999998 0.184 100 0 0 0 0.034060001
2.454 0.086999997 0.177 90 0 0 0 0.03407
2.457 0.082999997 0.17 93 0 0 0 0.034079999
2.467 0.079999998 0.164 97 0 0 0 0.034090001
2.4760001 0.077 0.15800001 93 0 0 0 0.0341
2.477 0.072999999 0.15000001 94 0 0 0 0.034109998
2.4879999 0.07 0.14399999 103 0 0 0 0.034120001
2.4890001 0.066 0.13699999 103 0 0 0 0.03413
2.405 0.059999999 0.125 139 0 0 0 0.034139998
2.293 0.054000001 0.113 79 0 0 0 0.034150001
2.2149999 0.048999999 0.102 56 0 0 0 0.034159999
2.207 0.046 0.096000001 77 0 0 0 0.034170002
2.204 0.041999999 0.089000002 90 0 0 0 0.03418
2.1800001 0.039000001 0.082000002 121 0 0 0 0.034189999
1.974 0.032000002 0.068000004 150 0 0 0 0.034200002
1.84 0.027000001 0.057999998 65 0 0 0 0.03421
1.7819999 0.024 0.050999999 47 0 0 0 0.034219999
1.772 0.021 0.046 60 0 0 0 0.034230001
1.7640001 0.018999999 0.039999999 61 0 0 0 0.03424
1.744 0.016000001 0.035 59 0 0 0 0.034249999
1.72 0.013 0.028999999 104 0 0 0 0.034260001
1.717 0.011 0.024 83 0 0 0 0.03427
1.722 0.0089999996 0.018999999 86 0 0 0 0.034279998
1.7359999 0.0060000001 0.014 91 0 0 0 0.034290001
1.733 0.0040000002 0.0089999996 80 0 0 0 0.034299999
1.727 0.001 0.0040000002 80 0 0 0 0.034309998
1.727 0 0 82 0 0 0 0.034320001
1.726 -0.0020000001 -0.0049999999 84 0 0 0 0.034329999
1.727 -0.0049999999 -0.0099999998 83 0 0 0 0.034340002
1.726 -0.0070000002 -0.015 78 0 0 0 0.03435
1.728 -0.0089999996 -0.02 69 0 0 0 0.034359999
1.728 -0.012 -0.025 65 0 0 0 0.034370001
1.728 -0.014 -0.029999999 62 0 0 0 0.03438
1.728 -0.016000001 -0.035 63 0 0 0 0.034389999
1.732 -0.018999999 -0.041000001 67 0 0 0 0.034400001
1.732 -0.021 -0.046 75 0 0 0 0.03441
1.734 -0.023 -0.050999999 89 0 0 0 0.034419999
1.7359999 -0.026000001 -0.056000002 109 0 0 0 0.034430001
1.739 -0.028000001 -0.061000001 116 0 0 0 0.03444
1.739 -0.029999999 -0.067000002 121 0 0 0 0.034449998
1.742 -0.033 -0.071999997 131 0 0 0 0.034460001
1.7410001 -0.035 -0.077 129 0 0 0 0.034469999
1.744 -0.037 -0.082000002 140 0 0 0 0.034480002
1.7460001 -0.039000001 -0.088 132 0 0 0 0.03449
1.748 -0.041999999 -0.093000002 127 0 0 0 0.034499999
1.755 -0.044 -0.098999999 132 0 0 0 0.034510002
1.749 -0.046 -0.103 118 0 0 0 0.03452
1.75 -0.048 -0.109 109 0 0 0 0.034529999
1.7589999 -0.050999999 -0.114 107 0 0 0 0.034540001
1.7589999 -0.052999999 -0.12 92 0 0 0 0.03455
1.7589999 -0.055 -0.125 85 0 0 0 0.034559999
1.7640001 -0.057999998 -0.131 74 0 0 0 0.034570001
1.771 -0.059999999 -0.13699999 69 0 0 0 0.03458
1.793 -0.063000001 -0.14399999 78 0 0 0 0.034589998
1.8049999 -0.066 -0.15000001 77 0 0 0 0.034600001
1.8200001 -0.068999998 -0.15700001 83 0 0 0 0.03461
1.8380001 -0.071999997 -0.164 98 0 0 0 0.034619998
1.852 -0.074000001 -0.171 93 0 0 0 0.034630001
1.867 -0.077 -0.178 104 0 0 0 0.034639999
1.87 -0.079999998 -0.184 108 0 0 0 0.034650002
1.873 -0.082000002 -0.19 124 0 0 0 0.03466
1.87 -0.083999999 -0.19499999 127 0 0 0 0.034669999
1.874 -0.086999997 -0.20100001 148 0 0 0 0.034680001
1.875 -0.089000002 -0.207 65 0 0 0 0.03469
1.881 -0.090999998 -0.213 26 0 0 0 0.034699999
1.872 -0.093000002 -0.21799999 16 0 0 0 0.034710001
1.819 -0.093000002 -0.21799999 1 0 0 0 0.03472
1.029 -0.052999999 -0.126 0 0 0 0 0.034729999
0.90899998 -0.048 -0.114 0 0 0 0 0.034740001
0.92699999 -0.050000001 -0.119 0 0 0 0 0.03475
0.91299999 -0.050000001 -0.12 0 0 0 0 0.034759998
0.91299999 -0.052000001 -0.123 0 0 0 0 0.034770001
0.97299999 -0.056000002 -0.134 0 0 0 0 0.034779999
1.0650001 -0.063000001 -0.15000001 0 0 0 0 0.034790002
1.057 -0.063000001 -0.152 0 0 0 0 0.0348
1.0650001 -0.064999998 -0.15700001 1 0 0 0 0.034809999
1.05 -0.064999998 -0.15800001 0 0 0 0 0.034820002
1.045 -0.066 -0.16 0 0 0 0 0.03483
0.96100003 -0.061999999 -0.15000001 0 0 0 0 0.034839999
0.824 -0.054000001 -0.131 0 0 0 0 0.034850001
0.77700001 -0.052000001 -0.126 0 0 0 0 0.03486
0.74699998 -0.050000001 -0.124 0 0 0 0 0.034869999
0.74000001 -0.050999999 -0.125 0 0 0 0 0.034880001
0.72100002 -0.050000001 -0.124 0 0 0 0 0.03489
0.71200001 -0.050000001 -0.124 0 0 0 0 0.034899998
0.70499998 -0.050999999 -0.125 0 0 0 0 0.034910001
0.68900001 -0.050000001 -0.125 0 0 0 0 0.03492
0.68199998 -0.050000001 -0.126 0 0 0 0 0.034929998
0.65700001 -0.048999999 -0.123 0 0 0 0 0.034940001
0.64600003 -0.048999999 -0.123 0 0 0 0 0.034949999
0.63300002 -0.048999999 -0.123 0 0 0 0 0.034960002
0.64099997 -0.050000001 -0.126 0 0 0 0 0.03497
0.62300003 -0.048999999 -0.125 0 0 0 0 0.034979999
0.62300003 -0.050000001 -0.126 0 0 0 0 0.034990001
0.63300002 -0.050999999 -0.131 0 0 0 0 0.035
0.62400001 -0.050999999 -0.131 0 0 0 0 0.035009999
0.63099998 -0.052000001 -0.134 0 0 0 0 0.035020001
0.63099998 -0.052999999 -0.13600001 0 0 0 0 0.03503
0.634 -0.054000001 -0.139 0 0 0 0 0.035039999
0.63099998 -0.054000001 -0.14 0 0 0 0 0.035050001
0.63 -0.055 -0.142 0 0 0 0 0.03506
0.616 -0.054000001 -0.141 0 0 0 0 0.035069998
0.63200003 -0.056000002 -0.147 0 0 0 0 0.035080001
0.64600003 -0.057999998 -0.152 0 0 0 0 0.035089999
0.64099997 -0.057999998 -0.153 0 0 0 0 0.035100002
0.63700002 -0.059 -0.154 0 0 0 0 0.035110001
0.66399997 -0.061999999 -0.162 0 0 0 0 0.035119999
0.66299999 -0.061999999 -0.164 0 0 0 0 0.035130002
0.63800001 -0.059999999 -0.16 0 0 0 0 0.03514
0.662 -0.063000001 -0.168 0 0 0 0 0.035149999
0.66399997 -0.064000003 -0.171 0 0 0 0 0.035160001
0.65499997 -0.064000003 -0.171 0 0 0 0 0.03517
0.66399997 -0.064999998 -0.175 0 0 0 0 0.035179999
0.66799998 -0.066 -0.17900001 0 0 0 0 0.035190001
0.66399997 -0.066 -0.18000001 0 0 0 0 0.0352
0.68000001 -0.068999998 -0.186 0 0 0 0 0.035209998
0.67900002 -0.068999998 -0.18799999 0 0 0 0 0.035220001
0.69099998 -0.071000002 -0.19400001 0 0 0 0 0.03523
0.68699998 -0.071000002 -0.19499999 0 0 0 0 0.035239998
0.69 -0.071999997 -0.198 0 0 0 0 0.035250001
0.685 -0.071999997 -0.199 0 0 0 0 0.035259999
0.68599999 -0.072999999 -0.20100001 0 0 0 0 0.035270002
0.685 -0.072999999 -0.20299999 0 0 0 0 0.03528
0.69199997 -0.074000001 -0.208 0 0 0 0 0.035289999
0.68099999 -0.074000001 -0.207 0 0 0 0 0.035300002
0.67900002 -0.074000001 -0.208 0 0 0 0 0.03531
0.70700002 -0.078000002 -0.219 0 0 0 0 0.035319999
0.70300001 -0.078000002 -0.22 0 0 0 0 0.035330001
0.68099999 -0.075999998 -0.21600001 0 0 0 0 0.03534
0.68099999 -0.075999998 -0.21799999 0 0 0 0 0.035349999
0.68900001 -0.078000002 -0.223 0 0 0 0 0.035360001
0.69199997 -0.079000004 -0.226 0 0 0 0 0.03537
0.68400002 -0.078000002 -0.226 0 0 0 0 0.035379998
0.685 -0.079000004 -0.228 0 0 0 0 0.035390001
0.70499998 -0.082000002 -0.237 0 0 0 0 0.035399999
0.70099998 -0.082000002 -0.23800001 0 0 0 0 0.035409998
0.68300003 -0.079999998 -0.234 0 0 0 0 0.035420001
0.699 -0.082000002 -0.242 0 0 0 0 0.035429999
0.70200002 -0.082999997 -0.24600001 0 0 0 0 0.035440002
0.70099998 -0.083999999 -0.248 0 0 0 0 0.03545
0.70300001 -0.083999999 -0.25099999 0 0 0 0 0.035459999
0.70999998 -0.086000003 -0.25600001 0 0 0 0 0.035470001
0.71100003 -0.086000003 -0.25799999 0 0 0 0 0.03548
0.69400001 -0.083999999 -0.255 0 0 0 0 0.035489999
0.70899999 -0.086999997 -0.26300001 0 0 0 0 0.035500001
0.699 -0.086000003 -0.26100001 0 0 0 0 0.03551
0.69800001 -0.086000003 -0.26300001 0 0 0 0 0.035519999
0.708 -0.088 -0.26899999 0 0 0 0 0.035530001
0.713 -0.089000002 -0.27399999 0 0 0 0 0.03554
0.713 -0.089000002 -0.27599999 0 0 0 0 0.035549998
0.72000003 -0.090000004 -0.28099999 0 0 0 0 0.035560001
0.71100003 -0.090000004 -0.28 0 0 0 0 0.035569999
0.70499998 -0.089000002 -0.28 0 0 0 0 0.035580002
0.69700003 -0.089000002 -0.27900001 0 0 0 0 0.03559
0.70300001 -0.090000004 -0.28400001 0 0 0 0 0.035599999
0.67299998 -0.086000003 -0.27399999 0 0 0 0 0.035610002
0.667 -0.086000003 -0.27399999 0 0 0 0 0.03562
0.66100001 -0.085000001 -0.27399999 0 0 0 0 0.035629999
0.67000002 -0.086999997 -0.28 0 0 0 0 0.035640001
0.67699999 -0.088 -0.285 0 0 0 0 0.03565
0.67299998 -0.088 -0.28600001 0 0 0 0 0.035659999
0.671 -0.088 -0.287 0 0 0 0 0.035670001
0.67000002 -0.088 -0.289 0 0 0 0 0.03568
0.68000001 -0.089000002 -0.29499999 0 0 0 0 0.035689998
0.67699999 -0.089000002 -0.296 0 0 0 0 0.035700001
0.68000001 -0.090000004 -0.30000001 0 0 0 0 0.03571
0.68099999 -0.090000004 -0.303 0 0 0 0 0.035719998
0.68099999 -0.090000004 -0.30500001 0 0 0 0 0.035730001
0.67799997 -0.090000004 -0.30599999 0 0 0 0 0.035739999
0.67799997 -0.090000004 -0.308 0 0 0 0 0.035750002
0.67900002 -0.090999998 -0.31099999 0 0 0 0 0.03576
0.68300003 -0.090999998 -0.315 0 0 0 0 0.035769999
0.67500001 -0.090000004 -0.31299999 0 0 0 0 0.035780001
0.685 -0.092 -0.32100001 0 0 0 0 0.03579
0.68599999 -0.092 -0.324 0 0 0 0 0.035799999
0.68099999 -0.092 -0.32300001 0 0 0 0 0.035810001
0.68099999 -0.092 -0.32600001 0 0 0 0 0.03582
0.676 -0.090999998 -0.32600001 0 0 0 0 0.035829999
0.68400002 -0.092 -0.331 0 0 0 0 0.035840001
0.68000001 -0.092 -0.33199999 0 0 0 0 0.03585
0.68300003 -0.092 -0.336 0 0 0 0 0.035859998
0.68599999 -0.093000002 -0.34 0 0 0 0 0.035870001
0.68300003 -0.093000002 -0.34 1 0 0 0 0.035879999
0.68199998 -0.092 -0.34200001 1 0 0 0 0.035890002
0.68400002 -0.093000002 -0.345 1 0 0 0 0.0359
0.68400002 -0.093000002 -0.34799999 1 0 0 0 0.035909999
0.68900001 -0.093999997 -0.352 1 0 0 0 0.035920002
0.68800002 -0.093000002 -0.354 1 0 0 0 0.03593
0.68599999 -0.093000002 -0.35499999 2 0 0 0 0.035939999
0.68699998 -0.093000002 -0.35800001 2 0 0 0 0.035950001
0.68300003 -0.093000002 -0.35800001 1 0 0 0 0.03596
0.68300003 -0.093000002 -0.361 2 0 0 0 0.035969999
0.68300003 -0.092 -0.36199999 2 0 0 0 0.035980001
0.68400002 -0.093000002 -0.36500001 2 0 0 0 0.03599
0.68300003 -0.092 -0.36700001 2 0 0 0 0.035999998
0.68300003 -0.092 -0.36899999 2 0 0 0 0.036010001
0.68199998 -0.092 -0.37 2 0 0 0 0.03602
0.67799997 -0.090999998 -0.37099999 2 0 0 0 0.036029998
0.68300003 -0.092 -0.375 2 0 0 0 0.036040001
0.67900002 -0.090999998 -0.375 2 0 0 0 0.036049999
0.67400002 -0.090000004 -0.375 2 0 0 0 0.036060002
0.67699999 -0.090999998 -0.37900001 2 0 0 0 0.03607
0.67699999 -0.090999998 -0.38100001 2 0 0 0 0.036079999
0.676 -0.090000004 -0.382 2 0 0 0 0.036090001
0.676 -0.090000004 -0.384 2 0 0 0 0.0361
0.67400002 -0.089000002 -0.38499999 2 0 0 0 0.036109999
0.67299998 -0.089000002 -0.38699999 2 0 0 0 0.036120001
0.671 -0.089000002 -0.38800001 2 0 0 0 0.03613
0.671 -0.088 -0.38999999 2 0 0 0 0.036139999
0.67199999 -0.088 -0.39199999 2 0 0 0 0.036150001
0.671 -0.088 -0.39399999 2 0 0 0 0.03616
0.671 -0.086999997 -0.39500001 2 0 0 0 0.036169998
0.66799998 -0.086999997 -0.396 2 0 0 0 0.036180001
0.667 -0.086000003 -0.39700001 2 0 0 0 0.036189999
0.66600001 -0.086000003 -0.398 2 0 0 0 0.036200002
0.66299999 -0.085000001 -0.398 2 0 0 0 0.036210001
0.662 -0.085000001 -0.40000001 2 0 0 0 0.036219999
0.66399997 -0.085000001 -0.403 2 0 0 0 0.036230002
0.66299999 -0.083999999 -0.40400001 2 0 0 0 0.03624
0.66299999 -0.083999999 -0.405 2 0 0 0 0.036249999
0.662 -0.082999997 -0.40700001 2 0 0 0 0.036260001
0.65799999 -0.082000002 -0.40599999 2 0 0 0 0.03627
0.65700001 -0.082000002 -0.40700001 2 0 0 0 0.036279999
0.65700001 -0.081 -0.40900001 2 0 0 0 0.036290001
0.65200001 -0.079999998 -0.40700001 2 0 0 0 0.0363
0.65399998 -0.079999998 -0.41 2 0 0 0 0.036309998
0.653 -0.079000004 -0.41100001 2 0 0 0 0.036320001
0.64899999 -0.079000004 -0.41 2 0 0 0 0.03633
0.64399999 -0.077 -0.40799999 2 0 0 0 0.036339998
0.64200002 -0.077 -0.40900001 2 0 0 0 0.036350001
0.63800001 -0.075999998 -0.40799999 2 0 0 0 0.036359999
0.639 -0.075000003 -0.41 2 0 0 0 0.036370002
0.63800001 -0.075000003 -0.41100001 3 0 0 0 0.03638
0.63200003 -0.072999999 -0.40900001 3 0 0 0 0.036389999
0.63099998 -0.072999999 -0.40900001 3 0 0 0 0.036400001
0.62800002 -0.071999997 -0.40900001 3 0 0 0 0.03641
0.63 -0.071000002 -0.41100001 3 0 0 0 0.036419999
0.62699997 -0.07 -0.41 3 0 0 0 0.036430001
0.62400001 -0.07 -0.41 3 0 0 0 0.03644
0.62 -0.068999998 -0.40900001 4 0 0 0 0.036449999
0.62 -0.068000004 -0.41 4 0 0 0 0.036460001
0.62 -0.067000002 -0.41100001 4 0 0 0 0.03647
0.616 -0.066 -0.41 4 0 0 0 0.036479998
0.61799997 -0.066 -0.412 4 0 0 0 0.036490001
0.62 -0.064999998 -0.414 4 0 0 0 0.036499999
0.61900002 -0.064999998 -0.41499999 4 0 0 0 0.036509998
0.61500001 -0.064000003 -0.41299999 5 0 0 0 0.036520001
0.61299998 -0.063000001 -0.41299999 5 0 0 0 0.036529999
0.61400002 -0.061999999 -0.41499999 6 0 0 0 0.036540002
0.61299998 -0.061000001 -0.41499999 6 0 0 0 0.03655
0.61500001 -0.061000001 -0.41800001 6 0 0 0 0.036559999
0.61500001 -0.059999999 -0.41800001 6 0 0 0 0.036570001
0.616 -0.059999999 -0.41999999 8 0 0 0 0.03658
0.61900002 -0.059 -0.42300001 8 0 0 0 0.036589999
0.616 -0.057999998 -0.42199999 9 0 0 0 0.036600001
0.616 -0.057 -0.42300001 10 0 0 0 0.03661
0.61799997 -0.057 -0.42500001 12 0 0 0 0.036619999
0.616 -0.056000002 -0.42399999 13 0 0 0 0.036630001
0.61799997 -0.055 -0.426 13 0 0 0 0.03664
0.61799997 -0.054000001 -0.42699999 14 0 0 0 0.036649998
0.61799997 -0.054000001 -0.42699999 16 0 0 0 0.036660001
0.61699998 -0.052999999 -0.42699999 14 0 0 0 0.036669999
0.61500001 -0.052000001 -0.42699999 16 0 0 0 0.036680002
0.616 -0.050999999 -0.428 17 0 0 0 0.03669
0.616 -0.050000001 -0.42899999 15 0 0 0 0.036699999
0.61699998 -0.050000001 -0.42899999 15 0 0 0 0.036710002
0.616 -0.048999999 -0.42899999 18 0 0 0 0.03672
0.616 -0.048 -0.43000001 14 0 0 0 0.036729999
0.61900002 -0.046999998 -0.43200001 17 0 0 0 0.036740001
0.61500001 -0.046 -0.43000001 15 0 0 0 0.03675
0.616 -0.045000002 -0.43099999 16 0 0 0 0.036759999
0.61799997 -0.045000002 -0.433 15 0 0 0 0.036770001
0.616 -0.044 -0.43099999 17 0 0 0 0.03678
0.616 -0.043000001 -0.43200001 14 0 0 0 0.036789998
0.61799997 -0.041999999 -0.433 16 0 0 0 0.036800001
0.62099999 -0.041000001 -0.435 14 0 0 0 0.036809999
0.61799997 -0.039999999 -0.43399999 14 0 0 0 0.036819998
0.61699998 -0.039000001 -0.433 15 0 0 0 0.036830001
0.61799997 -0.039000001 -0.43399999 15 0 0 0 0.036839999
0.62 -0.037999999 -0.435 16 0 0 0 0.036850002
0.62300003 -0.037 -0.43700001 16 0 0 0 0.03686
0.62099999 -0.035999998 -0.43599999 15 0 0 0 0.036869999
0.61799997 -0.035 -0.43399999 15 0 0 0 0.036880001
0.62300003 -0.034000002 -0.43700001 13 0 0 0 0.03689
0.62 -0.033 -0.435 14 0 0 0 0.036899999
0.62099999 -0.032000002 -0.435 14 0 0 0 0.036910001
0.62300003 -0.032000002 -0.43599999 13 0 0 0 0.03692
0.62300003 -0.030999999 -0.43599999 14 0 0 0 0.036929999
0.62099999 -0.029999999 -0.43399999 12 0 0 0 0.036940001
0.62300003 -0.028999999 -0.43599999 14 0 0 0 0.03695
0.62400001 -0.028000001 -0.43599999 12 0 0 0 0.036959998
0.62400001 -0.027000001 -0.435 12 0 0 0 0.036970001
0.62400001 -0.026000001 -0.435 13 0 0 0 0.036979999
0.62900001 -0.026000001 -0.43799999 11 0 0 0 0.036990002
0.62199998 -0.024 -0.433 12 0 0 0 0.037
0.62800002 -0.024 -0.43599999 12 0 0 0 0.037009999
0.625 -0.023 -0.43399999 13 0 0 0 0.037020002
0.63 -0.022 -0.43700001 13 0 0 0 0.03703
0.63300002 -0.021 -0.43799999 12 0 0 0 0.037039999
0.62599999 -0.02 -0.433 13 0 0 0 0.037050001
0.63099998 -0.018999999 -0.43599999 10 0 0 0 0.03706
0.63200003 -0.017999999 -0.435 12 0 0 0 0.037069999
0.63200003 -0.017999999 -0.435 10 0 0 0 0.037080001
0.63300002 -0.017000001 -0.43399999 9 0 0 0 0.03709
0.62800002 -0.016000001 -0.43000001 11 0 0 0 0.037099998
0.63300002 -0.015 -0.433 10 0 0 0 0.037110001
0.634 -0.014 -0.43200001 12 0 0 0 0.03712
0.639 -0.013 -0.435 0 0 0 0 0.037129998
0.63200003 -0.012 -0.42899999 10 0 0 0 0.037140001
0.63800001 -0.012 -0.43200001 11 0 0 0 0.037149999
0.63800001 -0.011 -0.43099999 10 0 0 0 0.037160002
0.63599998 -0.0099999998 -0.42899999 9 0 0 0 0.03717
0.634 -0.0089999996 -0.42699999 8 0 0 0 0.037179999
0.63999999 -0.0080000004 -0.43000001 10 0 0 0 0.037190001
0.63800001 -0.0070000002 -0.42699999 10 0 0 0 0.0372
0.639 -0.0060000001 -0.42699999 7 0 0 0 0.037209999
0.63999999 -0.0060000001 -0.426 8 0 0 0 0.037220001
0.639 -0.0049999999 -0.42399999 9 0 0 0 0.03723
0.64099997 -0.0040000002 -0.42399999 7 0 0 0 0.037239999
0.64099997 -0.003 -0.42300001 9 0 0 0 0.037250001
0.64200002 -0.0020000001 -0.42199999 7 0 0 0 0.03726
0.64399999 -0.001 -0.42199999 8 0 0 0 0.037269998
0.64499998 -0.001 -0.421 7 0 0 0 0.037280001
0.64499998 0 -0.41999999 7 0 0 0 0.037289999
0.64600003 0 -0.419 7 0 0 0 0.037300002
0.64700001 0.001 -0.41800001 8 0 0 0 0.037310001
0.64600003 0.001 -0.41600001 7 0 0 0 0.037319999
0.64399999 0.0020000001 -0.414 6 0 0 0 0.037330002
0.64899999 0.003 -0.41499999 6 0 0 0 0.03734
0.64700001 0.0040000002 -0.41299999 6 0 0 0 0.037349999
0.648 0.0049999999 -0.412 5 0 0 0 0.037360001
0.64700001 0.0049999999 -0.40900001 6 0 0 0 0.03737
0.64499998 0.0060000001 -0.40700001 5 0 0 0 0.037379999
0.64700001 0.0070000002 -0.40700001 5 0 0 0 0.037390001
0.64899999 0.0070000002 -0.40599999 5 0 0 0 0.0374
0.64899999 0.0080000004 -0.405 5 0 0 0 0.037409998
0.64899999 0.0089999996 -0.403 5 0 0 0 0.037420001
0.64999998 0.0089999996 -0.40200001 5 0 0 0 0.03743
0.65100002 0.0099999998 -0.40000001 5 0 0 0 0.037439998
0.65100002 0.011 -0.39899999 4 0 0 0 0.037450001
0.65200001 0.011 -0.39700001 4 0 0 0 0.037459999
0.653 0.012 -0.39700001 4 0 0 0 0.037470002
0.65399998 0.013 -0.39500001 4 0 0 0 0.03748
0.65399998 0.013 -0.39300001 4 0 0 0 0.037489999
0.65200001 0.014 -0.391 4 0 0 0 0.037500001
0.653 0.015 -0.389 4 0 0 0 0.03751
0.65600002 0.015 -0.389 4 0 0 0 0.037519999
0.65499997 0.016000001 -0.38699999 4 0 0 0 0.037530001
0.65799999 0.017000001 -0.38699999 4 0 0 0 0.03754
0.66000003 0.017000001 -0.38600001 4 0 0 0 0.037549999
0.65700001 0.017999999 -0.382 4 0 0 0 0.037560001
0.65700001 0.017999999 -0.38 3 0 0 0 0.03757
0.65700001 0.018999999 -0.37799999 3 0 0 0 0.037579998
0.65600002 0.018999999 -0.37599999 3 0 0 0 0.037590001
0.65499997 0.02 -0.373 3 0 0 0 0.037599999
0.66000003 0.02 -0.37400001 3 0 0 0 0.037610002
0.65499997 0.021 -0.36899999 3 0 0 0 0.037620001
0.65799999 0.021 -0.36899999 3 0 0 0 0.037629999
0.66000003 0.022 -0.368 3 0 0 0 0.037640002
0.66000003 0.022 -0.366 3 0 0 0 0.03765
0.65899998 0.023 -0.36300001 3 0 0 0 0.037659999
0.66000003 0.023 -0.36199999 3 0 0 0 0.037670001
0.65799999 0.024 -0.359 3 0 0 0 0.03768
0.66299999 0.024 -0.359 3 0 0 0 0.037689999
0.66000003 0.025 -0.35600001 3 0 0 0 0.037700001
0.66100001 0.025 -0.354 3 0 0 0 0.03771
0.662 0.026000001 -0.352 2 0 0 0 0.037719999
0.66299999 0.026000001 -0.35100001 2 0 0 0 0.037730001
0.662 0.026000001 -0.34799999 2 0 0 0 0.03774
0.66000003 0.027000001 -0.345 2 0 0 0 0.037749998
0.662 0.027000001 -0.34400001 2 0 0 0 0.037760001
0.66399997 0.028000001 -0.34299999 2 0 0 0 0.037769999
0.66600001 0.028000001 -0.34200001 2 0 0 0 0.037780002
0.66399997 0.028000001 -0.338 2 0 0 0 0.03779
0.662 0.028999999 -0.33500001 2 0 0 0 0.037799999
0.66000003 0.028999999 -0.33199999 2 0 0 0 0.037810002
0.66000003 0.028999999 -0.33000001 2 0 0 0 0.03782
0.66600001 0.029999999 -0.331 2 0 0 0 0.037829999
0.67000002 0.029999999 -0.33000001 2 0 0 0 0.037840001
0.66799998 0.029999999 -0.32699999 2 0 0 0 0.03785
0.66299999 0.029999999 -0.32300001 2 0 0 0 0.037859999
0.67000002 0.030999999 -0.324 2 0 0 0 0.037870001
0.66799998 0.030999999 -0.31999999 2 0 0 0 0.03788
0.67000002 0.030999999 -0.31900001 2 0 0 0 0.037889998
0.66299999 0.030999999 -0.31400001 2 0 0 0 0.037900001
0.667 0.032000002 -0.31299999 2 0 0 0 0.037909999
0.66799998 0.032000002 -0.31099999 2 0 0 0 0.037919998
0.66799998 0.032000002 -0.31 2 0 0 0 0.037930001
0.66500002 0.032000002 -0.30599999 2 0 0 0 0.037939999
0.66600001 0.033 -0.30399999 2 0 0 0 0.037950002
0.66799998 0.033 -0.303 2 0 0 0 0.03796
0.66500002 0.033 -0.29899999 1 0 0 0 0.037969999
0.66900003 0.033 -0.29800001 1 0 0 0 0.037980001
0.66799998 0.033 -0.296 1 0 0 0 0.03799
0.671 0.034000002 -0.29499999 1 0 0 0 0.037999999
0.66500002 0.034000002 -0.28999999 1 0 0 0 0.038010001
0.66600001 0.034000002 -0.28799999 1 0 0 0 0.03802
0.667 0.034000002 -0.28600001 1 0 0 0 0.038029999
0.66000003 0.034000002 -0.28099999 1 0 0 0 0.038040001
0.66600001 0.034000002 -0.28099999 1 0 0 0 0.03805
0.66799998 0.034000002 -0.28 1 0 0 0 0.038059998
0.667 0.034000002 -0.27700001 0 0 0 0 0.038070001
0.66799998 0.035 -0.27500001 0 0 0 0 0.038079999
0.65899998 0.034000002 -0.26899999 0 0 0 0 0.038090002
0.66299999 0.034000002 -0.26899999 0 0 0 0 0.0381
0.662 0.034000002 -0.266 0 0 0 0 0.038109999
0.65899998 0.034000002 -0.26300001 0 0 0 0 0.038120002
0.66500002 0.035 -0.26300001 0 0 0 0 0.03813
0.66000003 0.034000002 -0.25799999 0 0 0 0 0.038139999
0.662 0.035 -0.257 0 0 0 0 0.038150001
0.667 0.035 -0.257 0 0 0 0 0.03816
0.66900003 0.035 -0.255 0 0 0 0 0.038169999
0.66500002 0.035 -0.25099999 0 0 0 0 0.038180001
0.662 0.035 -0.248 0 0 0 0 0.03819
