# .PCD v0.7 - Point Cloud Data file format
VERSION 0.7
FIELDS x y z intensity normal_x normal_y normal_z curvature
SIZE 4 4 4 4 4 4 4 4
TYPE F F F F F F F F
COUNT 1 1 1 1 1 1 1 1
WIDTH 1031
HEIGHT 1
VIEWPOINT 0 0 0 1 0 0 0
POINTS 1031
DATA ascii
2.1689999 -0.222 -0.206 39 0 0 0 0.047260001
2.135 -0.223 -0.207 9 0 0 0 0.04727
2.0699999 -0.221 -0.206 5 0 0 0 0.047279999
2.0469999 -0.223 -0.208 2 0 0 0 0.047290001
2.017 -0.22499999 -0.20999999 3 0 0 0 0.0473
2.01 -0.228 -0.214 8 0 0 0 0.047309998
1.995 -0.23100001 -0.21699999 9 0 0 0 0.047320001
1.955 -0.23100001 -0.21699999 9 0 0 0 0.04733
1.906 -0.23 -0.21600001 8 0 0 0 0.047339998
2.0480001 -0.252 -0.237 1 0 0 0 0.047350001
1.932 -0.242 -0.228 1 0 0 0 0.047359999
1.76 -0.22400001 -0.212 2 0 0 0 0.047370002
1.749 -0.227 -0.215 6 0 0 0 0.04738
1.74 -0.229 -0.21799999 7 0 0 0 0.047389999
1.757 -0.236 -0.22499999 12 0 0 0 0.047400001
1.926 -0.26300001 -0.25099999 61 0 0 0 0.04741
2.089 -0.28999999 -0.27700001 74 0 0 0 0.047419999
2.2090001 -0.31099999 -0.29800001 74 0 0 0 0.047430001
2.2130001 -0.317 -0.30399999 65 0 0 0 0.04744
2.2060001 -0.32100001 -0.30899999 57 0 0 0 0.047449999
2.1989999 -0.32499999 -0.31299999 62 0 0 0 0.047460001
2.1900001 -0.32800001 -0.317 75 0 0 0 0.04747
2.184 -0.33199999 -0.322 44 0 0 0 0.047479998
2.1760001 -0.336 -0.32600001 16 0 0 0 0.047490001
2.138 -0.33500001 -0.32499999 10 0 0 0 0.047499999
2.1099999 -0.33500001 -0.32600001 8 0 0 0 0.047510002
2.0079999 -0.32300001 -0.315 1 0 0 0 0.04752
1.954 -0.31900001 -0.31200001 0 0 0 0 0.047529999
1.908 -0.31600001 -0.30899999 0 0 0 0 0.047540002
1.827 -0.30599999 -0.301 0 0 0 0 0.04755
1.7819999 -0.303 -0.29800001 0 0 0 0 0.047559999
1.698 -0.292 -0.28799999 0 0 0 0 0.047570001
1.575 -0.27399999 -0.271 0 0 0 0 0.04758
1.525 -0.26899999 -0.266 0 0 0 0 0.047589999
1.552 -0.27700001 -0.27500001 0 0 0 0 0.047600001
1.559 -0.28200001 -0.28 0 0 0 0 0.04761
0 0 0 0 0 0 0 0.047619998
1.515 -0.28099999 -0.28 0 0 0 0 0.047630001
0 0 0 0 0 0 0 0.04764
1.518 -0.28799999 -0.28799999 0 0 0 0 0.047649998
1.513 -0.28999999 -0.29100001 0 0 0 0 0.047660001
1.52 -0.294 -0.296 0 0 0 0 0.047669999
1.507 -0.29499999 -0.29800001 0 0 0 0 0.047680002
0 0 0 0 0 0 0 0.04769
0 0 0 0 0 0 0 0.047699999
1.502 -0.30399999 -0.30899999 0 0 0 0 0.047710001
1.4809999 -0.303 -0.308 0 0 0 0 0.04772
1.454 -0.30000001 -0.30599999 0 0 0 0 0.047729999
1.471 -0.30700001 -0.31400001 0 0 0 0 0.047740001
1.48 -0.31200001 -0.31999999 0 0 0 0 0.04775
1.508 -0.32100001 -0.33000001 0 0 0 0 0.047759999
1.525 -0.32800001 -0.338 1 0 0 0 0.047770001
1.52 -0.33000001 -0.34 7 0 0 0 0.04778
1.508 -0.331 -0.34200001 13 0 0 0 0.047789998
1.503 -0.333 -0.345 12 0 0 0 0.047800001
1.502 -0.336 -0.34900001 11 0 0 0 0.047809999
1.497 -0.33700001 -0.35100001 11 0 0 0 0.047820002
1.4960001 -0.34 -0.35499999 11 0 0 0 0.047830001
1.489 -0.34200001 -0.35800001 11 0 0 0 0.047839999
1.479 -0.34299999 -0.359 11 0 0 0 0.047850002
1.478 -0.345 -0.36300001 11 0 0 0 0.04786
1.483 -0.34900001 -0.368 12 0 0 0 0.047869999
1.474 -0.34999999 -0.37 12 0 0 0 0.047880001
1.4680001 -0.352 -0.373 13 0 0 0 0.04789
1.464 -0.354 -0.375 13 0 0 0 0.047899999
1.461 -0.35600001 -0.37900001 15 0 0 0 0.047910001
1.461 -0.359 -0.38299999 15 0 0 0 0.04792
1.454 -0.36000001 -0.38499999 15 0 0 0 0.047929998
1.45 -0.36199999 -0.38800001 32 0 0 0 0.047940001
1.448 -0.36399999 -0.391 37 0 0 0 0.04795
1.4450001 -0.366 -0.39500001 60 0 0 0 0.047959998
1.439 -0.368 -0.39700001 52 0 0 0 0.047970001
1.442 -0.37099999 -0.40200001 29 0 0 0 0.047979999
1.436 -0.37200001 -0.40400001 32 0 0 0 0.047990002
1.4299999 -0.37400001 -0.40700001 32 0 0 0 0.048
1.429 -0.37599999 -0.41 50 0 0 0 0.048009999
1.423 -0.377 -0.41299999 48 0 0 0 0.048020002
1.4220001 -0.38 -0.41600001 49 0 0 0 0.04803
1.42 -0.382 -0.41999999 57 0 0 0 0.048039999
1.418 -0.384 -0.42300001 53 0 0 0 0.048050001
1.414 -0.38600001 -0.426 39 0 0 0 0.04806
1.415 -0.389 -0.43000001 30 0 0 0 0.048069999
1.4119999 -0.38999999 -0.433 26 0 0 0 0.048080001
1.403 -0.391 -0.435 25 0 0 0 0.04809
1.402 -0.39300001 -0.43799999 29 0 0 0 0.048099998
1.399 -0.39500001 -0.442 33 0 0 0 0.048110001
1.393 -0.39500001 -0.44400001 36 0 0 0 0.048119999
1.391 -0.39700001 -0.447 37 0 0 0 0.048129998
1.392 -0.40000001 -0.45199999 38 0 0 0 0.048140001
1.388 -0.40099999 -0.454 30 0 0 0 0.048149999
1.382 -0.40200001 -0.456 30 0 0 0 0.048160002
1.381 -0.40400001 -0.46000001 28 0 0 0 0.04817
1.3789999 -0.40599999 -0.463 23 0 0 0 0.048179999
1.376 -0.40799999 -0.46599999 31 0 0 0 0.048190001
1.375 -0.41 -0.47 28 0 0 0 0.0482
1.37 -0.41 -0.472 33 0 0 0 0.048209999
1.369 -0.41299999 -0.47600001 32 0 0 0 0.048220001
1.368 -0.414 -0.47999999 31 0 0 0 0.04823
1.362 -0.41499999 -0.48199999 26 0 0 0 0.048239999
1.359 -0.41600001 -0.48500001 28 0 0 0 0.048250001
1.357 -0.41800001 -0.48800001 30 0 0 0 0.04826
1.352 -0.419 -0.49000001 22 0 0 0 0.048269998
1.352 -0.421 -0.49399999 18 0 0 0 0.048280001
1.348 -0.42199999 -0.49700001 19 0 0 0 0.048289999
1.347 -0.42300001 -0.50099999 19 0 0 0 0.048300002
1.345 -0.42500001 -0.50300002 22 0 0 0 0.04831
1.339 -0.42500001 -0.505 25 0 0 0 0.048319999
1.3380001 -0.42699999 -0.509 28 0 0 0 0.048330002
1.334 -0.42699999 -0.51099998 23 0 0 0 0.04834
1.334 -0.42899999 -0.51499999 23 0 0 0 0.048349999
1.33 -0.43000001 -0.51800001 24 0 0 0 0.048360001
1.326 -0.43099999 -0.51999998 28 0 0 0 0.04837
1.324 -0.43200001 -0.52399999 26 0 0 0 0.048379999
1.325 -0.43399999 -0.528 29 0 0 0 0.048390001
1.325 -0.43599999 -0.53200001 29 0 0 0 0.0484
1.324 -0.43799999 -0.53500003 30 0 0 0 0.048409998
1.325 -0.44 -0.54000002 34 0 0 0 0.048420001
1.327 -0.442 -0.54400003 45 0 0 0 0.04843
1.326 -0.44400001 -0.54799998 61 0 0 0 0.048439998
1.325 -0.44499999 -0.551 69 0 0 0 0.048450001
1.321 -0.44600001 -0.55400002 85 0 0 0 0.048459999
1.321 -0.447 -0.55800003 67 0 0 0 0.048470002
1.321 -0.449 -0.56199998 56 0 0 0 0.04848
1.319 -0.44999999 -0.56400001 38 0 0 0 0.048489999
1.313 -0.449 -0.56599998 35 0 0 0 0.048500001
1.307 -0.449 -0.56699997 30 0 0 0 0.04851
1.303 -0.449 -0.56900001 30 0 0 0 0.048519999
1.303 -0.45100001 -0.57300001 30 0 0 0 0.048530001
1.299 -0.45100001 -0.57499999 30 0 0 0 0.04854
1.293 -0.44999999 -0.57599998 33 0 0 0 0.048549999
1.289 -0.44999999 -0.57800001 35 0 0 0 0.048560001
1.289 -0.45199999 -0.58200002 36 0 0 0 0.04857
1.288 -0.45199999 -0.58499998 35 0 0 0 0.048579998
1.288 -0.454 -0.58899999 35 0 0 0 0.048590001
1.289 -0.45500001 -0.59299999 33 0 0 0 0.048599999
1.288 -0.456 -0.597 29 0 0 0 0.048610002
1.288 -0.458 -0.60100001 31 0 0 0 0.04862
1.288 -0.45899999 -0.60399997 27 0 0 0 0.048629999
1.2920001 -0.461 -0.61000001 25 0 0 0 0.048640002
1.29 -0.46200001 -0.61299998 22 0 0 0 0.04865
1.296 -0.465 -0.61900002 23 0 0 0 0.048659999
1.29 -0.46399999 -0.62 19 0 0 0 0.048670001
1.285 -0.463 -0.62099999 19 0 0 0 0.04868
1.273 -0.46000001 -0.61900002 21 0 0 0 0.048689999
1.271 -0.46000001 -0.62099999 21 0 0 0 0.048700001
1.294 -0.46900001 -0.63599998 40 0 0 0 0.04871
1.375 -0.5 -0.68000001 88 0 0 0 0.048719998
1.444 -0.52600002 -0.71799999 89 0 0 0 0.048730001
1.526 -0.55699998 -0.76300001 25 0 0 0 0.04874
1.5470001 -0.565 -0.778 20 0 0 0 0.048749998
1.543 -0.565 -0.77999997 19 0 0 0 0.048760001
1.5369999 -0.56300002 -0.78100002 16 0 0 0 0.048769999
1.522 -0.55800003 -0.778 16 0 0 0 0.048780002
1.5140001 -0.55599999 -0.778 18 0 0 0 0.04879
1.506 -0.55400002 -0.778 21 0 0 0 0.048799999
1.4960001 -0.551 -0.77600002 19 0 0 0 0.048810001
1.49 -0.54900002 -0.77700001 18 0 0 0 0.04882
1.48 -0.546 -0.77600002 16 0 0 0 0.048829999
1.465 -0.54100001 -0.77200001 15 0 0 0 0.048840001
1.461 -0.54000002 -0.773 15 0 0 0 0.04885
1.4579999 -0.54000002 -0.77499998 14 0 0 0 0.048859999
1.459 -0.54000002 -0.77899998 13 0 0 0 0.048870001
1.456 -0.54000002 -0.78100002 12 0 0 0 0.04888
1.4450001 -0.53600001 -0.77899998 11 0 0 0 0.048889998
1.4400001 -0.53399998 -0.77999997 11 0 0 0 0.048900001
1.433 -0.53200001 -0.77999997 12 0 0 0 0.048909999
1.425 -0.52899998 -0.778 12 0 0 0 0.048920002
1.421 -0.52700001 -0.77899998 12 0 0 0 0.048930001
1.4119999 -0.52399999 -0.778 13 0 0 0 0.048939999
1.405 -0.52200001 -0.77700001 15 0 0 0 0.048950002
1.4 -0.51999998 -0.778 15 0 0 0 0.04896
1.3940001 -0.51700002 -0.778 15 0 0 0 0.048969999
1.39 -0.51599997 -0.778 14 0 0 0 0.048980001
1.388 -0.51499999 -0.77999997 13 0 0 0 0.04899
1.382 -0.51200002 -0.77999997 12 0 0 0 0.048999999
1.377 -0.50999999 -0.77999997 11 0 0 0 0.049010001
1.3710001 -0.50800002 -0.77899998 11 0 0 0 0.04902
1.37 -0.50700003 -0.78200001 11 0 0 0 0.049029998
1.363 -0.50400001 -0.77999997 11 0 0 0 0.049040001
1.3559999 -0.50099999 -0.77899998 12 0 0 0 0.04905
1.351 -0.49900001 -0.77899998 13 0 0 0 0.049059998
1.345 -0.49599999 -0.778 13 0 0 0 0.049070001
1.344 -0.495 -0.77999997 13 0 0 0 0.049079999
1.337 -0.49200001 -0.778 13 0 0 0 0.049090002
1.336 -0.491 -0.77999997 14 0 0 0 0.0491
1.327 -0.48699999 -0.77700001 14 0 0 0 0.049109999
1.322 -0.484 -0.77700001 16 0 0 0 0.049120001
1.318 -0.48199999 -0.77600002 17 0 0 0 0.04913
1.316 -0.47999999 -0.77700001 17 0 0 0 0.049139999
1.3150001 -0.479 -0.778 17 0 0 0 0.049150001
1.3099999 -0.47600001 -0.778 18 0 0 0 0.04916
1.304 -0.47299999 -0.77600002 21 0 0 0 0.049169999
1.304 -0.472 -0.778 21 0 0 0 0.049180001
1.299 -0.46900001 -0.77700001 19 0 0 0 0.04919
1.298 -0.46799999 -0.778 18 0 0 0 0.049199998
1.2970001 -0.46700001 -0.77899998 17 0 0 0 0.049210001
1.2970001 -0.46599999 -0.78100002 15 0 0 0 0.049219999
1.29 -0.46200001 -0.778 14 0 0 0 0.049229998
1.29 -0.461 -0.77999997 13 0 0 0 0.049240001
1.29 -0.45899999 -0.78100002 12 0 0 0 0.049249999
1.288 -0.45699999 -0.78100002 12 0 0 0 0.049260002
1.284 -0.454 -0.77999997 11 0 0 0 0.04927
1.2869999 -0.454 -0.78299999 12 0 0 0 0.049279999
1.285 -0.45199999 -0.78299999 11 0 0 0 0.049290001
1.283 -0.44999999 -0.78299999 11 0 0 0 0.0493
1.278 -0.447 -0.78100002 11 0 0 0 0.049309999
1.275 -0.44400001 -0.77999997 11 0 0 0 0.049320001
1.281 -0.44499999 -0.78500003 11 0 0 0 0.04933
1.275 -0.44100001 -0.78200001 11 0 0 0 0.049339999
1.274 -0.43900001 -0.78299999 11 0 0 0 0.049350001
1.275 -0.43799999 -0.78399998 11 0 0 0 0.04936
1.271 -0.435 -0.78200001 11 0 0 0 0.049369998
1.271 -0.433 -0.78299999 11 0 0 0 0.049380001
1.271 -0.43200001 -0.78399998 11 0 0 0 0.049389999
1.27 -0.43000001 -0.78399998 11 0 0 0 0.049400002
1.271 -0.428 -0.78500003 11 0 0 0 0.04941
1.267 -0.42500001 -0.78299999 11 0 0 0 0.049419999
1.268 -0.42300001 -0.78299999 11 0 0 0 0.049430002
1.266 -0.421 -0.78200001 12 0 0 0 0.04944
1.267 -0.419 -0.78299999 12 0 0 0 0.049449999
1.267 -0.417 -0.78399998 12 0 0 0 0.049460001
1.267 -0.41499999 -0.78399998 12 0 0 0 0.04947
1.265 -0.41299999 -0.78299999 12 0 0 0 0.049479999
1.266 -0.41100001 -0.78299999 13 0 0 0 0.049490001
1.268 -0.41 -0.78399998 12 0 0 0 0.0495
1.271 -0.40799999 -0.78600001 13 0 0 0 0.049509998
1.268 -0.405 -0.78399998 12 0 0 0 0.049520001
1.27 -0.40400001 -0.78500003 12 0 0 0 0.049529999
1.272 -0.40200001 -0.78600001 11 0 0 0 0.049539998
1.275 -0.40099999 -0.787 12 0 0 0 0.049550001
1.274 -0.39899999 -0.78600001 12 0 0 0 0.049559999
1.273 -0.396 -0.78500003 11 0 0 0 0.049570002
1.274 -0.39399999 -0.78500003 12 0 0 0 0.04958
1.274 -0.39199999 -0.78399998 12 0 0 0 0.049589999
1.275 -0.38999999 -0.78500003 13 0 0 0 0.049600001
1.275 -0.38800001 -0.78399998 14 0 0 0 0.04961
1.277 -0.38600001 -0.78399998 14 0 0 0 0.049619999
1.279 -0.384 -0.78399998 14 0 0 0 0.049630001
1.283 -0.38299999 -0.78600001 13 0 0 0 0.04964
1.281 -0.38 -0.78399998 12 0 0 0 0.049649999
1.285 -0.37900001 -0.78500003 13 0 0 0 0.049660001
1.2869999 -0.377 -0.78500003 13 0 0 0 0.04967
1.29 -0.375 -0.78600001 13 0 0 0 0.049679998
1.288 -0.37200001 -0.78399998 14 0 0 0 0.049690001
1.289 -0.37 -0.78299999 16 0 0 0 0.049699999
1.288 -0.36700001 -0.78100002 17 0 0 0 0.049710002
1.291 -0.366 -0.78100002 17 0 0 0 0.04972
1.293 -0.36399999 -0.78100002 17 0 0 0 0.049729999
1.3 -0.36300001 -0.78299999 16 0 0 0 0.049740002
1.302 -0.361 -0.78299999 15 0 0 0 0.04975
1.304 -0.359 -0.78200001 14 0 0 0 0.049759999
1.3099999 -0.35800001 -0.78399998 14 0 0 0 0.049770001
1.309 -0.35499999 -0.78200001 14 0 0 0 0.04978
1.314 -0.354 -0.78299999 15 0 0 0 0.049789999
1.3200001 -0.35299999 -0.78500003 14 0 0 0 0.049800001
1.323 -0.35100001 -0.78500003 14 0 0 0 0.04981
1.33 -0.34999999 -0.787 15 0 0 0 0.049819998
1.331 -0.34799999 -0.78500003 15 0 0 0 0.049830001
1.332 -0.345 -0.78399998 16 0 0 0 0.04984
1.336 -0.34400001 -0.78399998 18 0 0 0 0.049849998
1.335 -0.34099999 -0.78100002 20 0 0 0 0.049860001
1.34 -0.33899999 -0.78200001 17 0 0 0 0.049869999
1.347 -0.33899999 -0.78399998 14 0 0 0 0.049880002
1.3559999 -0.338 -0.78600001 11 0 0 0 0.04989
1.3609999 -0.33700001 -0.787 10 0 0 0 0.049899999
1.367 -0.33500001 -0.78799999 12 0 0 0 0.049910001
1.367 -0.33199999 -0.78500003 18 0 0 0 0.04992
1.367 -0.33000001 -0.78299999 21 0 0 0 0.049929999
1.373 -0.32800001 -0.78299999 21 0 0 0 0.049940001
1.375 -0.32600001 -0.78200001 20 0 0 0 0.04995
1.3789999 -0.324 -0.78200001 19 0 0 0 0.049959999
1.3890001 -0.324 -0.78399998 18 0 0 0 0.049970001
1.395 -0.322 -0.78500003 15 0 0 0 0.04998
1.401 -0.32100001 -0.78500003 15 0 0 0 0.049989998
1.405 -0.31900001 -0.78399998 18 0 0 0 0.050000001
1.408 -0.317 -0.78299999 21 0 0 0 0.050009999
1.41 -0.31400001 -0.78100002 20 0 0 0 0.050020002
1.418 -0.31299999 -0.78200001 27 0 0 0 0.050030001
1.419 -0.31099999 -0.77999997 58 0 0 0 0.050039999
1.421 -0.308 -0.778 82 0 0 0 0.050050002
1.431 -0.308 -0.77999997 61 0 0 0 0.05006
1.441 -0.30700001 -0.78200001 41 0 0 0 0.050069999
1.4400001 -0.30399999 -0.778 54 0 0 0 0.050080001
1.45 -0.303 -0.77999997 87 0 0 0 0.05009
1.4579999 -0.30199999 -0.78100002 78 0 0 0 0.050099999
1.465 -0.301 -0.78100002 47 0 0 0 0.050110001
1.469 -0.29899999 -0.77999997 22 0 0 0 0.05012
1.478 -0.29699999 -0.78100002 19 0 0 0 0.050129998
1.487 -0.296 -0.78200001 29 0 0 0 0.050140001
1.494 -0.29499999 -0.78200001 81 0 0 0 0.05015
1.497 -0.29300001 -0.77999997 150 0 0 0 0.050159998
1.505 -0.29100001 -0.77999997 117 0 0 0 0.050170001
1.516 -0.28999999 -0.78200001 44 0 0 0 0.050179999
1.531 -0.28999999 -0.78600001 19 0 0 0 0.050190002
1.543 -0.28999999 -0.78799999 15 0 0 0 0.0502
1.55 -0.28799999 -0.787 16 0 0 0 0.050209999
1.5549999 -0.28600001 -0.78600001 24 0 0 0 0.050220001
1.558 -0.28400001 -0.78299999 68 0 0 0 0.05023
1.562 -0.28200001 -0.78100002 56 0 0 0 0.050239999
1.573 -0.28099999 -0.78200001 29 0 0 0 0.050250001
1.586 -0.28 -0.78399998 23 0 0 0 0.05026
1.5930001 -0.278 -0.78399998 23 0 0 0 0.050269999
1.6059999 -0.278 -0.78600001 15 0 0 0 0.050280001
1.605 -0.27500001 -0.78100002 6 0 0 0 0.05029
1.614 -0.273 -0.77999997 6 0 0 0 0.050299998
1.628 -0.273 -0.78299999 14 0 0 0 0.050310001
1.636 -0.271 -0.78200001 18 0 0 0 0.050319999
1.65 -0.271 -0.78399998 20 0 0 0 0.050330002
1.654 -0.26800001 -0.78200001 22 0 0 0 0.050340001
1.666 -0.26699999 -0.78200001 21 0 0 0 0.050349999
1.6799999 -0.26699999 -0.78399998 19 0 0 0 0.050360002
1.682 -0.264 -0.77999997 99 0 0 0 0.05037
1.6950001 -0.26300001 -0.78100002 18 0 0 0 0.050379999
1.7029999 -0.26100001 -0.77999997 21 0 0 0 0.050390001
1.714 -0.25999999 -0.77999997 22 0 0 0 0.0504
1.728 -0.259 -0.78200001 19 0 0 0 0.050409999
1.739 -0.25799999 -0.78200001 18 0 0 0 0.050420001
1.7460001 -0.25600001 -0.77899998 18 0 0 0 0.05043
1.762 -0.255 -0.78100002 14 0 0 0 0.050439999
1.775 -0.25400001 -0.78200001 12 0 0 0 0.050450001
1.78 -0.252 -0.77899998 12 0 0 0 0.05046
1.799 -0.252 -0.78200001 14 0 0 0 0.050469998
1.806 -0.25 -0.77999997 16 0 0 0 0.050480001
1.821 -0.249 -0.78100002 18 0 0 0 0.050489999
1.836 -0.248 -0.78200001 16 0 0 0 0.050500002
1.842 -0.24600001 -0.77899998 61 0 0 0 0.05051
1.854 -0.245 -0.778 16 0 0 0 0.050519999
1.864 -0.243 -0.77700001 15 0 0 0 0.050530002
1.882 -0.242 -0.77899998 45 0 0 0 0.05054
1.893 -0.241 -0.77700001 41 0 0 0 0.050549999
1.905 -0.23899999 -0.77600002 50 0 0 0 0.050560001
1.924 -0.23899999 -0.778 56 0 0 0 0.05057
1.938 -0.23800001 -0.778 85 0 0 0 0.050579999
1.946 -0.236 -0.77499998 118 0 0 0 0.050590001
1.965 -0.235 -0.77700001 90 0 0 0 0.0506
1.98 -0.234 -0.77600002 105 0 0 0 0.050609998
1.997 -0.233 -0.77700001 97 0 0 0 0.050620001
2.0050001 -0.23100001 -0.77399999 59 0 0 0 0.050629999
2.017 -0.229 -0.773 14 0 0 0 0.050639998
2.03 -0.228 -0.77100003 60 0 0 0 0.050650001
2.0550001 -0.228 -0.77399999 101 0 0 0 0.050659999
2.073 -0.227 -0.77499998 150 0 0 0 0.050670002
2.0899999 -0.226 -0.77399999 147 0 0 0 0.05068
2.105 -0.22400001 -0.773 86 0 0 0 0.050689999
2.072 -0.21799999 -0.755 28 0 0 0 0.050700001
1.985 -0.206 -0.71700001 40 0 0 0 0.05071
1.895 -0.19400001 -0.67900002 42 0 0 0 0.050719999
1.83 -0.185 -0.64899999 24 0 0 0 0.050730001
1.819 -0.18099999 -0.63999999 18 0 0 0 0.05074
1.821 -0.17900001 -0.63499999 16 0 0 0 0.050749999
1.834 -0.178 -0.634 14 0 0 0 0.050760001
1.844 -0.176 -0.63200003 13 0 0 0 0.05077
1.868 -0.176 -0.634 13 0 0 0 0.050779998
1.887 -0.175 -0.634 13 0 0 0 0.050790001
1.898 -0.17399999 -0.63200003 12 0 0 0 0.050799999
1.9119999 -0.17299999 -0.63099998 21 0 0 0 0.050810002
1.927 -0.17200001 -0.63 3 0 0 0 0.05082
1.944 -0.171 -0.62900001 2 0 0 0 0.050829999
1.954 -0.169 -0.62599999 2 0 0 0 0.050840002
1.976 -0.169 -0.62699997 12 0 0 0 0.05085
1.998 -0.168 -0.62800002 20 0 0 0 0.050859999
2.0209999 -0.167 -0.62800002 29 0 0 0 0.050870001
2.0409999 -0.167 -0.62800002 33 0 0 0 0.05088
2.0610001 -0.16599999 -0.62800002 33 0 0 0 0.050889999
2.089 -0.16500001 -0.63 38 0 0 0 0.050900001
2.115 -0.16500001 -0.63099998 42 0 0 0 0.05091
2.132 -0.164 -0.62900001 39 0 0 0 0.050919998
2.1589999 -0.163 -0.63 36 0 0 0 0.050930001
2.181 -0.163 -0.63 35 0 0 0 0.05094
2.207 -0.162 -0.63 35 0 0 0 0.050949998
2.2290001 -0.161 -0.62900001 33 0 0 0 0.050960001
2.2579999 -0.16 -0.63099998 32 0 0 0 0.050969999
2.279 -0.15899999 -0.62900001 31 0 0 0 0.050980002
2.3080001 -0.15899999 -0.63 30 0 0 0 0.05099
2.335 -0.15800001 -0.63 30 0 0 0 0.050999999
2.358 -0.15700001 -0.62900001 29 0 0 0 0.051010001
2.381 -0.156 -0.62699997 28 0 0 0 0.05102
2.408 -0.155 -0.62699997 28 0 0 0 0.051029999
2.4349999 -0.154 -0.62599999 28 0 0 0 0.051040001
2.46 -0.153 -0.62400001 27 0 0 0 0.05105
2.4890001 -0.152 -0.62400001 27 0 0 0 0.051059999
2.52 -0.152 -0.62400001 27 0 0 0 0.051070001
2.553 -0.15099999 -0.62400001 98 0 0 0 0.05108
2.559 -0.149 -0.61699998 150 0 0 0 0.051089998
2.553 -0.146 -0.60699999 150 0 0 0 0.051100001
2.543 -0.142 -0.597 117 0 0 0 0.051109999
2.5320001 -0.139 -0.58600003 19 0 0 0 0.051120002
2.5109999 -0.13600001 -0.574 20 0 0 0 0.051130001
2.4979999 -0.132 -0.56300002 20 0 0 0 0.051139999
2.5150001 -0.131 -0.55800003 16 0 0 0 0.051150002
2.527 -0.12899999 -0.55299997 16 0 0 0 0.05116
2.5350001 -0.127 -0.54699999 16 0 0 0 0.051169999
2.5320001 -0.124 -0.53799999 15 0 0 0 0.051180001
2.5339999 -0.122 -0.52999997 15 0 0 0 0.05119
2.536 -0.12 -0.523 15 0 0 0 0.051199999
2.5369999 -0.117 -0.51499999 15 0 0 0 0.051210001
2.5339999 -0.115 -0.50599998 14 0 0 0 0.05122
2.5409999 -0.113 -0.5 13 0 0 0 0.051229998
2.5420001 -0.11 -0.49200001 12 0 0 0 0.051240001
2.539 -0.108 -0.48300001 14 0 0 0 0.05125
2.533 -0.106 -0.47400001 27 0 0 0 0.051259998
2.533 -0.103 -0.46599999 150 0 0 0 0.051270001
2.309 -0.092 -0.417 150 0 0 0 0.051279999
2.1129999 -0.082000002 -0.375 150 0 0 0 0.051290002
2.0510001 -0.078000002 -0.35699999 150 0 0 0 0.0513
1.998 -0.074000001 -0.34200001 62 0 0 0 0.051309999
2.0320001 -0.074000001 -0.34099999 44 0 0 0 0.051320001
2.108 -0.075000003 -0.347 18 0 0 0 0.05133
2.1589999 -0.075000003 -0.34900001 16 0 0 0 0.051339999
2.1849999 -0.074000001 -0.34599999 14 0 0 0 0.051350001
2.197 -0.071999997 -0.34099999 13 0 0 0 0.05136
2.2160001 -0.071000002 -0.33700001 11 0 0 0 0.051369999
2.253 -0.07 -0.33500001 11 0 0 0 0.051380001
2.2920001 -0.07 -0.33399999 11 0 0 0 0.05139
2.3269999 -0.068999998 -0.33199999 13 0 0 0 0.051399998
2.3440001 -0.068000004 -0.32699999 9 0 0 0 0.051410001
2.3399999 -0.066 -0.31900001 6 0 0 0 0.051419999
2.3399999 -0.064000003 -0.31099999 6 0 0 0 0.051430002
2.3399999 -0.061999999 -0.30399999 5 0 0 0 0.051440001
2.339 -0.059999999 -0.296 8 0 0 0 0.051449999
2.3340001 -0.057999998 -0.28799999 7 0 0 0 0.051460002
2.3310001 -0.056000002 -0.28 8 0 0 0 0.05147
2.3039999 -0.054000001 -0.27000001 7 0 0 0 0.051479999
2.2639999 -0.050999999 -0.25799999 8 0 0 0 0.051490001
2.1570001 -0.046999998 -0.23899999 12 0 0 0 0.0515
2.0929999 -0.044 -0.22499999 19 0 0 0 0.051509999
2.092 -0.043000001 -0.21799999 17 0 0 0 0.051520001
2.138 -0.041999999 -0.21600001 10 0 0 0 0.05153
2.243 -0.043000001 -0.22 11 0 0 0 0.051539999
2.2980001 -0.041999999 -0.21799999 11 0 0 0 0.051550001
2.404 -0.041999999 -0.22 2 0 0 0 0.05156
2.385 -0.039999999 -0.211 12 0 0 0 0.051569998
2.174 -0.035 -0.185 0 0 0 0 0.051580001
1.495 -0.023 -0.123 0 0 0 0 0.051589999
1.4630001 -0.022 -0.115 0 0 0 0 0.051600002
1.478 -0.021 -0.112 0 0 0 0 0.05161
1.484 -0.02 -0.108 0 0 0 0 0.051619999
1.49 -0.018999999 -0.103 0 0 0 0 0.051630002
1.492 -0.017999999 -0.098999999 0 0 0 0 0.05164
1.493 -0.017000001 -0.093999997 0 0 0 0 0.051649999
1.494 -0.016000001 -0.089000002 0 0 0 0 0.051660001
1.4960001 -0.015 -0.085000001 0 0 0 0 0.05167
1.483 -0.014 -0.079000004 0 0 0 0 0.051679999
1.4910001 -0.013 -0.075000003 0 0 0 0 0.051690001
1.5039999 -0.012 -0.071000002 0 0 0 0 0.0517
1.515 -0.011 -0.066 0 0 0 0 0.051709998
1.501 -0.0099999998 -0.061000001 0 0 0 0 0.051720001
1.4960001 -0.0089999996 -0.056000002 0 0 0 0 0.051729999
1.498 -0.0089999996 -0.050999999 0 0 0 0 0.051739998
1.495 -0.0080000004 -0.046 0 0 0 0 0.051750001
1.492 -0.0070000002 -0.041999999 0 0 0 0 0.051759999
1.505 -0.0060000001 -0.037 0 0 0 0 0.051770002
1.503 -0.0049999999 -0.032000002 0 0 0 0 0.05178
1.508 -0.0040000002 -0.028000001 0 0 0 0 0.051789999
1.505 -0.003 -0.023 0 0 0 0 0.051800001
1.492 -0.0020000001 -0.017999999 0 0 0 0 0.05181
1.5039999 -0.0020000001 -0.013 0 0 0 0 0.051819999
1.51 -0.001 -0.0080000004 0 0 0 0 0.051830001
1.512 0 -0.0040000002 0 0 0 0 0.05184
1.51 0 0 0 0 0 0 0.051849999
1.524 0.001 0.0049999999 0 0 0 0 0.051860001
1.572 0.0020000001 0.0099999998 0 0 0 0 0.05187
1.608 0.0020000001 0.016000001 0 0 0 0 0.051879998
1.641 0.003 0.021 0 0 0 0 0.051890001
1.651 0.0040000002 0.027000001 0 0 0 0 0.051899999
1.684 0.0049999999 0.033 0 0 0 0 0.051910002
1.742 0.0060000001 0.039000001 0 0 0 0 0.05192
1.743 0.0070000002 0.045000002 0 0 0 0 0.051929999
1.767 0.0080000004 0.050999999 0 0 0 0 0.051940002
1.774 0.0089999996 0.057 0 0 0 0 0.05195
1.785 0.0099999998 0.063000001 0 0 0 0 0.051959999
1.798 0.011 0.068999998 0 0 0 0 0.051970001
1.791 0.012 0.075000003 1 0 0 0 0.05198
1.779 0.012 0.079999998 0 0 0 0 0.051989999
1.806 0.013 0.086999997 0 0 0 0 0.052000001
1.822 0.014 0.093999997 0 0 0 0 0.05201
1.816 0.015 0.098999999 1 0 0 0 0.052019998
1.821 0.016000001 0.105 1 0 0 0 0.052030001
1.835 0.017000001 0.112 1 0 0 0 0.05204
1.839 0.017999999 0.118 1 0 0 0 0.052049998
1.9 0.018999999 0.12800001 3 0 0 0 0.052060001
1.932 0.02 0.13699999 13 0 0 0 0.052069999
1.973 0.022 0.146 104 0 0 0 0.052080002
1.952 0.022 0.15099999 14 0 0 0 0.05209
1.956 0.023 0.15700001 11 0 0 0 0.052099999
1.955 0.024 0.164 11 0 0 0 0.052110001
1.955 0.025 0.17 63 0 0 0 0.05212
1.96 0.025 0.177 72 0 0 0 0.052129999
1.967 0.026000001 0.184 65 0 0 0 0.052140001
1.971 0.027000001 0.19 35 0 0 0 0.05215
1.979 0.028000001 0.198 21 0 0 0 0.052159999
1.9859999 0.028999999 0.205 61 0 0 0 0.052170001
1.9859999 0.028999999 0.211 90 0 0 0 0.05218
1.987 0.029999999 0.21799999 90 0 0 0 0.052189998
1.994 0.030999999 0.22499999 96 0 0 0 0.052200001
2.0009999 0.032000002 0.23199999 103 0 0 0 0.052209999
2.0020001 0.032000002 0.23899999 96 0 0 0 0.052220002
2.0050001 0.033 0.24600001 82 0 0 0 0.05223
2.0510001 0.035 0.25799999 150 0 0 0 0.052239999
3.214 0.056000002 0.41499999 23 0 0 0 0.052250002
3.223 0.057 0.42699999 4 0 0 0 0.05226
3.2149999 0.057999998 0.43599999 4 0 0 0 0.052269999
3.22 0.059 0.447 4 0 0 0 0.052280001
3.221 0.059999999 0.458 4 0 0 0 0.05229
3.2130001 0.059999999 0.46700001 4 0 0 0 0.052299999
3.221 0.061000001 0.479 4 0 0 0 0.052310001
3.2190001 0.061999999 0.48899999 4 0 0 0 0.05232
3.227 0.063000001 0.50099999 4 0 0 0 0.052329998
3.2260001 0.064000003 0.51099998 4 0 0 0 0.052340001
3.214 0.064999998 0.51999998 4 0 0 0 0.05235
3.2249999 0.066 0.53200001 4 0 0 0 0.052359998
3.2160001 0.066 0.54100001 4 0 0 0 0.052370001
3.2219999 0.067000002 0.55299997 4 0 0 0 0.052379999
3.2149999 0.068000004 0.56199998 4 0 0 0 0.052390002
3.2219999 0.068999998 0.574 4 0 0 0 0.0524
3.22 0.068999998 0.58399999 4 0 0 0 0.052409999
3.223 0.07 0.59500003 4 0 0 0 0.052420001
3.221 0.071000002 0.60600001 4 0 0 0 0.05243
3.21 0.071000002 0.61400002 4 0 0 0 0.052439999
3.233 0.071999997 0.62900001 4 0 0 0 0.052450001
3.2119999 0.071999997 0.63599998 4 0 0 0 0.05246
3.21 0.072999999 0.64600003 4 0 0 0 0.052469999
3.197 0.072999999 0.65399998 5 0 0 0 0.052480001
3.2249999 0.074000001 0.67000002 5 0 0 0 0.05249
3.0969999 0.071999997 0.65399998 6 0 0 0 0.052499998
3.062 0.071000002 0.65700001 7 0 0 0 0.052510001
2.8429999 0.067000002 0.61900002 5 0 0 0 0.052519999
2.8499999 0.067000002 0.63 21 0 0 0 0.052530002
2.881 0.068000004 0.64700001 34 0 0 0 0.052540001
2.8199999 0.067000002 0.64300001 36 0 0 0 0.052549999
2.7349999 0.066 0.63200003 37 0 0 0 0.052560002
2.678 0.064000003 0.62800002 35 0 0 0 0.05257
2.6470001 0.064000003 0.63 32 0 0 0 0.052579999
2.6429999 0.064000003 0.63700002 21 0 0 0 0.052590001
2.6029999 0.063000001 0.63599998 4 0 0 0 0.0526
2.7130001 0.066 0.67299998 2 0 0 0 0.052609999
2.7 0.066 0.67799997 2 0 0 0 0.052620001
2.6670001 0.064999998 0.67900002 2 0 0 0 0.05263
2.677 0.066 0.69 2 0 0 0 0.052639998
2.839 0.07 0.74199998 2 0 0 0 0.052650001
3 0.074000001 0.79400003 3 0 0 0 0.05266
3.1110001 0.077 0.83399999 4 0 0 0 0.052669998
3.102 0.077 0.84200001 4 0 0 0 0.052680001
3.1070001 0.077 0.85399997 4 0 0 0 0.052689999
2.9960001 0.074000001 0.833 3 0 0 0 0.052700002
2.8789999 0.071000002 0.81 2 0 0 0 0.05271
2.8069999 0.068999998 0.79900002 2 0 0 0 0.052719999
2.698 0.067000002 0.77700001 1 0 0 0 0.052730002
2.832 0.07 0.82599998 2 0 0 0 0.05274
2.7179999 0.067000002 0.801 1 0 0 0 0.052749999
2.6340001 0.064999998 0.78600001 1 0 0 0 0.052760001
2.609 0.064000003 0.787 1 0 0 0 0.05277
2.5810001 0.063000001 0.787 2 0 0 0 0.052779999
2.6129999 0.064000003 0.80599999 3 0 0 0 0.052790001
2.8039999 0.068000004 0.875 35 0 0 0 0.0528
2.8670001 0.068999998 0.90399998 150 0 0 0 0.052809998
2.8800001 0.068999998 0.91799998 150 0 0 0 0.052820001
2.882 0.068999998 0.92799997 150 0 0 0 0.052829999
2.8789999 0.068999998 0.93699998 150 0 0 0 0.052839998
2.8759999 0.068000004 0.94599998 150 0 0 0 0.052850001
2.875 0.068000004 0.95499998 150 0 0 0 0.052859999
2.8629999 0.067000002 0.96100003 150 0 0 0 0.052870002
2.8440001 0.066 0.96399999 134 0 0 0 0.05288
2.8510001 0.066 0.97600001 149 0 0 0 0.052889999
2.8410001 0.064999998 0.98199999 135 0 0 0 0.052900001
2.8469999 0.064999998 0.99400002 71 0 0 0 0.05291
2.888 0.064999998 1.018 45 0 0 0 0.052919999
2.924 0.064999998 1.041 39 0 0 0 0.052930001
2.9319999 0.064999998 1.054 40 0 0 0 0.05294
2.9360001 0.064000003 1.0650001 38 0 0 0 0.052949999
2.9349999 0.063000001 1.075 38 0 0 0 0.052960001
2.937 0.063000001 1.085 39 0 0 0 0.05297
2.927 0.061999999 1.092 44 0 0 0 0.052979998
2.9119999 0.061000001 1.096 44 0 0 0 0.052990001
2.8859999 0.059 1.096 38 0 0 0 0.052999999
2.8570001 0.057999998 1.095 37 0 0 0 0.053010002
2.8299999 0.056000002 1.094 38 0 0 0 0.05302
2.803 0.055 1.0930001 37 0 0 0 0.053029999
2.78 0.052999999 1.094 37 0 0 0 0.053040002
2.7520001 0.052000001 1.092 38 0 0 0 0.05305
2.7290001 0.050999999 1.092 38 0 0 0 0.053059999
2.7019999 0.048999999 1.091 37 0 0 0 0.053070001
2.6830001 0.048 1.092 38 0 0 0 0.05308
2.6600001 0.046 1.091 39 0 0 0 0.053089999
2.6359999 0.045000002 1.091 38 0 0 0 0.053100001
2.612 0.043000001 1.089 37 0 0 0 0.05311
2.5940001 0.041999999 1.091 37 0 0 0 0.053119998
2.575 0.039999999 1.092 37 0 0 0 0.053130001
2.5480001 0.039000001 1.089 39 0 0 0 0.05314
2.5320001 0.037 1.09 38 0 0 0 0.053149998
2.507 0.035999998 1.0880001 39 0 0 0 0.053160001
2.4879999 0.034000002 1.0880001 39 0 0 0 0.053169999
2.4719999 0.033 1.089 39 0 0 0 0.053180002
2.4489999 0.030999999 1.0880001 37 0 0 0 0.05319
2.437 0.029999999 1.091 33 0 0 0 0.053199999
2.4289999 0.028000001 1.095 29 0 0 0 0.053210001
2.428 0.027000001 1.103 28 0 0 0 0.05322
2.487 0.026000001 1.138 37 0 0 0 0.053229999
2.5409999 0.025 1.171 57 0 0 0 0.053240001
2.586 0.024 1.201 150 0 0 0 0.05325
2.5699999 0.023 1.202 150 0 0 0 0.053259999
2.526 0.021 1.1900001 122 0 0 0 0.053270001
2.4809999 0.018999999 1.177 52 0 0 0 0.05328
2.477 0.017000001 1.183 49 0 0 0 0.053289998
2.4779999 0.016000001 1.191 56 0 0 0 0.053300001
2.474 0.014 1.198 51 0 0 0 0.053309999
2.4690001 0.012 1.2029999 48 0 0 0 0.053320002
2.4649999 0.011 1.21 46 0 0 0 0.05333
2.46 0.0089999996 1.215 40 0 0 0 0.053339999
2.4519999 0.0070000002 1.219 34 0 0 0 0.053350002
2.451 0.0049999999 1.226 41 0 0 0 0.05336
2.4430001 0.003 1.2309999 51 0 0 0 0.053369999
2.4330001 0.001 1.233 59 0 0 0 0.053380001
2.4260001 0 1.238 69 0 0 0 0.05339
2.4200001 -0.001 1.243 94 0 0 0 0.053399999
2.4200001 -0.003 1.251 150 0 0 0 0.053410001
2.4219999 -0.0049999999 1.2589999 150 0 0 0 0.05342
2.4189999 -0.0070000002 1.265 150 0 0 0 0.053429998
2.4200001 -0.0089999996 1.273 150 0 0 0 0.053440001
2.421 -0.011 1.2819999 150 0 0 0 0.05345
2.4189999 -0.013 1.288 150 0 0 0 0.053459998
2.4330001 -0.016000001 1.303 150 0 0 0 0.053470001
2.5079999 -0.017999999 1.351 150 0 0 0 0.053479999
2.5940001 -0.021 1.406 150 0 0 0 0.053490002
2.756 -0.025 1.502 61 0 0 0 0.0535
2.7609999 -0.028000001 1.513 56 0 0 0 0.053509999
2.7550001 -0.030999999 1.518 56 0 0 0 0.053520001
2.7520001 -0.033 1.525 56 0 0 0 0.05353
2.74 -0.035999998 1.527 55 0 0 0 0.053539999
2.7390001 -0.039000001 1.534 56 0 0 0 0.053550001
2.733 -0.041000001 1.539 54 0 0 0 0.05356
2.7249999 -0.044 1.5420001 54 0 0 0 0.053569999
2.721 -0.046999998 1.549 54 0 0 0 0.053580001
2.714 -0.048999999 1.553 53 0 0 0 0.05359
2.71 -0.052000001 1.558 54 0 0 0 0.053599998
2.7060001 -0.055 1.564 54 0 0 0 0.053610001
2.6960001 -0.057999998 1.566 54 0 0 0 0.053619999
2.6919999 -0.061000001 1.571 54 0 0 0 0.053630002
2.6800001 -0.063000001 1.572 54 0 0 0 0.053640001
2.677 -0.066 1.577 54 0 0 0 0.053649999
2.6730001 -0.068999998 1.5829999 53 0 0 0 0.053660002
2.6700001 -0.071999997 1.5880001 55 0 0 0 0.05367
2.658 -0.075000003 1.5880001 54 0 0 0 0.053679999
2.654 -0.078000002 1.5930001 54 0 0 0 0.053690001
2.6500001 -0.081 1.598 55 0 0 0 0.0537
2.6440001 -0.083999999 1.601 54 0 0 0 0.053709999
2.641 -0.086999997 1.6059999 54 0 0 0 0.053720001
2.6340001 -0.090000004 1.609 54 0 0 0 0.05373
2.6289999 -0.093000002 1.612 55 0 0 0 0.053739998
2.6170001 -0.096000001 1.612 54 0 0 0 0.053750001
2.618 -0.098999999 1.619 55 0 0 0 0.05376
2.609 -0.102 1.62 55 0 0 0 0.053769998
2.6059999 -0.106 1.624 55 0 0 0 0.053780001
2.592 -0.108 1.622 56 0 0 0 0.053789999
2.5880001 -0.112 1.626 56 0 0 0 0.053800002
2.582 -0.115 1.628 55 0 0 0 0.05381
2.579 -0.118 1.632 55 0 0 0 0.053819999
2.5699999 -0.121 1.633 56 0 0 0 0.053830002
2.5669999 -0.124 1.637 57 0 0 0 0.05384
2.5580001 -0.12800001 1.636 58 0 0 0 0.053849999
2.553 -0.131 1.6390001 59 0 0 0 0.053860001
2.543 -0.134 1.638 59 0 0 0 0.05387
2.54 -0.13699999 1.641 60 0 0 0 0.053879999
2.5339999 -0.14 1.643 64 0 0 0 0.053890001
2.5250001 -0.14300001 1.642 64 0 0 0 0.0539
2.516 -0.146 1.641 69 0 0 0 0.053909998
2.5120001 -0.15000001 1.643 74 0 0 0 0.053920001
2.5050001 -0.153 1.6440001 76 0 0 0 0.053929999
2.5009999 -0.156 1.646 79 0 0 0 0.053939998
2.49 -0.15899999 1.643 79 0 0 0 0.053950001
2.4849999 -0.163 1.6440001 83 0 0 0 0.053959999
2.4779999 -0.16599999 1.6440001 83 0 0 0 0.053970002
2.4749999 -0.169 1.646 91 0 0 0 0.05398
2.4630001 -0.17200001 1.642 83 0 0 0 0.053989999
2.461 -0.175 1.645 83 0 0 0 0.054000001
2.4560001 -0.17900001 1.646 83 0 0 0 0.05401
2.447 -0.182 1.643 83 0 0 0 0.054019999
2.4449999 -0.185 1.646 83 0 0 0 0.054030001
2.4389999 -0.189 1.645 83 0 0 0 0.05404
2.431 -0.192 1.643 76 0 0 0 0.054049999
2.425 -0.19499999 1.642 69 0 0 0 0.054060001
2.421 -0.198 1.643 68 0 0 0 0.05407
2.4170001 -0.20100001 1.643 64 0 0 0 0.054079998
2.4059999 -0.204 1.6390001 61 0 0 0 0.054090001
2.4030001 -0.207 1.6390001 60 0 0 0 0.054099999
2.4000001 -0.211 1.64 57 0 0 0 0.054110002
2.3900001 -0.213 1.635 56 0 0 0 0.05412
2.382 -0.21600001 1.633 57 0 0 0 0.054129999
2.3759999 -0.22 1.631 58 0 0 0 0.054140002
2.3729999 -0.223 1.63 58 0 0 0 0.05415
2.3659999 -0.226 1.628 56 0 0 0 0.054159999
2.3599999 -0.229 1.626 55 0 0 0 0.054170001
2.3540001 -0.23199999 1.623 55 0 0 0 0.05418
2.3499999 -0.235 1.622 56 0 0 0 0.054189999
2.348 -0.23800001 1.622 55 0 0 0 0.054200001
2.339 -0.241 1.617 55 0 0 0 0.05421
2.336 -0.244 1.617 55 0 0 0 0.054219998
2.326 -0.24600001 1.6109999 55 0 0 0 0.054230001
2.322 -0.249 1.609 54 0 0 0 0.05424
2.3199999 -0.252 1.608 56 0 0 0 0.054249998
2.3180001 -0.25600001 1.608 55 0 0 0 0.054260001
2.3110001 -0.25799999 1.603 54 0 0 0 0.054269999
2.3050001 -0.26100001 1.599 55 0 0 0 0.054280002
2.299 -0.264 1.596 54 0 0 0 0.05429
2.2939999 -0.266 1.5930001 56 0 0 0 0.054299999
2.2869999 -0.26899999 1.5880001 55 0 0 0 0.054310001
2.2820001 -0.27200001 1.584 54 0 0 0 0.05432
2.276 -0.27399999 1.58 55 0 0 0 0.054329999
2.2750001 -0.27700001 1.579 56 0 0 0 0.054340001
2.267 -0.28 1.573 56 0 0 0 0.05435
2.266 -0.28299999 1.572 55 0 0 0 0.054359999
2.2609999 -0.285 1.568 57 0 0 0 0.054370001
2.256 -0.28799999 1.563 56 0 0 0 0.05438
2.2509999 -0.28999999 1.559 56 0 0 0 0.054389998
2.244 -0.292 1.553 55 0 0 0 0.054400001
2.2420001 -0.29499999 1.551 54 0 0 0 0.054409999
2.237 -0.29800001 1.546 56 0 0 0 0.054420002
2.2320001 -0.30000001 1.541 56 0 0 0 0.05443
2.227 -0.30199999 1.536 55 0 0 0 0.054439999
2.2190001 -0.30399999 1.529 53 0 0 0 0.054450002
2.2179999 -0.30700001 1.527 56 0 0 0 0.05446
2.2130001 -0.30899999 1.521 54 0 0 0 0.054469999
2.2079999 -0.31099999 1.516 57 0 0 0 0.054480001
2.2090001 -0.31400001 1.5140001 58 0 0 0 0.05449
2.2019999 -0.315 1.508 59 0 0 0 0.054499999
2.198 -0.31799999 1.502 56 0 0 0 0.054510001
2.1930001 -0.31900001 1.497 58 0 0 0 0.05452
2.1930001 -0.322 1.494 58 0 0 0 0.054529998
2.187 -0.324 1.487 57 0 0 0 0.054540001
2.184 -0.32600001 1.483 59 0 0 0 0.05455
2.1800001 -0.32699999 1.477 57 0 0 0 0.054559998
2.1760001 -0.329 1.471 59 0 0 0 0.054570001
2.171 -0.331 1.465 58 0 0 0 0.054579999
2.1700001 -0.333 1.461 61 0 0 0 0.054590002
2.1700001 -0.33500001 1.4579999 62 0 0 0 0.0546
2.165 -0.33700001 1.451 61 0 0 0 0.054609999
2.1589999 -0.338 1.444 63 0 0 0 0.054620001
2.1570001 -0.34 1.439 62 0 0 0 0.05463
2.1570001 -0.34200001 1.4349999 64 0 0 0 0.054639999
2.152 -0.34400001 1.429 63 0 0 0 0.054650001
2.1489999 -0.345 1.423 64 0 0 0 0.05466
2.1440001 -0.34599999 1.415 65 0 0 0 0.054669999
2.1389999 -0.347 1.408 64 0 0 0 0.054680001
2.138 -0.34900001 1.404 67 0 0 0 0.05469
2.1370001 -0.35100001 1.399 67 0 0 0 0.054699998
2.132 -0.352 1.391 66 0 0 0 0.054710001
2.1300001 -0.35299999 1.385 69 0 0 0 0.054719999
2.1259999 -0.354 1.378 62 0 0 0 0.054730002
2.128 -0.35600001 1.375 59 0 0 0 0.054740001
2.1259999 -0.35800001 1.37 61 0 0 0 0.054749999
2.1229999 -0.359 1.363 68 0 0 0 0.054760002
2.1170001 -0.359 1.355 64 0 0 0 0.05477
2.119 -0.361 1.351 67 0 0 0 0.054779999
2.119 -0.36199999 1.346 77 0 0 0 0.054790001
2.115 -0.36300001 1.339 71 0 0 0 0.0548
2.1029999 -0.36199999 1.326 85 0 0 0 0.054809999
2.0220001 -0.34999999 1.27 150 0 0 0 0.054820001
1.927 -0.33500001 1.206 150 0 0 0 0.05483
1.8839999 -0.32800001 1.174 147 0 0 0 0.054839998
1.791 -0.31299999 1.112 38 0 0 0 0.054850001
1.763 -0.30899999 1.09 27 0 0 0 0.05486
1.766 -0.31 1.0880001 31 0 0 0 0.054869998
1.766 -0.31099999 1.0829999 37 0 0 0 0.054880001
1.775 -0.31400001 1.084 49 0 0 0 0.054889999
1.779 -0.315 1.082 55 0 0 0 0.054900002
1.786 -0.317 1.081 49 0 0 0 0.05491
1.7970001 -0.31999999 1.0829999 44 0 0 0 0.054919999
1.802 -0.322 1.081 43 0 0 0 0.054930001
1.814 -0.324 1.0829999 41 0 0 0 0.05494
1.825 -0.32699999 1.085 40 0 0 0 0.054949999
1.832 -0.329 1.084 42 0 0 0 0.054960001
1.84 -0.331 1.084 40 0 0 0 0.05497
1.848 -0.333 1.0829999 41 0 0 0 0.054979999
1.86 -0.33500001 1.085 40 0 0 0 0.054990001
1.868 -0.33700001 1.084 40 0 0 0 0.055
1.883 -0.34 1.087 41 0 0 0 0.055009998
1.891 -0.34200001 1.086 43 0 0 0 0.055020001
1.901 -0.34400001 1.086 46 0 0 0 0.055029999
1.9119999 -0.34599999 1.087 40 0 0 0 0.055039998
1.921 -0.34799999 1.086 40 0 0 0 0.055050001
1.931 -0.34999999 1.086 39 0 0 0 0.055059999
1.944 -0.35299999 1.0880001 40 0 0 0 0.055070002
1.9529999 -0.35499999 1.087 40 0 0 0 0.05508
1.966 -0.35699999 1.0880001 40 0 0 0 0.055089999
1.9809999 -0.36000001 1.091 39 0 0 0 0.055100001
1.988 -0.361 1.0880001 37 0 0 0 0.05511
2.0009999 -0.36399999 1.089 38 0 0 0 0.055119999
2.017 -0.366 1.091 38 0 0 0 0.055130001
2.0209999 -0.36700001 1.087 36 0 0 0 0.05514
2.039 -0.37 1.091 37 0 0 0 0.055149999
2.0510001 -0.37200001 1.09 38 0 0 0 0.055160001
2.066 -0.375 1.092 49 0 0 0 0.05517
2.0710001 -0.375 1.0880001 55 0 0 0 0.055179998
2.0739999 -0.37599999 1.0829999 45 0 0 0 0.055190001
2.075 -0.37599999 1.077 41 0 0 0 0.055199999
2.0769999 -0.37599999 1.071 41 0 0 0 0.055210002
2.0739999 -0.37400001 1.063 41 0 0 0 0.05522
2.0769999 -0.375 1.058 40 0 0 0 0.055229999
2.0780001 -0.37400001 1.051 41 0 0 0 0.055240002
2.079 -0.37400001 1.046 44 0 0 0 0.05525
2.079 -0.373 1.038 44 0 0 0 0.055259999
2.079 -0.373 1.0319999 42 0 0 0 0.055270001
2.029 -0.36300001 1.001 72 0 0 0 0.05528
1.9859999 -0.35499999 0.97299999 102 0 0 0 0.055289999
1.956 -0.34900001 0.95200002 88 0 0 0 0.055300001
1.9529999 -0.34799999 0.94400001 84 0 0 0 0.05531
1.9529999 -0.347 0.93800002 92 0 0 0 0.055319998
1.955 -0.34599999 0.93199998 93 0 0 0 0.055330001
1.9579999 -0.34599999 0.92699999 92 0 0 0 0.055339999
1.961 -0.34599999 0.92199999 96 0 0 0 0.055349998
1.964 -0.34599999 0.917 111 0 0 0 0.055360001
1.9630001 -0.345 0.91000003 89 0 0 0 0.055369999
1.965 -0.34400001 0.90399998 87 0 0 0 0.055380002
1.964 -0.34299999 0.89700001 90 0 0 0 0.05539
1.967 -0.34200001 0.89200002 90 0 0 0 0.055399999
1.97 -0.34200001 0.88700002 90 0 0 0 0.055410001
1.972 -0.34099999 0.88099998 92 0 0 0 0.05542
1.974 -0.34 0.87599999 96 0 0 0 0.055429999
1.977 -0.34 0.87 85 0 0 0 0.055440001
1.976 -0.33899999 0.86299998 81 0 0 0 0.05545
1.982 -0.338 0.85900003 39 0 0 0 0.055459999
1.973 -0.336 0.84899998 14 0 0 0 0.055470001
1.893 -0.32100001 0.80800003 2 0 0 0 0.05548
1.825 -0.308 0.773 1 0 0 0 0.055489998
1.824 -0.30700001 0.76599997 0 0 0 0 0.055500001
1.839 -0.308 0.76700002 0 0 0 0 0.055509999
1.836 -0.30599999 0.759 0 0 0 0 0.055520002
1.839 -0.30599999 0.75400001 0 0 0 0 0.05553
1.852 -0.30700001 0.75400001 0 0 0 0 0.055539999
1.8430001 -0.30399999 0.74400002 0 0 0 0 0.055550002
1.848 -0.303 0.73900002 0 0 0 0 0.05556
1.863 -0.30399999 0.73900002 0 0 0 0 0.055569999
1.858 -0.30199999 0.73100001 0 0 0 0 0.055580001
1.865 -0.30199999 0.72799999 0 0 0 0 0.05559
1.862 -0.30000001 0.72000003 0 0 0 0 0.055599999
1.865 -0.29899999 0.71499997 0 0 0 0 0.055610001
1.8609999 -0.29699999 0.708 0 0 0 0 0.05562
1.858 -0.29499999 0.69999999 0 0 0 0 0.055629998
1.863 -0.294 0.69599998 0 0 0 0 0.055640001
1.864 -0.29300001 0.69 0 0 0 0 0.05565
1.87 -0.292 0.68599999 0 0 0 0 0.055659998
1.8609999 -0.289 0.67699999 0 0 0 0 0.055670001
1.8839999 -0.29100001 0.67900002 0 0 0 0 0.055679999
1.883 -0.289 0.67199999 0 0 0 0 0.055690002
1.881 -0.287 0.66600001 0 0 0 0 0.0557
1.8839999 -0.28600001 0.66000003 0 0 0 0 0.055709999
1.896 -0.28600001 0.65799999 0 0 0 0 0.055720001
1.888 -0.28299999 0.64899999 0 0 0 0 0.05573
1.888 -0.28099999 0.64300001 0 0 0 0 0.055739999
1.8940001 -0.28099999 0.639 0 0 0 0 0.055750001
1.905 -0.28 0.63599998 0 0 0 0 0.05576
1.89 -0.27599999 0.625 0 0 0 0 0.055769999
1.906 -0.27700001 0.62400001 0 0 0 0 0.055780001
1.902 -0.27399999 0.61699998 0 0 0 0 0.05579
1.904 -0.273 0.611 0 0 0 0 0.055799998
1.915 -0.27200001 0.60799998 0 0 0 0 0.055810001
1.911 -0.27000001 0.60100001 0 0 0 0 0.055819999
1.919 -0.26899999 0.597 0 0 0 0 0.055830002
1.9 -0.264 0.58499998 0 0 0 0 0.055840001
1.923 -0.266 0.58600003 0 0 0 0 0.055849999
1.914 -0.26300001 0.57700002 0 0 0 0 0.055860002
1.916 -0.26100001 0.57099998 0 0 0 0 0.05587
1.9220001 -0.259 0.56699997 0 0 0 0 0.055879999
1.929 -0.25799999 0.56300002 0 0 0 0 0.055890001
1.931 -0.257 0.55699998 0 0 0 0 0.0559
1.942 -0.25600001 0.55400002 0 0 0 0 0.055909999
1.949 -0.255 0.55000001 0 0 0 0 0.055920001
1.942 -0.252 0.542 0 0 0 0 0.05593
1.9400001 -0.249 0.53500003 0 0 0 0 0.055939998
1.936 -0.24699999 0.528 0 0 0 0 0.055950001
1.943 -0.245 0.523 0 0 0 0 0.05596
1.961 -0.245 0.52200001 0 0 0 0 0.055969998
1.939 -0.23999999 0.50999999 0 0 0 0 0.055980001
1.955 -0.23999999 0.50800002 0 0 0 0 0.055989999
1.9630001 -0.23899999 0.50400001 0 0 0 0 0.056000002
1.97 -0.237 0.5 0 0 0 0 0.05601
1.944 -0.23199999 0.48699999 0 0 0 0 0.056019999
1.971 -0.233 0.48699999 0 0 0 0 0.056030001
1.956 -0.229 0.477 0 0 0 0 0.05604
1.985 -0.23 0.47799999 0 0 0 0 0.056049999
1.99 -0.228 0.47299999 0 0 0 0 0.056060001
1.974 -0.22400001 0.463 0 0 0 0 0.05607
1.994 -0.22400001 0.46200001 0 0 0 0 0.056079999
1.995 -0.221 0.456 0 0 0 0 0.056090001
2.003 -0.22 0.45100001 1 0 0 0 0.0561
2.0139999 -0.219 0.447 2 0 0 0 0.056109998
2.0150001 -0.21600001 0.442 5 0 0 0 0.056120001
2.016 -0.214 0.43599999 7 0 0 0 0.056129999
2.023 -0.212 0.43099999 3 0 0 0 0.056139998
2.027 -0.20999999 0.42500001 1 0 0 0 0.056150001
2.027 -0.207 0.419 1 0 0 0 0.056159999
2.0280001 -0.205 0.41299999 0 0 0 0 0.056170002
2.033 -0.20299999 0.40799999 0 0 0 0 0.05618
2.0280001 -0.2 0.40000001 0 0 0 0 0.056189999
2.04 -0.198 0.39700001 0 0 0 0 0.056200001
2.043 -0.19599999 0.391 0 0 0 0 0.05621
2.0469999 -0.19400001 0.38600001 0 0 0 0 0.056219999
2.0569999 -0.192 0.38100001 0 0 0 0 0.056230001
2.043 -0.18799999 0.37200001 0 0 0 0 0.05624
2.072 -0.18799999 0.37099999 0 0 0 0 0.056249999
2.0650001 -0.184 0.36399999 0 0 0 0 0.056260001
2.063 -0.182 0.35699999 0 0 0 0 0.05627
2.089 -0.18099999 0.35499999 0 0 0 0 0.056279998
2.0929999 -0.17900001 0.34999999 0 0 0 0 0.056290001
2.0799999 -0.175 0.34099999 0 0 0 0 0.056299999
2.085 -0.17200001 0.336 0 0 0 0 0.056310002
2.108 -0.171 0.333 0 0 0 0 0.05632
2.105 -0.168 0.32600001 0 0 0 0 0.056329999
2.098 -0.16500001 0.31900001 0 0 0 0 0.056340002
2.1199999 -0.164 0.31600001 0 0 0 0 0.05635
2.1129999 -0.16 0.30899999 0 0 0 0 0.056359999
2.135 -0.15899999 0.30500001 0 0 0 0 0.056370001
2.1359999 -0.156 0.29899999 0 0 0 0 0.05638
2.1129999 -0.15099999 0.28999999 0 0 0 0 0.056389999
2.138 -0.15000001 0.287 0 0 0 0 0.056400001
2.1470001 -0.148 0.28200001 0 0 0 0 0.05641
2.1530001 -0.145 0.27599999 0 0 0 0 0.056419998
2.1719999 -0.14300001 0.27200001 0 0 0 0 0.056430001
2.1700001 -0.14 0.26499999 0 0 0 0 0.056439999
2.1730001 -0.13699999 0.259 0 0 0 0 0.056449998
2.1659999 -0.134 0.252 0 0 0 0 0.056460001
2.141 -0.12899999 0.243 0 0 0 0 0.056469999
2.151 -0.127 0.23800001 0 0 0 0 0.056480002
2.154 -0.124 0.23199999 0 0 0 0 0.05649
2.3340001 -0.131 0.244 0 0 0 0 0.056499999
2.3180001 -0.127 0.236 0 0 0 0 0.056510001
2.3340001 -0.124 0.23100001 0 0 0 0 0.05652
2.421 -0.125 0.23199999 7 0 0 0 0.056529999
2.4360001 -0.123 0.227 24 0 0 0 0.056540001
2.4300001 -0.119 0.219 31 0 0 0 0.05655
2.4449999 -0.116 0.213 41 0 0 0 0.056559999
2.4949999 -0.114 0.20999999 150 0 0 0 0.056570001
2.553 -0.113 0.208 150 0 0 0 0.05658
2.563 -0.11 0.20100001 150 0 0 0 0.056589998
2.572 -0.107 0.19400001 150 0 0 0 0.056600001
2.5769999 -0.103 0.18700001 150 0 0 0 0.056609999
2.5899999 -0.098999999 0.18099999 150 0 0 0 0.056620002
2.5929999 -0.096000001 0.17399999 150 0 0 0 0.05663
2.503 -0.089000002 0.16 150 0 0 0 0.056639999
2.425 -0.082000002 0.148 150 0 0 0 0.056650002
2.4400001 -0.079000004 0.142 121 0 0 0 0.05666
2.296 -0.071000002 0.127 41 0 0 0 0.056669999
1.7690001 -0.052000001 0.093000002 1 0 0 0 0.056680001
1.7589999 -0.048999999 0.086999997 0 0 0 0 0.05669
1.773 -0.046 0.082999997 0 0 0 0 0.056699999
1.76 -0.043000001 0.077 0 0 0 0 0.056710001
1.75 -0.039999999 0.071999997 0 0 0 0 0.05672
1.742 -0.037 0.067000002 0 0 0 0 0.056729998
1.766 -0.035 0.061999999 0 0 0 0 0.056740001
1.743 -0.032000002 0.057 0 0 0 0 0.05675
1.724 -0.028999999 0.050999999 0 0 0 0 0.056759998
1.723 -0.026000001 0.046 0 0 0 0 0.056770001
1.694 -0.023 0.041000001 0 0 0 0 0.056779999
1.666 -0.02 0.035 0 0 0 0 0.056790002
1.643 -0.017000001 0.029999999 0 0 0 0 0.0568
1.643 -0.015 0.026000001 0 0 0 0 0.056809999
1.592 -0.012 0.02 0 0 0 0 0.056820001
1.601 -0.0089999996 0.016000001 0 0 0 0 0.05683
1.577 -0.0060000001 0.011 0 0 0 0 0.056839999
1.541 -0.0040000002 0.0070000002 0 0 0 0 0.056850001
1.4910001 -0.001 0.0020000001 0 0 0 0 0.05686
1.508 0 -0.001 0 0 0 0 0.056869999
1.505 0.003 -0.0049999999 0 0 0 0 0.056880001
1.502 0.0049999999 -0.0089999996 0 0 0 0 0.05689
1.5 0.0070000002 -0.014 0 0 0 0 0.056899998
1.495 0.0099999998 -0.017999999 0 0 0 0 0.056910001
1.499 0.012 -0.022 0 0 0 0 0.056919999
1.494 0.015 -0.026000001 0 0 0 0 0.056930002
1.493 0.017000001 -0.029999999 0 0 0 0 0.056940001
1.492 0.02 -0.034000002 0 0 0 0 0.056949999
1.492 0.022 -0.037999999 0 0 0 0 0.056960002
1.484 0.025 -0.041999999 0 0 0 0 0.05697
1.478 0.027000001 -0.046 0 0 0 0 0.056979999
1.454 0.028999999 -0.050000001 0 0 0 0 0.056990001
1.459 0.030999999 -0.054000001 0 0 0 0 0.057
1.454 0.034000002 -0.057999998 0 0 0 0 0.057009999
1.4579999 0.035999998 -0.061999999 0 0 0 0 0.057020001
1.439 0.037999999 -0.064999998 0 0 0 0 0.05703
1.4349999 0.041000001 -0.068999998 0 0 0 0 0.057039998
1.415 0.043000001 -0.071999997 0 0 0 0 0.057050001
1.436 0.046 -0.077 0 0 0 0 0.05706
1.427 0.048 -0.079999998 0 0 0 0 0.057069998
1.423 0.050000001 -0.083999999 0 0 0 0 0.057080001
1.411 0.052000001 -0.086999997 0 0 0 0 0.057089999
1.393 0.054000001 -0.090000004 0 0 0 0 0.057100002
1.39 0.056000002 -0.093000002 0 0 0 0 0.05711
1.396 0.059 -0.097999997 0 0 0 0 0.057119999
1.397 0.061000001 -0.102 0 0 0 0 0.057130001
1.3839999 0.063000001 -0.104 0 0 0 0 0.05714
1.377 0.064999998 -0.108 0 0 0 0 0.057149999
1.39 0.068000004 -0.112 0 0 0 0 0.057160001
1.404 0.071999997 -0.117 0 0 0 0 0.05717
1.386 0.072999999 -0.12 0 0 0 0 0.057179999
1.411 0.077 -0.126 0 0 0 0 0.057190001
1.405 0.079000004 -0.12899999 0 0 0 0 0.0572
1.398 0.081 -0.132 0 0 0 0 0.057209998
1.403 0.083999999 -0.13699999 0 0 0 0 0.057220001
1.403 0.086999997 -0.14 0 0 0 0 0.057229999
1.421 0.090000004 -0.146 0 0 0 0 0.057240002
1.432 0.093999997 -0.15099999 0 0 0 0 0.057250001
1.433 0.096000001 -0.155 0 0 0 0 0.057259999
1.45 0.1 -0.161 0 0 0 0 0.057270002
1.87 0.133 -0.213 0 0 0 0 0.05728
2.54 0.185 -0.296 57 0 0 0 0.057289999
2.4319999 0.182 -0.28999999 150 0 0 0 0.057300001
2.5220001 0.193 -0.30700001 20 0 0 0 0.05731
2.5769999 0.20200001 -0.32100001 21 0 0 0 0.057319999
2.5840001 0.207 -0.329 35 0 0 0 0.057330001
2.5910001 0.213 -0.33700001 32 0 0 0 0.05734
2.579 0.21699999 -0.34200001 23 0 0 0 0.057349999
2.6159999 0.22499999 -0.354 47 0 0 0 0.057360001
2.651 0.233 -0.366 48 0 0 0 0.05737
2.743 0.24600001 -0.38600001 107 0 0 0 0.057379998
2.757 0.252 -0.39500001 132 0 0 0 0.057390001
2.766 0.259 -0.40400001 126 0 0 0 0.057399999
2.7780001 0.26499999 -0.41299999 115 0 0 0 0.057410002
2.789 0.271 -0.42199999 111 0 0 0 0.05742
2.8099999 0.27900001 -0.433 106 0 0 0 0.057429999
2.8310001 0.287 -0.44400001 99 0 0 0 0.057440002
2.8299999 0.292 -0.45100001 92 0 0 0 0.05745
2.7969999 0.294 -0.45300001 37 0 0 0 0.057459999
2.654 0.28400001 -0.43700001 19 0 0 0 0.057470001
2.0150001 0.22 -0.33700001 0 0 0 0 0.05748
1.936 0.215 -0.329 0 0 0 0 0.057489999
1.946 0.22 -0.336 0 0 0 0 0.057500001
1.939 0.223 -0.34 0 0 0 0 0.05751
0 0 0 0 0 0 0 0.057519998
2.848 0.33899999 -0.51499999 20 0 0 0 0.057530001
2.891 0.34999999 -0.52999997 27 0 0 0 0.057539999
2.9100001 0.35800001 -0.54100001 39 0 0 0 0.057549998
2.9170001 0.36500001 -0.55000001 36 0 0 0 0.057560001
