# .PCD v0.7 - Point Cloud Data file format
VERSION 0.7
FIELDS x y z intensity normal_x normal_y normal_z curvature
SIZE 4 4 4 4 4 4 4 4
TYPE F F F F F F F F
COUNT 1 1 1 1 1 1 1 1
WIDTH 1062
HEIGHT 1
VIEWPOINT 0 0 0 1 0 0 0
POINTS 1062
DATA ascii
2.119 -0.048999999 -0.65700001 113 0 0 0 0.0059799999
2.075 -0.046999998 -0.63700002 60 0 0 0 0.00599
2.0829999 -0.046 -0.63200003 48 0 0 0 0.0060000001
2.108 -0.045000002 -0.63300002 40 0 0 0 0.0060100001
2.1300001 -0.044 -0.63200003 42 0 0 0 0.0060200002
2.154 -0.044 -0.63200003 38 0 0 0 0.0060299998
2.175 -0.043000001 -0.63099998 35 0 0 0 0.0060399999
2.207 -0.041999999 -0.63300002 34 0 0 0 0.00605
2.227 -0.041000001 -0.63099998 33 0 0 0 0.00606
2.2520001 -0.041000001 -0.63099998 32 0 0 0 0.0060700001
2.28 -0.039999999 -0.63099998 31 0 0 0 0.0060800002
2.3039999 -0.039000001 -0.63 30 0 0 0 0.0060899998
2.3299999 -0.039000001 -0.62900001 29 0 0 0 0.0060999999
2.3610001 -0.037999999 -0.63 28 0 0 0 0.00611
2.381 -0.037 -0.62800002 28 0 0 0 0.00612
2.4119999 -0.035999998 -0.62800002 28 0 0 0 0.0061300001
2.438 -0.035999998 -0.62599999 29 0 0 0 0.0061400002
2.467 -0.035 -0.62599999 30 0 0 0 0.0061499998
2.4960001 -0.034000002 -0.625 150 0 0 0 0.0061599999
2.497 -0.033 -0.61699998 150 0 0 0 0.0061699999
2.4960001 -0.032000002 -0.60799998 150 0 0 0 0.00618
2.5 -0.030999999 -0.60100001 150 0 0 0 0.0061900001
2.4979999 -0.029999999 -0.59200001 150 0 0 0 0.0062000002
2.4960001 -0.028999999 -0.583 150 0 0 0 0.0062099998
2.4979999 -0.028000001 -0.57599998 150 0 0 0 0.0062199999
2.4990001 -0.027000001 -0.56699997 150 0 0 0 0.0062299999
2.494 -0.026000001 -0.55800003 150 0 0 0 0.00624
2.4949999 -0.025 -0.55000001 150 0 0 0 0.0062500001
2.497 -0.024 -0.542 150 0 0 0 0.0062600002
2.49 -0.023 -0.53299999 37 0 0 0 0.0062699998
2.4809999 -0.022 -0.52200001 15 0 0 0 0.0062799999
2.4879999 -0.021 -0.51599997 15 0 0 0 0.0062899999
2.49 -0.021 -0.50800002 15 0 0 0 0.0063
2.4979999 -0.02 -0.50099999 15 0 0 0 0.0063100001
2.493 -0.018999999 -0.49200001 14 0 0 0 0.0063200002
2.4909999 -0.017999999 -0.48300001 15 0 0 0 0.0063299998
2.4890001 -0.017000001 -0.47499999 34 0 0 0 0.0063399998
2.493 -0.017000001 -0.46700001 150 0 0 0 0.0063499999
2.493 -0.016000001 -0.45899999 150 0 0 0 0.00636
2.4949999 -0.015 -0.45100001 150 0 0 0 0.0063700001
2.494 -0.014 -0.44299999 150 0 0 0 0.0063800002
2.4890001 -0.014 -0.43399999 150 0 0 0 0.0063900002
2.483 -0.013 -0.42500001 150 0 0 0 0.0063999998
2.306 -0.011 -0.38699999 150 0 0 0 0.0064099999
2.2049999 -0.0099999998 -0.36300001 150 0 0 0 0.00642
2.119 -0.0089999996 -0.34200001 65 0 0 0 0.0064300001
2.132 -0.0089999996 -0.33700001 24 0 0 0 0.0064400001
2.1619999 -0.0089999996 -0.33399999 11 0 0 0 0.0064500002
2.197 -0.0080000004 -0.333 7 0 0 0 0.0064599998
2.2539999 -0.0080000004 -0.33399999 6 0 0 0 0.0064699999
2.289 -0.0080000004 -0.331 12 0 0 0 0.00648
2.3 -0.0070000002 -0.32600001 8 0 0 0 0.0064900001
2.3050001 -0.0070000002 -0.31900001 7 0 0 0 0.0065000001
2.309 -0.0060000001 -0.31200001 4 0 0 0 0.0065100002
2.303 -0.0060000001 -0.303 6 0 0 0 0.0065199998
2.303 -0.0049999999 -0.296 10 0 0 0 0.0065299999
2.3039999 -0.0049999999 -0.289 12 0 0 0 0.00654
2.3 -0.0040000002 -0.28 15 0 0 0 0.00655
2.3 -0.0040000002 -0.273 9 0 0 0 0.0065600001
2.3010001 -0.0040000002 -0.266 8 0 0 0 0.0065700002
2.335 -0.003 -0.26199999 5 0 0 0 0.0065799998
2.4189999 -0.003 -0.26300001 5 0 0 0 0.0065899999
2.2679999 -0.003 -0.23999999 14 0 0 0 0.0066
2.1689999 -0.0020000001 -0.222 21 0 0 0 0.00661
2.1289999 -0.0020000001 -0.211 11 0 0 0 0.0066200001
2.197 -0.0020000001 -0.211 5 0 0 0 0.0066300002
1.624 -0.001 -0.15000001 0 0 0 0 0.0066399998
1.467 -0.001 -0.131 0 0 0 0 0.0066499999
1.441 0 -0.124 0 0 0 0 0.00666
1.451 0 -0.12 0 0 0 0 0.00667
1.454 0 -0.116 0 0 0 0 0.0066800001
1.473 0 -0.112 0 0 0 0 0.0066900002
1.478 0 -0.108 0 0 0 0 0.0066999998
1.476 0 -0.103 0 0 0 0 0.0067099999
1.484 0 -0.098999999 0 0 0 0 0.0067199999
1.48 0 -0.093999997 0 0 0 0 0.00673
1.4809999 0 -0.089000002 0 0 0 0 0.0067400001
1.487 0 -0.083999999 0 0 0 0 0.0067500002
1.487 0 -0.079999998 0 0 0 0 0.0067599998
1.494 0 -0.075000003 0 0 0 0 0.0067699999
1.495 0 -0.07 0 0 0 0 0.0067799999
1.502 0 -0.066 0 0 0 0 0.00679
1.492 0 -0.061000001 0 0 0 0 0.0068000001
1.488 0 -0.056000002 0 0 0 0 0.0068100002
1.495 0 -0.050999999 0 0 0 0 0.0068199998
1.495 0 -0.046 0 0 0 0 0.0068299999
1.495 0 -0.041000001 0 0 0 0 0.0068399999
1.497 0 -0.035999998 0 0 0 0 0.00685
1.4910001 0 -0.030999999 0 0 0 0 0.0068600001
1.5 0 -0.027000001 0 0 0 0 0.0068700002
1.51 0 -0.022 0 0 0 0 0.0068799998
1.5039999 0 -0.017000001 0 0 0 0 0.0068899998
1.495 0 -0.012 0 0 0 0 0.0068999999
1.495 0 -0.0070000002 0 0 0 0 0.00691
1.5190001 0 -0.003 0 0 0 0 0.0069200001
1.505 0 0.001 0 0 0 0 0.0069300001
1.534 0 0.0060000001 0 0 0 0 0.0069400002
1.564 0 0.012 0 0 0 0 0.0069499998
1.618 0 0.017000001 0 0 0 0 0.0069599999
1.641 0 0.023 0 0 0 0 0.00697
1.668 0 0.028999999 0 0 0 0 0.0069800001
1.6670001 0 0.034000002 0 0 0 0 0.0069900001
1.705 0 0.039999999 0 0 0 0 0.0070000002
1.767 0 0.048 0 0 0 0 0.0070099998
1.7359999 0 0.052000001 0 0 0 0 0.0070199999
1.762 -0.001 0.059 0 0 0 0 0.00703
1.7869999 -0.001 0.064999998 0 0 0 0 0.0070400001
1.79 -0.001 0.071000002 0 0 0 0 0.0070500001
1.791 -0.001 0.077 1 0 0 0 0.0070600002
1.794 -0.001 0.082999997 1 0 0 0 0.0070699998
1.7920001 -0.0020000001 0.089000002 1 0 0 0 0.0070799999
1.8 -0.0020000001 0.094999999 1 0 0 0 0.00709
1.8 -0.0020000001 0.101 1 0 0 0 0.0071
1.816 -0.0020000001 0.108 0 0 0 0 0.0071100001
1.816 -0.003 0.113 0 0 0 0 0.0071200002
1.99 -0.003 0.131 8 0 0 0 0.0071299998
2.638 -0.0049999999 0.182 3 0 0 0 0.0071399999
1.943 -0.0040000002 0.14 0 0 0 0 0.00715
2.6340001 -0.0060000001 0.199 20 0 0 0 0.00716
2.7 -0.0070000002 0.213 71 0 0 0 0.0071700001
2.7079999 -0.0070000002 0.222 121 0 0 0 0.0071800002
2.674 -0.0080000004 0.228 109 0 0 0 0.0071899998
2.6259999 -0.0080000004 0.23199999 22 0 0 0 0.0071999999
2.3039999 -0.0070000002 0.211 0 0 0 0 0.00721
1.96 -0.0070000002 0.186 0 0 0 0 0.00722
2.148 -0.0080000004 0.211 0 0 0 0 0.0072300001
2.2360001 -0.0089999996 0.227 1 0 0 0 0.0072400002
2.0480001 -0.0080000004 0.215 0 0 0 0 0.0072499998
1.906 -0.0080000004 0.206 0 0 0 0 0.0072599999
1.928 -0.0089999996 0.214 1 0 0 0 0.0072699999
1.929 -0.0089999996 0.221 1 0 0 0 0.00728
1.943 -0.0099999998 0.229 2 0 0 0 0.0072900001
1.965 -0.0099999998 0.23800001 8 0 0 0 0.0073000002
1.962 -0.011 0.244 9 0 0 0 0.0073099998
1.9529999 -0.011 0.249 15 0 0 0 0.0073199999
1.9680001 -0.012 0.257 11 0 0 0 0.0073299999
2.375 -0.015 0.31900001 1 0 0 0 0.00734
2.411 -0.016000001 0.331 0 0 0 0 0.0073500001
2.4100001 -0.017000001 0.33899999 0 0 0 0 0.0073600002
2.4000001 -0.017000001 0.345 0 0 0 0 0.0073699998
2.3989999 -0.017999999 0.35299999 0 0 0 0 0.0073799998
2.395 -0.018999999 0.36000001 0 0 0 0 0.0073899999
2.385 -0.02 0.36700001 0 0 0 0 0.0074
2.4000001 -0.021 0.377 0 0 0 0 0.0074100001
2.391 -0.021 0.38299999 0 0 0 0 0.0074200002
2.405 -0.022 0.39300001 0 0 0 0 0.0074300002
2.3870001 -0.023 0.398 0 0 0 0 0.0074399998
2.4059999 -0.024 0.40900001 0 0 0 0 0.0074499999
2.4100001 -0.025 0.41800001 0 0 0 0 0.00746
2.388 -0.025 0.42199999 0 0 0 0 0.0074700001
2.388 -0.026000001 0.43000001 0 0 0 0 0.0074800001
2.3940001 -0.027000001 0.43900001 0 0 0 0 0.0074900002
2.3759999 -0.028000001 0.44299999 0 0 0 0 0.0074999998
2.382 -0.028999999 0.45199999 0 0 0 0 0.0075099999
2.3710001 -0.029999999 0.458 0 0 0 0 0.00752
2.3840001 -0.030999999 0.46799999 0 0 0 0 0.0075300001
2.3770001 -0.032000002 0.47499999 0 0 0 0 0.0075400001
2.3759999 -0.033 0.48199999 0 0 0 0 0.0075500002
2.3659999 -0.034000002 0.48800001 0 0 0 0 0.0075599998
2.349 -0.035 0.49200001 0 0 0 0 0.0075699999
2.3559999 -0.035999998 0.50099999 0 0 0 0 0.00758
2.3829999 -0.037 0.51499999 1 0 0 0 0.0075900001
2.348 -0.037999999 0.51499999 1 0 0 0 0.0076000001
2.3499999 -0.039000001 0.523 2 0 0 0 0.0076100002
2.345 -0.039999999 0.52999997 3 0 0 0 0.0076199998
2.3380001 -0.041000001 0.53600001 5 0 0 0 0.0076299999
2.3429999 -0.041999999 0.54500002 6 0 0 0 0.00764
2.345 -0.043000001 0.55299997 4 0 0 0 0.00765
2.342 -0.045000002 0.56 2 0 0 0 0.0076600001
2.3399999 -0.046 0.56699997 1 0 0 0 0.0076700002
2.352 -0.046999998 0.57800001 1 0 0 0 0.0076799998
2.3239999 -0.048 0.579 0 0 0 0 0.0076899999
2.3310001 -0.048999999 0.588 0 0 0 0 0.0077
2.326 -0.050000001 0.59500003 0 0 0 0 0.00771
2.3440001 -0.052000001 0.60699999 0 0 0 0 0.0077200001
2.3380001 -0.052999999 0.61299998 0 0 0 0 0.0077300002
2.3299999 -0.054000001 0.61900002 0 0 0 0 0.0077399998
2.3280001 -0.056000002 0.62599999 0 0 0 0 0.0077499999
2.3080001 -0.057 0.62800002 0 0 0 0 0.0077599999
2.3169999 -0.057999998 0.63800001 0 0 0 0 0.00777
2.3039999 -0.059 0.64200002 0 0 0 0 0.0077800001
2.3559999 -0.061999999 0.66500002 0 0 0 0 0.0077900002
2.3499999 -0.063000001 0.671 0 0 0 0 0.0077999998
2.303 -0.064000003 0.66500002 0 0 0 0 0.0078099999
2.335 -0.066 0.68199998 0 0 0 0 0.0078199999
2.3510001 -0.068000004 0.69400001 0 0 0 0 0.0078299996
2.3239999 -0.068999998 0.69400001 0 0 0 0 0.0078400001
2.3369999 -0.071000002 0.70599997 0 0 0 0 0.0078499997
2.332 -0.071999997 0.71200001 0 0 0 0 0.0078600002
2.3310001 -0.074000001 0.71899998 0 0 0 0 0.0078699999
2.336 -0.075999998 0.72899997 0 0 0 0 0.0078800004
2.3340001 -0.077 0.736 0 0 0 0 0.00789
2.3310001 -0.079000004 0.74199998 0 0 0 0 0.0078999996
2.306 -0.079999998 0.74199998 0 0 0 0 0.0079100002
2.313 -0.082000002 0.75199997 0 0 0 0 0.0079199998
2.2780001 -0.082000002 0.74800003 0 0 0 0 0.0079300003
2.2869999 -0.083999999 0.759 0 0 0 0 0.0079399999
2.3110001 -0.086999997 0.77499998 0 0 0 0 0.0079500005
2.28 -0.086999997 0.77200001 0 0 0 0 0.0079600001
2.2639999 -0.088 0.77399999 0 0 0 0 0.0079699997
2.2449999 -0.089000002 0.77399999 0 0 0 0 0.0079800002
2.352 -0.096000001 0.81900001 1 0 0 0 0.0079899998
2.4330001 -0.101 0.85600001 13 0 0 0 0.0080000004
2.4430001 -0.103 0.86699998 29 0 0 0 0.00801
2.4449999 -0.106 0.87599999 54 0 0 0 0.0080199996
2.4389999 -0.107 0.88200003 64 0 0 0 0.0080300001
2.4360001 -0.109 0.889 63 0 0 0 0.0080399998
2.431 -0.111 0.89499998 59 0 0 0 0.0080500003
2.4289999 -0.113 0.90200001 68 0 0 0 0.0080599999
2.4330001 -0.116 0.912 101 0 0 0 0.0080700004
2.427 -0.118 0.91799998 97 0 0 0 0.0080800001
2.4219999 -0.12 0.92400002 79 0 0 0 0.0080899997
2.4170001 -0.122 0.93000001 74 0 0 0 0.0081000002
2.4130001 -0.124 0.93599999 73 0 0 0 0.0081099998
2.4130001 -0.126 0.94400001 150 0 0 0 0.0081200004
2.415 -0.12800001 0.95300001 150 0 0 0 0.00813
2.4000001 -0.13 0.95499998 98 0 0 0 0.0081399996
2.3940001 -0.132 0.95999998 65 0 0 0 0.0081500001
2.4189999 -0.13600001 0.97799999 82 0 0 0 0.0081599997
2.4630001 -0.14 1.0039999 78 0 0 0 0.0081700003
2.5020001 -0.145 1.028 51 0 0 0 0.0081799999
2.52 -0.149 1.044 45 0 0 0 0.0081900004
2.523 -0.152 1.053 46 0 0 0 0.0082
2.5120001 -0.154 1.057 45 0 0 0 0.0082099997
2.5090001 -0.156 1.063 43 0 0 0 0.0082200002
2.506 -0.15899999 1.0700001 45 0 0 0 0.0082299998
2.4960001 -0.161 1.074 44 0 0 0 0.0082400003
2.493 -0.163 1.081 44 0 0 0 0.00825
2.4879999 -0.16599999 1.087 47 0 0 0 0.0082599996
2.4820001 -0.168 1.092 53 0 0 0 0.0082700001
2.473 -0.17 1.096 56 0 0 0 0.0082799997
2.457 -0.17200001 1.097 50 0 0 0 0.0082900003
2.4360001 -0.17299999 1.095 42 0 0 0 0.0082999999
2.4189999 -0.175 1.095 42 0 0 0 0.0083100004
2.404 -0.176 1.096 44 0 0 0 0.00832
2.3840001 -0.178 1.095 43 0 0 0 0.0083299996
2.368 -0.17900001 1.095 44 0 0 0 0.0083400002
2.3540001 -0.18099999 1.096 44 0 0 0 0.0083499998
2.3329999 -0.182 1.0930001 42 0 0 0 0.0083600003
2.3139999 -0.184 1.092 43 0 0 0 0.0083699999
2.3010001 -0.186 1.0930001 42 0 0 0 0.0083799995
2.2850001 -0.18700001 1.092 43 0 0 0 0.0083900001
2.267 -0.18799999 1.091 43 0 0 0 0.0083999997
2.256 -0.19 1.092 44 0 0 0 0.0084100002
2.244 -0.192 1.0930001 44 0 0 0 0.0084199999
2.227 -0.19400001 1.092 43 0 0 0 0.0084300004
2.2149999 -0.19599999 1.0930001 44 0 0 0 0.00844
2.201 -0.197 1.0930001 42 0 0 0 0.0084499996
2.1800001 -0.199 1.089 44 0 0 0 0.0084600002
2.168 -0.2 1.09 42 0 0 0 0.0084699998
2.1559999 -0.20200001 1.09 43 0 0 0 0.0084800003
2.142 -0.204 1.089 43 0 0 0 0.0084899999
2.131 -0.206 1.09 43 0 0 0 0.0085000005
2.1159999 -0.207 1.089 45 0 0 0 0.0085100001
2.1070001 -0.20900001 1.091 45 0 0 0 0.0085199997
2.0910001 -0.211 1.0880001 46 0 0 0 0.0085300002
2.0799999 -0.212 1.089 45 0 0 0 0.0085399998
2.069 -0.214 1.089 45 0 0 0 0.0085500004
2.0539999 -0.21600001 1.087 46 0 0 0 0.00856
2.0420001 -0.21799999 1.087 46 0 0 0 0.0085699996
2.0320001 -0.22 1.087 46 0 0 0 0.0085800001
2.027 -0.222 1.09 48 0 0 0 0.0085899998
2.0120001 -0.223 1.0880001 48 0 0 0 0.0086000003
1.999 -0.22499999 1.086 49 0 0 0 0.0086099999
1.9859999 -0.226 1.085 52 0 0 0 0.0086200004
1.976 -0.228 1.085 51 0 0 0 0.0086300001
1.964 -0.23 1.084 51 0 0 0 0.0086399997
1.959 -0.23199999 1.086 54 0 0 0 0.0086500002
1.948 -0.234 1.086 54 0 0 0 0.0086599998
1.938 -0.236 1.085 52 0 0 0 0.0086700004
1.928 -0.23800001 1.085 59 0 0 0 0.00868
1.918 -0.23899999 1.084 56 0 0 0 0.0086899996
1.911 -0.242 1.085 53 0 0 0 0.0087000001
1.902 -0.243 1.085 48 0 0 0 0.0087099997
1.896 -0.24600001 1.087 44 0 0 0 0.0087200003
1.893 -0.248 1.09 41 0 0 0 0.0087299999
1.8839999 -0.25 1.089 39 0 0 0 0.0087400004
1.88 -0.25299999 1.091 36 0 0 0 0.00875
1.872 -0.255 1.092 34 0 0 0 0.0087599996
1.87 -0.25799999 1.095 33 0 0 0 0.0087700002
1.865 -0.25999999 1.097 33 0 0 0 0.0087799998
1.86 -0.26300001 1.098 32 0 0 0 0.0087900003
1.853 -0.26499999 1.098 33 0 0 0 0.0088
1.849 -0.26699999 1.1 35 0 0 0 0.0088099996
1.846 -0.27000001 1.103 38 0 0 0 0.0088200001
1.844 -0.273 1.1059999 40 0 0 0 0.0088299997
1.845 -0.27599999 1.1109999 46 0 0 0 0.0088400003
1.844 -0.27900001 1.114 45 0 0 0 0.0088499999
1.8430001 -0.28200001 1.118 30 0 0 0 0.0088600004
1.8329999 -0.28400001 1.115 24 0 0 0 0.00887
1.895 -0.29699999 1.1569999 37 0 0 0 0.0088799996
1.9680001 -0.31099999 1.206 149 0 0 0 0.0088900002
1.98 -0.317 1.217 150 0 0 0 0.0088999998
1.989 -0.322 1.227 150 0 0 0 0.0089100003
1.99 -0.32499999 1.2309999 150 0 0 0 0.0089199999
1.995 -0.33000001 1.238 150 0 0 0 0.0089299995
2.0020001 -0.33399999 1.247 150 0 0 0 0.0089400001
2.01 -0.33899999 1.255 150 0 0 0 0.0089499997
2.02 -0.34400001 1.265 150 0 0 0 0.0089600002
2.0179999 -0.347 1.267 150 0 0 0 0.0089699998
2.02 -0.35100001 1.272 150 0 0 0 0.0089800004
2.013 -0.35299999 1.271 150 0 0 0 0.00899
2.0109999 -0.35699999 1.273 150 0 0 0 0.0089999996
2.0090001 -0.36000001 1.275 150 0 0 0 0.0090100002
2.0039999 -0.36199999 1.275 150 0 0 0 0.0090199998
1.997 -0.36500001 1.274 150 0 0 0 0.0090300003
1.993 -0.368 1.274 150 0 0 0 0.0090399999
1.977 -0.368 1.267 150 0 0 0 0.0090500005
1.969 -0.37 1.265 150 0 0 0 0.0090600001
1.961 -0.37200001 1.262 150 0 0 0 0.0090699997
1.949 -0.373 1.257 150 0 0 0 0.0090800002
1.931 -0.373 1.248 150 0 0 0 0.0090899998
1.921 -0.37400001 1.243 150 0 0 0 0.0091000004
1.902 -0.37400001 1.233 150 0 0 0 0.00911
1.886 -0.37400001 1.225 150 0 0 0 0.0091199996
1.8710001 -0.37400001 1.217 150 0 0 0 0.0091300001
1.86 -0.375 1.212 150 0 0 0 0.0091399997
1.844 -0.375 1.204 150 0 0 0 0.0091500003
1.827 -0.375 1.194 150 0 0 0 0.0091599999
1.816 -0.37599999 1.189 150 0 0 0 0.0091700004
1.809 -0.377 1.186 150 0 0 0 0.0091800001
1.795 -0.377 1.178 150 0 0 0 0.0091899997
1.789 -0.37900001 1.176 150 0 0 0 0.0092000002
1.7640001 -0.377 1.16 150 0 0 0 0.0092099998
1.737 -0.37400001 1.1440001 119 0 0 0 0.0092200004
1.7 -0.36899999 1.12 76 0 0 0 0.00923
1.671 -0.36500001 1.102 38 0 0 0 0.0092399996
1.665 -0.36700001 1.099 36 0 0 0 0.0092500001
1.654 -0.36700001 1.0930001 35 0 0 0 0.0092599997
1.654 -0.36899999 1.0930001 37 0 0 0 0.0092700003
1.649 -0.37099999 1.09 39 0 0 0 0.0092799999
1.646 -0.373 1.089 41 0 0 0 0.0092900004
1.643 -0.375 1.087 43 0 0 0 0.0093
1.6390001 -0.37599999 1.085 51 0 0 0 0.0093099996
1.636 -0.37799999 1.0829999 59 0 0 0 0.0093200002
1.633 -0.38 1.081 66 0 0 0 0.0093299998
1.633 -0.382 1.081 67 0 0 0 0.0093400003
1.637 -0.38600001 1.084 71 0 0 0 0.0093499999
1.637 -0.38800001 1.084 69 0 0 0 0.0093599996
1.637 -0.391 1.0829999 73 0 0 0 0.0093700001
1.636 -0.39300001 1.0829999 70 0 0 0 0.0093799997
1.636 -0.39500001 1.082 72 0 0 0 0.0093900003
1.638 -0.398 1.0829999 72 0 0 0 0.0093999999
1.64 -0.40099999 1.084 69 0 0 0 0.0094100004
1.64 -0.403 1.0829999 70 0 0 0 0.00942
1.641 -0.405 1.0829999 72 0 0 0 0.0094299996
1.642 -0.40799999 1.0829999 68 0 0 0 0.0094400002
1.643 -0.41 1.0829999 69 0 0 0 0.0094499998
1.646 -0.41299999 1.0829999 65 0 0 0 0.0094600003
1.648 -0.41600001 1.084 63 0 0 0 0.0094699999
1.649 -0.41800001 1.0829999 63 0 0 0 0.0094799995
1.65 -0.41999999 1.082 65 0 0 0 0.0094900001
1.652 -0.42300001 1.0829999 60 0 0 0 0.0094999997
1.655 -0.426 1.0829999 67 0 0 0 0.0095100002
1.658 -0.428 1.0829999 64 0 0 0 0.0095199998
1.664 -0.43200001 1.086 63 0 0 0 0.0095300004
1.6670001 -0.43399999 1.086 58 0 0 0 0.00954
1.6670001 -0.43599999 1.085 58 0 0 0 0.0095499996
1.673 -0.44 1.087 63 0 0 0 0.0095600002
1.676 -0.442 1.086 58 0 0 0 0.0095699998
1.679 -0.44499999 1.086 60 0 0 0 0.0095800003
1.682 -0.447 1.086 58 0 0 0 0.0095899999
1.687 -0.44999999 1.087 64 0 0 0 0.0096000005
1.688 -0.45199999 1.086 64 0 0 0 0.0096100001
1.691 -0.454 1.085 61 0 0 0 0.0096199997
1.692 -0.456 1.0829999 61 0 0 0 0.0096300002
1.699 -0.46000001 1.086 55 0 0 0 0.0096399998
1.706 -0.463 1.087 57 0 0 0 0.0096500004
1.709 -0.465 1.087 52 0 0 0 0.00966
1.71 -0.46700001 1.084 55 0 0 0 0.0096699996
1.717 -0.47 1.086 50 0 0 0 0.0096800001
1.726 -0.47400001 1.0880001 56 0 0 0 0.0096899997
1.733 -0.477 1.09 57 0 0 0 0.0097000003
1.734 -0.47799999 1.0880001 51 0 0 0 0.0097099999
1.739 -0.48100001 1.087 55 0 0 0 0.0097200004
1.747 -0.484 1.089 56 0 0 0 0.00973
1.7539999 -0.48699999 1.09 51 0 0 0 0.0097399997
1.756 -0.48899999 1.0880001 50 0 0 0 0.0097500002
1.76 -0.491 1.087 50 0 0 0 0.0097599998
1.767 -0.49399999 1.087 46 0 0 0 0.0097700004
1.78 -0.498 1.092 48 0 0 0 0.00978
1.788 -0.50099999 1.0930001 49 0 0 0 0.0097899996
1.7920001 -0.50300002 1.091 48 0 0 0 0.0098000001
1.7970001 -0.505 1.091 56 0 0 0 0.0098099997
1.803 -0.50800002 1.09 75 0 0 0 0.0098200003
1.808 -0.50999999 1.089 98 0 0 0 0.0098299999
1.809 -0.51099998 1.086 96 0 0 0 0.0098400004
1.809 -0.51099998 1.081 77 0 0 0 0.00985
1.8099999 -0.51200002 1.0779999 69 0 0 0 0.0098599996
1.809 -0.51200002 1.073 67 0 0 0 0.0098700002
1.809 -0.51300001 1.069 65 0 0 0 0.0098799998
1.809 -0.51300001 1.064 63 0 0 0 0.0098900003
1.809 -0.51300001 1.0599999 62 0 0 0 0.0098999999
1.809 -0.51300001 1.0549999 62 0 0 0 0.0099099996
1.811 -0.514 1.052 68 0 0 0 0.0099200001
1.8049999 -0.51300001 1.044 73 0 0 0 0.0099299997
1.807 -0.51300001 1.04 74 0 0 0 0.0099400003
1.8049999 -0.51300001 1.035 62 0 0 0 0.0099499999
1.799 -0.51099998 1.026 75 0 0 0 0.0099600004
1.761 -0.5 1 117 0 0 0 0.00997
1.728 -0.491 0.977 142 0 0 0 0.0099799996
1.7029999 -0.484 0.958 150 0 0 0 0.0099900002
1.691 -0.47999999 0.94599998 150 0 0 0 0.0099999998
1.691 -0.47999999 0.94199997 150 0 0 0 0.01001
1.693 -0.47999999 0.93800002 150 0 0 0 0.01002
1.692 -0.47999999 0.93300003 150 0 0 0 0.01003
1.692 -0.479 0.92799997 150 0 0 0 0.01004
1.6950001 -0.47999999 0.92500001 150 0 0 0 0.01005
1.696 -0.47999999 0.921 150 0 0 0 0.01006
1.698 -0.47999999 0.917 148 0 0 0 0.01007
0 0 0 0 0 0 0 0.01008
1.702 -0.47999999 0.90899998 145 0 0 0 0.01009
1.704 -0.47999999 0.90499997 147 0 0 0 0.0101
1.7029999 -0.479 0.89999998 140 0 0 0 0.01011
1.705 -0.479 0.89600003 150 0 0 0 0.01012
0 0 0 0 0 0 0 0.01013
1.706 -0.47799999 0.88599998 136 0 0 0 0.01014
1.707 -0.477 0.88200003 136 0 0 0 0.01015
1.705 -0.47600001 0.87599999 129 0 0 0 0.01016
1.711 -0.477 0.87300003 130 0 0 0 0.01017
1.709 -0.47499999 0.86699998 127 0 0 0 0.01018
1.711 -0.47499999 0.86299998 116 0 0 0 0.01019
1.717 -0.47499999 0.861 127 0 0 0 0.0102
1.711 -0.47299999 0.85299999 118 0 0 0 0.01021
1.716 -0.47299999 0.85000002 123 0 0 0 0.01022
1.7180001 -0.472 0.84600002 121 0 0 0 0.01023
1.719 -0.472 0.84100002 125 0 0 0 0.01024
1.722 -0.47099999 0.83700001 117 0 0 0 0.01025
1.722 -0.47 0.83200002 121 0 0 0 0.01026
1.724 -0.46900001 0.82700002 122 0 0 0 0.01027
1.726 -0.46900001 0.82300001 118 0 0 0 0.01028
1.728 -0.46799999 0.81800002 120 0 0 0 0.01029
1.73 -0.46700001 0.81400001 119 0 0 0 0.0103
1.732 -0.46599999 0.81 122 0 0 0 0.01031
1.735 -0.465 0.80500001 124 0 0 0 0.01032
1.735 -0.46399999 0.80000001 118 0 0 0 0.01033
1.7359999 -0.463 0.79500002 103 0 0 0 0.01034
1.7410001 -0.463 0.792 107 0 0 0 0.01035
1.744 -0.46200001 0.787 108 0 0 0 0.01036
1.7460001 -0.461 0.78299999 106 0 0 0 0.01037
1.749 -0.46000001 0.77899998 106 0 0 0 0.01038
1.748 -0.458 0.773 102 0 0 0 0.01039
1.7539999 -0.458 0.76999998 105 0 0 0 0.0104
1.755 -0.45699999 0.76499999 105 0 0 0 0.01041
1.758 -0.456 0.76099998 112 0 0 0 0.01042
1.757 -0.454 0.755 104 0 0 0 0.01043
1.763 -0.45300001 0.75099999 104 0 0 0 0.01044
1.7640001 -0.45199999 0.74599999 112 0 0 0 0.01045
1.768 -0.45100001 0.74199998 105 0 0 0 0.01046
1.7690001 -0.449 0.73699999 107 0 0 0 0.01047
1.777 -0.449 0.73500001 109 0 0 0 0.01048
1.777 -0.447 0.72899997 109 0 0 0 0.01049
1.777 -0.44499999 0.72299999 104 0 0 0 0.0105
1.779 -0.44400001 0.71899998 103 0 0 0 0.01051
1.784 -0.44299999 0.71499997 105 0 0 0 0.01052
1.786 -0.44100001 0.70999998 105 0 0 0 0.01053
1.795 -0.44100001 0.708 108 0 0 0 0.01054
1.794 -0.43900001 0.70200002 26 0 0 0 0.01055
1.796 -0.43700001 0.69700003 108 0 0 0 0.01056
1.7970001 -0.435 0.69199997 27 0 0 0 0.01057
1.813 -0.43700001 0.69199997 27 0 0 0 0.01058
1.808 -0.433 0.685 101 0 0 0 0.01059
1.8099999 -0.43200001 0.68000001 26 0 0 0 0.0106
1.818 -0.43099999 0.67699999 107 0 0 0 0.01061
1.8200001 -0.42899999 0.67199999 103 0 0 0 0.01062
1.822 -0.428 0.667 106 0 0 0 0.01063
1.826 -0.426 0.66299999 105 0 0 0 0.01064
1.8279999 -0.42399999 0.65799999 109 0 0 0 0.01065
1.83 -0.42199999 0.653 106 0 0 0 0.01066
1.832 -0.41999999 0.648 104 0 0 0 0.01067
1.84 -0.419 0.64499998 107 0 0 0 0.01068
1.839 -0.41600001 0.63800001 107 0 0 0 0.01069
1.849 -0.41600001 0.63599998 111 0 0 0 0.0107
1.847 -0.41299999 0.63 105 0 0 0 0.01071
1.849 -0.41100001 0.625 75 0 0 0 0.01072
1.854 -0.40900001 0.62099999 38 0 0 0 0.01073
1.834 -0.403 0.60900003 13 0 0 0 0.01074
1.78 -0.38800001 0.58499998 10 0 0 0 0.01075
1.732 -0.375 0.56400001 3 0 0 0 0.01076
1.72 -0.37 0.55400002 4 0 0 0 0.01077
1.727 -0.36899999 0.55199999 2 0 0 0 0.01078
1.711 -0.36300001 0.54100001 2 0 0 0 0.01079
1.722 -0.36300001 0.53899997 1 0 0 0 0.0108
1.734 -0.36300001 0.53799999 1 0 0 0 0.01081
1.7309999 -0.359 0.53200001 0 0 0 0 0.01082
1.734 -0.35699999 0.52700001 0 0 0 0 0.01083
1.7460001 -0.35699999 0.52499998 0 0 0 0 0.01084
1.738 -0.35299999 0.51800001 0 0 0 0 0.01085
1.75 -0.35299999 0.51599997 0 0 0 0 0.01086
1.768 -0.35299999 0.51599997 0 0 0 0 0.01087
1.77 -0.35100001 0.51099998 0 0 0 0 0.01088
1.761 -0.347 0.50300002 0 0 0 0 0.01089
1.758 -0.34299999 0.49700001 0 0 0 0 0.0109
1.76 -0.34099999 0.49200001 0 0 0 0 0.01091
1.77 -0.34 0.49000001 0 0 0 0 0.01092
1.771 -0.33700001 0.48500001 0 0 0 0 0.01093
1.7970001 -0.33899999 0.48699999 0 0 0 0 0.01094
1.7970001 -0.336 0.48100001 0 0 0 0 0.01095
1.809 -0.336 0.479 0 0 0 0 0.01096
1.8 -0.331 0.47099999 0 0 0 0 0.01097
1.8200001 -0.33199999 0.47099999 0 0 0 0 0.01098
1.817 -0.32800001 0.465 0 0 0 0 0.01099
1.811 -0.324 0.458 0 0 0 0 0.011
1.798 -0.31900001 0.449 0 0 0 0 0.01101
1.799 -0.31600001 0.44499999 0 0 0 0 0.01102
1.813 -0.315 0.44299999 0 0 0 0 0.01103
1.814 -0.31299999 0.43799999 0 0 0 0 0.01104
1.822 -0.31099999 0.43399999 0 0 0 0 0.01105
1.816 -0.30700001 0.42699999 0 0 0 0 0.01106
1.809 -0.30199999 0.41999999 0 0 0 0 0.01107
1.807 -0.29899999 0.41499999 0 0 0 0 0.01108
1.83 -0.30000001 0.41499999 0 0 0 0 0.01109
1.857 -0.301 0.41499999 0 0 0 0 0.0111
1.872 -0.30000001 0.41299999 1 0 0 0 0.01111
1.87 -0.29699999 0.40799999 2 0 0 0 0.01112
1.8789999 -0.29499999 0.40400001 4 0 0 0 0.01113
1.8789999 -0.292 0.39899999 8 0 0 0 0.01114
1.868 -0.287 0.391 1 0 0 0 0.01115
1.8890001 -0.287 0.38999999 2 0 0 0 0.01116
1.891 -0.28299999 0.38499999 1 0 0 0 0.01117
1.9 -0.28099999 0.382 1 0 0 0 0.01118
1.882 -0.27500001 0.373 0 0 0 0 0.01119
1.882 -0.27200001 0.36700001 0 0 0 0 0.0112
1.891 -0.27000001 0.36399999 0 0 0 0 0.01121
1.901 -0.26800001 0.36000001 0 0 0 0 0.01122
1.885 -0.26199999 0.352 0 0 0 0 0.01123
1.921 -0.264 0.35299999 0 0 0 0 0.01124
1.9 -0.25799999 0.34400001 0 0 0 0 0.01125
1.9069999 -0.255 0.34 0 0 0 0 0.01126
1.9299999 -0.255 0.33899999 0 0 0 0 0.01127
1.926 -0.25099999 0.333 0 0 0 0 0.01128
1.908 -0.245 0.324 0 0 0 0 0.01129
1.942 -0.24600001 0.32499999 0 0 0 0 0.0113
1.941 -0.242 0.31900001 0 0 0 0 0.01131
1.942 -0.23800001 0.31400001 0 0 0 0 0.01132
1.947 -0.235 0.30899999 0 0 0 0 0.01133
1.959 -0.233 0.30599999 0 0 0 0 0.01134
1.982 -0.23199999 0.30399999 0 0 0 0 0.01135
1.966 -0.227 0.296 0 0 0 0 0.01136
1.987 -0.226 0.294 0 0 0 0 0.01137
1.995 -0.223 0.28999999 0 0 0 0 0.01138
1.998 -0.219 0.285 0 0 0 0 0.01139
2.0120001 -0.21699999 0.28099999 0 0 0 0 0.0114
2.016 -0.214 0.27599999 0 0 0 0 0.01141
2.0050001 -0.20900001 0.26899999 0 0 0 0 0.01142
2.023 -0.207 0.26699999 0 0 0 0 0.01143
2.0320001 -0.204 0.26199999 0 0 0 0 0.01144
2.0339999 -0.2 0.257 0 0 0 0 0.01145
2.0510001 -0.198 0.25400001 0 0 0 0 0.01146
2.052 -0.19400001 0.248 0 0 0 0 0.01147
2.049 -0.19 0.242 0 0 0 0 0.01148
2.0339999 -0.185 0.235 0 0 0 0 0.01149
2.112 -0.18799999 0.23899999 0 0 0 0 0.0115
2.266 -0.197 0.25 0 0 0 0 0.01151
2.2060001 -0.18799999 0.23800001 0 0 0 0 0.01152
2.1800001 -0.18099999 0.229 0 0 0 0 0.01153
2.2920001 -0.186 0.235 2 0 0 0 0.01154
2.316 -0.184 0.23100001 18 0 0 0 0.01155
2.319 -0.17900001 0.22499999 35 0 0 0 0.01156
2.325 -0.175 0.22 40 0 0 0 0.01157
2.339 -0.17200001 0.215 38 0 0 0 0.01158
2.3469999 -0.168 0.20999999 37 0 0 0 0.01159
2.3559999 -0.164 0.204 74 0 0 0 0.0116
2.391 -0.162 0.20100001 150 0 0 0 0.01161
2.4300001 -0.16 0.198 150 0 0 0 0.01162
2.441 -0.155 0.193 150 0 0 0 0.01163
2.45 -0.15099999 0.18700001 150 0 0 0 0.01164
2.467 -0.147 0.182 150 0 0 0 0.01165
2.4809999 -0.14300001 0.177 150 0 0 0 0.01166
2.4860001 -0.139 0.17 150 0 0 0 0.01167
2.5150001 -0.13500001 0.16599999 150 0 0 0 0.01168
2.5280001 -0.131 0.16 150 0 0 0 0.01169
2.526 -0.126 0.154 150 0 0 0 0.0117
2.5439999 -0.122 0.148 150 0 0 0 0.01171
2.5569999 -0.117 0.142 150 0 0 0 0.01172
2.47 -0.108 0.131 150 0 0 0 0.01173
2.632 -0.11 0.133 16 0 0 0 0.01174
1.7819999 -0.071000002 0.086000003 0 0 0 0 0.01175
1.73 -0.064999998 0.079000004 0 0 0 0 0.01176
1.735 -0.061999999 0.075000003 0 0 0 0 0.01177
1.7359999 -0.057999998 0.07 0 0 0 0 0.01178
1.737 -0.055 0.066 0 0 0 0 0.01179
1.735 -0.050999999 0.061000001 0 0 0 0 0.0118
1.745 -0.048 0.057 0 0 0 0 0.01181
1.732 -0.044 0.052999999 0 0 0 0 0.01182
1.729 -0.039999999 0.048 0 0 0 0 0.01183
1.71 -0.035999998 0.043000001 0 0 0 0 0.01184
1.689 -0.032000002 0.037999999 0 0 0 0 0.01185
1.6339999 -0.028000001 0.033 0 0 0 0 0.01186
1.6339999 -0.025 0.028999999 0 0 0 0 0.01187
1.617 -0.021 0.025 0 0 0 0 0.01188
1.605 -0.017999999 0.021 0 0 0 0 0.01189
1.584 -0.014 0.016000001 0 0 0 0 0.0119
1.54 -0.0099999998 0.012 0 0 0 0 0.01191
1.535 -0.0070000002 0.0080000004 0 0 0 0 0.01192
1.515 -0.0040000002 0.0040000002 0 0 0 0 0.01193
1.5 -0.001 0.001 0 0 0 0 0.01194
1.497 0.001 -0.0020000001 0 0 0 0 0.01195
1.503 0.0049999999 -0.0060000001 0 0 0 0 0.01196
1.5 0.0080000004 -0.0099999998 0 0 0 0 0.01197
1.498 0.011 -0.013 0 0 0 0 0.01198
1.4910001 0.014 -0.017000001 0 0 0 0 0.01199
1.488 0.017000001 -0.02 0 0 0 0 0.012
1.478 0.02 -0.024 0 0 0 0 0.01201
1.478 0.023 -0.027000001 0 0 0 0 0.01202
1.485 0.027000001 -0.030999999 0 0 0 0 0.01203
1.48 0.029999999 -0.035 0 0 0 0 0.01204
1.478 0.033 -0.037999999 0 0 0 0 0.01205
1.454 0.035 -0.041000001 0 0 0 0 0.01206
1.4579999 0.039000001 -0.045000002 0 0 0 0 0.01207
1.482 0.041999999 -0.048999999 0 0 0 0 0.01208
1.436 0.044 -0.050999999 0 0 0 0 0.01209
1.447 0.048 -0.055 0 0 0 0 0.0121
1.428 0.050000001 -0.057999998 0 0 0 0 0.01211
1.428 0.052999999 -0.061000001 0 0 0 0 0.01212
1.439 0.057 -0.064999998 0 0 0 0 0.01213
1.432 0.059999999 -0.068000004 0 0 0 0 0.01214
1.432 0.063000001 -0.071999997 0 0 0 0 0.01215
1.423 0.066 -0.075000003 0 0 0 0 0.01216
1.4220001 0.068999998 -0.078000002 0 0 0 0 0.01217
1.413 0.071000002 -0.081 0 0 0 0 0.01218
1.41 0.074000001 -0.083999999 0 0 0 0 0.01219
1.421 0.078000002 -0.088 0 0 0 0 0.0122
1.404 0.079999998 -0.090000004 0 0 0 0 0.01221
1.392 0.082999997 -0.093000002 0 0 0 0 0.01222
1.38 0.085000001 -0.094999999 0 0 0 0 0.01223
1.374 0.088 -0.097999997 0 0 0 0 0.01224
1.387 0.092 -0.102 0 0 0 0 0.01225
1.369 0.093000002 -0.104 0 0 0 0 0.01226
1.402 0.098999999 -0.11 0 0 0 0 0.01227
1.406 0.102 -0.114 0 0 0 0 0.01228
1.388 0.104 -0.116 0 0 0 0 0.01229
1.387 0.107 -0.119 0 0 0 0 0.0123
1.387 0.11 -0.122 0 0 0 0 0.01231
1.406 0.115 -0.127 0 0 0 0 0.01232
1.386 0.117 -0.12800001 0 0 0 0 0.01233
1.402 0.121 -0.133 0 0 0 0 0.01234
1.418 0.126 -0.138 0 0 0 0 0.01235
1.406 0.12800001 -0.14 0 0 0 0 0.01236
1.436 0.134 -0.146 0 0 0 0 0.01237
1.431 0.13699999 -0.149 0 0 0 0 0.01238
1.46 0.14300001 -0.156 0 0 0 0 0.01239
1.442 0.145 -0.15700001 0 0 0 0 0.0124
1.444 0.148 -0.161 0 0 0 0 0.01241
1.4859999 0.156 -0.169 0 0 0 0 0.01242
2.6359999 0.28299999 -0.30599999 150 0 0 0 0.01243
2.74 0.301 -0.324 150 0 0 0 0.01244
2.77 0.31099999 -0.33399999 112 0 0 0 0.01245
2.733 0.31299999 -0.336 29 0 0 0 0.01246
2.7049999 0.31600001 -0.33899999 20 0 0 0 0.01247
2.0680001 0.24600001 -0.264 0 0 0 0 0.01248
2.026 0.24600001 -0.26300001 0 0 0 0 0.01249
2.0239999 0.25099999 -0.26699999 0 0 0 0 0.0125
2.0179999 0.255 -0.271 0 0 0 0 0.01251
2.8610001 0.368 -0.391 18 0 0 0 0.01252
2.8770001 0.377 -0.40000001 35 0 0 0 0.01253
2.9690001 0.396 -0.419 124 0 0 0 0.01254
3.0480001 0.414 -0.43700001 150 0 0 0 0.01255
3.056 0.42300001 -0.44499999 150 0 0 0 0.01256
3.0539999 0.43000001 -0.45199999 150 0 0 0 0.01257
3.05 0.43700001 -0.458 150 0 0 0 0.01258
3.0480001 0.44400001 -0.465 150 0 0 0 0.01259
3.043 0.45100001 -0.47099999 150 0 0 0 0.0126
3.0350001 0.45699999 -0.477 150 0 0 0 0.01261
3.0320001 0.46399999 -0.48300001 150 0 0 0 0.01262
3.0309999 0.47099999 -0.49000001 150 0 0 0 0.01263
3.0120001 0.47600001 -0.493 150 0 0 0 0.01264
2.9530001 0.47400001 -0.49000001 39 0 0 0 0.01265
2.566 0.41800001 -0.43200001 2 0 0 0 0.01266
2.914 0.48199999 -0.49700001 41 0 0 0 0.01267
2.9519999 0.49599999 -0.50999999 54 0 0 0 0.01268
2.938 0.50099999 -0.514 33 0 0 0 0.01269
2.9300001 0.50700003 -0.51899999 116 0 0 0 0.0127
2.8989999 0.50800002 -0.51999998 150 0 0 0 0.01271
2.908 0.51800001 -0.528 117 0 0 0 0.01272
2.9130001 0.52600002 -0.53500003 60 0 0 0 0.01273
2.934 0.537 -0.54500002 98 0 0 0 0.01274
2.9489999 0.54699999 -0.55500001 150 0 0 0 0.01275
2.9430001 0.55400002 -0.56 150 0 0 0 0.01276
2.934 0.55900002 -0.56400001 129 0 0 0 0.01277
2.924 0.565 -0.56900001 85 0 0 0 0.01278
2.9170001 0.57099998 -0.574 86 0 0 0 0.01279
2.911 0.57800001 -0.579 35 0 0 0 0.0128
2.8099999 0.565 -0.565 18 0 0 0 0.01281
2.602 0.52999997 -0.52899998 2 0 0 0 0.01282
2.5829999 0.53299999 -0.52999997 1 0 0 0 0.01283
2.6070001 0.54400003 -0.54100001 2 0 0 0 0.01284
2.6129999 0.55199999 -0.54799998 3 0 0 0 0.01285
2.586 0.55299997 -0.54799998 3 0 0 0 0.01286
2.5599999 0.55500001 -0.54799998 2 0 0 0 0.01287
2.592 0.56900001 -0.56 4 0 0 0 0.01288
2.7060001 0.60100001 -0.58999997 19 0 0 0 0.01289
2.6259999 0.58999997 -0.57800001 7 0 0 0 0.0129
2.6849999 0.61000001 -0.597 18 0 0 0 0.01291
2.829 0.64999998 -0.63499999 27 0 0 0 0.01292
2.823 0.65700001 -0.639 24 0 0 0 0.01293
2.8599999 0.67299998 -0.65399998 25 0 0 0 0.01294
2.8239999 0.67199999 -0.65100002 21 0 0 0 0.01295
2.8599999 0.68800002 -0.66600001 26 0 0 0 0.01296
2.8889999 0.70300001 -0.67799997 69 0 0 0 0.01297
2.9330001 0.722 -0.69499999 54 0 0 0 0.01298
2.941 0.73199999 -0.70300001 150 0 0 0 0.01299
2.9590001 0.74400002 -0.713 150 0 0 0 0.013
2.9990001 0.76300001 -0.72899997 150 0 0 0 0.01301
3.1570001 0.81099999 -0.773 150 0 0 0 0.01302
3.359 0.87300003 -0.82999998 12 0 0 0 0.01303
3.279 0.861 -0.81699997 5 0 0 0 0.01304
3.29 0.87300003 -0.82599998 8 0 0 0 0.01305
3.2309999 0.866 -0.81699997 31 0 0 0 0.01306
3.1670001 0.85799998 -0.80800003 33 0 0 0 0.01307
3.075 0.84100002 -0.79000002 46 0 0 0 0.01308
3.062 0.84600002 -0.79299998 70 0 0 0 0.01309
3.0539999 0.85299999 -0.79699999 77 0 0 0 0.0131
3.0510001 0.86000001 -0.80199999 70 0 0 0 0.01311
3.0539999 0.87 -0.80900002 59 0 0 0 0.01312
3.063 0.88099998 -0.81699997 41 0 0 0 0.01313
3.0680001 0.89099997 -0.824 51 0 0 0 0.01314
3.0769999 0.903 -0.833 38 0 0 0 0.01315
3.0769999 0.91100001 -0.83899999 29 0 0 0 0.01316
3.046 0.91100001 -0.83600003 29 0 0 0 0.01317
2.9920001 0.903 -0.82599998 33 0 0 0 0.01318
2.928 0.89200002 -0.81400001 34 0 0 0 0.01319
2.8710001 0.88300002 -0.80400002 44 0 0 0 0.0132
2.852 0.88499999 -0.80400002 48 0 0 0 0.01321
2.836 0.88800001 -0.80500001 46 0 0 0 0.01322
2.806 0.88700002 -0.801 44 0 0 0 0.01323
2.7780001 0.88599998 -0.79799998 47 0 0 0 0.01324
2.7550001 0.88700002 -0.79699999 48 0 0 0 0.01325
2.73 0.88700002 -0.79400003 54 0 0 0 0.01326
2.7179999 0.88999999 -0.796 70 0 0 0 0.01327
2.71 0.89600003 -0.79799998 57 0 0 0 0.01328
2.6930001 0.898 -0.79799998 55 0 0 0 0.01329
2.6789999 0.90100002 -0.79900002 54 0 0 0 0.0133
2.6659999 0.90399998 -0.79900002 43 0 0 0 0.01331
2.6489999 0.90600002 -0.79900002 44 0 0 0 0.01332
2.631 0.90799999 -0.79799998 47 0 0 0 0.01333
2.619 0.912 -0.79900002 43 0 0 0 0.01334
2.6040001 0.91399997 -0.79900002 45 0 0 0 0.01335
2.592 0.917 -0.79900002 45 0 0 0 0.01336
2.575 0.91900003 -0.79799998 44 0 0 0 0.01337
2.562 0.92199999 -0.79799998 42 0 0 0 0.01338
2.556 0.92699999 -0.801 42 0 0 0 0.01339
2.5439999 0.93099999 -0.801 44 0 0 0 0.0134
2.5280001 0.93199998 -0.80000001 38 0 0 0 0.01341
2.5139999 0.93400002 -0.79900002 41 0 0 0 0.01342
2.4990001 0.93599999 -0.79900002 41 0 0 0 0.01343
2.494 0.94199997 -0.801 41 0 0 0 0.01344
2.4890001 0.94700003 -0.80299997 45 0 0 0 0.01345
2.4760001 0.94999999 -0.80299997 44 0 0 0 0.01346
2.4630001 0.95200002 -0.80199999 44 0 0 0 0.01347
2.454 0.95599997 -0.80299997 39 0 0 0 0.01348
2.4389999 0.95700002 -0.80199999 43 0 0 0 0.01349
2.4319999 0.96200001 -0.80299997 51 0 0 0 0.0135
2.424 0.96600002 -0.80400002 41 0 0 0 0.01351
2.414 0.96899998 -0.80400002 35 0 0 0 0.01352
2.3989999 0.97000003 -0.80199999 39 0 0 0 0.01353
2.368 0.96499997 -0.79500002 150 0 0 0 0.01354
2.313 0.949 -0.77999997 151 0 0 0 0.01355
1.095 0.45199999 -0.37 150 0 0 0 0.01356
1.085 0.45100001 -0.368 150 0 0 0 0.01357
1.073 0.449 -0.366 10 0 0 0 0.01358
1.063 0.449 -0.36399999 8 0 0 0 0.01359
1.046 0.44499999 -0.359 6 0 0 0 0.0136
1.024 0.43799999 -0.35299999 6 0 0 0 0.01361
1.002 0.43200001 -0.347 6 0 0 0 0.01362
0.98400003 0.42699999 -0.34200001 6 0 0 0 0.01363
0.98100001 0.42899999 -0.34200001 6 0 0 0 0.01364
0.97500002 0.42899999 -0.34099999 7 0 0 0 0.01365
0.96799999 0.42899999 -0.34 7 0 0 0 0.01366
0.96700001 0.43099999 -0.34 7 0 0 0 0.01367
0.96499997 0.433 -0.34099999 7 0 0 0 0.01368
0.95599997 0.43200001 -0.338 7 0 0 0 0.01369
0.95499998 0.43399999 -0.33899999 7 0 0 0 0.0137
0.94700003 0.433 -0.33700001 6 0 0 0 0.01371
0.94599998 0.435 -0.338 6 0 0 0 0.01372
0.94599998 0.43799999 -0.33899999 6 0 0 0 0.01373
0.94499999 0.44 -0.33899999 6 0 0 0 0.01374
0.94300002 0.442 -0.33899999 7 0 0 0 0.01375
0.94099998 0.44400001 -0.33899999 7 0 0 0 0.01376
0.93900001 0.44499999 -0.34 6 0 0 0 0.01377
0.93900001 0.44800001 -0.34 6 0 0 0 0.01378
0.93699998 0.44999999 -0.34099999 6 0 0 0 0.01379
0.93300003 0.45100001 -0.34 6 0 0 0 0.0138
0.92699999 0.45100001 -0.338 6 0 0 0 0.01381
0.926 0.45300001 -0.33899999 6 0 0 0 0.01382
0.93000001 0.45699999 -0.34 7 0 0 0 0.01383
0.926 0.458 -0.34 6 0 0 0 0.01384
0.92400002 0.45899999 -0.34 6 0 0 0 0.01385
0.91799998 0.45899999 -0.338 6 0 0 0 0.01386
0.91799998 0.461 -0.33899999 6 0 0 0 0.01387
0.917 0.463 -0.33899999 6 0 0 0 0.01388
0.921 0.46700001 -0.34099999 6 0 0 0 0.01389
0.91399997 0.46700001 -0.33899999 6 0 0 0 0.0139
0.91799998 0.47099999 -0.34099999 6 0 0 0 0.01391
0.91500002 0.472 -0.34 6 0 0 0 0.01392
0.91399997 0.47400001 -0.34 7 0 0 0 0.01393
0.91600001 0.477 -0.34099999 6 0 0 0 0.01394
0.91399997 0.47799999 -0.34099999 7 0 0 0 0.01395
0.91299999 0.47999999 -0.34099999 6 0 0 0 0.01396
0.912 0.48199999 -0.34 6 0 0 0 0.01397
0.91399997 0.48500001 -0.34099999 7 0 0 0 0.01398
0.91299999 0.48699999 -0.34099999 7 0 0 0 0.01399
0.90799999 0.486 -0.34 7 0 0 0 0.014
0.91100001 0.49000001 -0.34099999 7 0 0 0 0.01401
0.91000003 0.49200001 -0.34099999 7 0 0 0 0.01402
0.91000003 0.49399999 -0.34099999 7 0 0 0 0.01403
0.90899998 0.49599999 -0.34099999 7 0 0 0 0.01404
0.91100001 0.49900001 -0.34099999 7 0 0 0 0.01405
0.91299999 0.50199997 -0.34200001 7 0 0 0 0.01406
0.90899998 0.50199997 -0.34099999 7 0 0 0 0.01407
0.91100001 0.505 -0.34099999 7 0 0 0 0.01408
0.90899998 0.50599998 -0.34099999 7 0 0 0 0.01409
0.90899998 0.50800002 -0.34 7 0 0 0 0.0141
0.90799999 0.509 -0.34 7 0 0 0 0.01411
0.91100001 0.51300001 -0.34099999 7 0 0 0 0.01412
0.91299999 0.51599997 -0.34200001 7 0 0 0 0.01413
0.912 0.51800001 -0.34099999 7 0 0 0 0.01414
0.91399997 0.52100003 -0.34200001 7 0 0 0 0.01415
0.91799998 0.52399999 -0.34299999 6 0 0 0 0.01416
0.91799998 0.52600002 -0.34200001 6 0 0 0 0.01417
0.917 0.528 -0.34200001 6 0 0 0 0.01418
0.91799998 0.52999997 -0.34099999 6 0 0 0 0.01419
0.92299998 0.53399998 -0.34299999 7 0 0 0 0.0142
0.92500001 0.537 -0.34299999 7 0 0 0 0.01421
0.92299998 0.537 -0.34200001 7 0 0 0 0.01422
0.92500001 0.54100001 -0.34299999 7 0 0 0 0.01423
0.93000001 0.54500002 -0.34400001 7 0 0 0 0.01424
0.92900002 0.546 -0.34299999 7 0 0 0 0.01425
0.93400002 0.55000001 -0.34400001 7 0 0 0 0.01426
0.93300003 0.551 -0.34299999 7 0 0 0 0.01427
0.935 0.55400002 -0.34299999 7 0 0 0 0.01428
0.935 0.55500001 -0.34200001 7 0 0 0 0.01429
0.93800002 0.55800003 -0.34299999 7 0 0 0 0.0143
0.94300002 0.56199998 -0.34400001 8 0 0 0 0.01431
0.94199997 0.56300002 -0.34299999 8 0 0 0 0.01432
0.94199997 0.56400001 -0.34200001 8 0 0 0 0.01433
0.94999999 0.56999999 -0.34400001 8 0 0 0 0.01434
0.95200002 0.57300001 -0.34400001 8 0 0 0 0.01435
0.95200002 0.574 -0.34299999 8 0 0 0 0.01436
0.95499998 0.57700002 -0.34299999 8 0 0 0 0.01437
0.958 0.57999998 -0.34299999 8 0 0 0 0.01438
0.95899999 0.58099997 -0.34299999 8 0 0 0 0.01439
0.96600002 0.58600003 -0.34400001 8 0 0 0 0.0144
0.97000003 0.58999997 -0.34400001 8 0 0 0 0.01441
0.97100002 0.59100002 -0.34400001 8 0 0 0 0.01442
0.97100002 0.59200001 -0.34299999 8 0 0 0 0.01443
0.97899997 0.59799999 -0.34400001 8 0 0 0 0.01444
0.98199999 0.60000002 -0.34400001 9 0 0 0 0.01445
0.98400003 0.602 -0.34299999 9 0 0 0 0.01446
0.986 0.60399997 -0.34299999 9 0 0 0 0.01447
0.99299997 0.60900003 -0.34400001 9 0 0 0 0.01448
1.002 0.61500001 -0.34599999 9 0 0 0 0.01449
1.005 0.61699998 -0.34599999 9 0 0 0 0.0145
1.003 0.616 -0.34400001 9 0 0 0 0.01451
1.01 0.62099999 -0.345 9 0 0 0 0.01452
1.016 0.625 -0.345 9 0 0 0 0.01453
1.018 0.62699997 -0.34400001 9 0 0 0 0.01454
1.028 0.63300002 -0.34599999 10 0 0 0 0.01455
1.0319999 0.63599998 -0.34599999 10 0 0 0 0.01456
1.033 0.63700002 -0.345 9 0 0 0 0.01457
1.04 0.64099997 -0.345 10 0 0 0 0.01458
1.0420001 0.64300001 -0.345 10 0 0 0 0.01459
1.056 0.65100002 -0.347 11 0 0 0 0.0146
1.057 0.65200001 -0.34599999 11 0 0 0 0.01461
1.062 0.65499997 -0.34599999 11 0 0 0 0.01462
1.0700001 0.66000003 -0.347 12 0 0 0 0.01463
1.072 0.66100001 -0.34599999 12 0 0 0 0.01464
1.0779999 0.66399997 -0.34599999 13 0 0 0 0.01465
1.082 0.66600001 -0.345 13 0 0 0 0.01466
1.09 0.67000002 -0.34599999 14 0 0 0 0.01467
1.096 0.67400002 -0.34599999 15 0 0 0 0.01468
1.101 0.676 -0.345 15 0 0 0 0.01469
1.104 0.67799997 -0.34400001 15 0 0 0 0.0147
1.113 0.68199998 -0.345 15 0 0 0 0.01471
1.124 0.68900001 -0.347 15 0 0 0 0.01472
1.126 0.68900001 -0.345 15 0 0 0 0.01473
1.133 0.69300002 -0.345 15 0 0 0 0.01474
1.14 0.69599998 -0.345 15 0 0 0 0.01475
1.145 0.69800001 -0.345 15 0 0 0 0.01476
1.153 0.70200002 -0.345 15 0 0 0 0.01477
1.164 0.708 -0.34599999 15 0 0 0 0.01478
1.17 0.71100003 -0.34599999 16 0 0 0 0.01479
1.176 0.713 -0.345 14 0 0 0 0.0148
1.1849999 0.71799999 -0.34599999 15 0 0 0 0.01481
1.191 0.72000003 -0.345 16 0 0 0 0.01482
1.2 0.72399998 -0.345 15 0 0 0 0.01483
1.207 0.727 -0.345 17 0 0 0 0.01484
1.2180001 0.73199999 -0.34599999 18 0 0 0 0.01485
1.224 0.73400003 -0.345 24 0 0 0 0.01486
1.233 0.73799998 -0.345 27 0 0 0 0.01487
1.247 0.745 -0.34599999 27 0 0 0 0.01488
1.252 0.74599999 -0.345 33 0 0 0 0.01489
1.261 0.75 -0.345 34 0 0 0 0.0149
1.267 0.75199997 -0.345 32 0 0 0 0.01491
1.276 0.755 -0.34400001 29 0 0 0 0.01492
1.2869999 0.75999999 -0.345 26 0 0 0 0.01493
1.294 0.76200002 -0.34400001 26 0 0 0 0.01494
1.308 0.76800001 -0.345 26 0 0 0 0.01495
1.317 0.77100003 -0.345 36 0 0 0 0.01496
1.327 0.77499998 -0.345 41 0 0 0 0.01497
1.341 0.77999997 -0.345 47 0 0 0 0.01498
1.337 0.77600002 -0.34200001 40 0 0 0 0.01499
1.346 0.77899998 -0.34099999 42 0 0 0 0.015
1.359 0.78399998 -0.34200001 39 0 0 0 0.01501
1.369 0.78799999 -0.34200001 37 0 0 0 0.01502
1.395 0.80000001 -0.345 40 0 0 0 0.01503
1.429 0.81599998 -0.35100001 40 0 0 0 0.01504
1.4529999 0.82800001 -0.354 37 0 0 0 0.01505
1.4680001 0.833 -0.354 32 0 0 0 0.01506
1.482 0.838 -0.35499999 33 0 0 0 0.01507
1.489 0.83899999 -0.35299999 32 0 0 0 0.01508
1.497 0.83999997 -0.352 35 0 0 0 0.01509
1.5039999 0.84100002 -0.35100001 32 0 0 0 0.0151
1.516 0.84500003 -0.34999999 36 0 0 0 0.01511
1.522 0.84500003 -0.34900001 36 0 0 0 0.01512
1.539 0.85100001 -0.34999999 37 0 0 0 0.01513
1.551 0.85500002 -0.34900001 34 0 0 0 0.01514
1.5650001 0.85900003 -0.34900001 40 0 0 0 0.01515
1.579 0.86299998 -0.34900001 41 0 0 0 0.01516
1.594 0.86699998 -0.34900001 45 0 0 0 0.01517
1.605 0.87 -0.34799999 40 0 0 0 0.01518
1.628 0.87900001 -0.34999999 40 0 0 0 0.01519
1.645 0.884 -0.35100001 42 0 0 0 0.0152
1.664 0.88999999 -0.35100001 46 0 0 0 0.01521
1.682 0.89600003 -0.352 49 0 0 0 0.01522
1.71 0.90600002 -0.354 43 0 0 0 0.01523
1.733 0.91399997 -0.35600001 42 0 0 0 0.01524
1.76 0.92400002 -0.35800001 36 0 0 0 0.01525
1.786 0.93300003 -0.36000001 32 0 0 0 0.01526
1.839 0.95700002 -0.36700001 31 0 0 0 0.01527
1.881 0.97399998 -0.37099999 39 0 0 0 0.01528
1.902 0.97899997 -0.37200001 59 0 0 0 0.01529
1.918 0.98299998 -0.37099999 113 0 0 0 0.0153
2.0480001 1.044 -0.39199999 151 0 0 0 0.01531
2.2639999 1.148 -0.43000001 151 0 0 0 0.01532
2.652 1.339 -0.498 150 0 0 0 0.01533
2.694 1.353 -0.50099999 150 0 0 0 0.01534
2.7950001 1.396 -0.51499999 150 0 0 0 0.01535
2.9189999 1.45 -0.53200001 150 0 0 0 0.01536
2.9230001 1.444 -0.52700001 150 0 0 0 0.01537
2.928 1.439 -0.523 150 0 0 0 0.01538
2.9319999 1.433 -0.51800001 150 0 0 0 0.01539
2.9360001 1.427 -0.51300001 150 0 0 0 0.0154
2.938 1.419 -0.50800002 150 0 0 0 0.01541
2.9460001 1.415 -0.50400001 150 0 0 0 0.01542
2.948 1.408 -0.49900001 150 0 0 0 0.01543
2.9549999 1.403 -0.495 150 0 0 0 0.01544
2.961 1.398 -0.491 150 0 0 0 0.01545
2.9619999 1.3890001 -0.486 150 0 0 0 0.01546
2.9690001 1.385 -0.48199999 150 0 0 0 0.01547
2.973 1.378 -0.477 150 0 0 0 0.01548
2.977 1.3710001 -0.472 150 0 0 0 0.01549
2.9820001 1.365 -0.46799999 150 0 0 0 0.0155
2.9790001 1.355 -0.46200001 150 0 0 0 0.01551
2.9400001 1.329 -0.45100001 150 0 0 0 0.01552
2.9289999 1.3150001 -0.44499999 150 0 0 0 0.01553
2.9809999 1.33 -0.447 150 0 0 0 0.01554
2.98 1.321 -0.442 150 0 0 0 0.01555
2.9749999 1.3099999 -0.43599999 150 0 0 0 0.01556
2.9630001 1.296 -0.43000001 150 0 0 0 0.01557
2.957 1.284 -0.42399999 150 0 0 0 0.01558
2.957 1.276 -0.419 150 0 0 0 0.01559
2.9560001 1.267 -0.414 150 0 0 0 0.0156
2.96 1.2589999 -0.41 150 0 0 0 0.01561
2.9679999 1.2539999 -0.40599999 150 0 0 0 0.01562
2.971 1.247 -0.40200001 150 0 0 0 0.015629999
2.9749999 1.239 -0.398 150 0 0 0 0.01564
2.9820001 1.233 -0.39399999 150 0 0 0 0.01565
2.9860001 1.226 -0.389 150 0 0 0 0.015659999
2.9860001 1.217 -0.38499999 150 0 0 0 0.01567
2.993 1.211 -0.38100001 150 0 0 0 0.01568
2.9960001 1.2029999 -0.377 150 0 0 0 0.015690001
3.003 1.196 -0.373 150 0 0 0 0.015699999
3.01 1.1900001 -0.36899999 150 0 0 0 0.01571
3.016 1.183 -0.36500001 150 0 0 0 0.01572
3.017 1.174 -0.361 150 0 0 0 0.015729999
3.0179999 1.165 -0.35600001 150 0 0 0 0.01574
3.03 1.16 -0.35299999 150 0 0 0 0.01575
3.03 1.151 -0.34900001 150 0 0 0 0.015760001
3.03 1.142 -0.345 150 0 0 0 0.015769999
3.0209999 1.1289999 -0.33899999 150 0 0 0 0.01578
3.0179999 1.119 -0.33399999 150 0 0 0 0.015790001
3.026 1.112 -0.331 150 0 0 0 0.015799999
3.0409999 1.108 -0.32800001 150 0 0 0 0.01581
3.0580001 1.105 -0.32600001 150 0 0 0 0.01582
3.0669999 1.098 -0.322 150 0 0 0 0.015830001
3.0699999 1.09 -0.31900001 150 0 0 0 0.01584
3.0780001 1.0829999 -0.315 150 0 0 0 0.01585
3.0769999 1.073 -0.31099999 150 0 0 0 0.015860001
3.085 1.066 -0.30700001 150 0 0 0 0.015869999
3.0880001 1.058 -0.30399999 150 0 0 0 0.01588
3.092 1.05 -0.30000001 150 0 0 0 0.01589
3.0999999 1.043 -0.296 150 0 0 0 0.015900001
3.1240001 1.041 -0.29499999 150 0 0 0 0.01591
3.2349999 1.068 -0.301 150 0 0 0 0.01592
3.253 1.063 -0.29800001 86 0 0 0 0.015930001
3.267 1.058 -0.29499999 150 0 0 0 0.015939999
3.2739999 1.05 -0.292 150 0 0 0 0.01595
3.273 1.039 -0.287 150 0 0 0 0.01596
3.277 1.03 -0.28400001 150 0 0 0 0.015969999
3.2720001 1.018 -0.27900001 150 0 0 0 0.01598
3.2709999 1.007 -0.27500001 150 0 0 0 0.01599
3.2780001 0.99900001 -0.271 150 0 0 0 0.016000001
3.2850001 0.991 -0.26800001 149 0 0 0 0.016009999
3.2939999 0.98299998 -0.26499999 120 0 0 0 0.01602
3.3039999 0.97600001 -0.26199999 150 0 0 0 0.016030001
3.5 1.023 -0.273 150 0 0 0 0.016039999
4.25 1.228 -0.32600001 16 0 0 0 0.01605
4.2800002 1.224 -0.324 8 0 0 0 0.01606
4.2839999 1.211 -0.31900001 3 0 0 0 0.016070001
3.395 0.949 -0.249 39 0 0 0 0.01608
3.339 0.92299998 -0.241 150 0 0 0 0.01609
2.7449999 0.75 -0.19499999 151 0 0 0 0.016100001
2.447 0.66100001 -0.171 150 0 0 0 0.016109999
2.336 0.62300003 -0.16 151 0 0 0 0.01612
2.2679999 0.59799999 -0.153 26 0 0 0 0.01613
2.217 0.57700002 -0.147 1 0 0 0 0.016140001
2.2019999 0.56599998 -0.14399999 1 0 0 0 0.01615
2.204 0.56 -0.141 1 0 0 0 0.01616
2.197 0.551 -0.139 1 0 0 0 0.016170001
2.1919999 0.54299998 -0.13600001 1 0 0 0 0.016179999
2.1789999 0.53299999 -0.133 1 0 0 0 0.01619
2.1559999 0.51999998 -0.12899999 1 0 0 0 0.0162
2.1170001 0.50400001 -0.124 1 0 0 0 0.016209999
2.0829999 0.49000001 -0.12 1 0 0 0 0.01622
2.0739999 0.48100001 -0.118 1 0 0 0 0.01623
2.0510001 0.46900001 -0.114 0 0 0 0 0.016240001
2.0480001 0.46200001 -0.112 0 0 0 0 0.016249999
2.027 0.45100001 -0.109 0 0 0 0 0.01626
2.017 0.442 -0.106 0 0 0 0 0.01627
1.984 0.428 -0.103 0 0 0 0 0.016279999
1.944 0.414 -0.098999999 0 0 0 0 0.01629
1.952 0.40900001 -0.097000003 0 0 0 0 0.0163
1.916 0.39500001 -0.093000002 0 0 0 0 0.016310001
1.905 0.38699999 -0.090999998 0 0 0 0 0.016319999
1.8890001 0.37799999 -0.088 0 0 0 0 0.01633
1.876 0.37 -0.086000003 0 0 0 0 0.016340001
1.8609999 0.361 -0.083999999 0 0 0 0 0.016349999
1.831 0.34900001 -0.079999998 0 0 0 0 0.01636
1.832 0.34299999 -0.079000004 0 0 0 0 0.01637
1.813 0.33399999 -0.075999998 0 0 0 0 0.016380001
1.808 0.32699999 -0.074000001 0 0 0 0 0.01639
1.786 0.31799999 -0.071999997 0 0 0 0 0.0164
1.774 0.31 -0.07 0 0 0 0 0.016410001
1.774 0.30399999 -0.068000004 0 0 0 0 0.016419999
1.745 0.294 -0.066 0 0 0 0 0.01643
1.729 0.285 -0.063000001 0 0 0 0 0.01644
1.74 0.28200001 -0.061999999 0 0 0 0 0.016450001
1.742 0.27599999 -0.061000001 0 0 0 0 0.01646
1.714 0.26699999 -0.057999998 0 0 0 0 0.01647
1.709 0.25999999 -0.057 0 0 0 0 0.016480001
1.679 0.25099999 -0.054000001 0 0 0 0 0.016489999
1.678 0.245 -0.052999999 0 0 0 0 0.0165
1.6440001 0.235 -0.050000001 0 0 0 0 0.01651
1.665 0.233 -0.050000001 0 0 0 0 0.016519999
1.641 0.22400001 -0.048 0 0 0 0 0.01653
1.64 0.219 -0.046 0 0 0 0 0.01654
1.622 0.211 -0.045000002 0 0 0 0 0.016550001
1.6059999 0.204 -0.043000001 0 0 0 0 0.016559999
1.605 0.199 -0.041000001 0 0 0 0 0.01657
1.589 0.192 -0.039999999 0 0 0 0 0.016580001
1.569 0.184 -0.037999999 0 0 0 0 0.016589999
