# .PCD v0.7 - Point Cloud Data file format
VERSION 0.7
FIELDS x y z intensity normal_x normal_y normal_z curvature
SIZE 4 4 4 4 4 4 4 4
TYPE F F F F F F F F
COUNT 1 1 1 1 1 1 1 1
WIDTH 1004
HEIGHT 1
VIEWPOINT 0 0 0 1 0 0 0
POINTS 1004
DATA ascii
1.705 1.063 0.375 132 0 0 0 0.063620001
1.71 1.062 0.377 128 0 0 0 0.06363
1.719 1.063 0.37900001 135 0 0 0 0.063639998
1.725 1.063 0.382 124 0 0 0 0.063649997
1.728 1.0599999 0.38299999 127 0 0 0 0.063660003
1.737 1.062 0.38600001 130 0 0 0 0.063670002
1.742 1.061 0.38800001 127 0 0 0 0.063680001
1.744 1.057 0.389 133 0 0 0 0.063689999
1.75 1.057 0.391 127 0 0 0 0.063699998
1.7539999 1.054 0.39199999 127 0 0 0 0.063709997
1.76 1.053 0.39399999 129 0 0 0 0.063720003
1.765 1.052 0.396 126 0 0 0 0.063730001
1.779 1.056 0.39899999 128 0 0 0 0.06374
1.789 1.057 0.40200001 129 0 0 0 0.063749999
1.796 1.056 0.40400001 133 0 0 0 0.063759997
1.798 1.052 0.405 127 0 0 0 0.063770004
1.809 1.053 0.40700001 128 0 0 0 0.063780002
1.817 1.053 0.40900001 126 0 0 0 0.063790001
1.824 1.052 0.41100001 126 0 0 0 0.0638
1.831 1.051 0.41299999 136 0 0 0 0.063809998
1.837 1.049 0.414 128 0 0 0 0.063819997
1.845 1.048 0.41600001 127 0 0 0 0.063830003
1.854 1.048 0.41800001 132 0 0 0 0.063840002
1.8609999 1.0470001 0.41999999 127 0 0 0 0.063850001
1.868 1.046 0.421 127 0 0 0 0.063859999
1.877 1.045 0.42300001 127 0 0 0 0.063869998
1.88 1.041 0.42399999 123 0 0 0 0.063879997
1.8890001 1.04 0.426 127 0 0 0 0.063890003
1.898 1.04 0.428 115 0 0 0 0.063900001
1.908 1.04 0.43000001 116 0 0 0 0.06391
1.916 1.038 0.43099999 115 0 0 0 0.063919999
1.924 1.0369999 0.43200001 113 0 0 0 0.063929997
1.9349999 1.036 0.43399999 112 0 0 0 0.063940004
1.946 1.036 0.43599999 111 0 0 0 0.063950002
1.955 1.035 0.43799999 108 0 0 0 0.063960001
1.965 1.035 0.44 108 0 0 0 0.06397
1.972 1.0319999 0.44100001 103 0 0 0 0.063979998
1.983 1.031 0.442 110 0 0 0 0.063989997
1.99 1.029 0.44400001 111 0 0 0 0.064000003
1.999 1.027 0.44499999 105 0 0 0 0.064010002
2.0109999 1.027 0.447 116 0 0 0 0.06402
2.02 1.026 0.44800001 108 0 0 0 0.064029999
2.0280001 1.023 0.449 101 0 0 0 0.064039998
2.0420001 1.024 0.45100001 107 0 0 0 0.064049996
2.056 1.024 0.45300001 105 0 0 0 0.064060003
2.0669999 1.023 0.45500001 99 0 0 0 0.064070001
2.075 1.021 0.456 105 0 0 0 0.06408
2.0869999 1.02 0.45699999 100 0 0 0 0.064089999
2.098 1.018 0.458 90 0 0 0 0.064099997
2.108 1.016 0.46000001 94 0 0 0 0.064110003
2.1170001 1.0140001 0.46000001 87 0 0 0 0.064120002
2.1289999 1.012 0.46200001 90 0 0 0 0.064130001
2.1400001 1.011 0.463 89 0 0 0 0.064139999
2.1559999 1.011 0.465 87 0 0 0 0.064149998
2.168 1.01 0.46599999 79 0 0 0 0.064159997
2.178 1.008 0.46700001 82 0 0 0 0.064170003
2.191 1.006 0.46900001 80 0 0 0 0.064180002
2.2049999 1.006 0.47 77 0 0 0 0.06419
2.2179999 1.005 0.47099999 82 0 0 0 0.064199999
2.233 1.0039999 0.47299999 85 0 0 0 0.064209998
2.2409999 1 0.47299999 75 0 0 0 0.064219996
2.257 1 0.47499999 84 0 0 0 0.064230002
2.2690001 0.99800003 0.47600001 83 0 0 0 0.064240001
2.2820001 0.99599999 0.477 92 0 0 0 0.06425
2.296 0.995 0.47799999 81 0 0 0 0.064259999
2.3099999 0.99299997 0.479 87 0 0 0 0.064269997
2.322 0.991 0.479 81 0 0 0 0.064280003
2.336 0.98900002 0.47999999 75 0 0 0 0.064290002
2.3510001 0.98799998 0.48100001 77 0 0 0 0.064300001
2.362 0.98500001 0.48199999 73 0 0 0 0.064309999
2.3800001 0.98400003 0.48300001 71 0 0 0 0.064319998
2.395 0.98299998 0.484 73 0 0 0 0.064329997
2.4119999 0.98199999 0.48500001 67 0 0 0 0.064340003
2.4219999 0.97799999 0.48500001 63 0 0 0 0.064350002
2.437 0.97600001 0.486 58 0 0 0 0.06436
2.4530001 0.97500002 0.48699999 59 0 0 0 0.064369999
2.473 0.97399998 0.48800001 60 0 0 0 0.064379998
2.4879999 0.972 0.48899999 61 0 0 0 0.064390004
2.4990001 0.96799999 0.48899999 54 0 0 0 0.064400002
2.52 0.96799999 0.49000001 59 0 0 0 0.064410001
2.54 0.96799999 0.49200001 61 0 0 0 0.06442
2.549 0.963 0.491 64 0 0 0 0.064429998
2.5680001 0.96200001 0.49200001 60 0 0 0 0.064439997
2.5840001 0.95899999 0.49200001 58 0 0 0 0.064450003
2.5940001 0.954 0.491 54 0 0 0 0.064460002
2.6129999 0.95300001 0.49200001 48 0 0 0 0.064470001
2.631 0.95099998 0.493 49 0 0 0 0.064479999
2.6440001 0.94700003 0.49200001 45 0 0 0 0.064489998
2.664 0.94599998 0.493 47 0 0 0 0.064499997
2.6819999 0.94300002 0.493 45 0 0 0 0.064510003
2.7019999 0.94199997 0.49399999 48 0 0 0 0.064520001
2.721 0.94 0.495 47 0 0 0 0.06453
2.7379999 0.93599999 0.49399999 45 0 0 0 0.064539999
2.7579999 0.93400002 0.495 47 0 0 0 0.064549997
2.779 0.93300003 0.49599999 45 0 0 0 0.064560004
2.7969999 0.93000001 0.495 44 0 0 0 0.064570002
2.816 0.92699999 0.495 44 0 0 0 0.064580001
2.8380001 0.92500001 0.49599999 46 0 0 0 0.06459
2.8599999 0.92299998 0.49599999 46 0 0 0 0.064599998
2.8840001 0.92199999 0.49700001 46 0 0 0 0.064609997
2.898 0.917 0.49599999 46 0 0 0 0.064620003
2.9219999 0.91500002 0.49599999 48 0 0 0 0.064630002
2.941 0.912 0.49599999 49 0 0 0 0.06464
2.9679999 0.91100001 0.49700001 50 0 0 0 0.064649999
2.9879999 0.90799999 0.49599999 50 0 0 0 0.064659998
3.0090001 0.90499997 0.49599999 64 0 0 0 0.064669997
3.0250001 0.89999998 0.495 150 0 0 0 0.064680003
3.02 0.889 0.49000001 150 0 0 0 0.064690001
2.983 0.86799997 0.47999999 150 0 0 0 0.0647
2.947 0.84899998 0.47099999 141 0 0 0 0.064709999
2.937 0.83700001 0.465 137 0 0 0 0.064719997
2.924 0.824 0.45899999 73 0 0 0 0.064730003
2.9130001 0.81099999 0.454 76 0 0 0 0.064740002
2.915 0.80299997 0.44999999 150 0 0 0 0.064750001
2.9189999 0.79500002 0.447 150 0 0 0 0.06476
2.925 0.78799999 0.44400001 150 0 0 0 0.064769998
2.9519999 0.78600001 0.44400001 136 0 0 0 0.064779997
2.9649999 0.77999997 0.442 150 0 0 0 0.064790003
2.957 0.76899999 0.43700001 150 0 0 0 0.064800002
2.927 0.75199997 0.428 150 0 0 0 0.06481
2.924 0.74199998 0.42399999 150 0 0 0 0.064819999
2.9219999 0.73299998 0.419 146 0 0 0 0.064829998
2.95 0.73100001 0.419 150 0 0 0 0.064839996
2.9809999 0.72899997 0.41999999 151 0 0 0 0.064850003
2.9790001 0.72000003 0.41499999 150 0 0 0 0.064860001
2.9860001 0.71200001 0.412 150 0 0 0 0.06487
2.9579999 0.69700003 0.40400001 150 0 0 0 0.064879999
2.957 0.68699998 0.39899999 150 0 0 0 0.064889997
2.9579999 0.67900002 0.39500001 150 0 0 0 0.064900003
2.9579999 0.67000002 0.391 150 0 0 0 0.064910002
2.967 0.66299999 0.38800001 150 0 0 0 0.064920001
2.967 0.65399998 0.384 150 0 0 0 0.064929999
2.9630001 0.64399999 0.37900001 150 0 0 0 0.064939998
2.9549999 0.63300002 0.373 150 0 0 0 0.064949997
2.954 0.62400001 0.36899999 129 0 0 0 0.064960003
2.948 0.61400002 0.36399999 132 0 0 0 0.064970002
2.947 0.60500002 0.359 150 0 0 0 0.06498
2.971 0.60100001 0.35800001 150 0 0 0 0.064989999
2.9809999 0.59399998 0.35499999 150 0 0 0 0.064999998
2.948 0.579 0.34599999 150 0 0 0 0.065009996
2.9430001 0.56900001 0.34099999 150 0 0 0 0.065020002
2.9460001 0.56099999 0.33700001 150 0 0 0 0.065030001
2.9519999 0.55299997 0.333 150 0 0 0 0.06504
2.957 0.546 0.329 150 0 0 0 0.065049998
2.96 0.53799999 0.32499999 150 0 0 0 0.065059997
2.948 0.52700001 0.31900001 150 0 0 0 0.065070003
2.9400001 0.51700002 0.31400001 150 0 0 0 0.065080002
2.9400001 0.50800002 0.30899999 150 0 0 0 0.065090001
2.938 0.49900001 0.30399999 150 0 0 0 0.065099999
2.9349999 0.49000001 0.30000001 150 0 0 0 0.065109998
2.9330001 0.48100001 0.29499999 150 0 0 0 0.065119997
2.9360001 0.47299999 0.29100001 130 0 0 0 0.065130003
2.9319999 0.46399999 0.28600001 142 0 0 0 0.065140001
2.9360001 0.456 0.28099999 143 0 0 0 0.06515
2.9349999 0.447 0.27599999 150 0 0 0 0.065159999
2.9400001 0.44 0.27200001 150 0 0 0 0.065169998
2.9460001 0.43200001 0.26800001 150 0 0 0 0.065180004
2.915 0.419 0.26100001 142 0 0 0 0.065190002
2.898 0.40799999 0.25400001 145 0 0 0 0.065200001
2.9000001 0.40000001 0.25 150 0 0 0 0.06521
2.9000001 0.39199999 0.245 150 0 0 0 0.065219998
2.9070001 0.38499999 0.241 150 0 0 0 0.065229997
2.9170001 0.377 0.237 150 0 0 0 0.065240003
2.9230001 0.37 0.233 150 0 0 0 0.065250002
2.9119999 0.36000001 0.227 145 0 0 0 0.065260001
2.8859999 0.34900001 0.221 150 0 0 0 0.065269999
2.8870001 0.34099999 0.21600001 150 0 0 0 0.065279998
2.8740001 0.331 0.20999999 117 0 0 0 0.065289997
2.858 0.32100001 0.204 150 0 0 0 0.065300003
2.8570001 0.31299999 0.2 150 0 0 0 0.065310001
2.8570001 0.30500001 0.19499999 150 0 0 0 0.06532
2.8510001 0.296 0.19 150 0 0 0 0.065329999
2.8570001 0.289 0.185 150 0 0 0 0.065339997
2.8599999 0.28099999 0.18099999 150 0 0 0 0.065350004
2.865 0.27399999 0.176 150 0 0 0 0.065360002
2.8740001 0.266 0.17200001 150 0 0 0 0.065370001
2.869 0.25799999 0.167 113 0 0 0 0.06538
2.8380001 0.24699999 0.16 104 0 0 0 0.065389998
2.8380001 0.23899999 0.155 114 0 0 0 0.065399997
2.8329999 0.23100001 0.15000001 131 0 0 0 0.065410003
2.8729999 0.226 0.148 150 0 0 0 0.065420002
2.8940001 0.22 0.14399999 150 0 0 0 0.06543
2.8870001 0.211 0.138 150 0 0 0 0.065439999
2.8529999 0.20100001 0.132 150 0 0 0 0.065449998
2.8269999 0.191 0.126 150 0 0 0 0.065459996
2.822 0.183 0.121 150 0 0 0 0.065470003
2.826 0.176 0.116 150 0 0 0 0.065480001
2.836 0.169 0.111 150 0 0 0 0.06549
2.8540001 0.162 0.107 150 0 0 0 0.065499999
2.8499999 0.154 0.102 150 0 0 0 0.065509997
2.855 0.146 0.097000003 150 0 0 0 0.065520003
2.8529999 0.138 0.092 150 0 0 0 0.065530002
2.859 0.131 0.086999997 150 0 0 0 0.065540001
2.8559999 0.123 0.082000002 150 0 0 0 0.065549999
2.8699999 0.116 0.078000002 150 0 0 0 0.065559998
2.882 0.108 0.072999999 150 0 0 0 0.065569997
2.8789999 0.101 0.068000004 150 0 0 0 0.065580003
2.8640001 0.092 0.061999999 150 0 0 0 0.065590002
2.8559999 0.083999999 0.057 150 0 0 0 0.0656
2.855 0.075999998 0.052000001 150 0 0 0 0.065609999
2.8540001 0.068999998 0.046999998 150 0 0 0 0.065619998
2.8710001 0.061000001 0.041999999 142 0 0 0 0.065629996
2.925 0.055 0.037 137 0 0 0 0.065640002
2.924 0.046999998 0.032000002 136 0 0 0 0.065650001
2.8959999 0.039000001 0.027000001 120 0 0 0 0.06566
2.852 0.029999999 0.021 124 0 0 0 0.065669999
2.836 0.023 0.016000001 150 0 0 0 0.065679997
2.8299999 0.015 0.011 150 0 0 0 0.065690003
2.825 0.0070000002 0.0049999999 150 0 0 0 0.065700002
2.825 0 0 150 0 0 0 0.065710001
2.823 -0.0070000002 -0.0040000002 150 0 0 0 0.065719999
2.8099999 -0.014 -0.0089999996 150 0 0 0 0.065729998
2.8150001 -0.022 -0.014 150 0 0 0 0.065739997
2.8150001 -0.028999999 -0.02 150 0 0 0 0.065750003
2.823 -0.037 -0.025 150 0 0 0 0.065760002
2.8269999 -0.044 -0.029999999 150 0 0 0 0.06577
2.829 -0.052000001 -0.035 150 0 0 0 0.065779999
2.8239999 -0.059 -0.041000001 150 0 0 0 0.065789998
2.8110001 -0.066 -0.046 150 0 0 0 0.065800004
2.8 -0.072999999 -0.050999999 150 0 0 0 0.065810002
2.7939999 -0.081 -0.056000002 150 0 0 0 0.065820001
2.8080001 -0.089000002 -0.061999999 150 0 0 0 0.06583
2.8310001 -0.097000003 -0.067000002 150 0 0 0 0.065839998
2.8340001 -0.104 -0.072999999 150 0 0 0 0.065849997
2.823 -0.111 -0.078000002 150 0 0 0 0.065860003
2.809 -0.118 -0.082999997 135 0 0 0 0.065870002
2.7980001 -0.125 -0.088 131 0 0 0 0.065880001
2.7909999 -0.132 -0.093000002 150 0 0 0 0.065889999
2.7850001 -0.139 -0.097999997 150 0 0 0 0.065899998
2.7980001 -0.147 -0.104 106 0 0 0 0.065909997
2.8280001 -0.156 -0.111 150 0 0 0 0.065920003
2.8399999 -0.164 -0.117 150 0 0 0 0.065930001
2.8239999 -0.17 -0.121 150 0 0 0 0.06594
2.829 -0.178 -0.127 128 0 0 0 0.065949999
2.882 -0.189 -0.13500001 150 0 0 0 0.065959997
2.9000001 -0.198 -0.142 150 0 0 0 0.065970004
2.9000001 -0.205 -0.147 150 0 0 0 0.065980002
2.898 -0.212 -0.153 150 0 0 0 0.065990001
2.8959999 -0.22 -0.15899999 150 0 0 0 0.066
2.915 -0.229 -0.16500001 42 0 0 0 0.066009998
2.9749999 -0.241 -0.175 19 0 0 0 0.066019997
3.2379999 -0.271 -0.197 2 0 0 0 0.066030003
3.221 -0.278 -0.20200001 2 0 0 0 0.066040002
3.2479999 -0.289 -0.20999999 2 0 0 0 0.06605
3.23 -0.29499999 -0.21600001 2 0 0 0 0.066059999
3.102 -0.292 -0.213 2 0 0 0 0.066069998
3.2119999 -0.31 -0.227 2 0 0 0 0.066079997
3.108 -0.308 -0.226 3 0 0 0 0.066090003
3.0910001 -0.31400001 -0.23100001 3 0 0 0 0.066100001
3.086 -0.322 -0.237 3 0 0 0 0.06611
3.0780001 -0.329 -0.243 3 0 0 0 0.066119999
3.0810001 -0.33700001 -0.249 3 0 0 0 0.066129997
2.9579999 -0.331 -0.24600001 12 0 0 0 0.066140004
2.908 -0.333 -0.24699999 102 0 0 0 0.066150002
2.901 -0.33899999 -0.25299999 150 0 0 0 0.066160001
2.8989999 -0.347 -0.259 151 0 0 0 0.06617
2.9030001 -0.354 -0.26499999 150 0 0 0 0.066179998
2.921 -0.36399999 -0.273 124 0 0 0 0.066189997
3.0739999 -0.391 -0.29300001 23 0 0 0 0.066200003
2.994 -0.38800001 -0.292 83 0 0 0 0.066210002
2.9560001 -0.391 -0.294 150 0 0 0 0.06622
2.9549999 -0.398 -0.301 150 0 0 0 0.066229999
2.921 -0.40099999 -0.303 150 0 0 0 0.066239998
2.9489999 -0.412 -0.31299999 150 0 0 0 0.066249996
2.9519999 -0.41999999 -0.31900001 150 0 0 0 0.066260003
2.954 -0.428 -0.32600001 150 0 0 0 0.066270001
3.0280001 -0.44600001 -0.34 150 0 0 0 0.06628
3.1849999 -0.477 -0.36500001 150 0 0 0 0.066289999
3.227 -0.49200001 -0.37599999 150 0 0 0 0.066299997
3.233 -0.50099999 -0.384 150 0 0 0 0.066310003
3.234 -0.509 -0.391 150 0 0 0 0.066320002
3.233 -0.51700002 -0.398 150 0 0 0 0.066330001
3.2360001 -0.52499998 -0.40599999 150 0 0 0 0.066339999
3.2349999 -0.53299999 -0.41299999 150 0 0 0 0.066349998
3.2390001 -0.542 -0.41999999 150 0 0 0 0.066359997
3.2390001 -0.55000001 -0.42699999 150 0 0 0 0.066370003
3.2349999 -0.55699998 -0.43399999 150 0 0 0 0.066380002
3.233 -0.565 -0.44100001 150 0 0 0 0.06639
3.2360001 -0.574 -0.44800001 150 0 0 0 0.066399999
3.234 -0.58099997 -0.45500001 150 0 0 0 0.066409998
3.2309999 -0.58899999 -0.46200001 150 0 0 0 0.066419996
3.2320001 -0.597 -0.47 150 0 0 0 0.066430002
3.234 -0.60500002 -0.477 150 0 0 0 0.066440001
3.23 -0.61299998 -0.484 150 0 0 0 0.06645
3.2279999 -0.62 -0.491 150 0 0 0 0.066459998
3.224 -0.62699997 -0.498 150 0 0 0 0.066469997
3.1589999 -0.62199998 -0.495 150 0 0 0 0.066480003
3.168 -0.63200003 -0.50300002 150 0 0 0 0.066490002
3.221 -0.64999998 -0.51899999 150 0 0 0 0.066500001
3.2249999 -0.65899998 -0.52700001 150 0 0 0 0.066509999
3.2219999 -0.66600001 -0.53399998 150 0 0 0 0.066519998
3.227 -0.67500001 -0.54299998 150 0 0 0 0.066529997
3.227 -0.68300003 -0.55000001 150 0 0 0 0.066540003
3.2249999 -0.69 -0.55699998 150 0 0 0 0.066550002
3.2309999 -0.69999999 -0.56599998 150 0 0 0 0.06656
3.2309999 -0.70700002 -0.574 150 0 0 0 0.066569999
3.2349999 -0.71600002 -0.58200002 150 0 0 0 0.066579998
3.2320001 -0.72299999 -0.58899999 150 0 0 0 0.066590004
3.2349999 -0.73100001 -0.597 145 0 0 0 0.066600002
3.2420001 -0.741 -0.60600001 125 0 0 0 0.066610001
3.2460001 -0.74900001 -0.61400002 150 0 0 0 0.06662
3.2449999 -0.75700003 -0.62199998 150 0 0 0 0.066629998
3.296 -0.77700001 -0.63999999 150 0 0 0 0.066639997
3.4100001 -0.81199998 -0.67000002 150 0 0 0 0.066650003
3.697 -0.889 -0.73500001 25 0 0 0 0.066660002
3.668 -0.89099997 -0.73900002 18 0 0 0 0.066670001
3.625 -0.889 -0.73900002 19 0 0 0 0.066679999
3.5869999 -0.88800001 -0.74000001 20 0 0 0 0.066689998
3.55 -0.88700002 -0.741 20 0 0 0 0.066699997
3.5090001 -0.88499999 -0.741 20 0 0 0 0.066710003
3.471 -0.88300002 -0.741 20 0 0 0 0.066720001
3.438 -0.88300002 -0.74299997 23 0 0 0 0.06673
3.3989999 -0.88099998 -0.74299997 26 0 0 0 0.066739999
3.3670001 -0.88099998 -0.74400002 26 0 0 0 0.066749997
3.335 -0.88 -0.745 29 0 0 0 0.066760004
3.3 -0.87800002 -0.74599999 30 0 0 0 0.066770002
3.2620001 -0.875 -0.745 30 0 0 0 0.066780001
3.227 -0.87300003 -0.74599999 30 0 0 0 0.06679
3.198 -0.87300003 -0.74699998 29 0 0 0 0.066799998
3.1789999 -0.875 -0.75 16 0 0 0 0.066809997
3.1500001 -0.87400001 -0.75199997 13 0 0 0 0.066820003
3.119 -0.87300003 -0.75199997 15 0 0 0 0.066830002
3.0910001 -0.87199998 -0.75300002 19 0 0 0 0.06684
3.036 -0.86299998 -0.74800003 27 0 0 0 0.066849999
2.9430001 -0.84299999 -0.73299998 46 0 0 0 0.066859998
2.872 -0.829 -0.722 51 0 0 0 0.066869996
2.8299999 -0.824 -0.71899998 47 0 0 0 0.066880003
2.783 -0.81599998 -0.71399999 46 0 0 0 0.066890001
2.7609999 -0.81599998 -0.71600002 52 0 0 0 0.0669
2.7349999 -0.81400001 -0.71600002 47 0 0 0 0.066909999
2.7119999 -0.81300002 -0.71700001 41 0 0 0 0.066919997
2.6830001 -0.81 -0.71700001 42 0 0 0 0.066930003
2.6619999 -0.81 -0.71799999 43 0 0 0 0.066940002
2.638 -0.80800003 -0.71899998 54 0 0 0 0.066950001
2.6159999 -0.80699998 -0.71899998 59 0 0 0 0.06696
2.596 -0.80599999 -0.72100002 54 0 0 0 0.066969998
2.5699999 -0.80400002 -0.72100002 48 0 0 0 0.066979997
2.5539999 -0.80400002 -0.72299999 58 0 0 0 0.066990003
2.53 -0.80199999 -0.72299999 116 0 0 0 0.067000002
2.5079999 -0.80000001 -0.72299999 141 0 0 0 0.06701
2.4790001 -0.796 -0.722 125 0 0 0 0.067019999
2.4630001 -0.79699999 -0.72399998 132 0 0 0 0.067029998
2.438 -0.79400003 -0.72299999 90 0 0 0 0.067039996
2.4200001 -0.792 -0.72399998 63 0 0 0 0.067050003
2.3989999 -0.79000002 -0.72399998 67 0 0 0 0.067060001
2.3800001 -0.78899997 -0.72500002 46 0 0 0 0.06707
2.3610001 -0.78799999 -0.72500002 31 0 0 0 0.067079999
2.3410001 -0.78600001 -0.72600001 28 0 0 0 0.067089997
2.3239999 -0.78500003 -0.727 29 0 0 0 0.067100003
2.306 -0.78299999 -0.727 28 0 0 0 0.067110002
2.29 -0.78200001 -0.72899997 31 0 0 0 0.067120001
2.2720001 -0.77999997 -0.72899997 33 0 0 0 0.067129999
2.253 -0.778 -0.72899997 37 0 0 0 0.067139998
2.234 -0.77600002 -0.73000002 42 0 0 0 0.067149997
2.2179999 -0.77499998 -0.73000002 46 0 0 0 0.067160003
2.198 -0.77200001 -0.73000002 48 0 0 0 0.067170002
2.1849999 -0.77200001 -0.73199999 41 0 0 0 0.06718
2.1689999 -0.76999998 -0.73199999 32 0 0 0 0.067189999
2.1470001 -0.76599997 -0.73100001 35 0 0 0 0.067199998
2.1329999 -0.76499999 -0.73199999 44 0 0 0 0.067209996
2.1159999 -0.76300001 -0.73199999 38 0 0 0 0.067220002
2.0969999 -0.75999999 -0.73100001 42 0 0 0 0.067230001
2.082 -0.75800002 -0.73199999 79 0 0 0 0.06724
2.073 -0.759 -0.73500001 80 0 0 0 0.067249998
2.0550001 -0.75599998 -0.73400003 102 0 0 0 0.067259997
2.036 -0.75199997 -0.73299998 93 0 0 0 0.067270003
2.0280001 -0.75300002 -0.736 48 0 0 0 0.067280002
2.0109999 -0.75 -0.73500001 37 0 0 0 0.067290001
1.9960001 -0.74800003 -0.736 51 0 0 0 0.067299999
1.982 -0.74599999 -0.736 57 0 0 0 0.067309998
1.9680001 -0.74400002 -0.736 35 0 0 0 0.067319997
1.9579999 -0.74299997 -0.73799998 34 0 0 0 0.067330003
1.949 -0.74299997 -0.74000001 33 0 0 0 0.067340001
1.933 -0.74000001 -0.73900002 29 0 0 0 0.06735
1.916 -0.736 -0.73799998 26 0 0 0 0.067359999
1.905 -0.73500001 -0.73900002 28 0 0 0 0.067369998
1.89 -0.73199999 -0.73900002 30 0 0 0 0.067380004
1.877 -0.73000002 -0.73900002 32 0 0 0 0.067390002
1.868 -0.73000002 -0.741 31 0 0 0 0.067400001
1.854 -0.727 -0.74000001 33 0 0 0 0.06741
1.8430001 -0.72500002 -0.741 36 0 0 0 0.067419998
1.827 -0.72100002 -0.74000001 33 0 0 0 0.067429997
1.818 -0.72000003 -0.741 41 0 0 0 0.067440003
1.809 -0.71899998 -0.74299997 55 0 0 0 0.067450002
1.793 -0.71499997 -0.741 48 0 0 0 0.067460001
1.784 -0.71399999 -0.74199998 58 0 0 0 0.067469999
1.779 -0.71499997 -0.745 64 0 0 0 0.067479998
1.768 -0.71200001 -0.745 40 0 0 0 0.067489997
1.756 -0.70999998 -0.745 26 0 0 0 0.067500003
1.7410001 -0.70599997 -0.74400002 22 0 0 0 0.067510001
1.7309999 -0.704 -0.74400002 22 0 0 0 0.06752
1.727 -0.704 -0.74699998 25 0 0 0 0.067529999
1.7130001 -0.69999999 -0.74599999 29 0 0 0 0.067539997
1.704 -0.699 -0.74699998 34 0 0 0 0.067550004
1.692 -0.69599998 -0.74599999 37 0 0 0 0.067560002
1.6849999 -0.69499999 -0.74800003 33 0 0 0 0.067570001
1.67 -0.69 -0.74599999 30 0 0 0 0.06758
1.6619999 -0.68900001 -0.74699998 32 0 0 0 0.067589998
1.654 -0.68699998 -0.74800003 46 0 0 0 0.067599997
1.645 -0.685 -0.74800003 16 0 0 0 0.067610003
1.643 -0.68599999 -0.75099999 16 0 0 0 0.067620002
1.6339999 -0.68300003 -0.75099999 16 0 0 0 0.06763
1.623 -0.68000001 -0.75099999 16 0 0 0 0.067639999
1.612 -0.67699999 -0.75 16 0 0 0 0.067649998
1.6059999 -0.676 -0.75099999 17 0 0 0 0.067659996
1.597 -0.67299998 -0.75099999 16 0 0 0 0.067670003
1.587 -0.67000002 -0.75 16 0 0 0 0.067680001
1.5829999 -0.66900003 -0.75199997 16 0 0 0 0.06769
1.576 -0.66799998 -0.75300002 17 0 0 0 0.067699999
1.569 -0.66600001 -0.75400001 17 0 0 0 0.067709997
1.553 -0.66000003 -0.75 17 0 0 0 0.067720003
1.55 -0.66000003 -0.75300002 17 0 0 0 0.067730002
1.546 -0.65899998 -0.75400001 17 0 0 0 0.067740001
1.541 -0.65700001 -0.75599998 15 0 0 0 0.067749999
1.536 -0.65600002 -0.75700003 14 0 0 0 0.067759998
1.528 -0.653 -0.75700003 14 0 0 0 0.067769997
1.522 -0.65100002 -0.75700003 14 0 0 0 0.067780003
1.5140001 -0.648 -0.75700003 14 0 0 0 0.067790002
1.505 -0.64499998 -0.75599998 14 0 0 0 0.0678
1.498 -0.64300001 -0.75599998 15 0 0 0 0.067809999
1.485 -0.63800001 -0.75300002 54 0 0 0 0.067819998
1.489 -0.63999999 -0.75800002 14 0 0 0 0.067829996
1.479 -0.63599998 -0.75700003 14 0 0 0 0.067840002
1.4680001 -0.63099998 -0.75400001 15 0 0 0 0.067850001
1.465 -0.63 -0.75599998 18 0 0 0 0.06786
1.46 -0.62800002 -0.75599998 19 0 0 0 0.067869999
1.456 -0.62599999 -0.75700003 18 0 0 0 0.067879997
1.449 -0.62400001 -0.75700003 17 0 0 0 0.067890003
1.443 -0.62099999 -0.75599998 17 0 0 0 0.067900002
1.432 -0.616 -0.75400001 15 0 0 0 0.067910001
1.429 -0.61500001 -0.755 15 0 0 0 0.067919999
1.425 -0.61299998 -0.75599998 15 0 0 0 0.067929998
1.4220001 -0.61199999 -0.75700003 14 0 0 0 0.067939997
1.41 -0.60600001 -0.75400001 14 0 0 0 0.067950003
1.409 -0.60500002 -0.755 15 0 0 0 0.067960002
1.405 -0.60299999 -0.75599998 16 0 0 0 0.06797
1.401 -0.60100001 -0.75700003 16 0 0 0 0.067979999
1.397 -0.59899998 -0.75700003 16 0 0 0 0.067989998
1.392 -0.59600002 -0.75700003 16 0 0 0 0.068000004
1.385 -0.59299999 -0.755 16 0 0 0 0.068010002
1.381 -0.58999997 -0.755 17 0 0 0 0.068020001
1.381 -0.58999997 -0.75800002 19 0 0 0 0.06803
1.376 -0.58700001 -0.75700003 18 0 0 0 0.068039998
1.373 -0.58499998 -0.75700003 18 0 0 0 0.068049997
1.37 -0.583 -0.75800002 17 0 0 0 0.068060003
1.3660001 -0.57999998 -0.75800002 17 0 0 0 0.068070002
1.365 -0.579 -0.759 17 0 0 0 0.068080001
1.359 -0.57499999 -0.75800002 17 0 0 0 0.068089999
1.36 -0.57499999 -0.76099998 17 0 0 0 0.068099998
1.353 -0.57099998 -0.75800002 18 0 0 0 0.068109997
1.351 -0.56900001 -0.759 20 0 0 0 0.068120003
1.344 -0.565 -0.75599998 24 0 0 0 0.068130001
1.3430001 -0.56400001 -0.75800002 23 0 0 0 0.06814
1.3430001 -0.56199998 -0.759 23 0 0 0 0.068149999
1.341 -0.56 -0.75999999 21 0 0 0 0.068159997
1.3380001 -0.55699998 -0.759 19 0 0 0 0.068170004
1.34 -0.55699998 -0.76200002 18 0 0 0 0.068180002
1.3380001 -0.55500001 -0.76200002 17 0 0 0 0.068190001
1.3329999 -0.551 -0.75999999 18 0 0 0 0.0682
1.3329999 -0.55000001 -0.76099998 18 0 0 0 0.068209998
1.3329999 -0.54799998 -0.76200002 18 0 0 0 0.068219997
1.332 -0.546 -0.76300001 17 0 0 0 0.068230003
1.329 -0.54400003 -0.76300001 16 0 0 0 0.068240002
1.3279999 -0.54100001 -0.76300001 15 0 0 0 0.06825
1.33 -0.54100001 -0.76499999 15 0 0 0 0.068259999
1.329 -0.53799999 -0.76499999 14 0 0 0 0.068269998
1.327 -0.53600001 -0.76499999 14 0 0 0 0.068279997
1.324 -0.53299999 -0.764 14 0 0 0 0.068290003
1.325 -0.53200001 -0.76499999 13 0 0 0 0.068300001
1.323 -0.52899998 -0.76499999 13 0 0 0 0.06831
1.324 -0.52700001 -0.76599997 13 0 0 0 0.068319999
1.3200001 -0.52399999 -0.764 13 0 0 0 0.068329997
1.323 -0.523 -0.76599997 13 0 0 0 0.068340003
1.325 -0.52100003 -0.76700002 13 0 0 0 0.068350002
1.322 -0.51800001 -0.76599997 13 0 0 0 0.068360001
1.321 -0.51599997 -0.76499999 13 0 0 0 0.06837
1.322 -0.514 -0.76599997 12 0 0 0 0.068379998
1.323 -0.51200002 -0.76700002 12 0 0 0 0.068389997
1.321 -0.509 -0.76499999 11 0 0 0 0.068400003
1.321 -0.50700003 -0.76599997 11 0 0 0 0.068410002
1.322 -0.505 -0.76599997 11 0 0 0 0.06842
1.321 -0.50199997 -0.76499999 11 0 0 0 0.068429999
1.324 -0.50099999 -0.76700002 11 0 0 0 0.068439998
1.319 -0.49700001 -0.764 12 0 0 0 0.068449996
1.323 -0.49599999 -0.76599997 11 0 0 0 0.068460003
1.326 -0.495 -0.76700002 11 0 0 0 0.068470001
1.326 -0.493 -0.76700002 11 0 0 0 0.06848
1.326 -0.49000001 -0.76599997 11 0 0 0 0.068489999
1.326 -0.48800001 -0.76599997 12 0 0 0 0.068499997
1.325 -0.484 -0.764 13 0 0 0 0.068510003
1.329 -0.484 -0.76599997 14 0 0 0 0.068520002
1.3279999 -0.48100001 -0.764 13 0 0 0 0.068530001
1.332 -0.479 -0.76599997 13 0 0 0 0.068539999
1.332 -0.477 -0.76499999 13 0 0 0 0.068549998
1.334 -0.47499999 -0.76499999 14 0 0 0 0.068559997
1.335 -0.472 -0.76499999 14 0 0 0 0.068570003
1.337 -0.47 -0.76499999 14 0 0 0 0.068580002
1.337 -0.46799999 -0.764 15 0 0 0 0.06859
1.3380001 -0.465 -0.76300001 14 0 0 0 0.068599999
1.339 -0.463 -0.76200002 13 0 0 0 0.068609998
1.345 -0.46200001 -0.764 14 0 0 0 0.068619996
1.347 -0.46000001 -0.764 15 0 0 0 0.068630002
1.347 -0.45699999 -0.76300001 16 0 0 0 0.068640001
1.354 -0.45699999 -0.76499999 15 0 0 0 0.06865
1.357 -0.45500001 -0.76499999 14 0 0 0 0.068659998
1.36 -0.45300001 -0.76599997 13 0 0 0 0.068669997
1.3609999 -0.45100001 -0.76499999 14 0 0 0 0.068680003
1.364 -0.44800001 -0.764 14 0 0 0 0.068690002
1.368 -0.447 -0.76499999 14 0 0 0 0.068700001
1.374 -0.44600001 -0.76599997 15 0 0 0 0.068709999
1.377 -0.44400001 -0.76599997 15 0 0 0 0.068719998
1.378 -0.44100001 -0.76499999 15 0 0 0 0.068729997
1.382 -0.43900001 -0.76499999 16 0 0 0 0.068740003
1.386 -0.43700001 -0.76499999 17 0 0 0 0.068750001
1.391 -0.43599999 -0.76599997 16 0 0 0 0.06876
1.395 -0.43399999 -0.76599997 16 0 0 0 0.068769999
1.398 -0.43200001 -0.76499999 19 0 0 0 0.068779998
1.399 -0.42899999 -0.764 19 0 0 0 0.068790004
1.408 -0.42899999 -0.76599997 19 0 0 0 0.068800002
1.409 -0.426 -0.76499999 17 0 0 0 0.068810001
1.4119999 -0.42399999 -0.764 15 0 0 0 0.06882
1.395 -0.41600001 -0.75199997 60 0 0 0 0.068829998
1.245 -0.368 -0.66900003 150 0 0 0 0.068839997
1.1 -0.32300001 -0.58899999 150 0 0 0 0.068850003
1.001 -0.29100001 -0.53399998 150 0 0 0 0.068860002
0.93800002 -0.271 -0.49900001 150 0 0 0 0.068870001
0.88 -0.252 -0.46599999 150 0 0 0 0.068879999
0.787 -0.22400001 -0.41600001 80 0 0 0 0.068889998
0.71899998 -0.20299999 -0.37799999 42 0 0 0 0.068899997
0.69700003 -0.19499999 -0.36500001 17 0 0 0 0.068910003
0.70200002 -0.19499999 -0.366 12 0 0 0 0.068920001
0.69999999 -0.193 -0.36399999 13 0 0 0 0.06893
0.70200002 -0.192 -0.36300001 13 0 0 0 0.068939999
0.70200002 -0.19 -0.36199999 13 0 0 0 0.068949997
0.69999999 -0.18799999 -0.36000001 13 0 0 0 0.068960004
0.704 -0.18799999 -0.36000001 12 0 0 0 0.068970002
0.70599997 -0.18700001 -0.36000001 12 0 0 0 0.068980001
0.70700002 -0.185 -0.359 9 0 0 0 0.06899
0.70899999 -0.184 -0.35800001 10 0 0 0 0.068999998
0.70700002 -0.182 -0.35600001 11 0 0 0 0.069009997
0.70499998 -0.18000001 -0.35299999 9 0 0 0 0.069020003
0.70499998 -0.17900001 -0.352 9 0 0 0 0.069030002
0.70599997 -0.177 -0.34999999 11 0 0 0 0.06904
0.708 -0.176 -0.34999999 11 0 0 0 0.069049999
0.71100003 -0.175 -0.34900001 11 0 0 0 0.069059998
0.70700002 -0.17299999 -0.34599999 10 0 0 0 0.069069996
0.70700002 -0.171 -0.34400001 10 0 0 0 0.069080003
0.70700002 -0.17 -0.34200001 10 0 0 0 0.069090001
0.708 -0.168 -0.34099999 11 0 0 0 0.0691
0.708 -0.167 -0.34 13 0 0 0 0.069109999
0.70899999 -0.16599999 -0.338 14 0 0 0 0.069119997
0.70999998 -0.164 -0.33700001 13 0 0 0 0.069130003
0.71100003 -0.163 -0.336 11 0 0 0 0.069140002
0.71499997 -0.162 -0.336 4 0 0 0 0.069150001
0.71799999 -0.162 -0.33500001 4 0 0 0 0.069159999
0.70999998 -0.15800001 -0.33000001 3 0 0 0 0.069169998
0.71499997 -0.15800001 -0.33000001 3 0 0 0 0.069179997
0.71100003 -0.156 -0.32699999 3 0 0 0 0.069190003
0.71100003 -0.154 -0.32499999 3 0 0 0 0.069200002
0.71399999 -0.153 -0.324 3 0 0 0 0.06921
0.713 -0.152 -0.322 2 0 0 0 0.069219999
0.72399998 -0.153 -0.32499999 2 0 0 0 0.069229998
0.73000002 -0.152 -0.32600001 2 0 0 0 0.069239996
0.73000002 -0.15099999 -0.324 2 0 0 0 0.069250003
0.73400003 -0.15000001 -0.324 2 0 0 0 0.069260001
0.736 -0.149 -0.32300001 2 0 0 0 0.06927
0.74400002 -0.149 -0.324 2 0 0 0 0.069279999
0.745 -0.148 -0.32300001 2 0 0 0 0.069289997
0.74900001 -0.147 -0.322 2 0 0 0 0.069300003
0.75199997 -0.146 -0.322 2 0 0 0 0.069310002
0.75300002 -0.145 -0.31999999 2 0 0 0 0.069320001
0.75700003 -0.14399999 -0.31900001 2 0 0 0 0.069329999
0.76099998 -0.14300001 -0.31900001 2 0 0 0 0.069339998
0.76499999 -0.14300001 -0.31900001 2 0 0 0 0.069349997
0.76999998 -0.142 -0.31799999 2 0 0 0 0.069360003
0.77600002 -0.142 -0.31900001 2 0 0 0 0.069370002
0.78100002 -0.141 -0.31900001 2 0 0 0 0.06938
0.78600001 -0.141 -0.31799999 2 0 0 0 0.069389999
0.78299999 -0.139 -0.315 2 0 0 0 0.069399998
0.792 -0.139 -0.317 2 0 0 0 0.069410004
0.79900002 -0.138 -0.317 2 0 0 0 0.069420002
0.80299997 -0.138 -0.31600001 2 0 0 0 0.069430001
0.81 -0.13699999 -0.317 2 0 0 0 0.06944
0.81300002 -0.13600001 -0.315 2 0 0 0 0.069449998
0.815 -0.13500001 -0.31400001 2 0 0 0 0.069459997
0.82700002 -0.13500001 -0.31600001 2 0 0 0 0.069470003
0.82499999 -0.134 -0.31299999 2 0 0 0 0.069480002
0.83499998 -0.134 -0.315 2 0 0 0 0.069490001
0.838 -0.133 -0.31299999 2 0 0 0 0.069499999
0.83999997 -0.131 -0.31099999 2 0 0 0 0.069509998
0.85399997 -0.132 -0.31400001 2 0 0 0 0.069519997
0.85699999 -0.131 -0.31299999 2 0 0 0 0.069530003
0.866 -0.131 -0.31400001 2 0 0 0 0.069540001
0.87300003 -0.13 -0.31299999 2 0 0 0 0.06955
0.88599998 -0.131 -0.31600001 2 0 0 0 0.069559999
0.884 -0.12899999 -0.31200001 2 0 0 0 0.069569997
0.89700001 -0.12899999 -0.31400001 2 0 0 0 0.069580004
0.90499997 -0.12899999 -0.31400001 2 0 0 0 0.069590002
0.90899998 -0.12800001 -0.31299999 2 0 0 0 0.069600001
0.91600001 -0.127 -0.31299999 2 0 0 0 0.06961
0.92199999 -0.127 -0.31200001 2 0 0 0 0.069619998
0.93900001 -0.127 -0.315 2 0 0 0 0.069629997
0.94499999 -0.127 -0.315 2 0 0 0 0.069640003
0.95200002 -0.126 -0.31400001 2 0 0 0 0.069650002
0.95700002 -0.125 -0.31299999 2 0 0 0 0.069660001
0.96700001 -0.125 -0.31299999 3 0 0 0 0.069669999
0.97600001 -0.124 -0.31299999 3 0 0 0 0.069679998
0.98299998 -0.124 -0.31200001 3 0 0 0 0.069689997
1.002 -0.124 -0.315 3 0 0 0 0.069700003
1.013 -0.124 -0.31600001 3 0 0 0 0.069710001
1.02 -0.123 -0.315 3 0 0 0 0.06972
1.0319999 -0.123 -0.31600001 3 0 0 0 0.069729999
1.043 -0.123 -0.31600001 3 0 0 0 0.069739997
1.05 -0.122 -0.315 3 0 0 0 0.069750004
1.061 -0.122 -0.315 3 0 0 0 0.069760002
1.074 -0.122 -0.31600001 3 0 0 0 0.069770001
1.082 -0.121 -0.315 4 0 0 0 0.06978
1.096 -0.121 -0.31600001 4 0 0 0 0.069789998
1.108 -0.12 -0.315 4 0 0 0 0.069799997
1.1160001 -0.119 -0.31400001 3 0 0 0 0.069810003
1.128 -0.119 -0.31400001 3 0 0 0 0.069820002
1.146 -0.119 -0.31600001 3 0 0 0 0.06983
1.156 -0.119 -0.315 3 0 0 0 0.069839999
1.1619999 -0.117 -0.31299999 3 0 0 0 0.069849998
1.179 -0.117 -0.31400001 3 0 0 0 0.069859996
1.192 -0.117 -0.31400001 4 0 0 0 0.069870003
1.207 -0.117 -0.31400001 4 0 0 0 0.069880001
1.223 -0.117 -0.315 4 0 0 0 0.06989
1.2359999 -0.116 -0.31400001 4 0 0 0 0.069899999
1.252 -0.116 -0.315 4 0 0 0 0.069909997
1.263 -0.115 -0.31400001 4 0 0 0 0.069920003
1.271 -0.114 -0.31200001 4 0 0 0 0.069930002
1.289 -0.114 -0.31200001 4 0 0 0 0.069940001
1.304 -0.113 -0.31200001 4 0 0 0 0.069949999
1.321 -0.113 -0.31200001 5 0 0 0 0.069959998
1.336 -0.112 -0.31099999 5 0 0 0 0.069969997
1.354 -0.112 -0.31200001 5 0 0 0 0.069980003
1.37 -0.111 -0.31099999 5 0 0 0 0.069990002
1.391 -0.111 -0.31099999 5 0 0 0 0.07
1.406 -0.111 -0.31099999 5 0 0 0 0.070009999
1.423 -0.11 -0.31 5 0 0 0 0.070019998
1.442 -0.11 -0.31 5 0 0 0 0.070029996
1.464 -0.109 -0.31 6 0 0 0 0.070040002
1.478 -0.108 -0.308 6 0 0 0 0.070050001
1.495 -0.108 -0.308 6 0 0 0 0.07006
1.517 -0.107 -0.30700001 6 0 0 0 0.070069999
1.5369999 -0.107 -0.30700001 6 0 0 0 0.070079997
1.561 -0.106 -0.30700001 6 0 0 0 0.070090003
1.585 -0.106 -0.30700001 6 0 0 0 0.070100002
1.619 -0.106 -0.308 7 0 0 0 0.070110001
1.684 -0.108 -0.31600001 8 0 0 0 0.070119999
1.717 -0.108 -0.317 8 0 0 0 0.070129998
1.729 -0.107 -0.31299999 7 0 0 0 0.070139997
1.747 -0.106 -0.31099999 8 0 0 0 0.070150003
1.773 -0.105 -0.31099999 8 0 0 0 0.070160002
1.799 -0.105 -0.31 9 0 0 0 0.07017
1.824 -0.104 -0.308 9 0 0 0 0.070179999
1.851 -0.103 -0.30700001 9 0 0 0 0.070189998
1.881 -0.102 -0.30599999 9 0 0 0 0.070200004
1.9119999 -0.102 -0.30599999 10 0 0 0 0.070210002
1.951 -0.102 -0.30599999 10 0 0 0 0.070220001
1.976 -0.101 -0.30399999 39 0 0 0 0.07023
2.013 -0.1 -0.303 41 0 0 0 0.070239998
2.04 -0.098999999 -0.301 39 0 0 0 0.070249997
2.073 -0.097999997 -0.29899999 45 0 0 0 0.070260003
2.1210001 -0.097999997 -0.30000001 31 0 0 0 0.070270002
2.161 -0.097000003 -0.29899999 40 0 0 0 0.070280001
2.194 -0.096000001 -0.29699999 40 0 0 0 0.070289999
2.2390001 -0.096000001 -0.296 41 0 0 0 0.070299998
2.2869999 -0.094999999 -0.29499999 38 0 0 0 0.070309997
2.3399999 -0.094999999 -0.29499999 40 0 0 0 0.070320003
2.3699999 -0.093999997 -0.29100001 41 0 0 0 0.070330001
2.4200001 -0.093000002 -0.28999999 35 0 0 0 0.07034
2.4679999 -0.092 -0.28799999 34 0 0 0 0.070349999
2.5220001 -0.090999998 -0.287 34 0 0 0 0.070359997
2.5929999 -0.090999998 -0.287 81 0 0 0 0.070370004
2.701 -0.092 -0.29100001 150 0 0 0 0.070380002
2.7950001 -0.092 -0.292 150 0 0 0 0.070390001
2.8199999 -0.090000004 -0.28600001 150 0 0 0 0.0704
2.816 -0.086999997 -0.27700001 150 0 0 0 0.070409998
2.8169999 -0.083999999 -0.26800001 150 0 0 0 0.070419997
2.8080001 -0.079999998 -0.259 150 0 0 0 0.070430003
2.7869999 -0.077 -0.249 90 0 0 0 0.070440002
2.7539999 -0.072999999 -0.237 62 0 0 0 0.07045
2.701 -0.068999998 -0.22400001 54 0 0 0 0.070459999
2.675 -0.064999998 -0.214 99 0 0 0 0.070469998
2.665 -0.063000001 -0.205 150 0 0 0 0.070479997
2.658 -0.059999999 -0.19599999 150 0 0 0 0.070490003
2.6559999 -0.057 -0.18799999 150 0 0 0 0.070500001
2.654 -0.054000001 -0.17900001 150 0 0 0 0.07051
2.6570001 -0.050999999 -0.171 150 0 0 0 0.070519999
2.6570001 -0.048999999 -0.163 150 0 0 0 0.070529997
2.6589999 -0.046 -0.155 150 0 0 0 0.070540003
2.654 -0.044 -0.146 150 0 0 0 0.070550002
2.655 -0.041000001 -0.138 150 0 0 0 0.070560001
2.655 -0.037999999 -0.13 150 0 0 0 0.07057
2.655 -0.035999998 -0.122 150 0 0 0 0.070579998
2.655 -0.033 -0.114 150 0 0 0 0.070589997
2.655 -0.030999999 -0.105 150 0 0 0 0.070600003
2.6559999 -0.028000001 -0.097000003 150 0 0 0 0.070610002
2.687 -0.026000001 -0.090000004 37 0 0 0 0.07062
2.789 -0.024 -0.085000001 139 0 0 0 0.070629999
2.8180001 -0.022 -0.077 150 0 0 0 0.070639998
2.832 -0.018999999 -0.068999998 150 0 0 0 0.070649996
2.8310001 -0.017000001 -0.059999999 150 0 0 0 0.070660003
2.8269999 -0.014 -0.050999999 150 0 0 0 0.070670001
2.8269999 -0.011 -0.041999999 150 0 0 0 0.07068
2.8269999 -0.0089999996 -0.033 150 0 0 0 0.070689999
2.8299999 -0.0060000001 -0.025 150 0 0 0 0.070699997
2.8269999 -0.0040000002 -0.016000001 150 0 0 0 0.070710003
2.8310001 -0.001 -0.0070000002 150 0 0 0 0.070720002
2.8280001 0 0.001 150 0 0 0 0.070730001
2.8329999 0.003 0.0099999998 150 0 0 0 0.070739999
2.8340001 0.0049999999 0.017999999 150 0 0 0 0.070749998
2.8340001 0.0080000004 0.027000001 150 0 0 0 0.070759997
2.836 0.0099999998 0.035999998 150 0 0 0 0.070770003
2.835 0.013 0.045000002 150 0 0 0 0.070780002
2.8399999 0.015 0.054000001 150 0 0 0 0.07079
2.8380001 0.017999999 0.063000001 150 0 0 0 0.070799999
2.8440001 0.02 0.071999997 150 0 0 0 0.070809998
2.8440001 0.022 0.081 150 0 0 0 0.070819996
2.8440001 0.025 0.090000004 150 0 0 0 0.070830002
2.846 0.027000001 0.097999997 150 0 0 0 0.070840001
2.846 0.029999999 0.107 150 0 0 0 0.07085
2.8540001 0.032000002 0.117 150 0 0 0 0.070859998
2.869 0.034000002 0.126 150 0 0 0 0.070869997
2.882 0.037 0.13600001 150 0 0 0 0.070880003
2.8929999 0.039000001 0.146 150 0 0 0 0.070890002
2.9030001 0.041999999 0.155 150 0 0 0 0.070900001
2.911 0.044 0.16500001 150 0 0 0 0.070909999
2.921 0.046999998 0.17399999 150 0 0 0 0.070919998
2.9200001 0.048999999 0.184 150 0 0 0 0.070929997
2.925 0.050999999 0.193 150 0 0 0 0.070940003
2.9189999 0.054000001 0.20200001 150 0 0 0 0.070950001
2.9159999 0.056000002 0.211 150 0 0 0 0.07096
2.905 0.057999998 0.219 150 0 0 0 0.070969999
2.8959999 0.059999999 0.228 150 0 0 0 0.070979998
2.8840001 0.061999999 0.236 150 0 0 0 0.070990004
2.8759999 0.064000003 0.245 150 0 0 0 0.071000002
2.8670001 0.066 0.25299999 150 0 0 0 0.071010001
2.858 0.068000004 0.26100001 150 0 0 0 0.07102
2.8559999 0.07 0.27000001 150 0 0 0 0.071029998
2.8540001 0.071999997 0.27900001 150 0 0 0 0.071039997
2.8499999 0.074000001 0.28799999 150 0 0 0 0.071050003
2.8559999 0.075999998 0.29699999 150 0 0 0 0.071060002
2.852 0.078000002 0.30599999 150 0 0 0 0.071070001
2.8599999 0.079999998 0.31600001 150 0 0 0 0.071079999
2.8529999 0.082000002 0.324 150 0 0 0 0.071089998
2.855 0.083999999 0.33399999 150 0 0 0 0.071099997
2.855 0.086000003 0.34299999 150 0 0 0 0.071110003
2.8499999 0.086999997 0.35100001 150 0 0 0 0.071120001
2.8499999 0.089000002 0.36000001 150 0 0 0 0.07113
2.8510001 0.090999998 0.37 150 0 0 0 0.071139999
2.8529999 0.093000002 0.37900001 150 0 0 0 0.071149997
2.855 0.094999999 0.38800001 150 0 0 0 0.071160004
2.8510001 0.097000003 0.39700001 150 0 0 0 0.071170002
2.8599999 0.098999999 0.40700001 150 0 0 0 0.071180001
2.859 0.101 0.41600001 150 0 0 0 0.07119
2.858 0.103 0.426 150 0 0 0 0.071199998
2.8640001 0.105 0.43599999 150 0 0 0 0.071209997
2.865 0.106 0.44499999 150 0 0 0 0.071220003
2.8640001 0.108 0.454 150 0 0 0 0.071230002
2.8759999 0.11 0.465 150 0 0 0 0.07124
2.875 0.112 0.47499999 150 0 0 0 0.071249999
2.8740001 0.114 0.484 150 0 0 0 0.071259998
2.875 0.116 0.493 150 0 0 0 0.071269996
2.8800001 0.117 0.50300002 150 0 0 0 0.071280003
2.8789999 0.119 0.51200002 150 0 0 0 0.071290001
2.882 0.121 0.52200001 150 0 0 0 0.0713
2.878 0.122 0.53100002 150 0 0 0 0.071309999
2.8759999 0.124 0.54000002 150 0 0 0 0.071319997
2.872 0.125 0.54900002 150 0 0 0 0.071330003
2.8699999 0.127 0.55800003 150 0 0 0 0.071340002
2.8710001 0.12800001 0.56699997 150 0 0 0 0.071350001
2.869 0.13 0.57599998 150 0 0 0 0.071359999
2.8670001 0.131 0.58499998 150 0 0 0 0.071369998
2.8640001 0.133 0.59399998 150 0 0 0 0.071379997
2.869 0.134 0.60500002 150 0 0 0 0.071390003
2.8599999 0.13500001 0.61199999 150 0 0 0 0.071400002
2.858 0.13699999 0.62099999 150 0 0 0 0.07141
2.8599999 0.138 0.63099998 150 0 0 0 0.071419999
2.8540001 0.139 0.639 150 0 0 0 0.071429998
2.855 0.141 0.64899999 150 0 0 0 0.071439996
2.8559999 0.142 0.65799999 123 0 0 0 0.071450002
2.855 0.14300001 0.667 108 0 0 0 0.071460001
2.858 0.145 0.67799997 75 0 0 0 0.07147
2.8610001 0.146 0.68800002 58 0 0 0 0.071479999
2.8540001 0.147 0.69599998 137 0 0 0 0.071489997
2.8510001 0.148 0.704 150 0 0 0 0.071500003
2.8529999 0.149 0.71399999 127 0 0 0 0.071510002
2.8469999 0.15000001 0.722 87 0 0 0 0.071520001
2.848 0.152 0.73199999 100 0 0 0 0.071529999
2.846 0.153 0.741 107 0 0 0 0.071539998
2.8469999 0.154 0.75099999 84 0 0 0 0.071549997
2.8440001 0.155 0.759 108 0 0 0 0.071560003
2.846 0.156 0.76899999 105 0 0 0 0.071570002
2.8440001 0.15700001 0.778 66 0 0 0 0.07158
2.8429999 0.15800001 0.78799999 56 0 0 0 0.071589999
2.8440001 0.15899999 0.79799998 50 0 0 0 0.071599998
2.846 0.16 0.80699998 45 0 0 0 0.071610004
2.842 0.161 0.81599998 64 0 0 0 0.071620002
2.8410001 0.162 0.82499999 150 0 0 0 0.071630001
2.8380001 0.162 0.83399999 71 0 0 0 0.07164
2.8380001 0.163 0.84399998 50 0 0 0 0.071649998
2.8410001 0.164 0.85399997 50 0 0 0 0.071659997
2.8399999 0.16500001 0.86299998 51 0 0 0 0.071670003
2.8410001 0.16599999 0.87300003 51 0 0 0 0.071680002
2.835 0.16599999 0.88099998 54 0 0 0 0.071690001
2.8369999 0.167 0.89099997 57 0 0 0 0.071699999
2.836 0.168 0.89999998 56 0 0 0 0.071709998
2.8380001 0.169 0.91100001 58 0 0 0 0.071719997
2.8380001 0.169 0.92000002 61 0 0 0 0.071730003
2.8380001 0.17 0.93000001 62 0 0 0 0.071740001
2.836 0.171 0.93900001 55 0 0 0 0.07175
2.842 0.171 0.94999999 57 0 0 0 0.071759999
2.8410001 0.17200001 0.95999998 59 0 0 0 0.071769997
2.842 0.17299999 0.96899998 67 0 0 0 0.071780004
2.8399999 0.17299999 0.97799999 67 0 0 0 0.071790002
2.842 0.17399999 0.98900002 62 0 0 0 0.071800001
2.8429999 0.17399999 0.99900001 57 0 0 0 0.07181
2.8429999 0.175 1.0089999 62 0 0 0 0.071819998
2.8380001 0.175 1.016 69 0 0 0 0.071829997
2.8440001 0.175 1.028 65 0 0 0 0.071840003
2.845 0.176 1.038 64 0 0 0 0.071850002
2.8440001 0.176 1.048 63 0 0 0 0.07186
2.8469999 0.176 1.059 62 0 0 0 0.071869999
2.846 0.177 1.068 62 0 0 0 0.071879998
2.849 0.177 1.079 64 0 0 0 0.071889997
2.848 0.177 1.0880001 64 0 0 0 0.071900003
2.846 0.177 1.097 63 0 0 0 0.071910001
2.8469999 0.177 1.107 58 0 0 0 0.07192
2.852 0.178 1.119 54 0 0 0 0.071929999
2.846 0.178 1.126 51 0 0 0 0.071939997
2.8499999 0.178 1.137 55 0 0 0 0.071950004
2.8499999 0.178 1.147 55 0 0 0 0.071960002
2.852 0.178 1.158 52 0 0 0 0.071970001
2.8529999 0.178 1.168 49 0 0 0 0.07198
2.8529999 0.178 1.178 48 0 0 0 0.071989998
2.852 0.178 1.187 45 0 0 0 0.071999997
2.8559999 0.178 1.199 42 0 0 0 0.072010003
2.8570001 0.178 1.209 40 0 0 0 0.072020002
2.8570001 0.177 1.219 38 0 0 0 0.07203
2.8610001 0.177 1.23 35 0 0 0 0.072039999
2.8629999 0.177 1.2410001 34 0 0 0 0.072049998
2.869 0.177 1.253 34 0 0 0 0.072059996
2.8659999 0.176 1.261 34 0 0 0 0.072070003
2.8629999 0.176 1.27 34 0 0 0 0.072080001
2.8640001 0.175 1.28 33 0 0 0 0.07209
2.8710001 0.175 1.293 33 0 0 0 0.072099999
2.8740001 0.175 1.304 34 0 0 0 0.072109997
2.8729999 0.17399999 1.313 34 0 0 0 0.072120003
2.878 0.17399999 1.325 34 0 0 0 0.072130002
2.878 0.17299999 1.335 34 0 0 0 0.072140001
2.885 0.17299999 1.348 35 0 0 0 0.072149999
2.881 0.17200001 1.3559999 35 0 0 0 0.072159998
2.882 0.171 1.3660001 35 0 0 0 0.072169997
2.882 0.171 1.376 35 0 0 0 0.072180003
2.8789999 0.169 1.3839999 35 0 0 0 0.072190002
2.8900001 0.169 1.399 36 0 0 0 0.0722
2.8929999 0.168 1.41 39 0 0 0 0.072209999
2.892 0.167 1.419 41 0 0 0 0.072219998
2.8900001 0.16599999 1.428 40 0 0 0 0.072229996
2.8889999 0.16500001 1.437 38 0 0 0 0.072240002
2.8900001 0.164 1.447 37 0 0 0 0.072250001
2.8840001 0.163 1.4529999 37 0 0 0 0.07226
2.8829999 0.161 1.462 37 0 0 0 0.072269998
2.875 0.16 1.4680001 37 0 0 0 0.072279997
2.868 0.15800001 1.474 37 0 0 0 0.072290003
2.8559999 0.156 1.477 41 0 0 0 0.072300002
2.8529999 0.155 1.485 46 0 0 0 0.072310001
2.8510001 0.153 1.493 52 0 0 0 0.072319999
2.849 0.15099999 1.501 60 0 0 0 0.072329998
2.8499999 0.15000001 1.511 63 0 0 0 0.072339997
2.8499999 0.149 1.52 62 0 0 0 0.072350003
2.852 0.147 1.53 59 0 0 0 0.072360002
2.855 0.146 1.541 56 0 0 0 0.07237
2.849 0.14399999 1.546 52 0 0 0 0.072379999
2.8559999 0.142 1.559 75 0 0 0 0.072389998
2.8559999 0.141 1.568 150 0 0 0 0.072400004
2.8540001 0.139 1.576 150 0 0 0 0.072410002
2.8559999 0.13699999 1.586 150 0 0 0 0.072420001
2.8559999 0.13500001 1.595 150 0 0 0 0.07243
2.8629999 0.133 1.608 101 0 0 0 0.072439998
2.858 0.131 1.613 87 0 0 0 0.072449997
2.8570001 0.12899999 1.622 79 0 0 0 0.072460003
2.8399999 0.126 1.6210001 77 0 0 0 0.072470002
2.8410001 0.124 1.63 86 0 0 0 0.072480001
2.8340001 0.122 1.6339999 145 0 0 0 0.072489999
2.832 0.119 1.642 150 0 0 0 0.072499998
2.8310001 0.117 1.649 150 0 0 0 0.072509997
2.8280001 0.115 1.656 150 0 0 0 0.072520003
2.8299999 0.112 1.665 150 0 0 0 0.072530001
2.832 0.11 1.675 150 0 0 0 0.07254
2.8299999 0.108 1.682 150 0 0 0 0.072549999
2.823 0.105 1.6849999 150 0 0 0 0.072559997
2.809 0.102 1.6849999 102 0 0 0 0.072570004
2.79 0.098999999 1.682 110 0 0 0 0.072580002
2.7780001 0.096000001 1.682 103 0 0 0 0.072590001
2.7639999 0.093000002 1.681 98 0 0 0 0.0726
2.7539999 0.090000004 1.683 100 0 0 0 0.072609998
2.7390001 0.086999997 1.681 105 0 0 0 0.072619997
2.724 0.083999999 1.679 110 0 0 0 0.072630003
2.71 0.081 1.677 107 0 0 0 0.072640002
2.7030001 0.078000002 1.6799999 104 0 0 0 0.07265
2.6889999 0.075000003 1.678 105 0 0 0 0.072659999
2.681 0.071999997 1.6799999 119 0 0 0 0.072669998
2.6719999 0.068999998 1.681 122 0 0 0 0.072679996
2.6559999 0.066 1.678 118 0 0 0 0.072690003
2.6489999 0.063000001 1.6799999 119 0 0 0 0.072700001
2.6340001 0.059 1.677 110 0 0 0 0.07271
2.6270001 0.056000002 1.679 123 0 0 0 0.072719999
2.619 0.052999999 1.6799999 107 0 0 0 0.072729997
2.6010001 0.050000001 1.675 122 0 0 0 0.072740003
2.598 0.046999998 1.678 112 0 0 0 0.072750002
2.5880001 0.044 1.678 117 0 0 0 0.072760001
2.575 0.041000001 1.675 120 0 0 0 0.07277
2.5650001 0.037999999 1.674 110 0 0 0 0.072779998
2.5580001 0.034000002 1.675 127 0 0 0 0.072789997
2.553 0.030999999 1.677 123 0 0 0 0.072800003
2.5439999 0.028000001 1.676 113 0 0 0 0.072810002
2.536 0.025 1.676 121 0 0 0 0.07282
2.5280001 0.022 1.676 120 0 0 0 0.072829999
2.52 0.017999999 1.676 125 0 0 0 0.072839998
2.5109999 0.015 1.675 118 0 0 0 0.072849996
2.5009999 0.012 1.6720001 126 0 0 0 0.072860003
2.4949999 0.0089999996 1.673 119 0 0 0 0.072870001
2.4920001 0.0060000001 1.675 132 0 0 0 0.07288
2.484 0.0020000001 1.674 124 0 0 0 0.072889999
2.4760001 0 1.673 134 0 0 0 0.072899997
2.4719999 -0.003 1.675 134 0 0 0 0.072910003
2.4619999 -0.0070000002 1.6720001 131 0 0 0 0.072920002
2.4579999 -0.0099999998 1.673 132 0 0 0 0.072930001
2.4560001 -0.013 1.675 137 0 0 0 0.072939999
2.45 -0.016000001 1.674 133 0 0 0 0.072949998
2.4430001 -0.02 1.673 136 0 0 0 0.072959997
2.4389999 -0.023 1.674 137 0 0 0 0.072970003
2.4330001 -0.026000001 1.673 129 0 0 0 0.072980002
2.4300001 -0.029999999 1.674 132 0 0 0 0.07299
2.4260001 -0.033 1.674 140 0 0 0 0.072999999
2.4219999 -0.035999998 1.674 130 0 0 0 0.073009998
2.4159999 -0.039000001 1.6720001 124 0 0 0 0.073019996
2.414 -0.043000001 1.674 128 0 0 0 0.073030002
2.4089999 -0.046 1.673 125 0 0 0 0.073040001
2.4100001 -0.050000001 1.676 118 0 0 0 0.07305
2.4059999 -0.052999999 1.675 130 0 0 0 0.073059998
2.404 -0.056000002 1.676 118 0 0 0 0.073069997
2.398 -0.059 1.674 126 0 0 0 0.073080003
2.3970001 -0.063000001 1.675 125 0 0 0 0.073090002
2.3940001 -0.066 1.674 113 0 0 0 0.073100001
2.392 -0.07 1.674 129 0 0 0 0.073109999
2.391 -0.072999999 1.675 132 0 0 0 0.073119998
2.3900001 -0.075999998 1.676 117 0 0 0 0.073129997
2.3870001 -0.079999998 1.674 127 0 0 0 0.073140003
2.388 -0.082999997 1.677 128 0 0 0 0.073150001
2.385 -0.086999997 1.675 134 0 0 0 0.07316
2.385 -0.090000004 1.676 134 0 0 0 0.073169999
2.385 -0.093999997 1.676 134 0 0 0 0.073179998
2.381 -0.097000003 1.674 132 0 0 0 0.073190004
2.382 -0.1 1.675 140 0 0 0 0.073200002
2.381 -0.104 1.675 124 0 0 0 0.073210001
2.381 -0.107 1.675 132 0 0 0 0.07322
2.3840001 -0.111 1.676 130 0 0 0 0.073229998
2.381 -0.114 1.674 129 0 0 0 0.073239997
2.3840001 -0.117 1.676 132 0 0 0 0.073250003
2.3870001 -0.121 1.678 129 0 0 0 0.073260002
2.3840001 -0.124 1.675 138 0 0 0 0.073270001
2.388 -0.12800001 1.677 129 0 0 0 0.073279999
2.3889999 -0.131 1.677 129 0 0 0 0.073289998
2.388 -0.134 1.675 129 0 0 0 0.073299997
2.3900001 -0.138 1.676 131 0 0 0 0.073310003
2.3959999 -0.141 1.679 127 0 0 0 0.073320001
2.3989999 -0.145 1.679 131 0 0 0 0.07333
2.4000001 -0.148 1.678 129 0 0 0 0.073339999
2.4030001 -0.152 1.679 130 0 0 0 0.073349997
2.404 -0.155 1.677 129 0 0 0 0.073360004
2.4100001 -0.15899999 1.6799999 117 0 0 0 0.073370002
2.4130001 -0.162 1.6799999 116 0 0 0 0.073380001
2.4119999 -0.16500001 1.677 111 0 0 0 0.07339
2.415 -0.168 1.677 115 0 0 0 0.073399998
2.4219999 -0.17200001 1.679 115 0 0 0 0.073409997
2.4230001 -0.175 1.677 118 0 0 0 0.073420003
2.4289999 -0.17900001 1.679 123 0 0 0 0.073430002
2.434 -0.182 1.6799999 123 0 0 0 0.07344
2.4360001 -0.186 1.678 121 0 0 0 0.073449999
2.441 -0.189 1.678 115 0 0 0 0.073459998
2.4449999 -0.192 1.678 112 0 0 0 0.073469996
2.4549999 -0.19599999 1.681 119 0 0 0 0.073480003
2.4579999 -0.199 1.679 109 0 0 0 0.073490001
2.4619999 -0.20200001 1.679 110 0 0 0 0.0735
2.4690001 -0.206 1.6799999 106 0 0 0 0.073509999
2.4749999 -0.20900001 1.6799999 106 0 0 0 0.073519997
2.4820001 -0.213 1.681 101 0 0 0 0.073530003
2.4909999 -0.21600001 1.683 105 0 0 0 0.073540002
2.4979999 -0.22 1.683 100 0 0 0 0.073550001
2.503 -0.223 1.683 97 0 0 0 0.073559999
2.5079999 -0.226 1.682 100 0 0 0 0.073569998
2.5179999 -0.23 1.683 88 0 0 0 0.073579997
2.523 -0.233 1.682 95 0 0 0 0.073590003
2.5369999 -0.237 1.686 89 0 0 0 0.073600002
2.5409999 -0.23999999 1.684 89 0 0 0 0.07361
2.5469999 -0.243 1.683 85 0 0 0 0.073619999
2.5569999 -0.24600001 1.684 89 0 0 0 0.073629998
2.5650001 -0.25 1.684 89 0 0 0 0.073639996
2.5739999 -0.25299999 1.6849999 86 0 0 0 0.073650002
