# .PCD v0.7 - Point Cloud Data file format
VERSION 0.7
FIELDS x y z intensity normal_x normal_y normal_z curvature
SIZE 4 4 4 4 4 4 4 4
TYPE F F F F F F F F
COUNT 1 1 1 1 1 1 1 1
WIDTH 1057
HEIGHT 1
VIEWPOINT 0 0 0 1 0 0 0
POINTS 1057
DATA ascii
0.639 0.021 -0.391 4 0 0 0 0.01494
0.634 0.021 -0.38999999 3 0 0 0 0.01495
0.63200003 0.022 -0.391 3 0 0 0 0.01496
0.63499999 0.023 -0.39399999 4 0 0 0 0.01497
0.63599998 0.024 -0.396 4 0 0 0 0.01498
0.63300002 0.024 -0.396 4 0 0 0 0.01499
0.63499999 0.025 -0.39899999 4 0 0 0 0.015
0.634 0.026000001 -0.39899999 4 0 0 0 0.01501
0.63499999 0.027000001 -0.40200001 4 0 0 0 0.01502
0.63499999 0.028000001 -0.403 5 0 0 0 0.01503
0.634 0.028999999 -0.40400001 4 0 0 0 0.01504
0.63700002 0.029999999 -0.40700001 4 0 0 0 0.01505
0.634 0.029999999 -0.40700001 5 0 0 0 0.01506
0.63499999 0.030999999 -0.40900001 5 0 0 0 0.01507
0.63700002 0.032000002 -0.412 7 0 0 0 0.01508
0.63700002 0.033 -0.412 7 0 0 0 0.01509
0.63599998 0.034000002 -0.41299999 7 0 0 0 0.0151
0.63800001 0.035 -0.41600001 9 0 0 0 0.01511
0.63700002 0.035999998 -0.417 7 0 0 0 0.01512
0.639 0.037 -0.419 8 0 0 0 0.01513
0.63999999 0.037999999 -0.421 9 0 0 0 0.01514
0.63999999 0.039000001 -0.42199999 10 0 0 0 0.01515
0.639 0.039999999 -0.42300001 8 0 0 0 0.01516
0.639 0.039999999 -0.42300001 8 0 0 0 0.01517
0.63599998 0.041000001 -0.42300001 8 0 0 0 0.01518
0.63499999 0.041999999 -0.42300001 9 0 0 0 0.01519
0.639 0.043000001 -0.42699999 10 0 0 0 0.0152
0.64099997 0.044 -0.43000001 10 0 0 0 0.01521
0.64099997 0.045000002 -0.43000001 11 0 0 0 0.01522
0.64099997 0.046 -0.43200001 9 0 0 0 0.01523
0.63800001 0.046999998 -0.43000001 12 0 0 0 0.01524
0.63999999 0.048 -0.433 10 0 0 0 0.01525
0.64099997 0.048999999 -0.43399999 9 0 0 0 0.01526
0.639 0.050000001 -0.43399999 10 0 0 0 0.01527
0.63999999 0.050999999 -0.435 11 0 0 0 0.01528
0.64099997 0.052000001 -0.43700001 12 0 0 0 0.01529
0.64399999 0.052999999 -0.43900001 10 0 0 0 0.0153
0.64099997 0.054000001 -0.43799999 12 0 0 0 0.01531
0.64200002 0.055 -0.44 11 0 0 0 0.01532
0.64499998 0.056000002 -0.442 14 0 0 0 0.01533
0.64499998 0.057 -0.44299999 15 0 0 0 0.01534
0.64499998 0.057999998 -0.44299999 15 0 0 0 0.01535
0.64300001 0.059 -0.44299999 14 0 0 0 0.01536
0.64600003 0.059999999 -0.44499999 15 0 0 0 0.01537
0.64499998 0.061000001 -0.44499999 16 0 0 0 0.01538
0.64600003 0.061999999 -0.44600001 15 0 0 0 0.01539
0.648 0.063000001 -0.44800001 17 0 0 0 0.0154
0.64499998 0.064000003 -0.44600001 15 0 0 0 0.01541
0.64499998 0.064999998 -0.447 16 0 0 0 0.01542
0.64700001 0.066 -0.44800001 14 0 0 0 0.01543
0.64600003 0.067000002 -0.447 16 0 0 0 0.01544
0.64499998 0.068000004 -0.44800001 14 0 0 0 0.01545
0.64700001 0.068999998 -0.449 16 0 0 0 0.01546
0.64899999 0.07 -0.45100001 19 0 0 0 0.01547
0.64700001 0.071000002 -0.449 20 0 0 0 0.01548
0.64700001 0.071999997 -0.449 18 0 0 0 0.01549
0.64899999 0.072999999 -0.45100001 16 0 0 0 0.0155
0.64700001 0.074000001 -0.449 15 0 0 0 0.01551
0.64899999 0.075000003 -0.45100001 15 0 0 0 0.01552
0.64899999 0.075999998 -0.45100001 16 0 0 0 0.01553
0.65200001 0.077 -0.45300001 16 0 0 0 0.01554
0.64899999 0.078000002 -0.45100001 14 0 0 0 0.01555
0.64899999 0.079000004 -0.45100001 14 0 0 0 0.01556
0.64899999 0.079999998 -0.44999999 15 0 0 0 0.01557
0.65200001 0.081 -0.45199999 15 0 0 0 0.01558
0.65200001 0.082000002 -0.45199999 15 0 0 0 0.01559
0.65399998 0.082999997 -0.45300001 17 0 0 0 0.0156
0.65399998 0.083999999 -0.45199999 16 0 0 0 0.01561
0.65600002 0.085000001 -0.454 16 0 0 0 0.01562
0.65600002 0.086000003 -0.45300001 14 0 0 0 0.015629999
0.65700001 0.086999997 -0.454 15 0 0 0 0.01564
0.65399998 0.086999997 -0.45100001 14 0 0 0 0.01565
0.65700001 0.089000002 -0.45300001 15 0 0 0 0.015659999
0.65399998 0.089000002 -0.44999999 13 0 0 0 0.01567
0.65700001 0.090000004 -0.45100001 14 0 0 0 0.01568
0.65799999 0.090999998 -0.45199999 15 0 0 0 0.015690001
0.65600002 0.092 -0.449 13 0 0 0 0.015699999
0.65899998 0.093000002 -0.45100001 13 0 0 0 0.01571
0.65600002 0.093000002 -0.44800001 14 0 0 0 0.01572
0.65700001 0.093999997 -0.44800001 12 0 0 0 0.015729999
0.65899998 0.094999999 -0.449 14 0 0 0 0.01574
0.65700001 0.096000001 -0.447 13 0 0 0 0.01575
0.65700001 0.097000003 -0.44600001 12 0 0 0 0.015760001
0.66000003 0.097999997 -0.447 15 0 0 0 0.015769999
0.66299999 0.098999999 -0.44800001 13 0 0 0 0.01578
0.66000003 0.098999999 -0.44499999 11 0 0 0 0.015790001
0.66100001 0.1 -0.44499999 11 0 0 0 0.015799999
0.662 0.101 -0.44400001 11 0 0 0 0.01581
0.66100001 0.101 -0.44299999 12 0 0 0 0.01582
0.66299999 0.102 -0.44299999 11 0 0 0 0.015830001
0.66299999 0.103 -0.442 11 0 0 0 0.01584
0.66299999 0.104 -0.44100001 11 0 0 0 0.01585
0.66299999 0.104 -0.43900001 11 0 0 0 0.015860001
0.66399997 0.105 -0.43900001 10 0 0 0 0.015869999
0.66600001 0.106 -0.43900001 11 0 0 0 0.01588
0.66500002 0.106 -0.43700001 11 0 0 0 0.01589
0.66600001 0.107 -0.43599999 10 0 0 0 0.015900001
0.66399997 0.107 -0.43399999 9 0 0 0 0.01591
0.66399997 0.108 -0.433 8 0 0 0 0.01592
0.66500002 0.109 -0.43200001 9 0 0 0 0.015930001
0.66600001 0.109 -0.43099999 9 0 0 0 0.015939999
0.66799998 0.11 -0.43099999 9 0 0 0 0.01595
0.66600001 0.11 -0.428 8 0 0 0 0.01596
0.66600001 0.111 -0.42699999 9 0 0 0 0.015969999
0.66799998 0.112 -0.426 7 0 0 0 0.01598
0.66799998 0.112 -0.42500001 8 0 0 0 0.01599
0.66500002 0.112 -0.421 7 0 0 0 0.016000001
0.667 0.113 -0.421 7 0 0 0 0.016009999
0.66500002 0.113 -0.41800001 6 0 0 0 0.01602
0.66799998 0.114 -0.41800001 7 0 0 0 0.016030001
0.66900003 0.115 -0.41800001 6 0 0 0 0.016039999
0.66900003 0.115 -0.41600001 5 0 0 0 0.01605
0.66799998 0.115 -0.414 5 0 0 0 0.01606
0.66900003 0.116 -0.412 5 0 0 0 0.016070001
0.67000002 0.116 -0.41100001 5 0 0 0 0.01608
0.66799998 0.116 -0.40799999 5 0 0 0 0.01609
0.66799998 0.116 -0.40700001 5 0 0 0 0.016100001
0.66900003 0.117 -0.40599999 5 0 0 0 0.016109999
0.67000002 0.117 -0.40400001 5 0 0 0 0.01612
0.67199999 0.118 -0.40400001 5 0 0 0 0.01613
0.671 0.118 -0.40099999 4 0 0 0 0.016140001
0.67000002 0.118 -0.39899999 4 0 0 0 0.01615
0.66799998 0.118 -0.396 4 0 0 0 0.01616
0.671 0.119 -0.396 4 0 0 0 0.016170001
0.67199999 0.119 -0.39399999 4 0 0 0 0.016179999
0.66900003 0.119 -0.38999999 4 0 0 0 0.01619
0.67299998 0.12 -0.391 4 0 0 0 0.0162
0.676 0.12 -0.391 4 0 0 0 0.016209999
0.66900003 0.119 -0.38499999 4 0 0 0 0.01622
0.67299998 0.12 -0.38499999 4 0 0 0 0.01623
0.67299998 0.12 -0.384 4 0 0 0 0.016240001
0.67400002 0.12 -0.382 3 0 0 0 0.016249999
0.67500001 0.121 -0.38 3 0 0 0 0.01626
0.676 0.121 -0.37900001 3 0 0 0 0.01627
0.67299998 0.12 -0.375 3 0 0 0 0.016279999
0.67199999 0.12 -0.37200001 3 0 0 0 0.01629
0.67199999 0.12 -0.37099999 3 0 0 0 0.0163
0.67299998 0.121 -0.36899999 3 0 0 0 0.016310001
0.67799997 0.121 -0.36899999 3 0 0 0 0.016319999
0.67199999 0.12 -0.36399999 3 0 0 0 0.01633
0.667 0.119 -0.36000001 3 0 0 0 0.016340001
0.67199999 0.12 -0.36000001 2 0 0 0 0.016349999
0.67199999 0.12 -0.35800001 2 0 0 0 0.01636
0.67400002 0.121 -0.35699999 2 0 0 0 0.01637
0.67299998 0.12 -0.354 2 0 0 0 0.016380001
0.67799997 0.121 -0.354 2 0 0 0 0.01639
0.67699999 0.121 -0.352 2 0 0 0 0.0164
0.67500001 0.12 -0.34900001 2 0 0 0 0.016410001
0.67699999 0.121 -0.34799999 2 0 0 0 0.016419999
0.67799997 0.121 -0.34599999 2 0 0 0 0.01643
0.67900002 0.121 -0.34400001 0 0 0 0 0.01644
0.67900002 0.12 -0.34200001 2 0 0 0 0.016450001
0.67500001 0.12 -0.338 2 0 0 0 0.01646
0.68199998 0.121 -0.33899999 2 0 0 0 0.01647
0.67400002 0.119 -0.333 2 0 0 0 0.016480001
0.67900002 0.12 -0.333 2 0 0 0 0.016489999
0.676 0.119 -0.329 2 0 0 0 0.0165
0.67900002 0.119 -0.329 2 0 0 0 0.01651
0.68300003 0.12 -0.32800001 2 0 0 0 0.016519999
0.67900002 0.119 -0.324 2 0 0 0 0.01653
0.67799997 0.118 -0.32100001 2 0 0 0 0.01654
0.67900002 0.118 -0.31999999 2 0 0 0 0.016550001
0.67699999 0.118 -0.317 2 0 0 0 0.016559999
0.68000001 0.118 -0.31600001 2 0 0 0 0.01657
0.67799997 0.117 -0.31200001 2 0 0 0 0.016580001
0.67199999 0.116 -0.308 2 0 0 0 0.016589999
0.67799997 0.116 -0.308 2 0 0 0 0.0166
0.676 0.116 -0.30500001 2 0 0 0 0.01661
0.67500001 0.115 -0.30199999 1 0 0 0 0.016620001
0.66900003 0.114 -0.29800001 1 0 0 0 0.01663
0.676 0.115 -0.29800001 1 0 0 0 0.01664
0.676 0.114 -0.296 1 0 0 0 0.016650001
0.676 0.114 -0.294 1 0 0 0 0.016659999
0.67500001 0.113 -0.29100001 1 0 0 0 0.01667
0.67799997 0.114 -0.28999999 1 0 0 0 0.01668
0.67299998 0.112 -0.285 1 0 0 0 0.016690001
0.67299998 0.112 -0.28299999 1 0 0 0 0.0167
0.67199999 0.111 -0.28099999 1 0 0 0 0.01671
0.67400002 0.111 -0.27900001 1 0 0 0 0.016720001
0.67299998 0.111 -0.27700001 0 0 0 0 0.016729999
0.671 0.11 -0.27399999 0 0 0 0 0.01674
0.66900003 0.109 -0.27000001 0 0 0 0 0.01675
0.66799998 0.108 -0.26800001 0 0 0 0 0.016759999
0.67199999 0.108 -0.26699999 0 0 0 0 0.01677
0.67000002 0.108 -0.264 0 0 0 0 0.01678
0.671 0.107 -0.26199999 0 0 0 0 0.016790001
0.66799998 0.106 -0.259 0 0 0 0 0.016799999
0.67000002 0.106 -0.257 0 0 0 0 0.01681
0.66799998 0.105 -0.25400001 0 0 0 0 0.01682
0.67000002 0.105 -0.25299999 0 0 0 0 0.016829999
0.671 0.105 -0.25099999 0 0 0 0 0.01684
0.66900003 0.104 -0.248 0 0 0 0 0.01685
0.67299998 0.104 -0.24699999 0 0 0 0 0.016860001
0.667 0.102 -0.243 0 0 0 0 0.016869999
0.66799998 0.102 -0.241 0 0 0 0 0.01688
0.66900003 0.102 -0.23999999 0 0 0 0 0.016890001
0.66600001 0.1 -0.236 0 0 0 0 0.016899999
0.667 0.1 -0.234 0 0 0 0 0.01691
0.66399997 0.098999999 -0.23100001 0 0 0 0 0.01692
0.66900003 0.098999999 -0.23 0 0 0 0 0.016930001
0.66600001 0.097999997 -0.227 0 0 0 0 0.01694
0.667 0.097999997 -0.22499999 0 0 0 0 0.01695
0.66900003 0.097000003 -0.22400001 0 0 0 0 0.016960001
0.65899998 0.094999999 -0.21799999 0 0 0 0 0.016969999
0.66500002 0.094999999 -0.21799999 0 0 0 0 0.01698
0.667 0.094999999 -0.21699999 0 0 0 0 0.01699
0.66299999 0.093999997 -0.213 0 0 0 0 0.017000001
0.66299999 0.093000002 -0.211 0 0 0 0 0.01701
0.66500002 0.093000002 -0.20999999 0 0 0 0 0.01702
0.66100001 0.092 -0.206 0 0 0 0 0.017030001
0.66100001 0.090999998 -0.204 0 0 0 0 0.017039999
0.65799999 0.090000004 -0.20100001 0 0 0 0 0.01705
0.662 0.090000004 -0.2 0 0 0 0 0.01706
0.66299999 0.089000002 -0.198 0 0 0 0 0.017069999
0.65899998 0.088 -0.19499999 0 0 0 0 0.01708
0.66000003 0.086999997 -0.193 0 0 0 0 0.01709
0.662 0.086999997 -0.191 0 0 0 0 0.017100001
0.65499997 0.085000001 -0.18700001 0 0 0 0 0.017109999
0.65600002 0.085000001 -0.186 0 0 0 0 0.01712
0.65200001 0.083999999 -0.182 0 0 0 0 0.017130001
0.65799999 0.083999999 -0.182 0 0 0 0 0.017139999
0.65499997 0.082999997 -0.17900001 0 0 0 0 0.01715
0.68900001 0.086000003 -0.186 0 0 0 0 0.01716
0.69400001 0.086000003 -0.185 0 0 0 0 0.017170001
0.69099998 0.085000001 -0.182 0 0 0 0 0.01718
0.68800002 0.083999999 -0.17900001 0 0 0 0 0.01719
0.68800002 0.082999997 -0.177 0 0 0 0 0.017200001
0.68300003 0.081 -0.17399999 0 0 0 0 0.017209999
0.67199999 0.079000004 -0.169 0 0 0 0 0.01722
0.69 0.081 -0.171 0 0 0 0 0.01723
0.69300002 0.079999998 -0.17 0 0 0 0 0.017240001
0.69099998 0.079000004 -0.167 0 0 0 0 0.01725
0.68300003 0.077 -0.163 0 0 0 0 0.01726
0.68400002 0.077 -0.161 0 0 0 0 0.017270001
0.68000001 0.075000003 -0.15800001 0 0 0 0 0.017279999
0.68099999 0.075000003 -0.156 0 0 0 0 0.01729
0.685 0.074000001 -0.155 0 0 0 0 0.0173
0.67900002 0.072999999 -0.15099999 0 0 0 0 0.017309999
0.653 0.068999998 -0.14300001 0 0 0 0 0.01732
0.65799999 0.068999998 -0.142 0 0 0 0 0.01733
0.66399997 0.068999998 -0.142 0 0 0 0 0.017340001
0.662 0.068000004 -0.139 0 0 0 0 0.017349999
0.662 0.067000002 -0.13699999 0 0 0 0 0.01736
0.66100001 0.066 -0.13500001 0 0 0 0 0.01737
0.67400002 0.066 -0.13500001 0 0 0 0 0.017379999
0.65399998 0.064000003 -0.12899999 0 0 0 0 0.01739
0.662 0.064000003 -0.12899999 0 0 0 0 0.0174
0.66900003 0.063000001 -0.12800001 0 0 0 0 0.017410001
0.68699998 0.064000003 -0.13 0 0 0 0 0.017419999
0.69599998 0.064000003 -0.12899999 0 0 0 0 0.01743
0.70499998 0.064000003 -0.12899999 0 0 0 0 0.017440001
0.71100003 0.064000003 -0.12800001 0 0 0 0 0.017449999
0.73400003 0.064999998 -0.13 0 0 0 0 0.01746
0.741 0.064000003 -0.12899999 0 0 0 0 0.01747
0.75 0.064000003 -0.12800001 0 0 0 0 0.017480001
0.759 0.064000003 -0.127 0 0 0 0 0.01749
0.77700001 0.064999998 -0.12800001 0 0 0 0 0.0175
0.79400003 0.064999998 -0.12800001 0 0 0 0 0.017510001
0.80599999 0.064999998 -0.12800001 0 0 0 0 0.017519999
0.84399998 0.067000002 -0.131 0 0 0 0 0.01753
0.85900003 0.067000002 -0.131 0 0 0 0 0.01754
0.87599999 0.067000002 -0.131 0 0 0 0 0.017550001
0.91600001 0.068999998 -0.134 0 0 0 0 0.01756
0.91299999 0.067000002 -0.131 0 0 0 0 0.01757
0.91100001 0.066 -0.12800001 0 0 0 0 0.017580001
0.889 0.063000001 -0.122 0 0 0 0 0.017589999
0.88700002 0.061999999 -0.119 0 0 0 0 0.0176
0.92699999 0.063000001 -0.122 0 0 0 0 0.01761
0.91399997 0.061000001 -0.118 0 0 0 0 0.017619999
0 0 0 0 0 0 0 0.01763
0.98400003 0.063000001 -0.121 0 0 0 0 0.01764
1.001 0.063000001 -0.12 0 0 0 0 0.017650001
1.002 0.061000001 -0.117 0 0 0 0 0.017659999
0.99699998 0.059999999 -0.114 0 0 0 0 0.01767
1.01 0.059 -0.112 0 0 0 0 0.017680001
1.007 0.057 -0.109 0 0 0 0 0.017689999
1.03 0.057 -0.108 0 0 0 0 0.0177
1.028 0.056000002 -0.105 0 0 0 0 0.01771
1.101 0.057999998 -0.109 0 0 0 0 0.017720001
1.683 0.086999997 -0.162 1 0 0 0 0.017729999
1.705 0.085000001 -0.15899999 4 0 0 0 0.01774
1.747 0.085000001 -0.15800001 10 0 0 0 0.017750001
1.751 0.082000002 -0.154 47 0 0 0 0.017759999
1.745 0.079999998 -0.148 85 0 0 0 0.01777
1.752 0.077 -0.14300001 44 0 0 0 0.01778
1.756 0.075000003 -0.139 15 0 0 0 0.017790001
1.77 0.072999999 -0.13500001 14 0 0 0 0.0178
1.7690001 0.07 -0.12899999 17 0 0 0 0.01781
1.78 0.068000004 -0.125 19 0 0 0 0.017820001
1.814 0.067000002 -0.122 25 0 0 0 0.017829999
1.847 0.064999998 -0.119 81 0 0 0 0.01784
1.8609999 0.063000001 -0.115 150 0 0 0 0.01785
1.864 0.059999999 -0.11 150 0 0 0 0.017859999
1.865 0.057 -0.104 150 0 0 0 0.01787
1.865 0.054000001 -0.098999999 150 0 0 0 0.01788
1.869 0.052000001 -0.093999997 111 0 0 0 0.017890001
1.882 0.048999999 -0.089000002 67 0 0 0 0.017899999
1.876 0.046 -0.082999997 101 0 0 0 0.01791
1.88 0.043000001 -0.078000002 56 0 0 0 0.01792
1.876 0.039999999 -0.072999999 67 0 0 0 0.017929999
1.883 0.037999999 -0.068000004 60 0 0 0 0.01794
1.8890001 0.035 -0.061999999 48 0 0 0 0.01795
1.895 0.032000002 -0.057 91 0 0 0 0.017960001
1.898 0.028999999 -0.052000001 132 0 0 0 0.017969999
1.896 0.026000001 -0.046 83 0 0 0 0.01798
1.899 0.023 -0.041000001 78 0 0 0 0.017990001
1.9 0.02 -0.035999998 82 0 0 0 0.017999999
1.903 0.017000001 -0.029999999 70 0 0 0 0.01801
1.905 0.014 -0.025 40 0 0 0 0.01802
1.909 0.011 -0.02 53 0 0 0 0.018030001
1.908 0.0080000004 -0.014 64 0 0 0 0.01804
1.9170001 0.0049999999 -0.0089999996 45 0 0 0 0.01805
1.923 0.0020000001 -0.0040000002 136 0 0 0 0.018060001
1.9299999 0 0.001 127 0 0 0 0.018069999
1.932 -0.003 0.0060000001 140 0 0 0 0.01808
1.938 -0.0060000001 0.012 112 0 0 0 0.01809
1.949 -0.0089999996 0.017000001 74 0 0 0 0.018100001
1.9680001 -0.013 0.023 62 0 0 0 0.01811
1.985 -0.016000001 0.028999999 55 0 0 0 0.01812
2.0039999 -0.018999999 0.034000002 51 0 0 0 0.018130001
2.029 -0.023 0.041000001 35 0 0 0 0.018139999
2.0829999 -0.027000001 0.046999998 27 0 0 0 0.01815
2.155 -0.032000002 0.055 66 0 0 0 0.01816
2.188 -0.035999998 0.061999999 128 0 0 0 0.018169999
2.201 -0.039999999 0.068999998 88 0 0 0 0.01818
2.273 -0.045000002 0.077 65 0 0 0 0.01819
2.3570001 -0.050000001 0.086999997 56 0 0 0 0.018200001
2.3900001 -0.055 0.093999997 69 0 0 0 0.018209999
2.434 -0.059999999 0.103 80 0 0 0 0.01822
2.483 -0.064999998 0.112 71 0 0 0 0.018230001
2.552 -0.071999997 0.122 95 0 0 0 0.018239999
2.6659999 -0.079000004 0.13500001 150 0 0 0 0.01825
2.7679999 -0.086999997 0.148 150 0 0 0 0.01826
3.0320001 -0.101 0.17 150 0 0 0 0.018270001
3.0450001 -0.106 0.18000001 150 0 0 0 0.018279999
3.039 -0.111 0.18799999 150 0 0 0 0.01829
3.0369999 -0.116 0.19599999 150 0 0 0 0.018300001
3.0350001 -0.122 0.204 150 0 0 0 0.018309999
3.033 -0.127 0.212 150 0 0 0 0.01832
3.036 -0.132 0.221 150 0 0 0 0.01833
3.033 -0.13699999 0.229 150 0 0 0 0.018340001
3.0369999 -0.14300001 0.23800001 150 0 0 0 0.01835
3.0510001 -0.149 0.24699999 150 0 0 0 0.01836
3.0580001 -0.155 0.25600001 150 0 0 0 0.018370001
3.052 -0.16 0.264 150 0 0 0 0.018379999
3.03 -0.164 0.27000001 150 0 0 0 0.01839
3.0280001 -0.169 0.278 150 0 0 0 0.0184
3.0209999 -0.17399999 0.28600001 150 0 0 0 0.018409999
3.016 -0.17900001 0.294 144 0 0 0 0.01842
3.0190001 -0.185 0.30199999 147 0 0 0 0.01843
3.04 -0.192 0.31299999 150 0 0 0 0.018440001
3.0599999 -0.198 0.32300001 150 0 0 0 0.018449999
3.0699999 -0.205 0.33199999 150 0 0 0 0.01846
3.066 -0.20999999 0.34 150 0 0 0 0.01847
3.0639999 -0.215 0.34799999 150 0 0 0 0.018479999
3.059 -0.221 0.35600001 150 0 0 0 0.01849
3.052 -0.226 0.36399999 150 0 0 0 0.0185
3.039 -0.23 0.37 150 0 0 0 0.018510001
3.03 -0.235 0.377 150 0 0 0 0.018519999
3.023 -0.23999999 0.38499999 150 0 0 0 0.01853
3.0209999 -0.24600001 0.39300001 150 0 0 0 0.018540001
3.0220001 -0.25099999 0.40099999 150 0 0 0 0.018549999
3.0179999 -0.257 0.40900001 150 0 0 0 0.01856
3.017 -0.26199999 0.417 150 0 0 0 0.01857
3.0190001 -0.26800001 0.42500001 150 0 0 0 0.018580001
3.017 -0.27399999 0.433 150 0 0 0 0.01859
3.0109999 -0.27900001 0.44 150 0 0 0 0.0186
3.006 -0.28400001 0.447 150 0 0 0 0.018610001
2.9979999 -0.289 0.454 150 0 0 0 0.018619999
2.9990001 -0.29499999 0.46200001 150 0 0 0 0.01863
2.9879999 -0.30000001 0.46900001 133 0 0 0 0.01864
2.9820001 -0.30500001 0.47600001 150 0 0 0 0.018650001
2.9820001 -0.31099999 0.484 150 0 0 0 0.01866
2.994 -0.31799999 0.49399999 150 0 0 0 0.01867
3.0120001 -0.32600001 0.505 151 0 0 0 0.018680001
3.016 -0.33199999 0.514 151 0 0 0 0.018689999
2.9909999 -0.33500001 0.51700002 150 0 0 0 0.0187
2.967 -0.338 0.52100003 150 0 0 0 0.01871
2.9590001 -0.34299999 0.528 150 0 0 0 0.018719999
2.96 -0.34900001 0.53600001 150 0 0 0 0.01873
2.9579999 -0.35499999 0.54299998 150 0 0 0 0.01874
2.9630001 -0.361 0.55199999 150 0 0 0 0.018750001
2.9630001 -0.36700001 0.56 150 0 0 0 0.018759999
2.96 -0.373 0.56699997 150 0 0 0 0.01877
2.9630001 -0.37900001 0.57499999 150 0 0 0 0.018780001
2.9489999 -0.384 0.58099997 150 0 0 0 0.018789999
2.937 -0.38800001 0.58600003 150 0 0 0 0.0188
2.9349999 -0.39399999 0.59299999 150 0 0 0 0.01881
2.9260001 -0.39899999 0.59899998 150 0 0 0 0.018820001
2.9260001 -0.405 0.60699999 150 0 0 0 0.018829999
2.9130001 -0.40900001 0.61199999 150 0 0 0 0.01884
2.911 -0.41499999 0.61900002 150 0 0 0 0.018850001
2.908 -0.41999999 0.62599999 150 0 0 0 0.018859999
2.9100001 -0.42699999 0.634 150 0 0 0 0.01887
2.9070001 -0.43200001 0.64099997 150 0 0 0 0.01888
2.908 -0.43900001 0.64899999 150 0 0 0 0.018890001
2.902 -0.44400001 0.65499997 150 0 0 0 0.0189
2.9059999 -0.45100001 0.66299999 150 0 0 0 0.01891
2.8970001 -0.456 0.66900003 142 0 0 0 0.018920001
2.8770001 -0.458 0.67199999 69 0 0 0 0.018929999
2.855 -0.461 0.67400002 112 0 0 0 0.01894
2.848 -0.46599999 0.68000001 150 0 0 0 0.01895
2.8469999 -0.472 0.68699998 150 0 0 0 0.018959999
2.8510001 -0.479 0.69499999 150 0 0 0 0.01897
2.8510001 -0.48500001 0.70300001 150 0 0 0 0.01898
2.846 -0.49000001 0.70899999 150 0 0 0 0.018990001
2.848 -0.49700001 0.71700001 150 0 0 0 0.018999999
2.849 -0.50400001 0.72399998 125 0 0 0 0.01901
2.8469999 -0.50999999 0.73100001 50 0 0 0 0.01902
2.839 -0.514 0.736 38 0 0 0 0.019029999
2.836 -0.51999998 0.74299997 43 0 0 0 0.01904
2.825 -0.52499998 0.74699998 44 0 0 0 0.01905
2.816 -0.52899998 0.75199997 125 0 0 0 0.019060001
2.8080001 -0.53399998 0.75700003 150 0 0 0 0.019069999
2.806 -0.54000002 0.76300001 150 0 0 0 0.01908
2.8069999 -0.54699999 0.77100003 150 0 0 0 0.019090001
2.799 -0.551 0.77600002 116 0 0 0 0.019099999
2.7839999 -0.55500001 0.778 57 0 0 0 0.01911
2.776 -0.56 0.78299999 96 0 0 0 0.01912
2.779 -0.56699997 0.79100001 55 0 0 0 0.019130001
2.783 -0.574 0.79900002 42 0 0 0 0.01914
2.786 -0.58099997 0.80699998 72 0 0 0 0.01915
2.783 -0.58700001 0.81300002 86 0 0 0 0.019160001
2.789 -0.59500003 0.82099998 81 0 0 0 0.019169999
2.796 -0.60299999 0.83099997 53 0 0 0 0.01918
2.7739999 -0.60399997 0.83099997 40 0 0 0 0.01919
2.757 -0.60699999 0.833 70 0 0 0 0.019200001
2.753 -0.61299998 0.838 81 0 0 0 0.01921
2.756 -0.62 0.84600002 43 0 0 0 0.01922
2.7609999 -0.62800002 0.85399997 56 0 0 0 0.019230001
2.766 -0.63599998 0.86199999 101 0 0 0 0.019239999
2.7750001 -0.64399999 0.87199998 78 0 0 0 0.01925
2.7839999 -0.653 0.88099998 40 0 0 0 0.01926
2.7720001 -0.65700001 0.884 35 0 0 0 0.019269999
2.7579999 -0.66000003 0.88599998 97 0 0 0 0.01928
2.7579999 -0.667 0.89300001 150 0 0 0 0.01929
2.7550001 -0.67299998 0.89899999 150 0 0 0 0.019300001
2.7520001 -0.67900002 0.90399998 134 0 0 0 0.019309999
2.7409999 -0.68300003 0.90700001 79 0 0 0 0.01932
2.7520001 -0.69300002 0.917 39 0 0 0 0.019330001
2.7579999 -0.70099998 0.926 51 0 0 0 0.019339999
2.757 -0.708 0.93199998 89 0 0 0 0.01935
2.773 -0.71899998 0.94400001 101 0 0 0 0.01936
2.783 -0.72799999 0.95300001 138 0 0 0 0.019370001
2.776 -0.73400003 0.958 146 0 0 0 0.019379999
2.767 -0.73799998 0.96100003 74 0 0 0 0.01939
2.7520001 -0.741 0.96200001 35 0 0 0 0.019400001
2.7449999 -0.74599999 0.96600002 49 0 0 0 0.019409999
2.7379999 -0.75099999 0.97000003 56 0 0 0 0.01942
2.7160001 -0.75199997 0.96799999 86 0 0 0 0.01943
2.701 -0.755 0.96899998 150 0 0 0 0.019440001
2.6860001 -0.75800002 0.96899998 57 0 0 0 0.01945
2.6789999 -0.76200002 0.97299999 47 0 0 0 0.01946
2.6719999 -0.76700002 0.97600001 63 0 0 0 0.019470001
2.6760001 -0.77499998 0.98299998 59 0 0 0 0.019479999
2.6730001 -0.78100002 0.98799998 131 0 0 0 0.01949
2.671 -0.78799999 0.99299997 143 0 0 0 0.0195
2.6630001 -0.792 0.99599999 101 0 0 0 0.019509999
2.658 -0.79799998 1 42 0 0 0 0.01952
2.652 -0.80299997 1.003 56 0 0 0 0.01953
2.645 -0.80699998 1.006 91 0 0 0 0.019540001
2.6470001 -0.815 1.012 80 0 0 0 0.019549999
2.6600001 -0.82599998 1.023 138 0 0 0 0.01956
2.6619999 -0.83399999 1.029 134 0 0 0 0.01957
2.661 -0.83999997 1.034 63 0 0 0 0.019579999
2.6619999 -0.84799999 1.04 54 0 0 0 0.01959
2.655 -0.85299999 1.043 57 0 0 0 0.0196
2.658 -0.86000001 1.049 73 0 0 0 0.019610001
2.654 -0.866 1.053 131 0 0 0 0.019619999
2.654 -0.87300003 1.058 88 0 0 0 0.01963
2.664 -0.884 1.067 52 0 0 0 0.019640001
2.6860001 -0.898 1.081 50 0 0 0 0.019649999
2.6819999 -0.90399998 1.085 50 0 0 0 0.01966
2.6760001 -0.90899998 1.087 52 0 0 0 0.01967
2.671 -0.91399997 1.09 50 0 0 0 0.019680001
2.6600001 -0.91799998 1.091 87 0 0 0 0.01969
2.6530001 -0.92199999 1.0930001 150 0 0 0 0.0197
2.6459999 -0.92699999 1.095 150 0 0 0 0.019710001
2.6400001 -0.93199998 1.097 150 0 0 0 0.019719999
2.632 -0.93599999 1.098 150 0 0 0 0.01973
2.628 -0.94199997 1.101 108 0 0 0 0.01974
2.6229999 -0.94700003 1.104 76 0 0 0 0.019750001
2.612 -0.94999999 1.103 103 0 0 0 0.01976
2.612 -0.95700002 1.108 54 0 0 0 0.01977
2.618 -0.96600002 1.115 9 0 0 0 0.019780001
2.655 -0.98699999 1.135 0 0 0 0 0.019789999
2.773 -1.038 1.1900001 0 0 0 0 0.0198
2.7609999 -1.041 1.189 0 0 0 0 0.01981
3.2249999 -1.225 1.3940001 0 0 0 0 0.019819999
2.7349999 -1.046 1.187 0 0 0 0 0.01983
3.2460001 -1.25 1.413 0 0 0 0 0.01984
3.2249999 -1.251 1.409 0 0 0 0 0.019850001
3.2980001 -1.288 1.446 0 0 0 0 0.019859999
3.54 -1.392 1.557 0 0 0 0 0.01987
3.4170001 -1.352 1.508 0 0 0 0 0.019880001
3.2309999 -1.2869999 1.4299999 0 0 0 0 0.019889999
3.2679999 -1.311 1.451 0 0 0 0 0.0199
3.3469999 -1.351 1.4910001 0 0 0 0 0.01991
3.3629999 -1.3660001 1.502 0 0 0 0 0.019920001
3.4660001 -1.4170001 1.553 0 0 0 0 0.019929999
3.319 -1.3660001 1.4910001 0 0 0 0 0.01994
3.3010001 -1.367 1.487 0 0 0 0 0.019950001
3.3510001 -1.396 1.5140001 0 0 0 0 0.019959999
3.421 -1.4349999 1.549 0 0 0 0 0.01997
3.352 -1.414 1.522 0 0 0 0 0.01998
2.6700001 -1.133 1.215 1 0 0 0 0.019990001
2.654 -1.133 1.211 35 0 0 0 0.02
2.6470001 -1.137 1.211 150 0 0 0 0.02001
2.641 -1.141 1.21 150 0 0 0 0.020020001
2.6340001 -1.145 1.21 150 0 0 0 0.020029999
2.6359999 -1.152 1.2130001 150 0 0 0 0.02004
2.6359999 -1.159 1.216 83 0 0 0 0.02005
0 0 0 0 0 0 0 0.020059999
0 0 0 0 0 0 0 0.02007
0 0 0 0 0 0 0 0.02008
2.674 -1.202 1.242 150 0 0 0 0.020090001
2.6670001 -1.205 1.2410001 150 0 0 0 0.020099999
2.6689999 -1.212 1.244 150 0 0 0 0.02011
2.6659999 -1.217 1.244 150 0 0 0 0.02012
2.661 -1.221 1.244 150 0 0 0 0.020129999
2.6589999 -1.226 1.244 150 0 0 0 0.02014
2.6559999 -1.2309999 1.245 150 0 0 0 0.02015
0 0 0 0 0 0 0 0.020160001
0 0 0 0 0 0 0 0.020169999
3.9530001 -1.86 1.858 83 0 0 0 0.02018
3.9590001 -1.872 1.863 70 0 0 0 0.020190001
3.9619999 -1.882 1.8660001 70 0 0 0 0.020199999
3.948 -1.8839999 1.86 69 0 0 0 0.02021
3.9549999 -1.896 1.865 65 0 0 0 0.02022
3.95 -1.902 1.864 56 0 0 0 0.020230001
3.9549999 -1.913 1.867 63 0 0 0 0.02024
3.9489999 -1.918 1.865 67 0 0 0 0.02025
3.9549999 -1.929 1.869 76 0 0 0 0.020260001
3.9530001 -1.936 1.868 68 0 0 0 0.020269999
3.95 -1.943 1.867 68 0 0 0 0.02028
3.95 -1.951 1.868 76 0 0 0 0.02029
3.954 -1.96 1.869 80 0 0 0 0.020300001
3.947 -1.964 1.8660001 71 0 0 0 0.02031
3.951 -1.974 1.867 59 0 0 0 0.02032
3.951 -1.9809999 1.867 59 0 0 0 0.020330001
3.9489999 -1.987 1.865 72 0 0 0 0.020339999
3.9560001 -1.998 1.868 81 0 0 0 0.02035
3.9579999 -2.006 1.868 84 0 0 0 0.02036
3.957 -2.013 1.867 84 0 0 0 0.020369999
3.9649999 -2.023 1.869 84 0 0 0 0.02038
3.964 -2.029 1.867 73 0 0 0 0.02039
3.9660001 -2.0369999 1.8660001 71 0 0 0 0.020400001
3.974 -2.0469999 1.869 70 0 0 0 0.020409999
3.9790001 -2.056 1.869 77 0 0 0 0.02042
3.9790001 -2.062 1.867 77 0 0 0 0.02043
3.987 -2.072 1.869 86 0 0 0 0.020439999
3.99 -2.0799999 1.868 85 0 0 0 0.02045
3.9979999 -2.089 1.869 82 0 0 0 0.02046
4.0050001 -2.099 1.87 79 0 0 0 0.020470001
4.007 -2.105 1.868 71 0 0 0 0.020479999
4.013 -2.1140001 1.868 66 0 0 0 0.02049
4.026 -2.1259999 1.8710001 75 0 0 0 0.020500001
4.033 -2.1340001 1.8710001 82 0 0 0 0.020509999
4.04 -2.1429999 1.8710001 80 0 0 0 0.02052
4.0500002 -2.152 1.8710001 88 0 0 0 0.02053
4.059 -2.1619999 1.872 83 0 0 0 0.020540001
4.0619998 -2.1670001 1.869 87 0 0 0 0.02055
4.0679998 -2.175 1.868 90 0 0 0 0.02056
4.072 -2.181 1.865 84 0 0 0 0.020570001
4.0799999 -2.1889999 1.865 74 0 0 0 0.020579999
4.0929999 -2.2 1.8660001 85 0 0 0 0.02059
4.0900002 -2.201 1.86 77 0 0 0 0.0206
4.0970001 -2.2090001 1.858 50 0 0 0 0.020609999
4.099 -2.2130001 1.854 31 0 0 0 0.02062
4.098 -2.2149999 1.849 24 0 0 0 0.02063
4.1069999 -2.223 1.847 15 0 0 0 0.020640001
4.033 -2.1849999 1.808 6 0 0 0 0.020649999
3.8139999 -2.069 1.705 1 0 0 0 0.02066
3.776 -2.05 1.683 1 0 0 0 0.02067
3.789 -2.059 1.683 1 0 0 0 0.020679999
3.783 -2.0569999 1.675 0 0 0 0 0.02069
3.7839999 -2.059 1.67 0 0 0 0 0.0207
3.78 -2.059 1.663 0 0 0 0 0.020710001
0 0 0 0 0 0 0 0.020719999
0 0 0 0 0 0 0 0.02073
3.7539999 -2.0480001 1.633 0 0 0 0 0.020740001
3.7809999 -2.063 1.6390001 0 0 0 0 0.020749999
3.77 -2.0580001 1.628 1 0 0 0 0.02076
3.779 -2.063 1.625 1 0 0 0 0.02077
3.783 -2.0650001 1.62 1 0 0 0 0.020780001
3.7980001 -2.073 1.62 0 0 0 0 0.02079
3.7750001 -2.0610001 1.604 0 0 0 0 0.0208
0 0 0 0 0 0 0 0.020810001
0 0 0 0 0 0 0 0.020819999
0 0 0 0 0 0 0 0.02083
3.776 -2.059 1.576 0 0 0 0 0.02084
3.79 -2.066 1.575 0 0 0 0 0.020850001
3.799 -2.0699999 1.572 0 0 0 0 0.02086
3.7939999 -2.0650001 1.562 0 0 0 0 0.02087
3.7839999 -2.059 1.55 0 0 0 0 0.020880001
3.826 -2.0799999 1.5599999 0 0 0 0 0.020889999
3.779 -2.052 1.533 0 0 0 0 0.0209
3.789 -2.056 1.53 0 0 0 0 0.02091
3.8080001 -2.0639999 1.529 1 0 0 0 0.020919999
3.802 -2.0580001 1.5190001 1 0 0 0 0.02093
3.7980001 -2.0539999 1.51 1 0 0 0 0.02094
3.802 -2.053 1.503 0 0 0 0 0.020950001
3.8069999 -2.053 1.497 0 0 0 0 0.020959999
3.8529999 -2.075 1.507 0 0 0 0 0.02097
3.819 -2.0539999 1.485 0 0 0 0 0.02098
3.8110001 -2.0469999 1.474 0 0 0 0 0.020989999
3.825 -2.05 1.471 0 0 0 0 0.021
3.836 -2.053 1.467 0 0 0 0 0.02101
0 0 0 0 0 0 0 0.021020001
0 0 0 0 0 0 0 0.021029999
0 0 0 0 0 0 0 0.02104
3.8369999 -2.0369999 1.433 0 0 0 0 0.021050001
3.8310001 -2.03 1.4220001 0 0 0 0 0.021059999
3.8469999 -2.0339999 1.419 0 0 0 0 0.02107
0 0 0 0 0 0 0 0.02108
0 0 0 0 0 0 0 0.021090001
3.7980001 -1.995 1.375 0 0 0 0 0.0211
3.8429999 -2.013 1.382 0 0 0 0 0.02111
3.8599999 -2.017 1.38 0 0 0 0 0.021120001
3.8570001 -2.01 1.37 0 0 0 0 0.021129999
0 0 0 0 0 0 0 0.02114
3.8610001 -2.0009999 1.353 0 0 0 0 0.02115
3.8940001 -2.013 1.3559999 0 0 0 0 0.021159999
3.8770001 -1.998 1.341 0 0 0 0 0.02117
3.8110001 -1.9579999 1.309 0 0 0 0 0.02118
3.1949999 -1.637 1.089 1 0 0 0 0.021190001
3.2279999 -1.649 1.0930001 7 0 0 0 0.021199999
3.253 -1.656 1.094 10 0 0 0 0.02121
3.267 -1.658 1.091 9 0 0 0 0.02122
3.2149999 -1.626 1.066 2 0 0 0 0.021229999
3.878 -1.955 1.276 0 0 0 0 0.02124
3.914 -1.966 1.279 0 0 0 0 0.02125
3.901 -1.9529999 1.265 1 0 0 0 0.021260001
3.7639999 -1.877 1.212 1 0 0 0 0.021269999
3.3180001 -1.649 1.0599999 0 0 0 0 0.02128
3.723 -1.8430001 1.181 0 0 0 0 0.021290001
3.9330001 -1.9400001 1.238 0 0 0 0 0.021299999
3.9389999 -1.9349999 1.2309999 1 0 0 0 0.02131
3.951 -1.934 1.225 1 0 0 0 0.02132
3.947 -1.924 1.214 0 0 0 0 0.021330001
3.302 -1.603 1.008 7 0 0 0 0.02134
3.299 -1.595 0.99900001 46 0 0 0 0.02135
3.303 -1.59 0.99199998 61 0 0 0 0.021360001
3.3110001 -1.587 0.98699999 67 0 0 0 0.021369999
3.3139999 -1.582 0.98000002 65 0 0 0 0.02138
3.076 -1.462 0.90200001 150 0 0 0 0.02139
2.773 -1.312 0.80699998 151 0 0 0 0.021400001
2.6760001 -1.26 0.77200001 150 0 0 0 0.02141
2.6700001 -1.252 0.764 150 0 0 0 0.02142
2.6730001 -1.248 0.759 150 0 0 0 0.021430001
2.674 -1.242 0.75300002 150 0 0 0 0.021439999
2.6730001 -1.235 0.74599999 150 0 0 0 0.02145
2.6789999 -1.232 0.741 150 0 0 0 0.02146
2.6819999 -1.228 0.736 150 0 0 0 0.021469999
2.6800001 -1.22 0.72899997 150 0 0 0 0.02148
2.796 -1.267 0.75400001 80 0 0 0 0.02149
3.335 -1.5039999 0.89200002 9 0 0 0 0.021500001
2.8670001 -1.286 0.75999999 150 0 0 0 0.021509999
2.6489999 -1.182 0.69599998 117 0 0 0 0.02152
2.645 -1.174 0.68900001 150 0 0 0 0.02153
2.642 -1.166 0.68199998 150 0 0 0 0.021539999
2.654 -1.165 0.67900002 150 0 0 0 0.02155
2.6570001 -1.16 0.67400002 150 0 0 0 0.02156
2.668 -1.159 0.671 32 0 0 0 0.021570001
3.253 -1.405 0.81 4 0 0 0 0.021579999
2.9319999 -1.2589999 0.72299999 1 0 0 0 0.02159
2.954 -1.261 0.722 0 0 0 0 0.021600001
3.0090001 -1.277 0.72899997 0 0 0 0 0.021609999
2.898 -1.223 0.69499999 0 0 0 0 0.02162
2.98 -1.25 0.708 0 0 0 0 0.02163
3.016 -1.258 0.70999998 0 0 0 0 0.021640001
2.9920001 -1.24 0.69800001 0 0 0 0 0.02165
2.9189999 -1.202 0.67400002 0 0 0 0 0.02166
3.471 -1.421 0.79400003 1 0 0 0 0.021670001
3.5020001 -1.424 0.79299998 1 0 0 0 0.021679999
2.96 -1.196 0.66399997 0 0 0 0 0.02169
3.5469999 -1.424 0.78799999 1 0 0 0 0.0217
2.947 -1.176 0.648 0 0 0 0 0.021709999
2.983 -1.182 0.64999998 0 0 0 0 0.02172
2.921 -1.15 0.63 0 0 0 0 0.02173
2.7609999 -1.08 0.58899999 0 0 0 0 0.021740001
2.7409999 -1.0650001 0.579 0 0 0 0 0.021749999
2.7579999 -1.064 0.57700002 0 0 0 0 0.02176
2.7590001 -1.057 0.57099998 0 0 0 0 0.02177
2.6760001 -1.018 0.54900002 25 0 0 0 0.021779999
2.674 -1.01 0.54299998 150 0 0 0 0.02179
2.6730001 -1.003 0.537 143 0 0 0 0.0218
2.684 -0.99900001 0.53299999 112 0 0 0 0.021810001
2.6630001 -0.98400003 0.52399999 100 0 0 0 0.021819999
2.622 -0.96200001 0.50999999 43 0 0 0 0.02183
2.638 -0.96100003 0.50800002 60 0 0 0 0.021840001
2.664 -0.963 0.50800002 128 0 0 0 0.021849999
2.677 -0.95999998 0.50400001 150 0 0 0 0.02186
2.674 -0.95200002 0.498 147 0 0 0 0.02187
2.6719999 -0.94400001 0.493 84 0 0 0 0.021880001
2.6559999 -0.93099999 0.484 49 0 0 0 0.02189
2.6300001 -0.91399997 0.47400001 71 0 0 0 0.0219
2.6329999 -0.90799999 0.47 83 0 0 0 0.021910001
2.6559999 -0.90899998 0.46900001 52 0 0 0 0.021919999
2.6719999 -0.90700001 0.46599999 150 0 0 0 0.02193
2.674 -0.89999998 0.461 150 0 0 0 0.02194
2.681 -0.89499998 0.45699999 150 0 0 0 0.021950001
2.675 -0.88499999 0.45100001 150 0 0 0 0.02196
2.6459999 -0.86799997 0.44100001 150 0 0 0 0.02197
2.642 -0.86000001 0.435 150 0 0 0 0.021980001
2.6470001 -0.85399997 0.43099999 148 0 0 0 0.021989999
2.651 -0.847 0.426 118 0 0 0 0.022
2.6659999 -0.84500003 0.42399999 123 0 0 0 0.02201
2.668 -0.838 0.419 146 0 0 0 0.022019999
2.6670001 -0.82999998 0.414 149 0 0 0 0.02203
2.668 -0.82300001 0.40900001 146 0 0 0 0.02204
2.668 -0.815 0.40400001 150 0 0 0 0.022050001
2.675 -0.81 0.40000001 150 0 0 0 0.022059999
2.688 -0.80599999 0.39700001 119 0 0 0 0.02207
2.7060001 -0.80400002 0.39500001 105 0 0 0 0.02208
2.7609999 -0.81199998 0.398 118 0 0 0 0.022089999
2.7920001 -0.81300002 0.39700001 124 0 0 0 0.0221
2.756 -0.79500002 0.38699999 126 0 0 0 0.02211
2.7409999 -0.78200001 0.38 96 0 0 0 0.022120001
2.7449999 -0.77600002 0.375 115 0 0 0 0.022129999
2.7479999 -0.76899999 0.37099999 150 0 0 0 0.02214
2.753 -0.76200002 0.36700001 140 0 0 0 0.022150001
2.7709999 -0.759 0.36399999 117 0 0 0 0.022159999
2.7739999 -0.75199997 0.36000001 104 0 0 0 0.02217
2.7609999 -0.74000001 0.35299999 150 0 0 0 0.02218
2.7550001 -0.73100001 0.34799999 92 0 0 0 0.022190001
2.75 -0.722 0.34200001 99 0 0 0 0.0222
2.7520001 -0.71399999 0.338 113 0 0 0 0.02221
2.7590001 -0.708 0.33399999 125 0 0 0 0.022220001
2.7650001 -0.70099998 0.33000001 150 0 0 0 0.022229999
2.766 -0.69400001 0.32499999 150 0 0 0 0.02224
2.7820001 -0.69 0.322 48 0 0 0 0.02225
2.7650001 -0.67699999 0.31600001 55 0 0 0 0.022260001
2.744 -0.66399997 0.30899999 150 0 0 0 0.02227
2.763 -0.66100001 0.30599999 150 0 0 0 0.02228
2.8180001 -0.66600001 0.308 150 0 0 0 0.022290001
2.822 -0.65799999 0.30399999 150 0 0 0 0.022299999
2.8299999 -0.65200001 0.30000001 150 0 0 0 0.02231
2.783 -0.63300002 0.28999999 98 0 0 0 0.02232
2.773 -0.62300003 0.285 73 0 0 0 0.022329999
2.777 -0.61500001 0.28099999 57 0 0 0 0.02234
2.8069999 -0.61400002 0.27900001 57 0 0 0 0.02235
2.816 -0.60799998 0.27599999 110 0 0 0 0.022360001
2.816 -0.59899998 0.271 125 0 0 0 0.022369999
2.8099999 -0.58999997 0.266 146 0 0 0 0.02238
2.8099999 -0.58200002 0.26199999 150 0 0 0 0.022390001
2.812 -0.574 0.257 124 0 0 0 0.022399999
2.8169999 -0.56599998 0.25299999 131 0 0 0 0.02241
2.8169999 -0.55800003 0.249 89 0 0 0 0.02242
2.839 -0.55400002 0.24699999 66 0 0 0 0.022430001
2.8499999 -0.54799998 0.243 128 0 0 0 0.02244
2.868 -0.54299998 0.23999999 89 0 0 0 0.02245
2.9000001 -0.54000002 0.23899999 124 0 0 0 0.022460001
2.8970001 -0.53100002 0.234 136 0 0 0 0.022469999
2.8929999 -0.52200001 0.229 130 0 0 0 0.02248
2.8889999 -0.51300001 0.22499999 150 0 0 0 0.02249
2.8929999 -0.505 0.221 150 0 0 0 0.022500001
2.8929999 -0.49700001 0.21600001 115 0 0 0 0.02251
2.9170001 -0.49200001 0.214 101 0 0 0 0.02252
2.9449999 -0.48800001 0.211 144 0 0 0 0.022530001
2.9419999 -0.479 0.207 134 0 0 0 0.022539999
2.944 -0.47099999 0.20299999 135 0 0 0 0.02255
2.9460001 -0.46200001 0.199 105 0 0 0 0.02256
2.951 -0.454 0.19499999 121 0 0 0 0.022569999
2.9530001 -0.44600001 0.191 150 0 0 0 0.02258
2.9560001 -0.43799999 0.18700001 150 0 0 0 0.02259
2.9619999 -0.43000001 0.183 150 0 0 0 0.022600001
2.9630001 -0.421 0.178 150 0 0 0 0.022609999
2.971 -0.41299999 0.175 150 0 0 0 0.02262
2.9749999 -0.405 0.171 150 0 0 0 0.02263
2.983 -0.39700001 0.167 150 0 0 0 0.022639999
2.9960001 -0.38999999 0.164 150 0 0 0 0.02265
3.0020001 -0.382 0.16 150 0 0 0 0.02266
3.003 -0.373 0.156 150 0 0 0 0.022670001
3.003 -0.36399999 0.152 150 0 0 0 0.022679999
3.006 -0.35600001 0.148 150 0 0 0 0.02269
3.026 -0.34900001 0.145 150 0 0 0 0.022700001
3.023 -0.34 0.14 150 0 0 0 0.022709999
2.994 -0.32699999 0.13500001 150 0 0 0 0.02272
2.8870001 -0.30700001 0.126 150 0 0 0 0.02273
2.6960001 -0.27900001 0.114 62 0 0 0 0.022740001
2.6489999 -0.266 0.109 40 0 0 0 0.02275
2.6340001 -0.257 0.105 40 0 0 0 0.02276
2.619 -0.24699999 0.1 42 0 0 0 0.022770001
2.6059999 -0.23800001 0.097000003 48 0 0 0 0.022779999
2.585 -0.229 0.092 48 0 0 0 0.02279
2.573 -0.22 0.089000002 55 0 0 0 0.0228
2.5610001 -0.211 0.085000001 50 0 0 0 0.022810001
2.546 -0.20200001 0.081 48 0 0 0 0.02282
2.5380001 -0.19400001 0.078000002 71 0 0 0 0.02283
2.5179999 -0.185 0.074000001 51 0 0 0 0.022840001
2.5079999 -0.177 0.07 136 0 0 0 0.022849999
2.5050001 -0.169 0.067000002 123 0 0 0 0.02286
2.483 -0.16 0.063000001 44 0 0 0 0.02287
2.4660001 -0.152 0.059999999 52 0 0 0 0.022879999
2.4530001 -0.14399999 0.056000002 95 0 0 0 0.02289
2.441 -0.13600001 0.052999999 76 0 0 0 0.0229
2.424 -0.127 0.050000001 71 0 0 0 0.022910001
2.3989999 -0.119 0.046 50 0 0 0 0.022919999
2.3829999 -0.111 0.043000001 109 0 0 0 0.02293
2.3529999 -0.103 0.039999999 38 0 0 0 0.022940001
2.3099999 -0.093999997 0.035999998 32 0 0 0 0.022949999
2.2750001 -0.085000001 0.033 38 0 0 0 0.02296
2.2479999 -0.078000002 0.029999999 55 0 0 0 0.02297
2.2019999 -0.068999998 0.026000001 75 0 0 0 0.022980001
2.1760001 -0.061999999 0.023 85 0 0 0 0.02299
2.1259999 -0.054000001 0.02 27 0 0 0 0.023
2.0610001 -0.046 0.017000001 20 0 0 0 0.023010001
2.0239999 -0.039000001 0.014 24 0 0 0 0.023019999
1.999 -0.033 0.012 26 0 0 0 0.02303
1.976 -0.027000001 0.0099999998 26 0 0 0 0.02304
1.956 -0.02 0.0070000002 48 0 0 0 0.023050001
1.942 -0.014 0.0049999999 14 0 0 0 0.02306
1.931 -0.0080000004 0.003 15 0 0 0 0.02307
1.924 -0.003 0 88 0 0 0 0.023080001
1.915 0.0020000001 -0.001 102 0 0 0 0.023089999
1.909 0.0080000004 -0.003 133 0 0 0 0.0231
1.902 0.014 -0.0049999999 31 0 0 0 0.02311
1.902 0.02 -0.0070000002 20 0 0 0 0.023119999
1.8940001 0.025 -0.0089999996 28 0 0 0 0.02313
1.886 0.030999999 -0.011 36 0 0 0 0.02314
1.882 0.037 -0.014 20 0 0 0 0.023150001
1.877 0.041999999 -0.016000001 25 0 0 0 0.023159999
1.872 0.048 -0.017999999 99 0 0 0 0.02317
1.873 0.054000001 -0.02 128 0 0 0 0.02318
1.872 0.059 -0.022 116 0 0 0 0.023189999
1.8710001 0.064999998 -0.024 29 0 0 0 0.0232
1.854 0.07 -0.026000001 11 0 0 0 0.02321
1.823 0.074000001 -0.027000001 11 0 0 0 0.023220001
1.814 0.079999998 -0.028999999 12 0 0 0 0.023229999
1.793 0.083999999 -0.029999999 10 0 0 0 0.02324
1.774 0.089000002 -0.032000002 13 0 0 0 0.023250001
1.758 0.093000002 -0.034000002 23 0 0 0 0.023259999
1.7539999 0.097999997 -0.035 13 0 0 0 0.02327
1.745 0.103 -0.037 9 0 0 0 0.02328
1.7309999 0.108 -0.037999999 11 0 0 0 0.023290001
1.72 0.112 -0.039999999 17 0 0 0 0.0233
1.7180001 0.118 -0.041999999 18 0 0 0 0.02331
1.704 0.122 -0.043000001 11 0 0 0 0.023320001
1.6950001 0.126 -0.045000002 12 0 0 0 0.023329999
1.6900001 0.131 -0.046 12 0 0 0 0.02334
1.673 0.13500001 -0.046999998 10 0 0 0 0.02335
1.665 0.14 -0.048999999 13 0 0 0 0.023360001
1.6569999 0.14399999 -0.050000001 14 0 0 0 0.02337
1.645 0.148 -0.052000001 23 0 0 0 0.02338
1.6440001 0.153 -0.052999999 27 0 0 0 0.023390001
1.643 0.15800001 -0.055 9 0 0 0 0.023399999
1.624 0.161 -0.056000002 7 0 0 0 0.02341
1.601 0.164 -0.056000002 10 0 0 0 0.02342
1.596 0.168 -0.057999998 12 0 0 0 0.023429999
1.589 0.17299999 -0.059 12 0 0 0 0.02344
1.582 0.177 -0.059999999 11 0 0 0 0.02345
1.582 0.182 -0.061999999 9 0 0 0 0.023460001
1.573 0.186 -0.063000001 6 0 0 0 0.023469999
1.561 0.189 -0.064000003 3 0 0 0 0.02348
1.5549999 0.193 -0.064999998 1 0 0 0 0.023490001
1.538 0.19599999 -0.066 0 0 0 0 0.023499999
1.388 0.18099999 -0.061000001 0 0 0 0 0.02351
1.0470001 0.14 -0.046999998 0 0 0 0 0.02352
1.025 0.14 -0.046999998 0 0 0 0 0.023530001
1.036 0.145 -0.048 0 0 0 0 0.023539999
1.036 0.148 -0.048999999 0 0 0 0 0.02355
1.018 0.149 -0.048999999 0 0 0 0 0.023560001
1.011 0.15099999 -0.050000001 0 0 0 0 0.023569999
1.018 0.155 -0.050999999 0 0 0 0 0.02358
1.023 0.15899999 -0.052000001 0 0 0 0 0.02359
1.041 0.16500001 -0.054000001 0 0 0 0 0.023600001
1.0829999 0.176 -0.057 0 0 0 0 0.02361
1.135 0.18799999 -0.061000001 0 0 0 0 0.02362
1.152 0.19400001 -0.063000001 0 0 0 0 0.023630001
1.1720001 0.20100001 -0.064999998 0 0 0 0 0.023639999
0 0 0 0 0 0 0 0.02365
1.147 0.204 -0.064999998 0 0 0 0 0.02366
1.152 0.20900001 -0.066 0 0 0 0 0.023669999
1.158 0.214 -0.068000004 0 0 0 0 0.02368
1.145 0.215 -0.068000004 0 0 0 0 0.02369
1.108 0.212 -0.067000002 0 0 0 0 0.023700001
1.068 0.207 -0.064999998 0 0 0 0 0.023709999
1.058 0.20900001 -0.064999998 0 0 0 0 0.02372
1.0549999 0.212 -0.066 0 0 0 0 0.02373
1.057 0.215 -0.067000002 0 0 0 0 0.023739999
1.0599999 0.219 -0.068000004 0 0 0 0 0.02375
1.052 0.221 -0.068000004 0 0 0 0 0.02376
1.062 0.227 -0.07 0 0 0 0 0.023770001
1.061 0.23 -0.07 0 0 0 0 0.023779999
1.053 0.23199999 -0.071000002 0 0 0 0 0.02379
1.052 0.235 -0.071000002 0 0 0 0 0.023800001
1.0549999 0.23899999 -0.071999997 0 0 0 0 0.023809999
1.048 0.241 -0.072999999 0 0 0 0 0.02382
1.05 0.245 -0.074000001 0 0 0 0 0.02383
1.049 0.248 -0.074000001 0 0 0 0 0.023840001
1.061 0.25400001 -0.075999998 0 0 0 0 0.02385
1.077 0.26199999 -0.078000002 0 0 0 0 0.02386
1.094 0.26899999 -0.079999998 0 0 0 0 0.023870001
1.146 0.28600001 -0.083999999 0 0 0 0 0.023879999
1.148 0.28999999 -0.085000001 2 0 0 0 0.02389
1.1440001 0.29300001 -0.086000003 4 0 0 0 0.0239
1.1390001 0.29499999 -0.086000003 4 0 0 0 0.023910001
1.135 0.29800001 -0.086999997 4 0 0 0 0.02392
1.1339999 0.301 -0.086999997 5 0 0 0 0.02393
1.124 0.303 -0.086999997 5 0 0 0 0.023940001
1.123 0.30599999 -0.088 5 0 0 0 0.023949999
1.118 0.308 -0.088 5 0 0 0 0.02396
1.109 0.30899999 -0.088 5 0 0 0 0.02397
1.101 0.31099999 -0.088 5 0 0 0 0.023979999
1.099 0.31400001 -0.089000002 5 0 0 0 0.02399
1.097 0.317 -0.089000002 5 0 0 0 0.024
1.096 0.31999999 -0.090000004 5 0 0 0 0.024010001
1.09 0.322 -0.090000004 5 0 0 0 0.024019999
1.086 0.32499999 -0.090000004 5 0 0 0 0.02403
1.085 0.32800001 -0.090999998 5 0 0 0 0.024040001
1.081 0.331 -0.090999998 5 0 0 0 0.024049999
1.085 0.33500001 -0.092 4 0 0 0 0.02406
1.085 0.33899999 -0.093000002 4 0 0 0 0.02407
1.0829999 0.34200001 -0.093000002 5 0 0 0 0.024080001
1.081 0.345 -0.093000002 6 0 0 0 0.024089999
1.0829999 0.34900001 -0.093999997 7 0 0 0 0.0241
1.076 0.35100001 -0.093999997 29 0 0 0 0.024110001
1.073 0.35299999 -0.093999997 27 0 0 0 0.024119999
1.0700001 0.35600001 -0.093999997 22 0 0 0 0.02413
1.0700001 0.359 -0.094999999 21 0 0 0 0.02414
1.064 0.361 -0.094999999 21 0 0 0 0.024150001
1.058 0.36300001 -0.094999999 14 0 0 0 0.02416
1.054 0.36500001 -0.094999999 16 0 0 0 0.02417
1.057 0.36899999 -0.096000001 19 0 0 0 0.024180001
1.0470001 0.36899999 -0.094999999 21 0 0 0 0.024189999
1.044 0.37200001 -0.094999999 21 0 0 0 0.0242
1.038 0.373 -0.094999999 20 0 0 0 0.02421
1.038 0.377 -0.096000001 22 0 0 0 0.024219999
1.0369999 0.38 -0.096000001 23 0 0 0 0.02423
1.031 0.38100001 -0.096000001 19 0 0 0 0.02424
1.034 0.38600001 -0.096000001 16 0 0 0 0.024250001
1.026 0.38600001 -0.096000001 17 0 0 0 0.024259999
1.026 0.38999999 -0.096000001 20 0 0 0 0.02427
1.025 0.39300001 -0.097000003 19 0 0 0 0.02428
1.027 0.39700001 -0.097000003 19 0 0 0 0.024289999
1.018 0.39700001 -0.097000003 23 0 0 0 0.0243
1.027 0.40400001 -0.097999997 25 0 0 0 0.02431
1.0190001 0.40400001 -0.097000003 22 0 0 0 0.024320001
1.023 0.41 -0.097999997 16 0 0 0 0.024329999
1.03 0.41600001 -0.098999999 10 0 0 0 0.02434
1.0319999 0.41999999 -0.098999999 9 0 0 0 0.024350001
1.04 0.42699999 -0.1 15 0 0 0 0.024359999
1.035 0.428 -0.1 23 0 0 0 0.02437
1.036 0.433 -0.1 25 0 0 0 0.02438
1.033 0.435 -0.1 21 0 0 0 0.024390001
1.0319999 0.43799999 -0.1 17 0 0 0 0.0244
1.0319999 0.442 -0.101 16 0 0 0 0.02441
1.036 0.44600001 -0.101 13 0 0 0 0.024420001
1.0319999 0.44800001 -0.101 14 0 0 0 0.024429999
1.038 0.454 -0.101 14 0 0 0 0.02444
1.033 0.456 -0.101 11 0 0 0 0.02445
1.043 0.46399999 -0.102 8 0 0 0 0.024460001
1.046 0.46900001 -0.103 6 0 0 0 0.02447
1.052 0.47499999 -0.103 5 0 0 0 0.02448
1.059 0.48199999 -0.104 7 0 0 0 0.024490001
1.058 0.48500001 -0.104 28 0 0 0 0.024499999
1.054 0.486 -0.104 63 0 0 0 0.02451
1.05 0.48800001 -0.103 66 0 0 0 0.02452
1.051 0.49200001 -0.103 55 0 0 0 0.024529999
1.052 0.49599999 -0.103 47 0 0 0 0.02454
1.0700001 0.50800002 -0.105 34 0 0 0 0.02455
1.118 0.53500003 -0.11 34 0 0 0 0.024560001
1.1569999 0.55800003 -0.114 36 0 0 0 0.024569999
1.1720001 0.56800002 -0.115 55 0 0 0 0.02458
1.175 0.574 -0.115 49 0 0 0 0.024590001
1.166 0.57300001 -0.114 48 0 0 0 0.024599999
1.164 0.57700002 -0.114 50 0 0 0 0.02461
1.16 0.57800001 -0.113 45 0 0 0 0.02462
1.152 0.57800001 -0.112 47 0 0 0 0.024630001
1.152 0.58200002 -0.112 47 0 0 0 0.024639999
1.148 0.58399999 -0.112 48 0 0 0 0.02465
1.141 0.58399999 -0.111 45 0 0 0 0.024660001
1.1390001 0.58700001 -0.11 45 0 0 0 0.024669999
1.135 0.588 -0.11 50 0 0 0 0.02468
1.1339999 0.59100002 -0.109 45 0 0 0 0.02469
1.1289999 0.59200001 -0.108 41 0 0 0 0.024700001
1.123 0.59299999 -0.108 45 0 0 0 0.02471
1.126 0.59799999 -0.107 41 0 0 0 0.02472
1.1160001 0.597 -0.106 43 0 0 0 0.024730001
1.12 0.602 -0.106 36 0 0 0 0.024739999
1.108 0.59899998 -0.105 40 0 0 0 0.02475
1.107 0.602 -0.104 37 0 0 0 0.02476
1.107 0.60600001 -0.104 42 0 0 0 0.024769999
1.104 0.60799998 -0.103 39 0 0 0 0.02478
1.097 0.60699999 -0.102 40 0 0 0 0.02479
1.095 0.61000001 -0.101 39 0 0 0 0.024800001
1.094 0.61299998 -0.101 39 0 0 0 0.024809999
1.09 0.61400002 -0.1 39 0 0 0 0.02482
1.089 0.616 -0.098999999 42 0 0 0 0.02483
1.085 0.61699998 -0.097999997 40 0 0 0 0.024839999
1.0779999 0.616 -0.097000003 42 0 0 0 0.02485
1.077 0.61900002 -0.097000003 44 0 0 0 0.02486
1.08 0.62400001 -0.096000001 42 0 0 0 0.024870001
1.074 0.62400001 -0.094999999 46 0 0 0 0.024879999
1.073 0.62699997 -0.094999999 41 0 0 0 0.02489
1.071 0.62900001 -0.093999997 49 0 0 0 0.024900001
1.067 0.62900001 -0.093000002 49 0 0 0 0.024909999
1.067 0.63200003 -0.092 58 0 0 0 0.02492
1.0650001 0.63499999 -0.090999998 61 0 0 0 0.02493
1.066 0.63800001 -0.090999998 58 0 0 0 0.024940001
1.0650001 0.64099997 -0.090000004 49 0 0 0 0.02495
1.072 0.64700001 -0.090000004 44 0 0 0 0.02496
1.071 0.64999998 -0.089000002 33 0 0 0 0.024970001
1.0700001 0.65200001 -0.088 35 0 0 0 0.024979999
1.075 0.65799999 -0.086999997 32 0 0 0 0.02499
1.074 0.66100001 -0.086999997 33 0 0 0 0.025
1.076 0.66500002 -0.086000003 31 0 0 0 0.025010001
1.082 0.671 -0.086000003 31 0 0 0 0.02502
1.0779999 0.67199999 -0.083999999 27 0 0 0 0.02503
1.081 0.67699999 -0.083999999 25 0 0 0 0.025040001
1.084 0.68099999 -0.082999997 23 0 0 0 0.025049999
1.0829999 0.68300003 -0.082000002 25 0 0 0 0.02506
1.0880001 0.68900001 -0.081 27 0 0 0 0.02507
1.087 0.69099998 -0.079999998 27 0 0 0 0.025079999
1.091 0.69599998 -0.079999998 26 0 0 0 0.02509
1.0930001 0.69999999 -0.079000004 30 0 0 0 0.0251
1.094 0.704 -0.078000002 31 0 0 0 0.025110001
1.092 0.70499998 -0.077 29 0 0 0 0.025119999
1.094 0.708 -0.075999998 33 0 0 0 0.02513
1.097 0.713 -0.075000003 32 0 0 0 0.025140001
1.098 0.71600002 -0.074000001 32 0 0 0 0.025149999
1.099 0.71899998 -0.072999999 32 0 0 0 0.02516
1.098 0.72100002 -0.071000002 32 0 0 0 0.02517
1.099 0.72399998 -0.07 35 0 0 0 0.025180001
1.103 0.72899997 -0.068999998 33 0 0 0 0.025189999
1.102 0.73100001 -0.068000004 34 0 0 0 0.0252
1.107 0.736 -0.067000002 36 0 0 0 0.025210001
1.107 0.73799998 -0.066 36 0 0 0 0.025219999
1.103 0.73699999 -0.064999998 39 0 0 0 0.02523
1.108 0.74299997 -0.064000003 34 0 0 0 0.02524
1.109 0.74599999 -0.061999999 39 0 0 0 0.025250001
1.1109999 0.74900001 -0.061000001 33 0 0 0 0.02526
1.113 0.75199997 -0.059999999 37 0 0 0 0.02527
1.114 0.755 -0.059 30 0 0 0 0.025280001
1.114 0.75599998 -0.057 37 0 0 0 0.025289999
1.091 0.74299997 -0.055 150 0 0 0 0.0253
1.0930001 0.74599999 -0.054000001 150 0 0 0 0.02531
1.115 0.76300001 -0.052999999 35 0 0 0 0.025319999
1.12 0.76700002 -0.052000001 34 0 0 0 0.02533
1.12 0.76899999 -0.050999999 29 0 0 0 0.02534
1.1 0.75700003 -0.048 150 0 0 0 0.025350001
1.122 0.773 -0.048 30 0 0 0 0.025359999
1.125 0.77600002 -0.046999998 27 0 0 0 0.02537
1.126 0.77899998 -0.045000002 27 0 0 0 0.02538
1.124 0.77899998 -0.044 29 0 0 0 0.025389999
1.131 0.78500003 -0.041999999 22 0 0 0 0.0254
1.133 0.787 -0.041000001 24 0 0 0 0.02541
1.137 0.79100001 -0.039000001 23 0 0 0 0.025420001
1.137 0.792 -0.037999999 22 0 0 0 0.025429999
1.138 0.79400003 -0.037 24 0 0 0 0.02544
1.145 0.80000001 -0.035 33 0 0 0 0.025450001
1.153 0.80599999 -0.034000002 39 0 0 0 0.025459999
1.149 0.80500001 -0.032000002 46 0 0 0 0.02547
1.1569999 0.81099999 -0.030999999 60 0 0 0 0.02548
1.1339999 0.79500002 -0.028999999 150 0 0 0 0.025490001
1.158 0.81300002 -0.028000001 76 0 0 0 0.0255
