# .PCD v0.7 - Point Cloud Data file format
VERSION 0.7
FIELDS x y z intensity normal_x normal_y normal_z curvature
SIZE 4 4 4 4 4 4 4 4
TYPE F F F F F F F F
COUNT 1 1 1 1 1 1 1 1
WIDTH 1018
HEIGHT 1
VIEWPOINT 0 0 0 1 0 0 0
POINTS 1018
DATA ascii
2.302 -0.99000001 -0.56900001 150 0 0 0 0.06673
2.3 -0.995 -0.57300001 150 0 0 0 0.066739999
2.302 -1.001 -0.579 150 0 0 0 0.066749997
2.293 -1.003 -0.58200002 92 0 0 0 0.066760004
2.2690001 -0.99800003 -0.58099997 31 0 0 0 0.066770002
2.2539999 -0.99699998 -0.583 28 0 0 0 0.066780001
2.2349999 -0.99400002 -0.583 28 0 0 0 0.06679
2.223 -0.99400002 -0.58499998 24 0 0 0 0.066799998
2.1860001 -0.98199999 -0.57999998 20 0 0 0 0.066809997
2.119 -0.95700002 -0.56699997 18 0 0 0 0.066820003
2.1099999 -0.958 -0.56999999 26 0 0 0 0.066830002
2.1059999 -0.96100003 -0.574 26 0 0 0 0.06684
2.0929999 -0.95999998 -0.57499999 21 0 0 0 0.066849999
2.0969999 -0.96600002 -0.58099997 15 0 0 0 0.066859998
2.0910001 -0.96799999 -0.58399999 16 0 0 0 0.066869996
2.0810001 -0.96799999 -0.58700001 21 0 0 0 0.066880003
2.0599999 -0.963 -0.58499998 27 0 0 0 0.066890001
2.0480001 -0.96100003 -0.58700001 28 0 0 0 0.0669
2.0339999 -0.95899999 -0.588 28 0 0 0 0.066909999
2.0150001 -0.954 -0.58700001 28 0 0 0 0.066919997
2 -0.95200002 -0.58700001 28 0 0 0 0.066930003
1.985 -0.949 -0.588 28 0 0 0 0.066940002
1.969 -0.94499999 -0.588 28 0 0 0 0.066950001
1.9579999 -0.94400001 -0.58899999 28 0 0 0 0.06696
1.944 -0.94099998 -0.58899999 29 0 0 0 0.066969998
1.937 -0.94099998 -0.59200001 31 0 0 0 0.066979997
1.928 -0.94099998 -0.59399998 33 0 0 0 0.066990003
1.9119999 -0.93699998 -0.59299999 33 0 0 0 0.067000002
1.8940001 -0.93199998 -0.59200001 30 0 0 0 0.06701
1.88 -0.92799997 -0.59299999 31 0 0 0 0.067019999
1.869 -0.926 -0.59399998 30 0 0 0 0.067029998
1.851 -0.921 -0.59200001 30 0 0 0 0.067039996
1.8380001 -0.91799998 -0.59299999 33 0 0 0 0.067050003
1.825 -0.91399997 -0.59299999 31 0 0 0 0.067060001
1.8150001 -0.912 -0.59399998 32 0 0 0 0.06707
1.806 -0.91100001 -0.59500003 33 0 0 0 0.067079999
1.788 -0.90499997 -0.59299999 33 0 0 0 0.067089997
1.781 -0.90399998 -0.59500003 33 0 0 0 0.067100003
1.767 -0.89999998 -0.59500003 33 0 0 0 0.067110002
1.758 -0.89899999 -0.59600002 33 0 0 0 0.067120001
1.745 -0.89499998 -0.59600002 36 0 0 0 0.067129999
1.735 -0.89200002 -0.59600002 39 0 0 0 0.067139998
1.726 -0.88999999 -0.597 34 0 0 0 0.067149997
1.714 -0.88700002 -0.597 24 0 0 0 0.067160003
1.701 -0.88200003 -0.597 20 0 0 0 0.067170002
1.689 -0.87900001 -0.59600002 24 0 0 0 0.06718
1.678 -0.875 -0.59600002 34 0 0 0 0.067189999
1.674 -0.87599999 -0.59899998 46 0 0 0 0.067199998
1.668 -0.875 -0.60100001 37 0 0 0 0.067209996
1.6619999 -0.87300003 -0.602 27 0 0 0 0.067220002
1.6569999 -0.87300003 -0.60399997 21 0 0 0 0.067230001
1.655 -0.87400001 -0.60699999 20 0 0 0 0.06724
1.652 -0.87400001 -0.61000001 5 0 0 0 0.067249998
1.674 -0.88800001 -0.62199998 32 0 0 0 0.067259997
1.75 -0.93000001 -0.65399998 93 0 0 0 0.067270003
1.794 -0.95499998 -0.67500001 125 0 0 0 0.067280002
1.846 -0.98500001 -0.69800001 87 0 0 0 0.067290001
1.905 -1.018 -0.72500002 38 0 0 0 0.067299999
1.924 -1.03 -0.736 36 0 0 0 0.067309998
1.91 -1.025 -0.73500001 38 0 0 0 0.067319997
1.904 -1.023 -0.73699999 43 0 0 0 0.067330003
1.89 -1.017 -0.736 47 0 0 0 0.067340001
1.88 -1.013 -0.736 49 0 0 0 0.06735
1.875 -1.012 -0.73799998 44 0 0 0 0.067359999
1.864 -1.007 -0.73699999 40 0 0 0 0.067369998
1.852 -1.002 -0.73699999 42 0 0 0 0.067380004
1.84 -0.99699998 -0.736 47 0 0 0 0.067390002
1.834 -0.995 -0.73699999 52 0 0 0 0.067400001
1.826 -0.991 -0.73699999 52 0 0 0 0.06741
1.819 -0.98799998 -0.73900002 55 0 0 0 0.067419998
1.811 -0.98500001 -0.73900002 68 0 0 0 0.067429997
1.804 -0.98199999 -0.74000001 80 0 0 0 0.067440003
1.795 -0.977 -0.73900002 86 0 0 0 0.067450002
1.789 -0.97500002 -0.74000001 85 0 0 0 0.067460001
1.7819999 -0.97100002 -0.741 64 0 0 0 0.067469999
1.77 -0.96499997 -0.73900002 32 0 0 0 0.067479998
1.766 -0.96399999 -0.741 19 0 0 0 0.067489997
1.755 -0.958 -0.73900002 14 0 0 0 0.067500003
1.734 -0.94599998 -0.73400003 9 0 0 0 0.067510001
1.733 -0.94599998 -0.73699999 16 0 0 0 0.06752
1.728 -0.94300002 -0.73699999 18 0 0 0 0.067529999
1.729 -0.94400001 -0.741 24 0 0 0 0.067539997
1.721 -0.94 -0.741 29 0 0 0 0.067550004
1.717 -0.93699998 -0.74199998 38 0 0 0 0.067560002
1.711 -0.93300003 -0.74199998 49 0 0 0 0.067570001
1.7029999 -0.92900002 -0.741 75 0 0 0 0.06758
1.696 -0.92500001 -0.741 102 0 0 0 0.067589998
1.696 -0.92500001 -0.74400002 106 0 0 0 0.067599997
1.688 -0.92000002 -0.74299997 96 0 0 0 0.067610003
1.6849999 -0.917 -0.74400002 86 0 0 0 0.067620002
1.684 -0.91600001 -0.74599999 69 0 0 0 0.06763
1.679 -0.912 -0.74599999 57 0 0 0 0.067639999
1.674 -0.90899998 -0.74599999 69 0 0 0 0.067649998
1.668 -0.90499997 -0.74599999 86 0 0 0 0.067659996
1.661 -0.89999998 -0.745 87 0 0 0 0.067670003
1.661 -0.89899999 -0.74699998 106 0 0 0 0.067680001
1.654 -0.89399999 -0.74599999 105 0 0 0 0.06769
1.651 -0.89099997 -0.74699998 109 0 0 0 0.067699999
1.646 -0.88700002 -0.74699998 100 0 0 0 0.067709997
1.642 -0.884 -0.74699998 74 0 0 0 0.067720003
1.641 -0.88099998 -0.74800003 67 0 0 0 0.067730002
1.633 -0.87599999 -0.74599999 59 0 0 0 0.067740001
1.628 -0.87099999 -0.74599999 56 0 0 0 0.067749999
1.625 -0.86900002 -0.74599999 60 0 0 0 0.067759998
1.623 -0.866 -0.74699998 85 0 0 0 0.067769997
1.617 -0.86000001 -0.745 106 0 0 0 0.067780003
1.615 -0.85799998 -0.74599999 127 0 0 0 0.067790002
1.61 -0.85399997 -0.745 150 0 0 0 0.0678
1.6109999 -0.852 -0.74699998 150 0 0 0 0.067809999
1.613 -0.85100001 -0.75 150 0 0 0 0.067819998
1.608 -0.84600002 -0.74800003 150 0 0 0 0.067829996
1.6059999 -0.84299999 -0.74800003 150 0 0 0 0.067840002
1.604 -0.83999997 -0.74900001 150 0 0 0 0.067850001
1.6059999 -0.83899999 -0.75099999 150 0 0 0 0.06786
1.603 -0.83499998 -0.75 150 0 0 0 0.067869999
1.6 -0.83099997 -0.75 83 0 0 0 0.067879997
1.597 -0.82700002 -0.74900001 29 0 0 0 0.067890003
1.592 -0.82200003 -0.74800003 18 0 0 0 0.067900002
1.586 -0.81599998 -0.745 14 0 0 0 0.067910001
1.58 -0.81099999 -0.74299997 13 0 0 0 0.067919999
1.572 -0.80400002 -0.74000001 11 0 0 0 0.067929998
1.567 -0.79900002 -0.73900002 9 0 0 0 0.067939997
1.5599999 -0.79299998 -0.736 8 0 0 0 0.067950003
1.562 -0.79100001 -0.73699999 5 0 0 0 0.067960002
1.5650001 -0.79000002 -0.73900002 4 0 0 0 0.06797
1.567 -0.78799999 -0.74000001 3 0 0 0 0.067979999
1.586 -0.79500002 -0.74900001 4 0 0 0 0.067989998
1.596 -0.79699999 -0.75400001 7 0 0 0 0.068000004
1.601 -0.796 -0.75599998 13 0 0 0 0.068010002
1.601 -0.79299998 -0.75599998 14 0 0 0 0.068020001
1.6 -0.78899997 -0.75599998 14 0 0 0 0.06803
1.6 -0.78600001 -0.75599998 14 0 0 0 0.068039998
1.599 -0.78299999 -0.755 13 0 0 0 0.068049997
1.601 -0.77999997 -0.75599998 13 0 0 0 0.068060003
1.6 -0.77600002 -0.755 11 0 0 0 0.068070002
1.601 -0.77399999 -0.75599998 12 0 0 0 0.068080001
1.6 -0.76999998 -0.755 13 0 0 0 0.068089999
1.601 -0.76599997 -0.75400001 18 0 0 0 0.068099998
1.599 -0.76200002 -0.75300002 26 0 0 0 0.068109997
1.599 -0.759 -0.75300002 31 0 0 0 0.068120003
1.603 -0.75700003 -0.75400001 42 0 0 0 0.068130001
1.6059999 -0.755 -0.75400001 53 0 0 0 0.06814
1.602 -0.74900001 -0.75199997 68 0 0 0 0.068149999
1.603 -0.74599999 -0.75099999 76 0 0 0 0.068159997
1.602 -0.74199998 -0.75 74 0 0 0 0.068170004
1.609 -0.74199998 -0.75300002 77 0 0 0 0.068180002
1.613 -0.73900002 -0.75300002 73 0 0 0 0.068190001
1.615 -0.736 -0.75300002 82 0 0 0 0.0682
1.617 -0.73299998 -0.75300002 100 0 0 0 0.068209998
1.62 -0.73100001 -0.75300002 132 0 0 0 0.068219997
1.623 -0.72899997 -0.75300002 140 0 0 0 0.068230003
1.631 -0.72799999 -0.75599998 94 0 0 0 0.068240002
1.632 -0.72399998 -0.755 73 0 0 0 0.06825
1.633 -0.72100002 -0.75400001 74 0 0 0 0.068259999
1.637 -0.71899998 -0.75400001 86 0 0 0 0.068269998
1.638 -0.71499997 -0.75300002 93 0 0 0 0.068279997
1.6440001 -0.713 -0.75400001 89 0 0 0 0.068290003
1.647 -0.71100003 -0.75400001 92 0 0 0 0.068300001
1.652 -0.708 -0.755 96 0 0 0 0.06831
1.656 -0.70599997 -0.755 75 0 0 0 0.068319999
1.66 -0.704 -0.755 63 0 0 0 0.068329997
1.663 -0.70099998 -0.75400001 60 0 0 0 0.068340003
1.6720001 -0.69999999 -0.75700003 16 0 0 0 0.068350002
1.6720001 -0.69599998 -0.755 54 0 0 0 0.068360001
1.682 -0.69599998 -0.75700003 15 0 0 0 0.06837
1.676 -0.68900001 -0.75199997 70 0 0 0 0.068379998
1.692 -0.69099998 -0.75700003 0 0 0 0 0.068389997
1.691 -0.68599999 -0.755 29 0 0 0 0.068400003
1.694 -0.68300003 -0.75400001 43 0 0 0 0.068410002
1.697 -0.68000001 -0.75300002 88 0 0 0 0.06842
1.697 -0.67500001 -0.75 99 0 0 0 0.068429999
1.709 -0.67500001 -0.75300002 19 0 0 0 0.068439998
1.716 -0.67299998 -0.75400001 122 0 0 0 0.068449996
1.7180001 -0.67000002 -0.75199997 129 0 0 0 0.068460003
1.728 -0.66900003 -0.75400001 87 0 0 0 0.068470001
1.732 -0.66600001 -0.75300002 25 0 0 0 0.06848
1.733 -0.662 -0.75099999 13 0 0 0 0.068489999
1.72 -0.65200001 -0.74299997 5 0 0 0 0.068499997
1.599 -0.602 -0.68800002 0 0 0 0 0.068510003
1.5779999 -0.58999997 -0.676 0 0 0 0 0.068520002
1.574 -0.58399999 -0.67199999 0 0 0 0 0.068530001
1.5700001 -0.57800001 -0.66799998 0 0 0 0 0.068539999
1.584 -0.579 -0.671 0 0 0 0 0.068549998
1.589 -0.57700002 -0.67000002 0 0 0 0 0.068559997
1.615 -0.58200002 -0.67900002 0 0 0 0 0.068570003
1.7869999 -0.639 -0.74800003 7 0 0 0 0.068580002
1.808 -0.64200002 -0.75300002 18 0 0 0 0.06859
1.821 -0.64200002 -0.75599998 34 0 0 0 0.068599999
1.8150001 -0.63499999 -0.75 60 0 0 0 0.068609998
1.8329999 -0.63599998 -0.75400001 48 0 0 0 0.068619996
1.842 -0.63499999 -0.75400001 50 0 0 0 0.068630002
1.848 -0.63200003 -0.75300002 54 0 0 0 0.068640001
1.853 -0.62800002 -0.75199997 65 0 0 0 0.06865
1.863 -0.62699997 -0.75199997 39 0 0 0 0.068659998
1.8710001 -0.625 -0.75199997 45 0 0 0 0.068669997
1.881 -0.62300003 -0.75199997 40 0 0 0 0.068680003
1.891 -0.62099999 -0.75300002 31 0 0 0 0.068690002
1.899 -0.61900002 -0.75199997 25 0 0 0 0.068700001
1.91 -0.61699998 -0.75300002 24 0 0 0 0.068709999
1.923 -0.616 -0.75400001 23 0 0 0 0.068719998
1.928 -0.61299998 -0.75199997 24 0 0 0 0.068729997
1.943 -0.61199999 -0.75400001 26 0 0 0 0.068740003
1.952 -0.61000001 -0.75300002 25 0 0 0 0.068750001
1.961 -0.60799998 -0.75300002 24 0 0 0 0.06876
1.97 -0.60600001 -0.75199997 27 0 0 0 0.068769999
1.983 -0.60399997 -0.75300002 40 0 0 0 0.068779998
1.987 -0.60000002 -0.75 54 0 0 0 0.068790004
1.993 -0.597 -0.74800003 40 0 0 0 0.068800002
2.0120001 -0.597 -0.75099999 62 0 0 0 0.068810001
2.027 -0.597 -0.75199997 129 0 0 0 0.06882
2.036 -0.59399998 -0.75099999 130 0 0 0 0.068829998
2.0450001 -0.59100002 -0.75 53 0 0 0 0.068839997
2.0550001 -0.58899999 -0.74900001 35 0 0 0 0.068850003
2.0680001 -0.58700001 -0.74900001 43 0 0 0 0.068860002
2.0780001 -0.58499998 -0.74800003 40 0 0 0 0.068870001
2.0999999 -0.58600003 -0.75199997 31 0 0 0 0.068879999
2.1110001 -0.583 -0.75099999 36 0 0 0 0.068889998
2.1259999 -0.58200002 -0.75199997 26 0 0 0 0.068899997
2.1359999 -0.579 -0.75 20 0 0 0 0.068910003
2.1440001 -0.57599998 -0.74800003 14 0 0 0 0.068920001
2.151 -0.57200003 -0.745 6 0 0 0 0.06893
2.1489999 -0.56599998 -0.74000001 12 0 0 0 0.068939999
2.1489999 -0.56099999 -0.73500001 14 0 0 0 0.068949997
2.1719999 -0.56199998 -0.73799998 14 0 0 0 0.068960004
2.207 -0.565 -0.745 17 0 0 0 0.068970002
2.2409999 -0.56900001 -0.75099999 22 0 0 0 0.068980001
2.256 -0.56699997 -0.75 26 0 0 0 0.06899
2.2720001 -0.565 -0.75 25 0 0 0 0.068999998
2.2850001 -0.56300002 -0.74900001 27 0 0 0 0.069009997
2.299 -0.56099999 -0.74900001 28 0 0 0 0.069020003
2.319 -0.56 -0.74900001 22 0 0 0 0.069030002
2.336 -0.55800003 -0.74900001 21 0 0 0 0.06904
2.348 -0.55599999 -0.74800003 21 0 0 0 0.069049999
2.365 -0.55400002 -0.74699998 22 0 0 0 0.069059998
2.3829999 -0.55199999 -0.74699998 21 0 0 0 0.069069996
2.4059999 -0.55199999 -0.74800003 19 0 0 0 0.069080003
2.4189999 -0.54900002 -0.74699998 19 0 0 0 0.069090001
2.4449999 -0.54900002 -0.74900001 22 0 0 0 0.0691
2.464 -0.54699999 -0.74800003 28 0 0 0 0.069109999
2.471 -0.54299998 -0.745 30 0 0 0 0.069119997
2.493 -0.542 -0.745 28 0 0 0 0.069130003
2.5079999 -0.53899997 -0.74400002 34 0 0 0 0.069140002
2.5220001 -0.537 -0.741 39 0 0 0 0.069150001
2.5480001 -0.53600001 -0.74299997 35 0 0 0 0.069159999
2.5550001 -0.53200001 -0.73799998 19 0 0 0 0.069169998
2.5639999 -0.52700001 -0.73400003 2 0 0 0 0.069179997
2.5550001 -0.51999998 -0.72500002 1 0 0 0 0.069190003
2.5580001 -0.514 -0.72000003 1 0 0 0 0.069200002
2.556 -0.50800002 -0.713 1 0 0 0 0.06921
2.576 -0.50599998 -0.71200001 1 0 0 0 0.069219999
2.579 -0.50099999 -0.70599997 1 0 0 0 0.069229998
2.5840001 -0.49599999 -0.70099998 1 0 0 0 0.069239996
2.6129999 -0.49599999 -0.70200002 1 0 0 0 0.069250003
2.6440001 -0.495 -0.704 1 0 0 0 0.069260001
2.6470001 -0.49000001 -0.69800001 1 0 0 0 0.06927
2.779 -0.50800002 -0.72600001 4 0 0 0 0.069279999
2.858 -0.51700002 -0.73900002 24 0 0 0 0.069289997
2.8789999 -0.514 -0.73699999 48 0 0 0 0.069300003
2.9089999 -0.51300001 -0.73799998 63 0 0 0 0.069310002
2.9400001 -0.51200002 -0.73799998 134 0 0 0 0.069320001
2.9660001 -0.50999999 -0.73699999 64 0 0 0 0.069329999
2.973 -0.50400001 -0.73100001 52 0 0 0 0.069339998
2.9749999 -0.498 -0.72399998 141 0 0 0 0.069349997
2.9690001 -0.491 -0.71499997 150 0 0 0 0.069360003
2.9719999 -0.48500001 -0.708 125 0 0 0 0.069370002
2.997 -0.48300001 -0.70599997 84 0 0 0 0.06938
3.006 -0.47799999 -0.69999999 150 0 0 0 0.069389999
3.016 -0.47299999 -0.69499999 150 0 0 0 0.069399998
3.0369999 -0.47 -0.69199997 150 0 0 0 0.069410004
3.0799999 -0.47 -0.69300002 150 0 0 0 0.069420002
3.178 -0.47799999 -0.70700002 150 0 0 0 0.069430001
3.4920001 -0.51800001 -0.76800001 29 0 0 0 0.06944
3.5380001 -0.51700002 -0.76899999 26 0 0 0 0.069449998
3.5840001 -0.51700002 -0.76899999 38 0 0 0 0.069459997
3.6010001 -0.51200002 -0.764 53 0 0 0 0.069470003
3.609 -0.505 -0.75599998 58 0 0 0 0.069480002
3.6140001 -0.498 -0.74699998 61 0 0 0 0.069490001
3.6170001 -0.491 -0.73799998 45 0 0 0 0.069499999
3.6300001 -0.48500001 -0.73100001 33 0 0 0 0.069509998
3.7130001 -0.48899999 -0.73900002 36 0 0 0 0.069519997
3.8570001 -0.5 -0.75700003 36 0 0 0 0.069530003
3.944 -0.50300002 -0.764 20 0 0 0 0.069540001
4.0029998 -0.50300002 -0.764 17 0 0 0 0.06955
4.0450001 -0.5 -0.76200002 19 0 0 0 0.069559999
4.1030002 -0.49900001 -0.76200002 16 0 0 0 0.069569997
4.1589999 -0.49700001 -0.76099998 17 0 0 0 0.069580004
4.2189999 -0.49599999 -0.76099998 17 0 0 0 0.069590002
3.687 -0.426 -0.65499997 150 0 0 0 0.069600001
3.5109999 -0.39899999 -0.61400002 151 0 0 0 0.06961
3.4030001 -0.38 -0.58600003 150 0 0 0 0.069619998
3.395 -0.37200001 -0.57599998 150 0 0 0 0.069629997
3.3970001 -0.366 -0.56699997 150 0 0 0 0.069640003
3.3970001 -0.359 -0.55800003 150 0 0 0 0.069650002
3.3959999 -0.352 -0.54900002 150 0 0 0 0.069660001
3.392 -0.345 -0.53899997 150 0 0 0 0.069669999
3.3929999 -0.33899999 -0.52999997 150 0 0 0 0.069679998
3.392 -0.33199999 -0.52100003 150 0 0 0 0.069689997
3.3929999 -0.32600001 -0.51200002 150 0 0 0 0.069700003
3.3929999 -0.31900001 -0.50300002 150 0 0 0 0.069710001
3.3889999 -0.31299999 -0.493 150 0 0 0 0.06972
3.3889999 -0.30599999 -0.484 150 0 0 0 0.069729999
3.3900001 -0.30000001 -0.47499999 150 0 0 0 0.069739997
3.395 -0.294 -0.46700001 150 0 0 0 0.069750004
3.391 -0.287 -0.45699999 150 0 0 0 0.069760002
3.3900001 -0.28099999 -0.44800001 150 0 0 0 0.069770001
3.388 -0.27399999 -0.43799999 150 0 0 0 0.06978
3.388 -0.26800001 -0.42899999 150 0 0 0 0.069789998
3.3870001 -0.26199999 -0.41999999 150 0 0 0 0.069799997
3.3900001 -0.25600001 -0.41100001 150 0 0 0 0.069810003
3.385 -0.249 -0.40099999 150 0 0 0 0.069820002
3.3840001 -0.243 -0.39199999 150 0 0 0 0.06983
3.382 -0.236 -0.382 150 0 0 0 0.069839999
3.323 -0.226 -0.36700001 150 0 0 0 0.069849998
3.2709999 -0.21699999 -0.352 150 0 0 0 0.069859996
3.2590001 -0.20999999 -0.34200001 150 0 0 0 0.069870003
3.253 -0.204 -0.333 150 0 0 0 0.069880001
3.2550001 -0.198 -0.324 150 0 0 0 0.06989
3.257 -0.192 -0.315 150 0 0 0 0.069899999
3.257 -0.18700001 -0.30599999 150 0 0 0 0.069909997
3.2520001 -0.18000001 -0.29699999 150 0 0 0 0.069920003
3.253 -0.175 -0.28799999 150 0 0 0 0.069930002
3.2249999 -0.167 -0.27700001 150 0 0 0 0.069940001
3.221 -0.162 -0.26800001 150 0 0 0 0.069949999
3.2409999 -0.15700001 -0.25999999 150 0 0 0 0.069959998
3.244 -0.15099999 -0.252 150 0 0 0 0.069969997
3.2379999 -0.145 -0.242 150 0 0 0 0.069980003
3.2309999 -0.14 -0.233 150 0 0 0 0.069990002
3.233 -0.134 -0.22400001 150 0 0 0 0.07
3.234 -0.12800001 -0.215 150 0 0 0 0.070009999
3.237 -0.123 -0.207 150 0 0 0 0.070019998
3.2290001 -0.117 -0.197 150 0 0 0 0.070029996
3.2390001 -0.112 -0.189 150 0 0 0 0.070040002
3.2390001 -0.106 -0.18000001 150 0 0 0 0.070050001
3.2360001 -0.101 -0.171 150 0 0 0 0.07006
3.2379999 -0.094999999 -0.162 150 0 0 0 0.070069999
3.2390001 -0.090000004 -0.153 150 0 0 0 0.070079997
3.233 -0.083999999 -0.14399999 150 0 0 0 0.070090003
3.233 -0.079000004 -0.13500001 150 0 0 0 0.070100002
3.2360001 -0.072999999 -0.126 150 0 0 0 0.070110001
3.2320001 -0.068000004 -0.117 150 0 0 0 0.070119999
3.2320001 -0.063000001 -0.108 150 0 0 0 0.070129998
3.2309999 -0.057 -0.098999999 150 0 0 0 0.070139997
3.2320001 -0.052000001 -0.090000004 150 0 0 0 0.070150003
3.233 -0.046 -0.081 150 0 0 0 0.070160002
3.2249999 -0.041000001 -0.071999997 150 0 0 0 0.07017
3.23 -0.035999998 -0.063000001 150 0 0 0 0.070179999
3.23 -0.029999999 -0.054000001 150 0 0 0 0.070189998
3.2260001 -0.025 -0.045000002 150 0 0 0 0.070200004
3.23 -0.02 -0.035999998 150 0 0 0 0.070210002
3.2260001 -0.015 -0.027000001 150 0 0 0 0.070220001
3.224 -0.0089999996 -0.017999999 150 0 0 0 0.07023
3.2030001 -0.0040000002 -0.0089999996 150 0 0 0 0.070239998
3.1630001 0 0 150 0 0 0 0.070249997
3.2409999 0.0049999999 0.0089999996 151 0 0 0 0.070260003
3.618 0.012 0.02 152 0 0 0 0.070270002
3.882 0.018999999 0.032000002 150 0 0 0 0.070280001
4.4489999 0.028999999 0.050000001 0 0 0 0 0.070289999
0 0 0 0 0 0 0 0.070299998
0 0 0 0 0 0 0 0.070309997
4.559 0.050999999 0.090000004 0 0 0 0 0.070320003
4.494 0.057 0.101 0 0 0 0 0.070330001
4.566 0.064999998 0.115 0 0 0 0 0.07034
4.552 0.071999997 0.12800001 0 0 0 0 0.070349999
4.5500002 0.079000004 0.141 1 0 0 0 0.070359997
4.5570002 0.086999997 0.154 0 0 0 0 0.070370004
4.5180001 0.093000002 0.16599999 0 0 0 0 0.070380002
4.5359998 0.1 0.17900001 0 0 0 0 0.070390001
4.5370002 0.107 0.192 0 0 0 0 0.0704
0 0 0 0 0 0 0 0.070409998
4.5409999 0.121 0.21799999 0 0 0 0 0.070419997
4.5510001 0.12800001 0.23199999 0 0 0 0 0.070430003
4.5560002 0.13500001 0.245 0 0 0 0 0.070440002
4.52 0.141 0.25600001 8 0 0 0 0.07045
4.494 0.147 0.26800001 63 0 0 0 0.070459999
4.4879999 0.154 0.28 150 0 0 0 0.070469998
4.4860001 0.16 0.29300001 150 0 0 0 0.070479997
4.4840002 0.167 0.30599999 150 0 0 0 0.070490003
4.494 0.17399999 0.31900001 56 0 0 0 0.070500001
4.4879999 0.18000001 0.33199999 4 0 0 0 0.07051
3.7460001 0.156 0.28799999 0 0 0 0 0.070519999
3.747 0.162 0.29899999 44 0 0 0 0.070529997
3.7190001 0.16599999 0.30700001 62 0 0 0 0.070540003
3.7 0.171 0.31600001 85 0 0 0 0.070550002
3.698 0.176 0.32699999 136 0 0 0 0.070560001
3.697 0.18099999 0.338 150 0 0 0 0.07057
3.694 0.186 0.34799999 150 0 0 0 0.070579998
3.6930001 0.192 0.359 150 0 0 0 0.070589997
3.6949999 0.197 0.37 150 0 0 0 0.070600003
3.691 0.20200001 0.38 150 0 0 0 0.070610002
3.6889999 0.207 0.391 150 0 0 0 0.07062
3.6900001 0.213 0.40200001 150 0 0 0 0.070629999
3.678 0.21699999 0.41100001 129 0 0 0 0.070639998
3.677 0.223 0.42199999 110 0 0 0 0.070649996
3.7119999 0.23 0.43700001 107 0 0 0 0.070660003
3.7539999 0.23800001 0.45300001 122 0 0 0 0.070670001
3.7539999 0.243 0.46399999 150 0 0 0 0.07068
3.1819999 0.20999999 0.403 151 0 0 0 0.070689999
3.056 0.206 0.396 152 0 0 0 0.070699997
3.006 0.207 0.39899999 151 0 0 0 0.070710003
2.9619999 0.208 0.40200001 151 0 0 0 0.070720002
2.964 0.212 0.41100001 151 0 0 0 0.070730001
2.9549999 0.21600001 0.41800001 151 0 0 0 0.070739999
2.954 0.22 0.42699999 151 0 0 0 0.070749998
2.9519999 0.22400001 0.43599999 151 0 0 0 0.070759997
2.9549999 0.228 0.44499999 151 0 0 0 0.070770003
2.9560001 0.23199999 0.454 151 0 0 0 0.070780002
2.9489999 0.236 0.46200001 151 0 0 0 0.07079
2.948 0.23899999 0.47 151 0 0 0 0.070799999
2.951 0.244 0.47999999 151 0 0 0 0.070809998
2.9489999 0.24699999 0.48800001 150 0 0 0 0.070819996
3.02 0.257 0.509 150 0 0 0 0.070830002
3.1199999 0.27000001 0.53600001 150 0 0 0 0.070840001
3.576 0.31400001 0.625 39 0 0 0 0.07085
3.4219999 0.30500001 0.60799998 60 0 0 0 0.070859998
3.099 0.28 0.56 120 0 0 0 0.070869997
2.95 0.271 0.542 150 0 0 0 0.070880003
2.901 0.27000001 0.542 150 0 0 0 0.070890002
2.898 0.273 0.55000001 150 0 0 0 0.070900001
2.8959999 0.27700001 0.55900002 151 0 0 0 0.070909999
2.895 0.28099999 0.56800002 151 0 0 0 0.070919998
2.8970001 0.28400001 0.57700002 151 0 0 0 0.070929997
2.8970001 0.28799999 0.58600003 151 0 0 0 0.070940003
2.9000001 0.292 0.59500003 150 0 0 0 0.070950001
2.895 0.29499999 0.60299999 150 0 0 0 0.07096
2.898 0.29899999 0.61299998 67 0 0 0 0.070969999
2.9130001 0.30399999 0.625 31 0 0 0 0.070979998
2.948 0.31200001 0.64200002 24 0 0 0 0.070990004
3.6989999 0.396 0.81699997 3 0 0 0 0.071000002
3.0880001 0.33399999 0.69099998 0 0 0 0 0.071010001
3.197 0.34999999 0.72600001 1 0 0 0 0.07102
3.2490001 0.359 0.74800003 0 0 0 0 0.071029998
3.2950001 0.368 0.76899999 0 0 0 0 0.071039997
3.296 0.37200001 0.77899998 0 0 0 0 0.071050003
3.289 0.375 0.78799999 0 0 0 0 0.071060002
3.283 0.37900001 0.79699999 0 0 0 0 0.071070001
3.286 0.38299999 0.80800003 1 0 0 0 0.071079999
3.345 0.39399999 0.833 0 0 0 0 0.071089998
3.4070001 0.405 0.85900003 0 0 0 0 0.071099997
3.3889999 0.40700001 0.86500001 0 0 0 0 0.071110003
3.4300001 0.41600001 0.88700002 0 0 0 0 0.071120001
3.5940001 0.44 0.94 0 0 0 0 0.07113
3.609 0.44600001 0.95599997 0 0 0 0 0.071139999
3.618 0.45100001 0.97000003 0 0 0 0 0.071149997
3.6199999 0.45500001 0.98199999 0 0 0 0 0.071160004
3.3759999 0.428 0.926 0 0 0 0 0.071170002
2.888 0.36899999 0.80199999 0 0 0 0 0.071180001
2.8900001 0.373 0.81099999 0 0 0 0 0.07119
2.905 0.37799999 0.82499999 0 0 0 0 0.071199998
2.9330001 0.384 0.84200001 0 0 0 0 0.071209997
2.95 0.38999999 0.85699999 0 0 0 0 0.071220003
2.8940001 0.38600001 0.85000002 0 0 0 0 0.071230002
2.9360001 0.39399999 0.87199998 0 0 0 0 0.07124
2.904 0.39300001 0.87099999 0 0 0 0 0.071249999
2.915 0.398 0.884 0 0 0 0 0.071259998
2.9000001 0.398 0.889 0 0 0 0 0.071269996
2.8929999 0.40000001 0.89600003 0 0 0 0 0.071280003
2.928 0.40799999 0.917 0 0 0 0 0.071290001
2.938 0.41299999 0.92900002 0 0 0 0 0.0713
2.9000001 0.41 0.92699999 0 0 0 0 0.071309999
2.875 0.40900001 0.92799997 0 0 0 0 0.071319997
2.918 0.41800001 0.95099998 0 0 0 0 0.071330003
2.9419999 0.42500001 0.96899998 0 0 0 0 0.071340002
2.905 0.42199999 0.96600002 0 0 0 0 0.071350001
2.925 0.428 0.98299998 0 0 0 0 0.071359999
2.914 0.42899999 0.98900002 0 0 0 0 0.071369998
2.937 0.435 1.006 0 0 0 0 0.071379997
2.9059999 0.433 1.005 0 0 0 0 0.071390003
2.901 0.435 1.013 0 0 0 0 0.071400002
2.918 0.44 1.028 0 0 0 0 0.07141
2.9430001 0.44600001 1.0470001 0 0 0 0 0.071419999
2.9189999 0.44499999 1.048 0 0 0 0 0.071429998
2.9330001 0.44999999 1.063 0 0 0 0 0.071439996
2.964 0.45699999 1.084 0 0 0 0 0.071450002
2.983 0.463 1.101 0 0 0 0 0.071460001
2.925 0.456 1.089 0 0 0 0 0.07147
2.911 0.456 1.0930001 0 0 0 0 0.071479999
2.8759999 0.45300001 1.089 0 0 0 0 0.071489997
2.911 0.461 1.113 0 0 0 0 0.071500003
2.8599999 0.45500001 1.103 0 0 0 0 0.071510002
2.816 0.44999999 1.095 0 0 0 0 0.071520001
2.786 0.44800001 1.0930001 7 0 0 0 0.071529999
2.783 0.449 1.101 20 0 0 0 0.071539998
2.7780001 0.44999999 1.108 32 0 0 0 0.071549997
2.779 0.45199999 1.118 45 0 0 0 0.071560003
2.777 0.454 1.126 58 0 0 0 0.071570002
2.777 0.456 1.135 65 0 0 0 0.07158
2.7780001 0.458 1.145 71 0 0 0 0.071589999
2.776 0.46000001 1.154 68 0 0 0 0.071599998
2.78 0.46200001 1.164 68 0 0 0 0.071610004
2.7809999 0.46399999 1.174 74 0 0 0 0.071620002
2.779 0.465 1.182 72 0 0 0 0.071630001
2.7820001 0.46799999 1.193 67 0 0 0 0.07164
2.7820001 0.46900001 1.202 65 0 0 0 0.071649998
2.783 0.47099999 1.212 66 0 0 0 0.071659997
2.7780001 0.472 1.219 62 0 0 0 0.071670003
2.7820001 0.47400001 1.23 57 0 0 0 0.071680002
2.7780001 0.47499999 1.238 54 0 0 0 0.071690001
2.7780001 0.47600001 1.247 53 0 0 0 0.071699999
2.776 0.477 1.255 52 0 0 0 0.071709998
2.7780001 0.479 1.265 50 0 0 0 0.071719997
2.777 0.47999999 1.274 50 0 0 0 0.071730003
2.777 0.48199999 1.283 50 0 0 0 0.071740001
2.776 0.48300001 1.2920001 53 0 0 0 0.07175
2.776 0.484 1.301 56 0 0 0 0.071759999
2.779 0.486 1.312 61 0 0 0 0.071769997
2.78 0.48699999 1.321 66 0 0 0 0.071780004
2.786 0.48899999 1.334 69 0 0 0 0.071790002
2.7850001 0.49000001 1.342 76 0 0 0 0.071800001
2.7850001 0.491 1.351 82 0 0 0 0.07181
2.786 0.49200001 1.3609999 89 0 0 0 0.071819998
2.777 0.491 1.3660001 86 0 0 0 0.071829997
2.7820001 0.493 1.377 83 0 0 0 0.071840003
2.7809999 0.49399999 1.386 78 0 0 0 0.071850002
2.783 0.495 1.396 78 0 0 0 0.07186
2.779 0.495 1.403 77 0 0 0 0.071869999
2.777 0.495 1.411 76 0 0 0 0.071879998
2.779 0.49599999 1.421 75 0 0 0 0.071889997
2.777 0.49599999 1.429 68 0 0 0 0.071900003
2.7750001 0.49599999 1.437 66 0 0 0 0.071910001
2.7750001 0.49700001 1.446 62 0 0 0 0.07192
2.776 0.49700001 1.455 60 0 0 0 0.071929999
2.779 0.498 1.466 64 0 0 0 0.071939997
2.7780001 0.498 1.474 70 0 0 0 0.071950004
2.776 0.498 1.482 71 0 0 0 0.071960002
2.78 0.49900001 1.492 68 0 0 0 0.071970001
2.786 0.5 1.5039999 72 0 0 0 0.07198
2.783 0.5 1.511 74 0 0 0 0.071989998
2.7850001 0.5 1.521 85 0 0 0 0.071999997
2.7850001 0.5 1.53 139 0 0 0 0.072010003
2.7820001 0.5 1.5369999 150 0 0 0 0.072020002
2.7880001 0.5 1.548 150 0 0 0 0.07203
2.7850001 0.5 1.556 140 0 0 0 0.072039999
2.7850001 0.5 1.564 143 0 0 0 0.072049998
2.7869999 0.5 1.573 120 0 0 0 0.072059996
2.7909999 0.5 1.584 107 0 0 0 0.072070003
2.7909999 0.5 1.592 119 0 0 0 0.072080001
2.789 0.49900001 1.599 128 0 0 0 0.07209
2.7920001 0.49900001 1.609 146 0 0 0 0.072099999
2.79 0.498 1.6160001 150 0 0 0 0.072109997
2.7850001 0.49599999 1.6210001 150 0 0 0 0.072120003
2.779 0.49399999 1.626 150 0 0 0 0.072130002
2.7780001 0.493 1.633 150 0 0 0 0.072140001
2.7780001 0.49200001 1.641 150 0 0 0 0.072149999
2.78 0.49200001 1.65 150 0 0 0 0.072159998
2.78 0.491 1.6569999 150 0 0 0 0.072169997
2.7750001 0.48899999 1.6619999 150 0 0 0 0.072180003
2.7609999 0.486 1.661 120 0 0 0 0.072190002
2.7479999 0.48199999 1.661 97 0 0 0 0.0722
2.7320001 0.47799999 1.659 99 0 0 0 0.072209999
2.724 0.47600001 1.661 96 0 0 0 0.072219998
2.71 0.472 1.659 97 0 0 0 0.072229996
2.698 0.46900001 1.659 97 0 0 0 0.072240002
2.6849999 0.465 1.658 101 0 0 0 0.072250001
2.675 0.46200001 1.659 100 0 0 0 0.07226
2.661 0.458 1.6569999 95 0 0 0 0.072269998
2.654 0.45500001 1.659 96 0 0 0 0.072279997
2.642 0.45100001 1.658 94 0 0 0 0.072290003
2.632 0.44800001 1.658 95 0 0 0 0.072300002
2.619 0.44400001 1.656 93 0 0 0 0.072310001
2.6110001 0.44100001 1.6569999 95 0 0 0 0.072319999
2.605 0.43799999 1.659 96 0 0 0 0.072329998
2.5940001 0.435 1.658 97 0 0 0 0.072339997
2.5840001 0.43099999 1.6569999 97 0 0 0 0.072350003
2.5710001 0.42699999 1.655 98 0 0 0 0.072360002
2.566 0.42399999 1.6569999 109 0 0 0 0.07237
2.556 0.421 1.656 97 0 0 0 0.072379999
2.5450001 0.417 1.654 98 0 0 0 0.072389998
2.54 0.414 1.656 106 0 0 0 0.072400004
2.5339999 0.41100001 1.6569999 98 0 0 0 0.072410002
2.523 0.40700001 1.655 95 0 0 0 0.072420001
2.52 0.40400001 1.658 99 0 0 0 0.07243
2.51 0.40000001 1.656 96 0 0 0 0.072439998
2.5020001 0.39700001 1.655 104 0 0 0 0.072449997
2.4979999 0.39399999 1.6569999 99 0 0 0 0.072460003
2.4849999 0.389 1.652 97 0 0 0 0.072470002
2.4809999 0.38600001 1.654 94 0 0 0 0.072480001
2.4760001 0.38299999 1.655 103 0 0 0 0.072489999
2.471 0.38 1.655 99 0 0 0 0.072499998
2.4649999 0.37599999 1.656 105 0 0 0 0.072509997
2.4549999 0.37200001 1.653 105 0 0 0 0.072520003
2.4519999 0.36899999 1.654 110 0 0 0 0.072530001
2.4449999 0.36500001 1.653 116 0 0 0 0.07254
2.4419999 0.36199999 1.654 113 0 0 0 0.072549999
2.438 0.359 1.655 120 0 0 0 0.072559997
2.434 0.35499999 1.655 125 0 0 0 0.072570004
2.4319999 0.352 1.656 127 0 0 0 0.072580002
2.424 0.34799999 1.654 117 0 0 0 0.072590001
2.421 0.345 1.655 110 0 0 0 0.0726
2.4200001 0.34200001 1.656 117 0 0 0 0.072609998
2.4130001 0.338 1.654 113 0 0 0 0.072619997
2.4119999 0.33500001 1.656 112 0 0 0 0.072630003
2.411 0.331 1.6569999 111 0 0 0 0.072640002
2.4059999 0.32800001 1.656 112 0 0 0 0.07265
2.402 0.324 1.655 113 0 0 0 0.072659999
2.4000001 0.32100001 1.656 113 0 0 0 0.072669998
2.3989999 0.31799999 1.6569999 111 0 0 0 0.072679996
2.398 0.31400001 1.658 111 0 0 0 0.072690003
2.3970001 0.31099999 1.658 119 0 0 0 0.072700001
2.3889999 0.30700001 1.654 107 0 0 0 0.07271
2.3889999 0.303 1.655 109 0 0 0 0.072719999
2.391 0.30000001 1.658 110 0 0 0 0.072729997
2.3870001 0.29699999 1.656 104 0 0 0 0.072740003
2.3859999 0.29300001 1.656 112 0 0 0 0.072750002
2.3840001 0.28999999 1.655 117 0 0 0 0.072760001
2.3859999 0.287 1.6569999 109 0 0 0 0.07277
2.3859999 0.28299999 1.658 112 0 0 0 0.072779998
2.3859999 0.28 1.658 109 0 0 0 0.072789997
2.3840001 0.27599999 1.656 110 0 0 0 0.072800003
2.388 0.273 1.659 105 0 0 0 0.072810002
2.3870001 0.27000001 1.658 111 0 0 0 0.07282
2.385 0.266 1.6569999 108 0 0 0 0.072829999
2.3859999 0.26199999 1.6569999 110 0 0 0 0.072839998
2.3889999 0.259 1.658 113 0 0 0 0.072849996
2.392 0.25600001 1.659 104 0 0 0 0.072860003
2.391 0.252 1.658 104 0 0 0 0.072870001
2.391 0.249 1.658 107 0 0 0 0.07288
2.392 0.24600001 1.6569999 114 0 0 0 0.072889999
2.395 0.242 1.6569999 111 0 0 0 0.072899997
2.395 0.23899999 1.6569999 119 0 0 0 0.072910003
2.3989999 0.235 1.658 116 0 0 0 0.072920002
2.4030001 0.23199999 1.659 113 0 0 0 0.072930001
2.4030001 0.229 1.6569999 122 0 0 0 0.072939999
2.408 0.22499999 1.659 113 0 0 0 0.072949998
2.411 0.222 1.659 121 0 0 0 0.072959997
2.415 0.219 1.659 118 0 0 0 0.072970003
2.4159999 0.215 1.658 110 0 0 0 0.072980002
2.421 0.212 1.659 105 0 0 0 0.07299
2.424 0.208 1.658 101 0 0 0 0.072999999
2.4289999 0.205 1.659 117 0 0 0 0.073009998
2.4319999 0.20200001 1.658 117 0 0 0 0.073019996
2.4349999 0.198 1.658 118 0 0 0 0.073030002
2.441 0.19499999 1.659 119 0 0 0 0.073040001
2.441 0.191 1.656 116 0 0 0 0.07305
2.4489999 0.18799999 1.658 119 0 0 0 0.073059998
2.4549999 0.185 1.659 113 0 0 0 0.073069997
2.4590001 0.182 1.658 111 0 0 0 0.073080003
2.4649999 0.17900001 1.658 113 0 0 0 0.073090002
2.4719999 0.175 1.659 107 0 0 0 0.073100001
2.4779999 0.17200001 1.659 101 0 0 0 0.073109999
2.4849999 0.169 1.66 102 0 0 0 0.073119998
2.4890001 0.16599999 1.659 99 0 0 0 0.073129997
2.494 0.162 1.658 96 0 0 0 0.073140003
2.5020001 0.15899999 1.659 103 0 0 0 0.073150001
2.5109999 0.156 1.66 90 0 0 0 0.07316
2.5190001 0.153 1.661 106 0 0 0 0.073169999
2.526 0.15000001 1.661 99 0 0 0 0.073179998
2.536 0.147 1.663 102 0 0 0 0.073190004
2.5450001 0.14399999 1.664 99 0 0 0 0.073200002
2.5550001 0.141 1.665 105 0 0 0 0.073210001
2.559 0.13699999 1.663 95 0 0 0 0.07322
2.566 0.134 1.6619999 92 0 0 0 0.073229998
2.579 0.131 1.665 101 0 0 0 0.073239997
2.5840001 0.12800001 1.663 97 0 0 0 0.073250003
2.5969999 0.125 1.665 97 0 0 0 0.073260002
2.605 0.122 1.664 94 0 0 0 0.073270001
2.6129999 0.119 1.664 85 0 0 0 0.073279999
2.6240001 0.116 1.665 85 0 0 0 0.073289998
2.6340001 0.113 1.665 91 0 0 0 0.073299997
2.6429999 0.11 1.665 91 0 0 0 0.073310003
2.6500001 0.107 1.663 85 0 0 0 0.073320001
2.665 0.104 1.666 88 0 0 0 0.07333
2.674 0.101 1.665 87 0 0 0 0.073339999
2.6849999 0.097999997 1.665 86 0 0 0 0.073349997
2.7 0.094999999 1.6670001 89 0 0 0 0.073360004
2.711 0.092 1.668 88 0 0 0 0.073370002
2.721 0.089000002 1.6670001 85 0 0 0 0.073380001
2.7390001 0.086000003 1.67 87 0 0 0 0.07339
2.7520001 0.082999997 1.6720001 89 0 0 0 0.073399998
2.7620001 0.079999998 1.67 87 0 0 0 0.073409997
2.776 0.077 1.671 90 0 0 0 0.073420003
2.79 0.074000001 1.6720001 89 0 0 0 0.073430002
2.803 0.071000002 1.6720001 126 0 0 0 0.07344
2.816 0.068000004 1.6720001 150 0 0 0 0.073449999
2.819 0.064999998 1.666 150 0 0 0 0.073459998
2.8199999 0.061999999 1.659 150 0 0 0 0.073469996
2.8169999 0.059 1.649 150 0 0 0 0.073480003
2.822 0.056000002 1.6440001 150 0 0 0 0.073490001
2.8399999 0.052999999 1.646 150 0 0 0 0.0735
2.8670001 0.050999999 1.654 150 0 0 0 0.073509999
2.8900001 0.048 1.658 150 0 0 0 0.073519997
2.8959999 0.045000002 1.653 150 0 0 0 0.073530003
2.8970001 0.041999999 1.646 150 0 0 0 0.073540002
2.8929999 0.039000001 1.635 150 0 0 0 0.073550001
2.892 0.035999998 1.625 150 0 0 0 0.073559999
2.895 0.033 1.619 150 0 0 0 0.073569998
2.8959999 0.030999999 1.61 150 0 0 0 0.073579997
2.8940001 0.028000001 1.6 150 0 0 0 0.073590003
2.8959999 0.025 1.5930001 150 0 0 0 0.073600002
2.8959999 0.022 1.5829999 150 0 0 0 0.07361
2.895 0.02 1.574 150 0 0 0 0.073619999
2.8959999 0.017000001 1.566 150 0 0 0 0.073629998
2.8989999 0.014 1.558 150 0 0 0 0.073639996
2.8970001 0.012 1.549 150 0 0 0 0.073650002
2.8989999 0.0089999996 1.54 150 0 0 0 0.073660001
2.901 0.0070000002 1.5319999 150 0 0 0 0.07367
2.898 0.0040000002 1.522 150 0 0 0 0.073679999
2.8989999 0.0020000001 1.513 150 0 0 0 0.073689997
2.898 0 1.503 150 0 0 0 0.073700003
2.898 -0.0020000001 1.494 150 0 0 0 0.073710002
2.8959999 -0.0040000002 1.484 150 0 0 0 0.073720001
2.8989999 -0.0060000001 1.476 150 0 0 0 0.073729999
2.898 -0.0080000004 1.466 150 0 0 0 0.073739998
2.8970001 -0.011 1.456 150 0 0 0 0.073749997
2.8959999 -0.013 1.446 150 0 0 0 0.073760003
2.895 -0.015 1.436 150 0 0 0 0.073770002
2.8989999 -0.017000001 1.428 150 0 0 0 0.07378
2.9000001 -0.018999999 1.419 150 0 0 0 0.073789999
2.901 -0.021 1.41 150 0 0 0 0.073799998
2.8959999 -0.023 1.398 150 0 0 0 0.073810004
2.9089999 -0.025 1.395 150 0 0 0 0.073820002
2.927 -0.027000001 1.3940001 150 0 0 0 0.073830001
2.941 -0.028999999 1.391 150 0 0 0 0.07384
2.9460001 -0.029999999 1.383 150 0 0 0 0.073849998
2.961 -0.032000002 1.381 150 0 0 0 0.073859997
3.0450001 -0.035 1.409 151 0 0 0 0.073870003
3.1289999 -0.037999999 1.438 152 0 0 0 0.073880002
3.427 -0.043000001 1.564 151 0 0 0 0.073890001
3.9130001 -0.052000001 1.772 68 0 0 0 0.073899999
3.9360001 -0.054000001 1.7690001 68 0 0 0 0.073909998
3.977 -0.057 1.774 69 0 0 0 0.073919997
4.0040002 -0.059 1.773 66 0 0 0 0.073930003
4.0339999 -0.061999999 1.772 66 0 0 0 0.073940001
4.0710001 -0.064000003 1.775 68 0 0 0 0.07395
4.1090002 -0.067000002 1.778 68 0 0 0 0.073959999
4.1350002 -0.068999998 1.775 67 0 0 0 0.073969997
4.1739998 -0.071000002 1.778 68 0 0 0 0.073980004
4.2140002 -0.074000001 1.781 69 0 0 0 0.073990002
4.2480001 -0.075999998 1.78 70 0 0 0 0.074000001
4.2800002 -0.079000004 1.78 68 0 0 0 0.07401
4.3280001 -0.081 1.785 66 0 0 0 0.074019998
4.3530002 -0.082999997 1.78 61 0 0 0 0.074029997
4.402 -0.086000003 1.785 55 0 0 0 0.074040003
4.4380002 -0.088 1.785 65 0 0 0 0.074050002
4.4660001 -0.090000004 1.781 64 0 0 0 0.07406
4.5050001 -0.093000002 1.781 65 0 0 0 0.074069999
4.5430002 -0.094999999 1.781 67 0 0 0 0.074079998
4.573 -0.097000003 1.777 68 0 0 0 0.074089997
4.6160002 -0.098999999 1.778 69 0 0 0 0.074100003
4.652 -0.101 1.776 71 0 0 0 0.074110001
4.6729999 -0.103 1.768 72 0 0 0 0.07412
4.6950002 -0.105 1.76 69 0 0 0 0.074129999
4.7129998 -0.107 1.751 20 0 0 0 0.074139997
4.401 -0.101 1.62 0 0 0 0 0.074150003
0 0 0 0 0 0 0 0.074160002
4.3080001 -0.101 1.557 0 0 0 0 0.074170001
4.3200002 -0.102 1.546 1 0 0 0 0.07418
4.323 -0.103 1.533 0 0 0 0 0.074189998
0 0 0 0 0 0 0 0.074199997
0 0 0 0 0 0 0 0.074210003
4.303 -0.105 1.482 0 0 0 0 0.074220002
4.3400002 -0.106 1.48 0 0 0 0 0.07423
4.3189998 -0.107 1.4579999 0 0 0 0 0.074239999
4.3260002 -0.107 1.446 0 0 0 0 0.074249998
4.309 -0.107 1.425 0 0 0 0 0.074259996
4.3189998 -0.108 1.414 0 0 0 0 0.074270003
4.336 -0.109 1.405 0 0 0 0 0.074280001
4.329 -0.11 1.388 0 0 0 0 0.07429
4.3509998 -0.11 1.38 0 0 0 0 0.074299999
4.3340001 -0.11 1.36 0 0 0 0 0.074309997
4.348 -0.111 1.35 0 0 0 0 0.074320003
0 0 0 0 0 0 0 0.074330002
4.3470001 -0.112 1.3200001 0 0 0 0 0.074340001
4.3540001 -0.112 1.307 0 0 0 0 0.074349999
4.132 -0.106 1.227 0 0 0 0 0.074359998
3.549 -0.092 1.041 5 0 0 0 0.074369997
3.516 -0.090999998 1.02 3 0 0 0 0.074380003
4.2979999 -0.111 1.232 0 0 0 0 0.074390002
4.3720002 -0.113 1.239 0 0 0 0 0.0744
4.3629999 -0.113 1.222 0 0 0 0 0.074409999
4.3449998 -0.112 1.202 0 0 0 0 0.074419998
0 0 0 0 0 0 0 0.074429996
4.3460002 -0.112 1.173 0 0 0 0 0.074440002
4.3759999 -0.113 1.1670001 0 0 0 0 0.074450001
4.3590002 -0.112 1.147 0 0 0 0 0.07446
4.382 -0.112 1.1390001 0 0 0 0 0.074469998
4.362 -0.112 1.119 0 0 0 0 0.074479997
4.381 -0.112 1.109 0 0 0 0 0.074490003
4.3569999 -0.111 1.089 0 0 0 0 0.074500002
0 0 0 0 0 0 0 0.074510001
4.3839998 -0.111 1.066 0 0 0 0 0.074519999
4.3850002 -0.11 1.051 1 0 0 0 0.074529998
4.3800001 -0.11 1.036 0 0 0 0 0.074539997
0 0 0 0 0 0 0 0.074550003
0 0 0 0 0 0 0 0.074560001
4.3959999 -0.109 0.995 0 0 0 0 0.07457
4.4000001 -0.108 0.98199999 0 0 0 0 0.074579999
4.4050002 -0.108 0.96799999 0 0 0 0 0.074589998
0 0 0 0 0 0 0 0.074600004
4.4219999 -0.107 0.94199997 0 0 0 0 0.074610002
4.428 -0.106 0.92900002 0 0 0 0 0.074620001
4.3969998 -0.105 0.90799999 0 0 0 0 0.07463
4.421 -0.104 0.898 0 0 0 0 0.074639998
4.4349999 -0.104 0.88700002 0 0 0 0 0.074649997
4.447 -0.103 0.87400001 0 0 0 0 0.074660003
0 0 0 0 0 0 0 0.074670002
0 0 0 0 0 0 0 0.074680001
4.448 -0.101 0.83099997 0 0 0 0 0.074689999
4.4559999 -0.1 0.81699997 0 0 0 0 0.074699998
4.448 -0.098999999 0.801 0 0 0 0 0.074709997
0 0 0 0 0 0 0 0.074720003
4.447 -0.097000003 0.77200001 0 0 0 0 0.074730001
4.4790001 -0.096000001 0.76300001 0 0 0 0 0.07474
4.4640002 -0.094999999 0.745 0 0 0 0 0.074749999
4.4910002 -0.093999997 0.73500001 0 0 0 0 0.074759997
4.4679999 -0.092 0.71700001 0 0 0 0 0.074770004
4.4970002 -0.092 0.70700002 0 0 0 0 0.074780002
4.4679999 -0.090000004 0.68800002 0 0 0 0 0.074790001
0.052999999 -0.001 0.0080000004 0 0 0 0 0.0748
4.4920001 -0.088 0.662 0 0 0 0 0.074809998
4.4970002 -0.086999997 0.648 0 0 0 0 0.074819997
4.5180001 -0.086000003 0.63599998 0 0 0 0 0.074830003
0 0 0 0 0 0 0 0.074840002
4.5040002 -0.082999997 0.60500002 0 0 0 0 0.07485
4.5180001 -0.081 0.59200001 0 0 0 0 0.074859999
4.4910002 -0.079000004 0.574 23 0 0 0 0.074869998
4.474 -0.078000002 0.55699998 93 0 0 0 0.074879996
4.4660001 -0.075999998 0.542 150 0 0 0 0.074890003
4.4619999 -0.074000001 0.52600002 150 0 0 0 0.074900001
4.4660001 -0.072999999 0.51300001 150 0 0 0 0.07491
4.4829998 -0.071000002 0.5 55 0 0 0 0.074919999
4.5100002 -0.07 0.48800001 6 0 0 0 0.074929997
4.546 -0.068999998 0.477 0 0 0 0 0.074940003
0 0 0 0 0 0 0 0.074950002
0 0 0 0 0 0 0 0.074960001
4.539 -0.064000003 0.433 0 0 0 0 0.074969999
4.5320001 -0.061999999 0.417 0 0 0 0 0.074979998
4.54 -0.059999999 0.403 0 0 0 0 0.074989997
0 0 0 0 0 0 0 0.075000003
4.5339999 -0.056000002 0.373 0 0 0 0 0.075010002
4.5289998 -0.055 0.35800001 0 0 0 0 0.07502
4.5310001 -0.052999999 0.34400001 0 0 0 0 0.075029999
4.5380001 -0.050999999 0.33000001 0 0 0 0 0.075039998
4.546 -0.048999999 0.31600001 0 0 0 0 0.075049996
4.539 -0.046999998 0.301 0 0 0 0 0.075060003
0 0 0 0 0 0 0 0.075070001
0 0 0 0 0 0 0 0.07508
4.5370002 -0.041000001 0.257 0 0 0 0 0.075089999
4.5370002 -0.039000001 0.242 0 0 0 0 0.075099997
4.5180001 -0.035999998 0.227 0 0 0 0 0.075110003
0 0 0 0 0 0 0 0.075120002
4.5359998 -0.032000002 0.199 0 0 0 0 0.075130001
4.527 -0.029999999 0.184 0 0 0 0 0.075139999
4.5349998 -0.028000001 0.17 1 0 0 0 0.075149998
4.5339999 -0.026000001 0.155 6 0 0 0 0.075159997
4.5209999 -0.023 0.14 16 0 0 0 0.075170003
4.5159998 -0.021 0.126 43 0 0 0 0.075180002
4.5089998 -0.018999999 0.111 71 0 0 0 0.07519
4.506 -0.016000001 0.096000001 150 0 0 0 0.075199999
4.507 -0.014 0.082000002 150 0 0 0 0.075209998
4.5019999 -0.012 0.068000004 150 0 0 0 0.075220004
4.5050001 -0.0089999996 0.052999999 150 0 0 0 0.075230002
3.882 -0.0060000001 0.033 152 0 0 0 0.075240001
3.5409999 -0.003 0.018999999 151 0 0 0 0.07525
3.211 -0.001 0.0070000002 151 0 0 0 0.075259998
3.1659999 0 -0.0020000001 150 0 0 0 0.075269997
3.21 0.001 -0.012 150 0 0 0 0.075280003
3.22 0.003 -0.023 150 0 0 0 0.075290002
3.2190001 0.0049999999 -0.033 150 0 0 0 0.075300001
3.2190001 0.0070000002 -0.043000001 150 0 0 0 0.075309999
3.211 0.0089999996 -0.052999999 150 0 0 0 0.075319998
3.214 0.011 -0.064000003 150 0 0 0 0.075329997
3.214 0.012 -0.074000001 150 0 0 0 0.075340003
3.2130001 0.014 -0.083999999 150 0 0 0 0.075350001
3.2090001 0.016000001 -0.093999997 150 0 0 0 0.07536
3.2130001 0.017999999 -0.105 150 0 0 0 0.075369999
3.214 0.02 -0.115 150 0 0 0 0.075379997
3.2079999 0.022 -0.125 150 0 0 0 0.075390004
3.2079999 0.024 -0.13500001 150 0 0 0 0.075400002
3.207 0.026000001 -0.145 150 0 0 0 0.075410001
3.207 0.028000001 -0.155 150 0 0 0 0.07542
3.2060001 0.029999999 -0.16599999 150 0 0 0 0.075429998
3.2049999 0.032000002 -0.176 150 0 0 0 0.075439997
3.214 0.034000002 -0.186 150 0 0 0 0.075450003
3.21 0.037 -0.19599999 150 0 0 0 0.075460002
3.2079999 0.039000001 -0.206 150 0 0 0 0.075470001
3.207 0.041000001 -0.21699999 150 0 0 0 0.075479999
3.2060001 0.043000001 -0.227 150 0 0 0 0.075489998
3.2130001 0.045000002 -0.237 150 0 0 0 0.075499997
3.2130001 0.046999998 -0.24699999 150 0 0 0 0.075510003
3.214 0.050000001 -0.25799999 150 0 0 0 0.075520001
3.211 0.052000001 -0.26800001 150 0 0 0 0.07553
3.21 0.054000001 -0.278 150 0 0 0 0.075539999
3.2090001 0.056000002 -0.28799999 150 0 0 0 0.075549997
3.211 0.059 -0.29800001 150 0 0 0 0.075560004
3.214 0.061000001 -0.30899999 150 0 0 0 0.075570002
3.21 0.063000001 -0.31900001 150 0 0 0 0.075580001
3.2130001 0.066 -0.329 150 0 0 0 0.07559
3.214 0.068000004 -0.33899999 150 0 0 0 0.075599998
3.2130001 0.071000002 -0.34999999 150 0 0 0 0.075609997
3.1960001 0.072999999 -0.35800001 150 0 0 0 0.075620003
3.2119999 0.075000003 -0.37 150 0 0 0 0.075630002
3.2309999 0.078000002 -0.382 150 0 0 0 0.07564
3.2639999 0.082000002 -0.39700001 150 0 0 0 0.075649999
3.2780001 0.085000001 -0.40900001 150 0 0 0 0.075659998
3.277 0.086999997 -0.419 150 0 0 0 0.075669996
3.2780001 0.090000004 -0.42899999 150 0 0 0 0.075680003
3.2780001 0.092 -0.44 150 0 0 0 0.075690001
3.2750001 0.094999999 -0.44999999 150 0 0 0 0.0757
3.2750001 0.097000003 -0.46000001 150 0 0 0 0.075709999
3.2750001 0.1 -0.47099999 150 0 0 0 0.075719997
3.2809999 0.103 -0.48199999 150 0 0 0 0.075730003
3.276 0.106 -0.49200001 150 0 0 0 0.075740002
3.2739999 0.108 -0.50199997 150 0 0 0 0.075750001
3.273 0.111 -0.51200002 150 0 0 0 0.075759999
3.273 0.114 -0.523 150 0 0 0 0.075769998
3.2750001 0.117 -0.53299999 150 0 0 0 0.075779997
3.273 0.119 -0.54299998 150 0 0 0 0.075790003
3.2720001 0.122 -0.55299997 150 0 0 0 0.075800002
3.267 0.125 -0.56300002 150 0 0 0 0.07581
3.27 0.12800001 -0.574 150 0 0 0 0.075819999
3.27 0.131 -0.58399999 150 0 0 0 0.075829998
3.2679999 0.134 -0.59399998 150 0 0 0 0.075839996
3.2739999 0.13699999 -0.60600001 150 0 0 0 0.075850002
3.2650001 0.139 -0.61500001 150 0 0 0 0.075860001
3.243 0.142 -0.62099999 151 0 0 0 0.07587
3.2060001 0.14300001 -0.62400001 152 0 0 0 0.075879999
1.594 0.071999997 -0.315 150 0 0 0 0.075889997
1.567 0.072999999 -0.315 12 0 0 0 0.075900003
1.536 0.072999999 -0.31299999 6 0 0 0 0.075910002
1.511 0.072999999 -0.31299999 6 0 0 0 0.075920001
1.493 0.072999999 -0.31400001 6 0 0 0 0.075929999
1.4680001 0.074000001 -0.31400001 6 0 0 0 0.075939998
1.449 0.074000001 -0.31400001 6 0 0 0 0.075949997
1.437 0.075000003 -0.31600001 6 0 0 0 0.075960003
1.42 0.075000003 -0.317 5 0 0 0 0.075970002
1.403 0.075999998 -0.317 6 0 0 0 0.07598
1.382 0.075999998 -0.317 5 0 0 0 0.075989999
1.369 0.077 -0.31799999 5 0 0 0 0.075999998
1.35 0.077 -0.31799999 5 0 0 0 0.076010004
1.332 0.077 -0.31799999 5 0 0 0 0.076020002
1.316 0.078000002 -0.31900001 5 0 0 0 0.076030001
1.302 0.078000002 -0.31900001 5 0 0 0 0.07604
1.2869999 0.079000004 -0.31999999 4 0 0 0 0.076049998
1.2690001 0.079000004 -0.31900001 4 0 0 0 0.076059997
1.262 0.079999998 -0.32100001 4 0 0 0 0.076070003
1.243 0.079999998 -0.32100001 4 0 0 0 0.076080002
1.229 0.081 -0.32100001 4 0 0 0 0.076090001
1.22 0.081 -0.322 4 0 0 0 0.076099999
1.2 0.081 -0.32100001 4 0 0 0 0.076109998
1.189 0.082000002 -0.322 4 0 0 0 0.076119997
1.177 0.082000002 -0.322 4 0 0 0 0.076130003
1.16 0.082999997 -0.32100001 4 0 0 0 0.076140001
1.151 0.082999997 -0.32300001 3 0 0 0 0.07615
1.137 0.083999999 -0.322 4 0 0 0 0.076159999
1.125 0.083999999 -0.322 4 0 0 0 0.076169997
1.1109999 0.083999999 -0.322 3 0 0 0 0.076180004
1.105 0.085000001 -0.32300001 4 0 0 0 0.076190002
1.092 0.085000001 -0.32300001 4 0 0 0 0.076200001
1.0829999 0.086000003 -0.324 3 0 0 0 0.07621
1.074 0.086999997 -0.32499999 3 0 0 0 0.076219998
1.062 0.086999997 -0.324 3 0 0 0 0.076229997
1.051 0.086999997 -0.324 3 0 0 0 0.076240003
1.043 0.088 -0.32499999 3 0 0 0 0.076250002
1.0319999 0.088 -0.32499999 3 0 0 0 0.07626
1.02 0.089000002 -0.32499999 3 0 0 0 0.076269999
1.006 0.089000002 -0.32300001 3 0 0 0 0.076279998
0.986 0.088 -0.31999999 3 0 0 0 0.076289997
0.98299998 0.089000002 -0.322 3 0 0 0 0.076300003
0.97799999 0.090000004 -0.32300001 2 0 0 0 0.076310001
0.96799999 0.090000004 -0.32300001 2 0 0 0 0.07632
0.95999998 0.090999998 -0.324 3 0 0 0 0.076329999
0.95200002 0.090999998 -0.324 2 0 0 0 0.076339997
0.94599998 0.092 -0.32499999 2 0 0 0 0.076350003
0.93199998 0.092 -0.32300001 2 0 0 0 0.076360002
0.92500001 0.092 -0.32300001 2 0 0 0 0.076370001
0.917 0.093000002 -0.32300001 2 0 0 0 0.07638
0.91299999 0.093999997 -0.32499999 2 0 0 0 0.076389998
0.90600002 0.093999997 -0.32499999 2 0 0 0 0.076399997
0.89999998 0.094999999 -0.32600001 2 0 0 0 0.076410003
0.88999999 0.094999999 -0.32499999 2 0 0 0 0.076420002
0.88099998 0.094999999 -0.324 2 0 0 0 0.07643
0.875 0.096000001 -0.32499999 2 0 0 0 0.076439999
0.86500001 0.096000001 -0.324 2 0 0 0 0.076449998
0.86699998 0.097999997 -0.32699999 2 0 0 0 0.076459996
0.85399997 0.097000003 -0.32499999 2 0 0 0 0.076470003
0.84200001 0.097000003 -0.32300001 2 0 0 0 0.076480001
0.84100002 0.097999997 -0.32499999 2 0 0 0 0.07649
0.83200002 0.097999997 -0.324 2 0 0 0 0.076499999
0.82999998 0.098999999 -0.32600001 2 0 0 0 0.076509997
0.82300001 0.1 -0.32600001 2 0 0 0 0.076520003
0.81999999 0.101 -0.32699999 2 0 0 0 0.076530002
0.81400001 0.101 -0.32699999 2 0 0 0 0.076540001
0.80900002 0.102 -0.32800001 2 0 0 0 0.076549999
0.80299997 0.102 -0.32800001 2 0 0 0 0.076559998
0.79400003 0.102 -0.32600001 2 0 0 0 0.076569997
0.787 0.103 -0.32600001 2 0 0 0 0.076580003
0.78600001 0.104 -0.32800001 1 0 0 0 0.076590002
0.78100002 0.104 -0.32800001 1 0 0 0 0.0766
0.77399999 0.105 -0.32800001 2 0 0 0 0.076609999
0.77200001 0.106 -0.329 2 0 0 0 0.076619998
0.76700002 0.106 -0.329 2 0 0 0 0.076629996
0.759 0.106 -0.32800001 2 0 0 0 0.076640002
0.75800002 0.107 -0.33000001 2 0 0 0 0.076650001
0.75300002 0.108 -0.33000001 2 0 0 0 0.07666
0.74900001 0.109 -0.33000001 2 0 0 0 0.076669998
0.74900001 0.11 -0.333 2 0 0 0 0.076679997
0.74599999 0.111 -0.333 2 0 0 0 0.076690003
0.74599999 0.112 -0.33500001 2 0 0 0 0.076700002
0.73699999 0.112 -0.333 2 0 0 0 0.076710001
0.73400003 0.113 -0.33399999 2 0 0 0 0.076719999
0.73000002 0.113 -0.33500001 2 0 0 0 0.076729998
0.72500002 0.114 -0.33399999 2 0 0 0 0.076739997
0.71499997 0.114 -0.33199999 2 0 0 0 0.076750003
0.71399999 0.115 -0.333 2 0 0 0 0.076760001
0.70899999 0.115 -0.333 3 0 0 0 0.07677
0.70999998 0.117 -0.336 3 0 0 0 0.076779999
0.71600002 0.119 -0.34 3 0 0 0 0.076789998
0.71799999 0.121 -0.34400001 8 0 0 0 0.076800004
0.71399999 0.121 -0.34299999 28 0 0 0 0.076810002
0.71399999 0.122 -0.345 31 0 0 0 0.076820001
0.70899999 0.123 -0.345 23 0 0 0 0.07683
0.70700002 0.124 -0.34599999 26 0 0 0 0.076839998
0.713 0.126 -0.35100001 22 0 0 0 0.076849997
0.70999998 0.127 -0.35100001 23 0 0 0 0.076860003
0.71100003 0.12800001 -0.354 23 0 0 0 0.076870002
0.70899999 0.12899999 -0.35499999 19 0 0 0 0.076880001
0.70499998 0.13 -0.35499999 20 0 0 0 0.076889999
0.70700002 0.132 -0.35699999 21 0 0 0 0.076899998
