# .PCD v0.7 - Point Cloud Data file format
VERSION 0.7
FIELDS x y z intensity normal_x normal_y normal_z curvature
SIZE 4 4 4 4 4 4 4 4
TYPE F F F F F F F F
COUNT 1 1 1 1 1 1 1 1
WIDTH 1050
HEIGHT 1
VIEWPOINT 0 0 0 1 0 0 0
POINTS 1050
DATA ascii
1.624 -0.333 0.43099999 150 0 0 0 0.025769999
1.622 -0.33700001 0.43399999 150 0 0 0 0.02578
1.625 -0.34099999 0.43900001 150 0 0 0 0.02579
1.623 -0.345 0.442 150 0 0 0 0.025800001
1.6210001 -0.34799999 0.44600001 150 0 0 0 0.02581
1.62 -0.352 0.449 150 0 0 0 0.02582
1.618 -0.35499999 0.45199999 150 0 0 0 0.025830001
1.6160001 -0.359 0.456 150 0 0 0 0.025839999
1.615 -0.36300001 0.45899999 150 0 0 0 0.02585
1.613 -0.366 0.46200001 150 0 0 0 0.02586
1.6109999 -0.37 0.46599999 150 0 0 0 0.025869999
1.613 -0.37400001 0.47 150 0 0 0 0.02588
1.612 -0.37799999 0.47400001 150 0 0 0 0.02589
1.61 -0.38100001 0.477 150 0 0 0 0.025900001
1.607 -0.38499999 0.47999999 150 0 0 0 0.025909999
1.609 -0.389 0.484 150 0 0 0 0.02592
1.603 -0.39199999 0.486 150 0 0 0 0.02593
1.608 -0.39700001 0.491 150 0 0 0 0.025939999
1.603 -0.40000001 0.493 150 0 0 0 0.02595
1.604 -0.40400001 0.49700001 150 0 0 0 0.02596
1.605 -0.40799999 0.50099999 150 0 0 0 0.025970001
1.603 -0.412 0.50400001 150 0 0 0 0.025979999
1.601 -0.41499999 0.50700003 150 0 0 0 0.02599
1.598 -0.419 0.50999999 150 0 0 0 0.026000001
1.601 -0.42399999 0.51499999 150 0 0 0 0.026009999
1.595 -0.426 0.51599997 150 0 0 0 0.02602
1.597 -0.43099999 0.52100003 150 0 0 0 0.02603
1.5930001 -0.43399999 0.523 150 0 0 0 0.026040001
1.597 -0.43900001 0.528 150 0 0 0 0.02605
1.596 -0.44299999 0.53100002 150 0 0 0 0.02606
1.594 -0.447 0.53399998 150 0 0 0 0.026070001
1.591 -0.44999999 0.53600001 150 0 0 0 0.026079999
1.594 -0.45500001 0.54100001 150 0 0 0 0.02609
1.5880001 -0.458 0.542 150 0 0 0 0.0261
1.586 -0.461 0.54500002 150 0 0 0 0.026110001
1.584 -0.465 0.54699999 150 0 0 0 0.02612
1.586 -0.46900001 0.551 150 0 0 0 0.02613
1.584 -0.47299999 0.55400002 150 0 0 0 0.026140001
1.582 -0.477 0.55699998 150 0 0 0 0.026149999
1.5829999 -0.48100001 0.56099999 150 0 0 0 0.02616
1.5779999 -0.484 0.56199998 150 0 0 0 0.02617
1.58 -0.48899999 0.56599998 150 0 0 0 0.026179999
1.58 -0.493 0.56900001 150 0 0 0 0.02619
1.579 -0.49700001 0.57200003 150 0 0 0 0.0262
1.577 -0.50099999 0.574 150 0 0 0 0.026210001
1.576 -0.50400001 0.57700002 150 0 0 0 0.026219999
1.574 -0.50800002 0.57999998 150 0 0 0 0.02623
1.572 -0.51200002 0.58200002 150 0 0 0 0.026240001
1.576 -0.51700002 0.58700001 151 0 0 0 0.026249999
1.567 -0.51899999 0.58600003 151 0 0 0 0.02626
1.572 -0.52399999 0.59100002 151 0 0 0 0.02627
1.572 -0.52899998 0.59399998 151 0 0 0 0.026280001
1.569 -0.53200001 0.59600002 151 0 0 0 0.026289999
1.576 -0.53899997 0.602 151 0 0 0 0.0263
1.574 -0.54299998 0.60399997 151 0 0 0 0.026310001
1.572 -0.546 0.60600001 151 0 0 0 0.026319999
1.5700001 -0.55000001 0.60799998 151 0 0 0 0.02633
1.568 -0.55299997 0.61000001 151 0 0 0 0.02634
1.566 -0.55699998 0.61199999 151 0 0 0 0.026350001
1.569 -0.56199998 0.616 151 0 0 0 0.02636
1.567 -0.56599998 0.61799997 151 0 0 0 0.02637
1.5650001 -0.56900001 0.62 151 0 0 0 0.026380001
1.566 -0.574 0.62300003 151 0 0 0 0.026389999
1.564 -0.57700002 0.625 151 0 0 0 0.0264
1.562 -0.58099997 0.62699997 151 0 0 0 0.02641
1.562 -0.58600003 0.62900001 151 0 0 0 0.026419999
1.5599999 -0.58899999 0.63099998 151 0 0 0 0.02643
1.558 -0.59299999 0.63300002 151 0 0 0 0.02644
1.556 -0.59600002 0.634 151 0 0 0 0.026450001
1.559 -0.60100001 0.63800001 151 0 0 0 0.026459999
1.557 -0.60500002 0.639 151 0 0 0 0.02647
1.5549999 -0.60900003 0.64099997 151 0 0 0 0.02648
1.553 -0.61199999 0.64300001 151 0 0 0 0.026489999
1.551 -0.61500001 0.64399999 151 0 0 0 0.0265
1.551 -0.62 0.64600003 151 0 0 0 0.02651
1.549 -0.62300003 0.648 151 0 0 0 0.026520001
1.5470001 -0.62699997 0.64899999 151 0 0 0 0.026529999
1.545 -0.63 0.65100002 151 0 0 0 0.02654
1.543 -0.63300002 0.65200001 151 0 0 0 0.026550001
1.549 -0.63999999 0.65600002 151 0 0 0 0.026559999
1.5470001 -0.64300001 0.65799999 151 0 0 0 0.02657
1.538 -0.64399999 0.65499997 151 0 0 0 0.02658
1.546 -0.65100002 0.66100001 151 0 0 0 0.026590001
1.551 -0.65700001 0.66500002 151 0 0 0 0.0266
1.5420001 -0.65799999 0.66299999 151 0 0 0 0.02661
1.541 -0.66100001 0.66399997 151 0 0 0 0.026620001
1.539 -0.66500002 0.66500002 151 0 0 0 0.026629999
1.544 -0.671 0.66900003 151 0 0 0 0.02664
1.5420001 -0.67400002 0.67000002 151 0 0 0 0.02665
1.54 -0.67699999 0.671 151 0 0 0 0.026660001
1.541 -0.68199998 0.67199999 151 0 0 0 0.02667
1.539 -0.685 0.67299998 151 0 0 0 0.02668
1.5369999 -0.68800002 0.67400002 151 0 0 0 0.026690001
1.536 -0.69099998 0.67500001 151 0 0 0 0.026699999
1.534 -0.69400001 0.67500001 151 0 0 0 0.02671
1.54 -0.70099998 0.67900002 151 0 0 0 0.02672
1.538 -0.704 0.68000001 151 0 0 0 0.026729999
1.5369999 -0.70700002 0.68000001 151 0 0 0 0.02674
1.535 -0.70999998 0.68099999 151 0 0 0 0.02675
1.533 -0.713 0.68099999 151 0 0 0 0.026760001
1.534 -0.71799999 0.68199998 151 0 0 0 0.026769999
1.533 -0.72100002 0.68300003 151 0 0 0 0.02678
1.529 -0.722 0.68199998 151 0 0 0 0.02679
1.5319999 -0.72799999 0.68400002 151 0 0 0 0.026799999
1.531 -0.73100001 0.685 151 0 0 0 0.02681
1.528 -0.73299998 0.68400002 151 0 0 0 0.02682
1.528 -0.73699999 0.685 151 0 0 0 0.026830001
1.526 -0.74000001 0.685 151 0 0 0 0.026839999
1.525 -0.74199998 0.685 151 0 0 0 0.02685
1.525 -0.74599999 0.68599999 151 0 0 0 0.026860001
1.526 -0.75 0.68699998 151 0 0 0 0.026869999
1.525 -0.75300002 0.68699998 151 0 0 0 0.02688
1.524 -0.75599998 0.68599999 151 0 0 0 0.02689
1.52 -0.75700003 0.685 151 0 0 0 0.026900001
1.521 -0.76099998 0.68599999 151 0 0 0 0.02691
1.52 -0.764 0.68599999 151 0 0 0 0.02692
1.5190001 -0.76599997 0.685 151 0 0 0 0.026930001
1.518 -0.76899999 0.685 151 0 0 0 0.026939999
1.517 -0.77100003 0.68400002 151 0 0 0 0.02695
1.516 -0.77399999 0.68400002 151 0 0 0 0.02696
1.52 -0.77899998 0.68599999 151 0 0 0 0.026969999
1.5140001 -0.77899998 0.68300003 151 0 0 0 0.02698
1.52 -0.78500003 0.68599999 151 0 0 0 0.02699
1.517 -0.78600001 0.68400002 151 0 0 0 0.027000001
1.518 -0.79000002 0.68400002 151 0 0 0 0.027009999
1.517 -0.792 0.68400002 151 0 0 0 0.02702
1.516 -0.79500002 0.68300003 151 0 0 0 0.02703
1.516 -0.79699999 0.68199998 151 0 0 0 0.027039999
1.517 -0.80000001 0.68199998 151 0 0 0 0.02705
1.5140001 -0.801 0.68000001 151 0 0 0 0.02706
1.516 -0.80500001 0.68099999 151 0 0 0 0.027070001
1.515 -0.80699998 0.68000001 151 0 0 0 0.027079999
1.515 -0.80900002 0.67900002 151 0 0 0 0.02709
1.513 -0.81 0.67699999 151 0 0 0 0.027100001
1.513 -0.81300002 0.676 151 0 0 0 0.027109999
1.513 -0.815 0.67500001 151 0 0 0 0.02712
1.515 -0.81800002 0.67500001 151 0 0 0 0.02713
1.511 -0.81800002 0.67199999 151 0 0 0 0.027140001
1.511 -0.81999999 0.671 151 0 0 0 0.02715
1.511 -0.82200003 0.67000002 151 0 0 0 0.02716
1.515 -0.82599998 0.671 151 0 0 0 0.027170001
1.51 -0.82499999 0.667 151 0 0 0 0.027179999
1.512 -0.82800001 0.667 151 0 0 0 0.02719
1.5140001 -0.83099997 0.66600001 151 0 0 0 0.0272
1.51 -0.82999998 0.66299999 151 0 0 0 0.027210001
1.5089999 -0.83099997 0.66100001 151 0 0 0 0.02722
1.508 -0.833 0.66000003 151 0 0 0 0.02723
1.5089999 -0.83499998 0.65799999 151 0 0 0 0.027240001
1.508 -0.83600003 0.65600002 151 0 0 0 0.027249999
1.508 -0.83700001 0.65499997 151 0 0 0 0.02726
1.508 -0.838 0.653 151 0 0 0 0.02727
1.508 -0.83999997 0.65100002 151 0 0 0 0.027279999
1.5089999 -0.84100002 0.64999998 151 0 0 0 0.02729
1.507 -0.84100002 0.64700001 151 0 0 0 0.0273
1.507 -0.84200001 0.64499998 151 0 0 0 0.027310001
1.505 -0.84200001 0.64200002 151 0 0 0 0.027319999
1.508 -0.84399998 0.64099997 151 0 0 0 0.02733
1.508 -0.84500003 0.639 151 0 0 0 0.02734
1.508 -0.84600002 0.63700002 151 0 0 0 0.027349999
1.506 -0.84600002 0.634 151 0 0 0 0.02736
1.507 -0.847 0.63200003 151 0 0 0 0.02737
1.507 -0.847 0.63 151 0 0 0 0.027380001
1.507 -0.84799999 0.62800002 151 0 0 0 0.027389999
1.51 -0.85000002 0.62699997 151 0 0 0 0.0274
1.5039999 -0.847 0.62199998 151 0 0 0 0.027410001
1.5039999 -0.847 0.62 151 0 0 0 0.027419999
1.505 -0.84799999 0.61699998 151 0 0 0 0.02743
1.505 -0.84799999 0.61500001 151 0 0 0 0.02744
1.506 -0.84899998 0.61299998 151 0 0 0 0.027450001
1.507 -0.84899998 0.611 151 0 0 0 0.02746
1.507 -0.84899998 0.60799998 151 0 0 0 0.02747
1.506 -0.84799999 0.60500002 151 0 0 0 0.027480001
1.5039999 -0.847 0.602 151 0 0 0 0.027489999
1.505 -0.847 0.59899998 151 0 0 0 0.0275
1.506 -0.84799999 0.597 151 0 0 0 0.02751
1.507 -0.84799999 0.59399998 151 0 0 0 0.027519999
1.508 -0.84799999 0.59200001 151 0 0 0 0.02753
1.506 -0.84600002 0.58899999 151 0 0 0 0.02754
1.505 -0.84500003 0.58499998 151 0 0 0 0.027550001
1.506 -0.84500003 0.583 151 0 0 0 0.027559999
1.5089999 -0.84600002 0.58099997 151 0 0 0 0.02757
1.508 -0.84399998 0.57700002 151 0 0 0 0.02758
1.502 -0.83999997 0.57200003 151 0 0 0 0.027589999
1.503 -0.83999997 0.56900001 151 0 0 0 0.0276
1.5039999 -0.83899999 0.56699997 151 0 0 0 0.02761
1.506 -0.83899999 0.56400001 151 0 0 0 0.027620001
1.505 -0.838 0.56099999 151 0 0 0 0.027629999
1.5089999 -0.838 0.55900002 151 0 0 0 0.02764
1.5089999 -0.83700001 0.55599999 151 0 0 0 0.027650001
1.501 -0.83200002 0.55000001 151 0 0 0 0.027659999
1.51 -0.83499998 0.55000001 151 0 0 0 0.02767
1.5039999 -0.82999998 0.54500002 151 0 0 0 0.02768
1.505 -0.82999998 0.542 151 0 0 0 0.027690001
1.507 -0.829 0.53899997 151 0 0 0 0.0277
1.508 -0.82800001 0.53600001 151 0 0 0 0.02771
1.493 -0.81800002 0.528 150 0 0 0 0.027720001
1.498 -0.81900001 0.52600002 150 0 0 0 0.027729999
1.495 -0.81599998 0.52200001 150 0 0 0 0.02774
1.495 -0.81400001 0.51800001 150 0 0 0 0.02775
1.4960001 -0.81300002 0.51599997 150 0 0 0 0.027760001
1.495 -0.81 0.51200002 150 0 0 0 0.02777
1.5 -0.81 0.50999999 150 0 0 0 0.02778
1.499 -0.80800003 0.50599998 150 0 0 0 0.027790001
1.502 -0.80699998 0.50400001 150 0 0 0 0.027799999
1.502 -0.80500001 0.50099999 150 0 0 0 0.02781
1.499 -0.80199999 0.49599999 150 0 0 0 0.02782
1.5 -0.80000001 0.493 150 0 0 0 0.027829999
1.499 -0.79699999 0.49000001 150 0 0 0 0.02784
1.501 -0.796 0.48699999 150 0 0 0 0.02785
1.501 -0.79299998 0.48300001 150 0 0 0 0.027860001
1.502 -0.79100001 0.47999999 150 0 0 0 0.027869999
1.502 -0.78899997 0.477 150 0 0 0 0.02788
1.5039999 -0.787 0.47400001 150 0 0 0 0.02789
1.506 -0.78500003 0.47099999 150 0 0 0 0.027899999
1.5039999 -0.78200001 0.46700001 150 0 0 0 0.02791
1.505 -0.77999997 0.46399999 150 0 0 0 0.02792
1.507 -0.778 0.461 150 0 0 0 0.027930001
1.5089999 -0.77600002 0.458 150 0 0 0 0.027939999
1.51 -0.77399999 0.45500001 150 0 0 0 0.02795
1.511 -0.77100003 0.45100001 150 0 0 0 0.027960001
1.508 -0.76700002 0.447 150 0 0 0 0.027969999
1.51 -0.76499999 0.44400001 150 0 0 0 0.02798
1.512 -0.76300001 0.44100001 150 0 0 0 0.02799
1.513 -0.76099998 0.43799999 150 0 0 0 0.028000001
1.51 -0.75599998 0.43399999 150 0 0 0 0.02801
1.513 -0.755 0.43099999 150 0 0 0 0.02802
1.515 -0.75199997 0.428 150 0 0 0 0.028030001
1.517 -0.75 0.42500001 150 0 0 0 0.028039999
1.5140001 -0.745 0.421 150 0 0 0 0.02805
1.516 -0.74299997 0.41800001 150 0 0 0 0.02806
1.518 -0.741 0.41499999 150 0 0 0 0.028069999
1.52 -0.73799998 0.412 150 0 0 0 0.02808
1.52 -0.73500001 0.40900001 150 0 0 0 0.02809
1.515 -0.72899997 0.40400001 150 0 0 0 0.028100001
1.52 -0.72799999 0.40200001 150 0 0 0 0.028109999
1.5190001 -0.72399998 0.398 150 0 0 0 0.02812
1.524 -0.72299999 0.396 150 0 0 0 0.02813
1.523 -0.71899998 0.39199999 150 0 0 0 0.028139999
1.522 -0.71499997 0.389 150 0 0 0 0.02815
1.523 -0.71200001 0.38499999 150 0 0 0 0.02816
1.524 -0.70899999 0.382 150 0 0 0 0.028170001
1.526 -0.70599997 0.38 150 0 0 0 0.028179999
1.528 -0.70300001 0.377 150 0 0 0 0.02819
1.526 -0.699 0.373 24 0 0 0 0.028200001
1.528 -0.69599998 0.37 150 0 0 0 0.028209999
1.527 -0.69199997 0.366 150 0 0 0 0.02822
1.529 -0.68900001 0.36300001 150 0 0 0 0.02823
1.53 -0.685 0.36000001 150 0 0 0 0.028240001
1.53 -0.68099999 0.35699999 150 0 0 0 0.02825
1.531 -0.67799997 0.354 150 0 0 0 0.02826
1.53 -0.67400002 0.34999999 150 0 0 0 0.028270001
1.533 -0.671 0.34799999 150 0 0 0 0.028279999
1.535 -0.66799998 0.345 150 0 0 0 0.02829
1.535 -0.66399997 0.34200001 150 0 0 0 0.0283
1.536 -0.66100001 0.338 150 0 0 0 0.028310001
1.538 -0.65700001 0.336 150 0 0 0 0.02832
1.54 -0.65399998 0.333 150 0 0 0 0.02833
1.5420001 -0.65100002 0.33000001 150 0 0 0 0.028340001
1.5420001 -0.64700001 0.32699999 150 0 0 0 0.028349999
1.543 -0.64300001 0.324 150 0 0 0 0.02836
1.546 -0.63999999 0.32100001 150 0 0 0 0.02837
1.546 -0.63599998 0.31799999 150 0 0 0 0.028379999
1.548 -0.63300002 0.315 150 0 0 0 0.02839
1.5470001 -0.62800002 0.31200001 18 0 0 0 0.0284
1.546 -0.62400001 0.308 150 0 0 0 0.028410001
1.551 -0.62099999 0.30599999 150 0 0 0 0.028419999
1.55 -0.61699998 0.303 150 0 0 0 0.02843
1.554 -0.61400002 0.30000001 150 0 0 0 0.02844
1.552 -0.60900003 0.29699999 150 0 0 0 0.028449999
1.556 -0.60600001 0.294 150 0 0 0 0.02846
1.551 -0.60000002 0.28999999 150 0 0 0 0.02847
1.558 -0.59799999 0.289 150 0 0 0 0.028480001
1.559 -0.59500003 0.28600001 150 0 0 0 0.028489999
1.554 -0.588 0.28200001 150 0 0 0 0.0285
1.559 -0.58600003 0.28 150 0 0 0 0.028510001
1.558 -0.58099997 0.27599999 150 0 0 0 0.028519999
1.5599999 -0.57700002 0.27399999 150 0 0 0 0.02853
1.561 -0.574 0.271 150 0 0 0 0.02854
1.563 -0.56999999 0.26800001 150 0 0 0 0.028550001
1.5650001 -0.56599998 0.266 150 0 0 0 0.02856
1.564 -0.56099999 0.26300001 150 0 0 0 0.02857
1.569 -0.55800003 0.25999999 150 0 0 0 0.028580001
1.568 -0.55400002 0.257 150 0 0 0 0.028589999
1.569 -0.55000001 0.255 150 0 0 0 0.0286
1.569 -0.54500002 0.252 150 0 0 0 0.02861
1.571 -0.54100001 0.249 150 0 0 0 0.028620001
1.574 -0.53799999 0.24699999 150 0 0 0 0.02863
1.576 -0.53399998 0.244 150 0 0 0 0.02864
1.574 -0.52899998 0.241 150 0 0 0 0.028650001
1.575 -0.52499998 0.23800001 150 0 0 0 0.028659999
1.577 -0.52100003 0.236 150 0 0 0 0.02867
1.579 -0.51700002 0.233 150 0 0 0 0.02868
1.58 -0.51300001 0.23 150 0 0 0 0.028689999
1.58 -0.50800002 0.228 150 0 0 0 0.0287
1.584 -0.50400001 0.22499999 150 0 0 0 0.02871
1.585 -0.5 0.223 150 0 0 0 0.028720001
1.585 -0.49599999 0.22 150 0 0 0 0.028729999
1.5829999 -0.49000001 0.21699999 150 0 0 0 0.02874
1.585 -0.486 0.214 150 0 0 0 0.028750001
1.586 -0.48199999 0.212 150 0 0 0 0.028759999
1.5880001 -0.47799999 0.20900001 150 0 0 0 0.02877
1.589 -0.47400001 0.207 150 0 0 0 0.02878
1.591 -0.46900001 0.204 150 0 0 0 0.028790001
1.592 -0.465 0.20200001 150 0 0 0 0.0288
1.594 -0.461 0.199 150 0 0 0 0.02881
1.596 -0.45699999 0.197 150 0 0 0 0.028820001
1.597 -0.45199999 0.19499999 150 0 0 0 0.028829999
1.599 -0.44800001 0.192 150 0 0 0 0.02884
1.6 -0.44400001 0.19 150 0 0 0 0.02885
1.602 -0.43900001 0.18700001 150 0 0 0 0.028860001
1.603 -0.435 0.185 150 0 0 0 0.02887
1.598 -0.42899999 0.182 150 0 0 0 0.02888
1.599 -0.42500001 0.17900001 150 0 0 0 0.028890001
1.601 -0.41999999 0.177 150 0 0 0 0.028899999
1.602 -0.41600001 0.17399999 150 0 0 0 0.02891
1.602 -0.41100001 0.17200001 150 0 0 0 0.02892
1.605 -0.40700001 0.17 150 0 0 0 0.028929999
1.6059999 -0.403 0.167 150 0 0 0 0.02894
1.608 -0.398 0.16500001 150 0 0 0 0.02895
1.609 -0.39399999 0.163 150 0 0 0 0.028960001
1.608 -0.389 0.16 150 0 0 0 0.028969999
1.61 -0.384 0.15800001 150 0 0 0 0.02898
1.613 -0.38 0.156 150 0 0 0 0.02899
1.618 -0.377 0.154 150 0 0 0 0.028999999
1.61 -0.37 0.15000001 103 0 0 0 0.02901
1.619 -0.36700001 0.149 71 0 0 0 0.02902
1.615 -0.361 0.146 15 0 0 0 0.029030001
1.631 -0.36000001 0.145 5 0 0 0 0.029039999
1.041 -0.227 0.090999998 0 0 0 0 0.02905
0.65600002 -0.141 0.056000002 0 0 0 0 0.029060001
0.65499997 -0.138 0.055 0 0 0 0 0.029069999
0.63700002 -0.133 0.052999999 0 0 0 0 0.02908
0.64700001 -0.133 0.052999999 0 0 0 0 0.02909
0.63300002 -0.12800001 0.050999999 0 0 0 0 0.029100001
0.64300001 -0.12800001 0.050000001 0 0 0 0 0.02911
0.62199998 -0.122 0.048 0 0 0 0 0.02912
0.611 -0.118 0.046 0 0 0 0 0.029130001
0.61400002 -0.117 0.046 0 0 0 0 0.029139999
0.60699999 -0.114 0.044 0 0 0 0 0.02915
0.60399997 -0.111 0.043000001 0 0 0 0 0.02916
0.62400001 -0.113 0.044 0 0 0 0 0.029170001
0.61299998 -0.109 0.041999999 0 0 0 0 0.02918
0.58899999 -0.103 0.039999999 0 0 0 0 0.02919
0.597 -0.103 0.039000001 0 0 0 0 0.029200001
0.60900003 -0.103 0.039000001 0 0 0 0 0.029209999
0.588 -0.097999997 0.037 0 0 0 0 0.02922
0.579 -0.093999997 0.035999998 0 0 0 0 0.02923
0.59299999 -0.094999999 0.035999998 0 0 0 0 0.029239999
0.58200002 -0.090999998 0.034000002 0 0 0 0 0.02925
0.58899999 -0.090999998 0.034000002 0 0 0 0 0.02926
0.602 -0.090999998 0.034000002 0 0 0 0 0.029270001
0.574 -0.085000001 0.032000002 0 0 0 0 0.029279999
0.55400002 -0.079999998 0.029999999 0 0 0 0 0.02929
0.79400003 -0.113 0.041999999 0 0 0 0 0.029300001
1.676 -0.234 0.086999997 10 0 0 0 0.029309999
1.633 -0.223 0.082999997 14 0 0 0 0.02932
1.632 -0.21799999 0.081 56 0 0 0 0.02933
1.6339999 -0.213 0.079000004 94 0 0 0 0.029340001
1.641 -0.20900001 0.077 111 0 0 0 0.02935
1.66 -0.206 0.075999998 145 0 0 0 0.02936
1.668 -0.20200001 0.074000001 110 0 0 0 0.029370001
1.668 -0.197 0.071999997 150 0 0 0 0.029379999
1.671 -0.193 0.07 150 0 0 0 0.02939
1.6720001 -0.18799999 0.068000004 150 0 0 0 0.0294
1.678 -0.183 0.066 150 0 0 0 0.029410001
1.679 -0.178 0.064000003 150 0 0 0 0.02942
1.679 -0.17299999 0.061999999 150 0 0 0 0.02943
1.6799999 -0.168 0.059999999 150 0 0 0 0.029440001
1.681 -0.163 0.057999998 150 0 0 0 0.029449999
1.681 -0.15800001 0.056000002 150 0 0 0 0.02946
1.682 -0.153 0.054000001 150 0 0 0 0.02947
1.6849999 -0.148 0.052000001 150 0 0 0 0.029479999
1.686 -0.14300001 0.050000001 150 0 0 0 0.02949
1.683 -0.138 0.048 150 0 0 0 0.0295
1.688 -0.133 0.046999998 150 0 0 0 0.029510001
1.6900001 -0.12800001 0.045000002 150 0 0 0 0.029519999
1.6900001 -0.123 0.043000001 150 0 0 0 0.02953
1.691 -0.118 0.041000001 150 0 0 0 0.02954
1.6950001 -0.113 0.039000001 150 0 0 0 0.029549999
1.697 -0.108 0.037 150 0 0 0 0.02956
1.697 -0.103 0.035 150 0 0 0 0.02957
1.7 -0.097999997 0.033 150 0 0 0 0.029580001
1.711 -0.093000002 0.032000002 14 0 0 0 0.029589999
1.727 -0.089000002 0.029999999 1 0 0 0 0.0296
0 0 0 0 0 0 0 0.029610001
1.521 -0.068999998 0.023 0 0 0 0 0.029619999
1.507 -0.064000003 0.021 0 0 0 0 0.02963
1.4960001 -0.059 0.018999999 0 0 0 0 0.02964
1.464 -0.052999999 0.017000001 150 0 0 0 0.029650001
1.4630001 -0.048 0.016000001 150 0 0 0 0.02966
1.47 -0.044 0.014 150 0 0 0 0.02967
1.498 -0.039999999 0.013 0 0 0 0 0.029680001
0 0 0 0 0 0 0 0.029689999
1.409 -0.028999999 0.0089999996 0 0 0 0 0.0297
1.4 -0.025 0.0080000004 0 0 0 0 0.02971
1.391 -0.02 0.0060000001 0 0 0 0 0.029720001
1.3710001 -0.016000001 0.0049999999 150 0 0 0 0.02973
1.369 -0.012 0.003 150 0 0 0 0.02974
1.3710001 -0.0070000002 0.0020000001 150 0 0 0 0.029750001
1.387 -0.003 0.001 0 0 0 0 0.029759999
1.396 0 0 0 0 0 0 0.02977
1.418 0.0040000002 -0.001 0 0 0 0 0.02978
0 0 0 0 0 0 0 0.029789999
1.72 0.016000001 -0.0049999999 0 0 0 0 0.0298
1.7539999 0.022 -0.0070000002 8 0 0 0 0.02981
1.749 0.027000001 -0.0089999996 31 0 0 0 0.029820001
1.757 0.033 -0.0099999998 17 0 0 0 0.029829999
1.766 0.037999999 -0.012 8 0 0 0 0.02984
1.763 0.044 -0.014 11 0 0 0 0.029850001
1.7589999 0.048999999 -0.016000001 49 0 0 0 0.029859999
1.755 0.054000001 -0.017000001 64 0 0 0 0.02987
1.733 0.059 -0.018999999 22 0 0 0 0.02988
1.677 0.061999999 -0.02 9 0 0 0 0.029890001
1.53 0.061000001 -0.018999999 5 0 0 0 0.029899999
1.511 0.064999998 -0.021 7 0 0 0 0.02991
1.493 0.068999998 -0.022 7 0 0 0 0.029920001
1.484 0.072999999 -0.023 7 0 0 0 0.029929999
1.482 0.078000002 -0.024 7 0 0 0 0.02994
1.4859999 0.082999997 -0.026000001 5 0 0 0 0.02995
1.483 0.086999997 -0.027000001 6 0 0 0 0.029960001
1.476 0.090999998 -0.028000001 6 0 0 0 0.02997
1.48 0.096000001 -0.029999999 7 0 0 0 0.02998
1.477 0.101 -0.030999999 6 0 0 0 0.029990001
1.475 0.105 -0.032000002 7 0 0 0 0.029999999
1.473 0.11 -0.033 7 0 0 0 0.03001
1.479 0.115 -0.035 5 0 0 0 0.03002
1.475 0.119 -0.035999998 6 0 0 0 0.030029999
1.473 0.123 -0.037 6 0 0 0 0.03004
1.475 0.12800001 -0.039000001 7 0 0 0 0.03005
1.473 0.133 -0.039999999 6 0 0 0 0.030060001
1.474 0.13699999 -0.041000001 6 0 0 0 0.030069999
1.473 0.142 -0.041999999 6 0 0 0 0.03008
1.476 0.147 -0.044 5 0 0 0 0.03009
1.473 0.15099999 -0.045000002 5 0 0 0 0.030099999
1.477 0.156 -0.046 5 0 0 0 0.03011
1.474 0.161 -0.046999998 6 0 0 0 0.03012
1.47 0.16500001 -0.048 6 0 0 0 0.030130001
1.475 0.17 -0.050000001 6 0 0 0 0.030139999
1.476 0.175 -0.050999999 4 0 0 0 0.03015
1.483 0.18000001 -0.052999999 2 0 0 0 0.030160001
1.4859999 0.185 -0.054000001 4 0 0 0 0.030169999
1.487 0.19 -0.055 5 0 0 0 0.03018
1.484 0.19499999 -0.056000002 4 0 0 0 0.03019
1.492 0.2 -0.057999998 2 0 0 0 0.030200001
1.498 0.206 -0.059 3 0 0 0 0.03021
1.499 0.211 -0.059999999 6 0 0 0 0.03022
1.505 0.21600001 -0.061999999 5 0 0 0 0.030230001
1.5039999 0.221 -0.063000001 3 0 0 0 0.030239999
1.505 0.226 -0.064000003 3 0 0 0 0.03025
1.518 0.233 -0.066 2 0 0 0 0.03026
1.479 0.23199999 -0.064999998 1 0 0 0 0.030270001
1.408 0.22499999 -0.063000001 4 0 0 0 0.03028
1.374 0.22400001 -0.061999999 5 0 0 0 0.03029
1.365 0.227 -0.063000001 7 0 0 0 0.030300001
1.362 0.23100001 -0.064000003 9 0 0 0 0.030309999
1.344 0.23199999 -0.064000003 53 0 0 0 0.03032
1.33 0.234 -0.064000003 128 0 0 0 0.03033
1.326 0.23800001 -0.064999998 37 0 0 0 0.030339999
1.313 0.23999999 -0.064999998 6 0 0 0 0.03035
1.26 0.234 -0.063000001 3 0 0 0 0.03036
1.238 0.234 -0.063000001 2 0 0 0 0.030370001
1.234 0.237 -0.064000003 2 0 0 0 0.030379999
1.228 0.23999999 -0.064000003 2 0 0 0 0.03039
1.227 0.244 -0.064999998 2 0 0 0 0.030400001
1.222 0.24699999 -0.066 3 0 0 0 0.030409999
1.222 0.25099999 -0.066 2 0 0 0 0.03042
1.212 0.252 -0.067000002 2 0 0 0 0.03043
1.214 0.257 -0.068000004 2 0 0 0 0.030440001
1.204 0.259 -0.068000004 2 0 0 0 0.030449999
1.2079999 0.264 -0.068999998 2 0 0 0 0.03046
1.22 0.27000001 -0.07 1 0 0 0 0.030470001
1.232 0.27700001 -0.071999997 0 0 0 0 0.030479999
1.257 0.287 -0.074000001 1 0 0 0 0.03049
1.261 0.292 -0.075000003 1 0 0 0 0.0305
1.26 0.296 -0.075999998 1 0 0 0 0.030510001
1.301 0.30899999 -0.079000004 4 0 0 0 0.03052
1.313 0.317 -0.079999998 4 0 0 0 0.03053
1.313 0.32100001 -0.081 4 0 0 0 0.030540001
1.312 0.32499999 -0.082000002 5 0 0 0 0.030549999
1.301 0.32699999 -0.082000002 5 0 0 0 0.03056
1.2869999 0.32699999 -0.081 5 0 0 0 0.03057
1.286 0.331 -0.082000002 6 0 0 0 0.030579999
1.288 0.336 -0.082999997 6 0 0 0 0.03059
1.283 0.33899999 -0.082999997 7 0 0 0 0.0306
1.281 0.34299999 -0.083999999 7 0 0 0 0.030610001
1.28 0.347 -0.083999999 8 0 0 0 0.030619999
1.277 0.34999999 -0.085000001 9 0 0 0 0.03063
1.28 0.35499999 -0.086000003 10 0 0 0 0.03064
1.281 0.36000001 -0.086000003 13 0 0 0 0.030649999
1.2819999 0.36399999 -0.086999997 13 0 0 0 0.03066
1.288 0.37099999 -0.088 12 0 0 0 0.03067
1.295 0.377 -0.089000002 12 0 0 0 0.030680001
1.293 0.38100001 -0.090000004 12 0 0 0 0.030689999
1.295 0.38600001 -0.090000004 10 0 0 0 0.0307
1.302 0.39199999 -0.090999998 9 0 0 0 0.030710001
1.307 0.398 -0.092 11 0 0 0 0.030719999
1.329 0.40900001 -0.093999997 20 0 0 0 0.03073
1.365 0.42500001 -0.097000003 25 0 0 0 0.03074
1.428 0.449 -0.102 27 0 0 0 0.030750001
1.409 0.44800001 -0.102 15 0 0 0 0.03076
3.3039999 1.062 -0.23999999 0 0 0 0 0.03077
3.2019999 1.04 -0.234 0 0 0 0 0.030780001
3.214 1.0549999 -0.236 0 0 0 0 0.030789999
3.2 1.061 -0.236 0 0 0 0 0.0308
3.1960001 1.071 -0.237 0 0 0 0 0.03081
3.2279999 1.092 -0.23999999 0 0 0 0 0.030820001
3.244 1.109 -0.242 0 0 0 0 0.03083
0 0 0 0 0 0 0 0.03084
3.2780001 1.143 -0.24699999 0 0 0 0 0.030850001
3.2249999 1.135 -0.244 0 0 0 0 0.030859999
1.5470001 0.55000001 -0.117 8 0 0 0 0.03087
1.753 0.62900001 -0.133 19 0 0 0 0.03088
1.768 0.63999999 -0.13500001 26 0 0 0 0.030889999
1.763 0.64499998 -0.13500001 26 0 0 0 0.0309
1.743 0.64300001 -0.134 21 0 0 0 0.03091
1.729 0.64399999 -0.133 19 0 0 0 0.030920001
1.724 0.648 -0.133 18 0 0 0 0.030929999
1.719 0.65200001 -0.133 19 0 0 0 0.03094
1.711 0.65399998 -0.133 18 0 0 0 0.030950001
1.686 0.65100002 -0.131 16 0 0 0 0.030959999
1.5829999 0.616 -0.123 9 0 0 0 0.03097
1.309 0.514 -0.102 5 0 0 0 0.03098
1.1210001 0.44400001 -0.088 4 0 0 0 0.030990001
1.1289999 0.45100001 -0.088 5 0 0 0 0.030999999
1.125 0.45300001 -0.088 5 0 0 0 0.03101
1.123 0.456 -0.088 5 0 0 0 0.031020001
1.124 0.461 -0.088 5 0 0 0 0.031029999
1.133 0.46799999 -0.089000002 5 0 0 0 0.03104
1.132 0.472 -0.089000002 5 0 0 0 0.03105
1.119 0.47 -0.088 4 0 0 0 0.031060001
1.235 0.523 -0.097000003 4 0 0 0 0.03107
1.212 0.51700002 -0.096000001 3 0 0 0 0.03108
1.189 0.51200002 -0.093999997 1 0 0 0 0.031090001
1.219 0.52899998 -0.096000001 1 0 0 0 0.031099999
1.314 0.57499999 -0.104 4 0 0 0 0.03111
1.3380001 0.58999997 -0.106 4 0 0 0 0.03112
1.299 0.57700002 -0.103 3 0 0 0 0.031129999
1.26 0.56300002 -0.098999999 3 0 0 0 0.03114
1.223 0.551 -0.096000001 2 0 0 0 0.03115
1.201 0.54500002 -0.094999999 1 0 0 0 0.031160001
1.22 0.55800003 -0.096000001 1 0 0 0 0.031169999
1.252 0.57700002 -0.097999997 2 0 0 0 0.03118
1.319 0.61199999 -0.104 3 0 0 0 0.03119
1.339 0.62599999 -0.105 3 0 0 0 0.031199999
1.4 0.65899998 -0.11 4 0 0 0 0.03121
1.424 0.676 -0.111 5 0 0 0 0.03122
1.439 0.68699998 -0.112 6 0 0 0 0.031230001
1.461 0.70300001 -0.114 7 0 0 0 0.031239999
1.473 0.713 -0.114 7 0 0 0 0.03125
1.465 0.71499997 -0.113 7 0 0 0 0.031259999
1.472 0.72299999 -0.114 8 0 0 0 0.031270001
1.466 0.72500002 -0.113 9 0 0 0 0.03128
1.464 0.72899997 -0.112 9 0 0 0 0.031289998
1.4529999 0.72799999 -0.111 8 0 0 0 0.031300001
1.442 0.72799999 -0.11 8 0 0 0 0.03131
1.442 0.73199999 -0.109 8 0 0 0 0.031319998
1.4299999 0.73100001 -0.108 11 0 0 0 0.031330001
1.429 0.73500001 -0.107 12 0 0 0 0.031339999
0 0 0 0 0 0 0 0.031350002
1.3890001 0.72299999 -0.103 0 0 0 0 0.03136
3.4230001 1.794 -0.255 10 0 0 0 0.031369999
0 0 0 0 0 0 0 0.031380001
3.543 1.88 -0.26100001 2 0 0 0 0.03139
3.5569999 1.899 -0.25999999 48 0 0 0 0.031399999
3.5420001 1.902 -0.25799999 63 0 0 0 0.031410001
3.53 1.9069999 -0.255 66 0 0 0 0.03142
3.517 1.911 -0.252 68 0 0 0 0.031429999
3.5009999 1.914 -0.249 70 0 0 0 0.031440001
3.497 1.923 -0.24699999 72 0 0 0 0.03145
3.4790001 1.924 -0.244 72 0 0 0 0.031459998
3.4630001 1.925 -0.241 73 0 0 0 0.031470001
3.454 1.931 -0.23899999 72 0 0 0 0.031479999
3.441 1.934 -0.236 75 0 0 0 0.031490002
3.4319999 1.9400001 -0.233 70 0 0 0 0.031500001
3.438 1.954 -0.23199999 67 0 0 0 0.031509999
3.441 1.967 -0.23 70 0 0 0 0.031520002
3.45 1.982 -0.228 75 0 0 0 0.03153
3.457 1.9960001 -0.227 73 0 0 0 0.031539999
3.4530001 2.0039999 -0.22400001 71 0 0 0 0.031550001
3.454 2.0150001 -0.222 79 0 0 0 0.03156
3.464 2.0309999 -0.22 78 0 0 0 0.031569999
3.464 2.0409999 -0.21799999 80 0 0 0 0.031580001
3.4660001 2.052 -0.215 77 0 0 0 0.03159
3.474 2.0669999 -0.213 78 0 0 0 0.031599998
3.471 2.075 -0.20999999 77 0 0 0 0.031610001
3.477 2.089 -0.208 77 0 0 0 0.03162
3.48 2.0999999 -0.205 65 0 0 0 0.031629998
3.483 2.112 -0.20299999 15 0 0 0 0.031640001
3.4879999 2.125 -0.2 16 0 0 0 0.031649999
3.493 2.1370001 -0.197 8 0 0 0 0.031660002
3.4719999 2.1340001 -0.193 17 0 0 0 0.03167
3.471 2.142 -0.19 28 0 0 0 0.031679999
3.506 2.1730001 -0.189 3 0 0 0 0.031690001
3.5109999 2.1849999 -0.186 2 0 0 0 0.0317
3.4630001 2.164 -0.18000001 2 0 0 0 0.031709999
3.477 2.1819999 -0.178 8 0 0 0 0.031720001
4.0300002 2.539 -0.20200001 19 0 0 0 0.03173
4.0489998 2.562 -0.199 62 0 0 0 0.031739999
4.0409999 2.5669999 -0.19499999 72 0 0 0 0.031750001
3.9820001 2.539 -0.18799999 99 0 0 0 0.03176
3.8640001 2.473 -0.17900001 150 0 0 0 0.031769998
3.7850001 2.431 -0.171 150 0 0 0 0.031780001
3.7260001 2.402 -0.16500001 150 0 0 0 0.031789999
3.5799999 2.316 -0.154 83 0 0 0 0.031800002
3.53 2.2920001 -0.148 57 0 0 0 0.031810001
3.526 2.2969999 -0.14399999 55 0 0 0 0.031819999
3.529 2.3069999 -0.141 55 0 0 0 0.031830002
3.5369999 2.3199999 -0.13699999 46 0 0 0 0.03184
3.5539999 2.3380001 -0.133 42 0 0 0 0.031849999
3.5840001 2.3659999 -0.13 40 0 0 0 0.031860001
3.6159999 2.3940001 -0.12800001 22 0 0 0 0.03187
3.642 2.418 -0.124 12 0 0 0 0.031879999
3.6530001 2.4330001 -0.12 10 0 0 0 0.031890001
3.694 2.467 -0.117 16 0 0 0 0.0319
3.723 2.494 -0.114 37 0 0 0 0.031909999
3.737 2.51 -0.11 63 0 0 0 0.031920001
3.744 2.5209999 -0.105 69 0 0 0 0.03193
3.6719999 2.4790001 -0.098999999 151 0 0 0 0.031939998
0 0 0 0 0 0 0 0.031950001
0 0 0 0 0 0 0 0.031959999
2.5120001 1.7079999 -0.057999998 17 0 0 0 0.031970002
2.5090001 1.71 -0.054000001 17 0 0 0 0.03198
2.507 1.7130001 -0.050999999 19 0 0 0 0.031989999
2.5020001 1.7130001 -0.048 19 0 0 0 0.032000002
2.4979999 1.7130001 -0.045000002 19 0 0 0 0.03201
2.4960001 1.716 -0.041000001 18 0 0 0 0.032019999
2.49 1.715 -0.037999999 16 0 0 0 0.032030001
2.4920001 1.72 -0.035 16 0 0 0 0.03204
2.4860001 1.7180001 -0.030999999 14 0 0 0 0.032049999
2.4820001 1.719 -0.028000001 14 0 0 0 0.032060001
2.48 1.72 -0.024 15 0 0 0 0.03207
2.48 1.722 -0.021 18 0 0 0 0.032079998
2.474 1.721 -0.017000001 17 0 0 0 0.032090001
2.471 1.721 -0.014 15 0 0 0 0.032099999
2.471 1.723 -0.011 12 0 0 0 0.032109998
2.471 1.726 -0.0070000002 8 0 0 0 0.032120001
2.4690001 1.726 -0.0040000002 5 0 0 0 0.032129999
2.4260001 1.698 0 1 0 0 0 0.032140002
4.013 2.8110001 0.0040000002 1 0 0 0 0.03215
1.2539999 0.87900001 0.003 0 0 0 0 0.032159999
1.267 0.889 0.0049999999 0 0 0 0 0.032170001
1.25 0.87800002 0.0060000001 0 0 0 0 0.03218
1.261 0.88599998 0.0080000004 0 0 0 0 0.032189999
3.9630001 2.7869999 0.032000002 5 0 0 0 0.032200001
3.9649999 2.79 0.037999999 5 0 0 0 0.03221
3.9660001 2.7920001 0.043000001 6 0 0 0 0.032219999
3.9679999 2.7939999 0.048999999 6 0 0 0 0.032230001
3.872 2.727 0.052999999 5 0 0 0 0.03224
3.9170001 2.7590001 0.059999999 6 0 0 0 0.032249998
3.9489999 2.7820001 0.066 6 0 0 0 0.032260001
3.96 2.79 0.071999997 6 0 0 0 0.032269999
3.9679999 2.796 0.077 6 0 0 0 0.032280002
3.9779999 2.803 0.082999997 6 0 0 0 0.03229
3.865 2.7219999 0.086000003 6 0 0 0 0.032299999
2.9820001 2.099 0.071000002 0 0 0 0 0.032310002
3.789 2.6670001 0.094999999 5 0 0 0 0.03232
2.9649999 2.086 0.079000004 0 0 0 0 0.032329999
2.9949999 2.1059999 0.083999999 0 0 0 0 0.032340001
3.0020001 2.1099999 0.088 0 0 0 0 0.03235
3.779 2.654 0.117 5 0 0 0 0.032359999
3.71 2.6040001 0.119 5 0 0 0 0.032370001
3.677 2.5780001 0.123 5 0 0 0 0.03238
2.8900001 2.0250001 0.101 0 0 0 0 0.032389998
3.49 2.4419999 0.127 5 0 0 0 0.032400001
3.4089999 2.3829999 0.12800001 6 0 0 0 0.03241
3.474 2.4260001 0.13600001 5 0 0 0 0.032419998
3.572 2.4920001 0.14399999 4 0 0 0 0.032430001
3.619 2.5209999 0.15099999 5 0 0 0 0.032439999
2.4879999 1.7309999 0.107 0 0 0 0 0.032450002
2.4530001 1.704 0.109 0 0 0 0 0.03246
3.602 2.4979999 0.16500001 4 0 0 0 0.032469999
2.855 1.977 0.134 0 0 0 0 0.032480001
2.8740001 1.987 0.139 0 0 0 0 0.03249
3.6329999 2.507 0.18000001 2 0 0 0 0.032499999
2.4319999 1.675 0.124 0 0 0 0 0.032510001
2.5880001 1.779 0.13500001 1 0 0 0 0.03252
2.5320001 1.737 0.13500001 5 0 0 0 0.032529999
2.527 1.7309999 0.138 48 0 0 0 0.032540001
2.5309999 1.73 0.142 62 0 0 0 0.03255
3.6289999 2.474 0.208 81 0 0 0 0.032559998
3.427 2.3310001 0.2 2 0 0 0 0.032570001
3.698 2.5090001 0.22 1 0 0 0 0.032579999
3.813 2.5810001 0.23199999 1 0 0 0 0.032590002
3.7320001 2.52 0.23100001 5 0 0 0 0.032600001
3.776 2.5439999 0.23800001 7 0 0 0 0.032609999
3.947 2.651 0.25400001 1 0 0 0 0.032620002
3.848 2.5780001 0.252 1 0 0 0 0.03263
3.777 2.523 0.25099999 5 0 0 0 0.032639999
3.7850001 2.5220001 0.25600001 11 0 0 0 0.032650001
4.164 2.766 0.28600001 18 0 0 0 0.03266
3.7820001 2.5039999 0.264 10 0 0 0 0.032669999
3.806 2.5120001 0.27000001 3 0 0 0 0.032680001
3.7739999 2.484 0.271 3 0 0 0 0.03269
3.7809999 2.48 0.27599999 4 0 0 0 0.032699998
3.7850001 2.4749999 0.28 4 0 0 0 0.032710001
3.789 2.4690001 0.28400001 3 0 0 0 0.03272
3.8 2.4679999 0.289 2 0 0 0 0.032729998
3.8269999 2.477 0.29499999 1 0 0 0 0.032740001
3.8840001 2.5050001 0.303 0 0 0 0 0.032749999
3.911 2.513 0.30899999 0 0 0 0 0.032760002
3.9349999 2.5190001 0.31400001 1 0 0 0 0.03277
3.8510001 2.4560001 0.31099999 2 0 0 0 0.032779999
3.8 2.414 0.31 17 0 0 0 0.032790001
3.8 2.405 0.31299999 15 0 0 0 0.0328
3.7939999 2.392 0.31600001 5 0 0 0 0.032809999
3.822 2.4000001 0.322 2 0 0 0 0.032820001
3.8410001 2.401 0.32600001 1 0 0 0 0.03283
3.8789999 2.415 0.33199999 0 0 0 0 0.032839999
3.8759999 2.4030001 0.33500001 0 0 0 0 0.032850001
3.8929999 2.404 0.34 0 0 0 0 0.03286
3.95 2.428 0.34799999 1 0 0 0 0.032869998
3.8989999 2.3859999 0.34599999 2 0 0 0 0.032880001
3.892 2.3710001 0.34799999 7 0 0 0 0.032889999
3.898 2.3640001 0.352 12 0 0 0 0.032900002
3.9219999 2.368 0.35600001 13 0 0 0 0.032910001
4.2880001 2.5769999 0.39300001 82 0 0 0 0.032919999
4.3309999 2.5899999 0.39899999 70 0 0 0 0.032930002
4.3309999 2.5780001 0.40200001 68 0 0 0 0.03294
4.3260002 2.562 0.40400001 73 0 0 0 0.032949999
4.3169999 2.5439999 0.40599999 68 0 0 0 0.032960001
4.3119998 2.529 0.40799999 68 0 0 0 0.03297
4.3099999 2.5139999 0.41 66 0 0 0 0.032979999
4.3039999 2.4979999 0.412 66 0 0 0 0.032990001
4.3010001 2.484 0.414 66 0 0 0 0.033
4.2989998 2.47 0.41600001 70 0 0 0 0.033009999
4.29 2.4519999 0.417 71 0 0 0 0.033020001
4.2880001 2.437 0.419 65 0 0 0 0.03303
4.2870002 2.424 0.421 71 0 0 0 0.033039998
4.283 2.408 0.42199999 71 0 0 0 0.033050001
4.2719998 2.3889999 0.42300001 70 0 0 0 0.033059999
4.276 2.378 0.42500001 71 0 0 0 0.033070002
4.2659998 2.359 0.426 70 0 0 0 0.03308
4.2639999 2.3440001 0.42699999 70 0 0 0 0.033089999
4.2620001 2.3299999 0.428 70 0 0 0 0.033100002
4.2519999 2.3110001 0.42899999 69 0 0 0 0.03311
4.2459998 2.2939999 0.43000001 68 0 0 0 0.033119999
4.244 2.279 0.43099999 69 0 0 0 0.033130001
4.2399998 2.2639999 0.43099999 68 0 0 0 0.03314
4.2329998 2.2460001 0.43200001 68 0 0 0 0.033149999
4.2319999 2.2320001 0.433 68 0 0 0 0.033160001
4.224 2.2149999 0.433 67 0 0 0 0.03317
4.223 2.2 0.43399999 67 0 0 0 0.033179998
4.2189999 2.184 0.43399999 68 0 0 0 0.033190001
4.2080002 2.165 0.43399999 67 0 0 0 0.033199999
4.2080002 2.151 0.435 67 0 0 0 0.033209998
4.2020001 2.1340001 0.435 67 0 0 0 0.033220001
4.197 2.118 0.435 71 0 0 0 0.033229999
4.1929998 2.102 0.435 66 0 0 0 0.033240002
4.191 2.0869999 0.435 71 0 0 0 0.03325
4.1849999 2.0699999 0.435 71 0 0 0 0.033259999
4.1830001 2.0550001 0.435 73 0 0 0 0.033270001
4.1750002 2.0369999 0.43399999 72 0 0 0 0.03328
4.1719999 2.0220001 0.43399999 72 0 0 0 0.033289999
4.1669998 2.0050001 0.43399999 74 0 0 0 0.033300001
4.1609998 1.989 0.433 74 0 0 0 0.03331
4.1500001 1.97 0.43200001 74 0 0 0 0.033319999
4.1539998 1.957 0.433 75 0 0 0 0.033330001
4.145 1.939 0.43099999 75 0 0 0 0.03334
4.1389999 1.923 0.43099999 75 0 0 0 0.033349998
4.1360002 1.9069999 0.43099999 75 0 0 0 0.033360001
4.131 1.891 0.43000001 76 0 0 0 0.033369999
4.1230001 1.873 0.428 78 0 0 0 0.033380002
4.1199999 1.858 0.428 72 0 0 0 0.03339
4.1160002 1.842 0.42699999 73 0 0 0 0.033399999
4.1059999 1.823 0.42500001 67 0 0 0 0.033410002
4.1069999 1.8099999 0.42500001 67 0 0 0 0.03342
4.1030002 1.795 0.42399999 66 0 0 0 0.033429999
4.1030002 1.78 0.42300001 60 0 0 0 0.033440001
4.0900002 1.761 0.421 69 0 0 0 0.03345
4.0910001 1.748 0.41999999 69 0 0 0 0.033459999
4.0809999 1.73 0.419 69 0 0 0 0.033470001
4.0770001 1.714 0.417 70 0 0 0 0.03348
4.072 1.698 0.41600001 69 0 0 0 0.033489998
4.0640001 1.681 0.414 69 0 0 0 0.033500001
4.0580001 1.665 0.412 69 0 0 0 0.03351
4.0549998 1.65 0.41100001 70 0 0 0 0.033519998
4.0500002 1.6339999 0.40900001 69 0 0 0 0.033530001
4.0479999 1.619 0.40799999 70 0 0 0 0.033539999
4.0450001 1.604 0.40599999 71 0 0 0 0.033550002
4.0370002 1.587 0.40400001 70 0 0 0 0.03356
4.0349998 1.573 0.403 72 0 0 0 0.033569999
4.0349998 1.559 0.40099999 73 0 0 0 0.033580001
4.026 1.5420001 0.39899999 72 0 0 0 0.03359
4.0240002 1.527 0.39700001 73 0 0 0 0.033599999
4.0229998 1.513 0.396 74 0 0 0 0.033610001
4.013 1.4960001 0.39300001 74 0 0 0 0.03362
4.0120001 1.482 0.39199999 73 0 0 0 0.033629999
4.0040002 1.466 0.389 72 0 0 0 0.033640001
3.997 1.449 0.38699999 64 0 0 0 0.03365
3.9960001 1.4349999 0.38499999 74 0 0 0 0.033659998
3.9990001 1.423 0.384 75 0 0 0 0.033670001
3.993 1.408 0.38100001 72 0 0 0 0.033679999
3.993 1.3940001 0.37900001 73 0 0 0 0.033690002
3.987 1.378 0.377 70 0 0 0 0.0337
3.98 1.363 0.37400001 68 0 0 0 0.033709999
3.9760001 1.348 0.37200001 71 0 0 0 0.033720002
3.97 1.332 0.37 70 0 0 0 0.03373
0 0 0 0 0 0 0 0.033739999
1.913 0.62900001 0.176 0 0 0 0 0.033750001
1.932 0.62900001 0.177 1 0 0 0 0.03376
1.9299999 0.62199998 0.175 3 0 0 0 0.033769999
1.924 0.61299998 0.17399999 5 0 0 0 0.033780001
1.921 0.60600001 0.17200001 10 0 0 0 0.03379
1.9170001 0.59799999 0.171 13 0 0 0 0.033799998
1.911 0.58999997 0.169 10 0 0 0 0.033810001
1.904 0.58099997 0.168 9 0 0 0 0.03382
1.896 0.57200003 0.16599999 11 0 0 0 0.033829998
1.898 0.56699997 0.16500001 17 0 0 0 0.033840001
1.895 0.55900002 0.163 31 0 0 0 0.033849999
1.896 0.55299997 0.162 87 0 0 0 0.033860002
1.8940001 0.54699999 0.161 150 0 0 0 0.03387
1.892 0.54000002 0.16 150 0 0 0 0.033879999
1.895 0.53399998 0.15899999 150 0 0 0 0.033890001
1.891 0.52700001 0.15700001 150 0 0 0 0.0339
1.873 0.51599997 0.154 150 0 0 0 0.033909999
1.886 0.51300001 0.154 150 0 0 0 0.033920001
1.874 0.50400001 0.152 150 0 0 0 0.03393
1.867 0.49599999 0.15000001 150 0 0 0 0.033939999
1.864 0.48899999 0.148 150 0 0 0 0.033950001
1.864 0.48300001 0.147 150 0 0 0 0.03396
1.863 0.47600001 0.146 150 0 0 0 0.033969998
1.862 0.47 0.14399999 150 0 0 0 0.033980001
1.8609999 0.46399999 0.14300001 150 0 0 0 0.033989999
1.862 0.458 0.142 150 0 0 0 0.034000002
1.863 0.45199999 0.141 150 0 0 0 0.034010001
1.8559999 0.44400001 0.139 150 0 0 0 0.034019999
1.8559999 0.43799999 0.13699999 150 0 0 0 0.034030002
1.852 0.43099999 0.13500001 150 0 0 0 0.03404
1.849 0.42399999 0.134 150 0 0 0 0.034049999
1.849 0.41800001 0.132 150 0 0 0 0.034060001
1.846 0.412 0.131 150 0 0 0 0.03407
1.835 0.403 0.12899999 150 0 0 0 0.034079999
1.835 0.39700001 0.127 150 0 0 0 0.034090001
1.835 0.391 0.126 150 0 0 0 0.0341
1.836 0.38600001 0.124 150 0 0 0 0.034109998
1.835 0.37900001 0.123 150 0 0 0 0.034120001
1.831 0.373 0.121 150 0 0 0 0.03413
1.831 0.36700001 0.119 150 0 0 0 0.034139998
1.827 0.36000001 0.118 150 0 0 0 0.034150001
1.826 0.354 0.116 150 0 0 0 0.034159999
1.827 0.34799999 0.115 150 0 0 0 0.034170002
1.822 0.34200001 0.113 150 0 0 0 0.03418
1.822 0.336 0.111 150 0 0 0 0.034189999
1.822 0.33000001 0.109 150 0 0 0 0.034200002
1.8150001 0.32300001 0.108 150 0 0 0 0.03421
1.816 0.317 0.106 150 0 0 0 0.034219999
1.814 0.31099999 0.104 150 0 0 0 0.034230001
1.813 0.30500001 0.103 150 0 0 0 0.03424
1.812 0.29899999 0.101 150 0 0 0 0.034249999
1.809 0.29300001 0.098999999 150 0 0 0 0.034260001
1.809 0.28799999 0.097999997 150 0 0 0 0.03427
1.806 0.28099999 0.096000001 150 0 0 0 0.034279998
1.802 0.27500001 0.093999997 150 0 0 0 0.034290001
1.802 0.26899999 0.092 150 0 0 0 0.034299999
1.802 0.264 0.090000004 150 0 0 0 0.034309998
1.803 0.25799999 0.089000002 150 0 0 0 0.034320001
1.796 0.25099999 0.086999997 150 0 0 0 0.034329999
1.7970001 0.24600001 0.085000001 150 0 0 0 0.034340002
1.793 0.23999999 0.082999997 150 0 0 0 0.03435
1.791 0.234 0.081 150 0 0 0 0.034359999
1.786 0.228 0.079999998 150 0 0 0 0.034370001
1.789 0.222 0.078000002 150 0 0 0 0.03438
1.785 0.21600001 0.075999998 150 0 0 0 0.034389999
1.785 0.211 0.074000001 150 0 0 0 0.034400001
1.7819999 0.205 0.071999997 150 0 0 0 0.03441
1.779 0.199 0.071000002 150 0 0 0 0.034419999
1.777 0.193 0.068999998 150 0 0 0 0.034430001
1.779 0.18799999 0.067000002 150 0 0 0 0.03444
1.775 0.182 0.064999998 150 0 0 0 0.034449998
1.766 0.176 0.063000001 150 0 0 0 0.034460001
1.767 0.17 0.061000001 150 0 0 0 0.034469999
1.739 0.162 0.057999998 132 0 0 0 0.034480002
1.751 0.15800001 0.057 25 0 0 0 0.03449
1.765 0.154 0.056000002 4 0 0 0 0.034499999
1.785 0.15000001 0.054000001 1 0 0 0 0.034510002
1.692 0.13699999 0.050000001 0 0 0 0 0.03452
1.79 0.139 0.050999999 1 0 0 0 0.034529999
1.779 0.133 0.048999999 16 0 0 0 0.034540001
1.766 0.127 0.046 150 0 0 0 0.03455
1.761 0.121 0.044 150 0 0 0 0.034559999
1.756 0.115 0.041999999 150 0 0 0 0.034570001
1.755 0.109 0.041000001 150 0 0 0 0.03458
1.751 0.104 0.039000001 150 0 0 0 0.034589998
1.727 0.097000003 0.035999998 150 0 0 0 0.034600001
1.6670001 0.089000002 0.033 150 0 0 0 0.03461
1.623 0.081 0.029999999 142 0 0 0 0.034619998
1.59 0.075000003 0.028000001 75 0 0 0 0.034630001
1.6160001 0.071000002 0.027000001 120 0 0 0 0.034639999
1.654 0.068000004 0.026000001 150 0 0 0 0.034650002
1.725 0.066 0.025 150 0 0 0 0.03466
1.7410001 0.061000001 0.023 150 0 0 0 0.034669999
1.75 0.056000002 0.021 78 0 0 0 0.034680001
1.749 0.050999999 0.018999999 28 0 0 0 0.03469
1.739 0.045000002 0.017000001 150 0 0 0 0.034699999
1.732 0.039000001 0.015 150 0 0 0 0.034710001
1.744 0.035 0.013 94 0 0 0 0.03472
1.753 0.028999999 0.011 7 0 0 0 0.034729999
1.751 0.024 0.0089999996 7 0 0 0 0.034740001
1.749 0.018999999 0.0070000002 7 0 0 0 0.03475
1.591 0.012 0.0049999999 0 0 0 0 0.034759998
0 0 0 0 0 0 0 0.034770001
1.4119999 0.0020000001 0.001 0 0 0 0 0.034779999
1.377 -0.001 0 0 0 0 0 0.034790002
1.385 -0.0049999999 -0.0020000001 0 0 0 0 0.0348
1.3789999 -0.0089999996 -0.003 150 0 0 0 0.034809999
1.358 -0.013 -0.0049999999 150 0 0 0 0.034820002
1.363 -0.017000001 -0.0060000001 150 0 0 0 0.03483
1.388 -0.022 -0.0080000004 0 0 0 0 0.034839999
1.396 -0.026000001 -0.0099999998 0 0 0 0 0.034850001
1.448 -0.032000002 -0.012 0 0 0 0 0.03486
0 0 0 0 0 0 0 0.034869999
0 0 0 0 0 0 0 0.034880001
1.51 -0.046999998 -0.017999999 1 0 0 0 0.03489
1.467 -0.050000001 -0.018999999 150 0 0 0 0.034899998
1.449 -0.052999999 -0.021 150 0 0 0 0.034910001
1.4630001 -0.057999998 -0.023 150 0 0 0 0.03492
1.508 -0.064999998 -0.026000001 1 0 0 0 0.034929998
1.5089999 -0.068999998 -0.028000001 0 0 0 0 0.034940001
1.511 -0.074000001 -0.029999999 0 0 0 0 0.034949999
1.522 -0.079000004 -0.032000002 0 0 0 0 0.034960002
1.669 -0.090999998 -0.037 0 0 0 0 0.03497
1.71 -0.098999999 -0.039999999 7 0 0 0 0.034979999
1.702 -0.103 -0.041999999 62 0 0 0 0.034990001
1.694 -0.108 -0.044 150 0 0 0 0.035
1.694 -0.113 -0.046 150 0 0 0 0.035009999
1.691 -0.118 -0.048 150 0 0 0 0.035020001
1.6900001 -0.123 -0.050000001 150 0 0 0 0.03503
1.684 -0.127 -0.052000001 150 0 0 0 0.035039999
1.683 -0.132 -0.055 150 0 0 0 0.035050001
1.683 -0.13699999 -0.057 150 0 0 0 0.03506
1.678 -0.142 -0.059 150 0 0 0 0.035069998
1.674 -0.146 -0.061000001 150 0 0 0 0.035080001
1.665 -0.15099999 -0.063000001 150 0 0 0 0.035089999
1.658 -0.155 -0.064999998 150 0 0 0 0.035100002
1.65 -0.15899999 -0.067000002 150 0 0 0 0.035110001
1.6440001 -0.163 -0.068999998 140 0 0 0 0.035119999
1.6339999 -0.167 -0.071000002 75 0 0 0 0.035130002
1.624 -0.171 -0.071999997 38 0 0 0 0.03514
1.666 -0.18000001 -0.077 11 0 0 0 0.035149999
0 0 0 0 0 0 0 0.035160001
0.56999999 -0.064999998 -0.027000001 0 0 0 0 0.03517
0.56800002 -0.066 -0.028000001 0 0 0 0 0.035179999
0.58399999 -0.07 -0.029999999 0 0 0 0 0.035190001
0.58700001 -0.071999997 -0.030999999 0 0 0 0 0.0352
0.59799999 -0.075000003 -0.032000002 0 0 0 0 0.035209998
0.588 -0.075000003 -0.032000002 0 0 0 0 0.035220001
0.611 -0.079999998 -0.035 0 0 0 0 0.03523
0.58899999 -0.079000004 -0.034000002 0 0 0 0 0.035239998
0.62199998 -0.085000001 -0.037 0 0 0 0 0.035250001
0.60399997 -0.085000001 -0.037 0 0 0 0 0.035259999
0.62 -0.089000002 -0.039000001 0 0 0 0 0.035270002
0.63300002 -0.093000002 -0.041000001 0 0 0 0 0.03528
0.634 -0.094999999 -0.041999999 0 0 0 0 0.035289999
0.63999999 -0.097000003 -0.043000001 0 0 0 0 0.035300002
0.65499997 -0.102 -0.045000002 0 0 0 0 0.03531
0.64999998 -0.103 -0.045000002 0 0 0 0 0.035319999
0.662 -0.107 -0.046999998 0 0 0 0 0.035330001
0.69400001 -0.114 -0.050999999 0 0 0 0 0.03534
0.68099999 -0.114 -0.050999999 0 0 0 0 0.035349999
0.69499999 -0.118 -0.052999999 0 0 0 0 0.035360001
0.70999998 -0.123 -0.055 0 0 0 0 0.03537
0.72399998 -0.127 -0.057 0 0 0 0 0.035379998
0 0 0 0 0 0 0 0.035390001
1.66 -0.30199999 -0.13699999 7 0 0 0 0.035399999
1.6440001 -0.30399999 -0.138 24 0 0 0 0.035409998
1.633 -0.30700001 -0.14 93 0 0 0 0.035420001
1.628 -0.31 -0.142 7 0 0 0 0.035429999
1.609 -0.31099999 -0.14300001 150 0 0 0 0.035440002
1.546 -0.30399999 -0.14 150 0 0 0 0.03545
1.484 -0.296 -0.13600001 30 0 0 0 0.035459999
1.206 -0.244 -0.113 0 0 0 0 0.035470001
1.182 -0.242 -0.112 0 0 0 0 0.03548
1.188 -0.24699999 -0.115 0 0 0 0 0.035489999
1.212 -0.25600001 -0.119 0 0 0 0 0.035500001
1.559 -0.33399999 -0.156 1 0 0 0 0.03551
1.61 -0.34900001 -0.164 10 0 0 0 0.035519999
1.617 -0.35499999 -0.167 150 0 0 0 0.035530001
1.607 -0.35800001 -0.169 150 0 0 0 0.03554
1.607 -0.36300001 -0.171 150 0 0 0 0.035549998
1.6059999 -0.36700001 -0.17399999 150 0 0 0 0.035560001
1.605 -0.37099999 -0.176 150 0 0 0 0.035569999
1.605 -0.37599999 -0.17900001 150 0 0 0 0.035580002
1.603 -0.38 -0.182 150 0 0 0 0.03559
1.602 -0.38499999 -0.184 150 0 0 0 0.035599999
1.6 -0.389 -0.18700001 150 0 0 0 0.035610002
1.599 -0.39300001 -0.189 150 0 0 0 0.03562
1.597 -0.39700001 -0.192 150 0 0 0 0.035629999
1.598 -0.40200001 -0.19499999 150 0 0 0 0.035640001
1.596 -0.40599999 -0.197 150 0 0 0 0.03565
1.594 -0.41 -0.2 150 0 0 0 0.035659999
1.5930001 -0.41499999 -0.20200001 150 0 0 0 0.035670001
1.591 -0.419 -0.205 150 0 0 0 0.03568
1.5880001 -0.42300001 -0.207 150 0 0 0 0.035689998
1.5880001 -0.42699999 -0.20999999 150 0 0 0 0.035700001
1.5930001 -0.433 -0.214 150 0 0 0 0.03571
1.585 -0.435 -0.21600001 150 0 0 0 0.035719998
1.584 -0.44 -0.21799999 150 0 0 0 0.035730001
1.5880001 -0.44499999 -0.222 150 0 0 0 0.035739999
1.587 -0.449 -0.22499999 150 0 0 0 0.035750002
1.579 -0.45199999 -0.226 150 0 0 0 0.03576
1.584 -0.458 -0.23 150 0 0 0 0.035769999
1.589 -0.46399999 -0.234 150 0 0 0 0.035780001
1.581 -0.46599999 -0.235 150 0 0 0 0.03579
1.58 -0.47 -0.23800001 150 0 0 0 0.035799999
1.5779999 -0.47400001 -0.241 150 0 0 0 0.035810001
1.579 -0.479 -0.244 150 0 0 0 0.03582
1.5779999 -0.48300001 -0.24699999 150 0 0 0 0.035829999
1.573 -0.486 -0.249 150 0 0 0 0.035840001
1.572 -0.49000001 -0.252 150 0 0 0 0.03585
1.5700001 -0.49399999 -0.255 150 0 0 0 0.035859998
1.574 -0.49900001 -0.25799999 150 0 0 0 0.035870001
1.569 -0.50199997 -0.26100001 150 0 0 0 0.035879999
1.574 -0.50800002 -0.264 150 0 0 0 0.035890002
1.573 -0.51200002 -0.26699999 150 0 0 0 0.0359
1.573 -0.51599997 -0.27000001 150 0 0 0 0.035909999
1.5700001 -0.51999998 -0.273 150 0 0 0 0.035920002
1.569 -0.52399999 -0.27599999 150 0 0 0 0.03593
1.568 -0.528 -0.27900001 150 0 0 0 0.035939999
1.568 -0.53200001 -0.28200001 150 0 0 0 0.035950001
1.568 -0.53600001 -0.285 150 0 0 0 0.03596
1.566 -0.54000002 -0.28799999 150 0 0 0 0.035969999
1.564 -0.54400003 -0.29100001 150 0 0 0 0.035980001
1.563 -0.54799998 -0.294 150 0 0 0 0.03599
1.561 -0.551 -0.29699999 150 0 0 0 0.035999998
1.5599999 -0.55500001 -0.30000001 150 0 0 0 0.036010001
1.561 -0.56 -0.303 150 0 0 0 0.03602
1.5599999 -0.56300002 -0.30599999 150 0 0 0 0.036029998
1.558 -0.56699997 -0.30899999 150 0 0 0 0.036040001
1.556 -0.57099998 -0.31200001 150 0 0 0 0.036049999
1.559 -0.57599998 -0.31600001 150 0 0 0 0.036060002
1.558 -0.57999998 -0.31900001 150 0 0 0 0.03607
1.556 -0.583 -0.322 150 0 0 0 0.036079999
1.553 -0.58600003 -0.32499999 150 0 0 0 0.036090001
1.551 -0.58899999 -0.32800001 150 0 0 0 0.0361
1.551 -0.59399998 -0.331 150 0 0 0 0.036109999
1.549 -0.597 -0.33399999 150 0 0 0 0.036120001
1.5470001 -0.60000002 -0.33700001 150 0 0 0 0.03613
1.552 -0.60600001 -0.34099999 150 0 0 0 0.036139999
1.548 -0.60900003 -0.34400001 150 0 0 0 0.036150001
1.549 -0.61299998 -0.347 150 0 0 0 0.03616
1.5470001 -0.616 -0.34999999 150 0 0 0 0.036169998
1.545 -0.61900002 -0.35299999 150 0 0 0 0.036180001
1.543 -0.62199998 -0.35600001 12 0 0 0 0.036189999
1.541 -0.62599999 -0.359 150 0 0 0 0.036200002
1.5420001 -0.63 -0.36300001 150 0 0 0 0.036210001
1.54 -0.63300002 -0.366 150 0 0 0 0.036219999
1.538 -0.63599998 -0.36899999 150 0 0 0 0.036230002
1.5369999 -0.639 -0.37200001 150 0 0 0 0.03624
1.536 -0.64300001 -0.375 150 0 0 0 0.036249999
1.534 -0.64600003 -0.37799999 150 0 0 0 0.036260001
