# .PCD v0.7 - Point Cloud Data file format
VERSION 0.7
FIELDS x y z intensity normal_x normal_y normal_z curvature
SIZE 4 4 4 4 4 4 4 4
TYPE F F F F F F F F
COUNT 1 1 1 1 1 1 1 1
WIDTH 1109
HEIGHT 1
VIEWPOINT 0 0 0 1 0 0 0
POINTS 1109
DATA ascii
1.299 0.345 -0.80500001 11 0 0 0 0.01143
1.308 0.34900001 -0.80800003 10 0 0 0 0.01144
1.313 0.35100001 -0.80800003 10 0 0 0 0.01145
1.318 0.35299999 -0.80800003 9 0 0 0 0.01146
1.325 0.35499999 -0.80900002 10 0 0 0 0.01147
1.331 0.35699999 -0.81 10 0 0 0 0.01148
1.334 0.35800001 -0.80900002 9 0 0 0 0.01149
1.3380001 0.36000001 -0.80800003 9 0 0 0 0.0115
1.339 0.361 -0.80599999 9 0 0 0 0.01151
1.347 0.36300001 -0.80800003 10 0 0 0 0.01152
1.354 0.36500001 -0.80800003 13 0 0 0 0.01153
1.3559999 0.366 -0.80599999 15 0 0 0 0.01154
1.355 0.36700001 -0.80199999 16 0 0 0 0.01155
1.364 0.36899999 -0.80400002 17 0 0 0 0.01156
1.367 0.37 -0.80299997 18 0 0 0 0.01157
1.375 0.373 -0.80400002 15 0 0 0 0.01158
1.3839999 0.375 -0.80599999 14 0 0 0 0.01159
1.39 0.377 -0.80500001 13 0 0 0 0.0116
1.397 0.37900001 -0.80599999 14 0 0 0 0.01161
1.405 0.38100001 -0.80699998 16 0 0 0 0.01162
1.405 0.38100001 -0.80299997 22 0 0 0 0.01163
1.404 0.38100001 -0.79799998 42 0 0 0 0.01164
1.41 0.382 -0.79799998 58 0 0 0 0.01165
1.416 0.384 -0.79799998 49 0 0 0 0.01166
1.427 0.38699999 -0.80000001 26 0 0 0 0.01167
1.438 0.38999999 -0.80199999 19 0 0 0 0.01168
1.447 0.39199999 -0.80299997 17 0 0 0 0.01169
1.449 0.39199999 -0.80000001 21 0 0 0 0.0117
1.461 0.39500001 -0.80199999 26 0 0 0 0.01171
1.465 0.396 -0.801 48 0 0 0 0.01172
1.477 0.39899999 -0.80199999 40 0 0 0 0.01173
1.488 0.40099999 -0.80400002 29 0 0 0 0.01174
1.493 0.40200001 -0.80299997 22 0 0 0 0.01175
1.501 0.40400001 -0.80299997 19 0 0 0 0.01176
1.513 0.40700001 -0.80500001 17 0 0 0 0.01177
1.526 0.41 -0.80699998 13 0 0 0 0.01178
1.541 0.41299999 -0.81 13 0 0 0 0.01179
1.539 0.412 -0.80500001 60 0 0 0 0.0118
1.546 0.41299999 -0.80299997 21 0 0 0 0.01181
1.554 0.41499999 -0.80299997 24 0 0 0 0.01182
1.569 0.41800001 -0.80599999 18 0 0 0 0.01183
1.577 0.419 -0.80500001 17 0 0 0 0.01184
1.586 0.421 -0.80500001 19 0 0 0 0.01185
1.599 0.42399999 -0.80699998 16 0 0 0 0.01186
1.597 0.42199999 -0.801 3 0 0 0 0.01187
1.6109999 0.42500001 -0.80299997 0 0 0 0 0.01188
1.5829999 0.417 -0.78399998 1 0 0 0 0.01189
1.597 0.41999999 -0.78600001 1 0 0 0 0.0119
1.623 0.42500001 -0.79400003 1 0 0 0 0.01191
1.656 0.433 -0.80500001 11 0 0 0 0.01192
1.674 0.43599999 -0.80800003 12 0 0 0 0.01193
1.678 0.43599999 -0.80500001 16 0 0 0 0.01194
1.688 0.43799999 -0.80400002 107 0 0 0 0.01195
1.7 0.44 -0.80500001 150 0 0 0 0.01196
1.7079999 0.44 -0.80299997 23 0 0 0 0.01197
1.716 0.44100001 -0.801 132 0 0 0 0.01198
1.7309999 0.44400001 -0.80299997 150 0 0 0 0.01199
1.7410001 0.44499999 -0.80199999 130 0 0 0 0.012
1.752 0.44600001 -0.801 94 0 0 0 0.01201
1.766 0.44800001 -0.80299997 48 0 0 0 0.01202
1.778 0.44999999 -0.80199999 46 0 0 0 0.01203
1.793 0.45199999 -0.80299997 63 0 0 0 0.01204
1.803 0.45300001 -0.80199999 120 0 0 0 0.01205
1.812 0.454 -0.80000001 147 0 0 0 0.01206
1.829 0.456 -0.80199999 78 0 0 0 0.01207
1.842 0.458 -0.80199999 58 0 0 0 0.01208
1.857 0.46000001 -0.80199999 56 0 0 0 0.01209
1.867 0.46000001 -0.801 58 0 0 0 0.0121
1.8839999 0.463 -0.80199999 43 0 0 0 0.01211
1.893 0.463 -0.80000001 57 0 0 0 0.01212
1.903 0.46399999 -0.79799998 55 0 0 0 0.01213
1.9299999 0.46799999 -0.80299997 97 0 0 0 0.01214
1.939 0.46799999 -0.801 150 0 0 0 0.01215
1.946 0.46799999 -0.79699999 150 0 0 0 0.01216
1.96 0.46900001 -0.79699999 150 0 0 0 0.01217
1.978 0.47099999 -0.79799998 65 0 0 0 0.01218
2 0.47400001 -0.80000001 40 0 0 0 0.01219
2.0139999 0.47499999 -0.79900002 64 0 0 0 0.0122
2.027 0.47600001 -0.79799998 42 0 0 0 0.01221
2.043 0.477 -0.79799998 37 0 0 0 0.01222
2.063 0.479 -0.79900002 70 0 0 0 0.01223
2.076 0.47999999 -0.79699999 131 0 0 0 0.01224
2.092 0.48100001 -0.79699999 81 0 0 0 0.01225
2.112 0.484 -0.79799998 53 0 0 0 0.01226
2.1270001 0.484 -0.79699999 37 0 0 0 0.01227
2.1459999 0.486 -0.79699999 30 0 0 0 0.01228
2.1700001 0.48899999 -0.79900002 31 0 0 0 0.01229
2.1830001 0.48899999 -0.79699999 33 0 0 0 0.0123
2.204 0.491 -0.79799998 44 0 0 0 0.01231
2.2249999 0.493 -0.79799998 44 0 0 0 0.01232
2.24 0.493 -0.79699999 39 0 0 0 0.01233
2.2609999 0.495 -0.79699999 44 0 0 0 0.01234
2.2850001 0.49700001 -0.79799998 46 0 0 0 0.01235
2.273 0.491 -0.787 83 0 0 0 0.01236
2.072 0.44499999 -0.71100003 150 0 0 0 0.01237
1.9630001 0.419 -0.667 138 0 0 0 0.01238
1.938 0.41100001 -0.65200001 87 0 0 0 0.01239
1.943 0.40900001 -0.648 54 0 0 0 0.0124
1.9630001 0.41100001 -0.64899999 52 0 0 0 0.01241
1.978 0.41100001 -0.64700001 50 0 0 0 0.01242
1.997 0.412 -0.64700001 40 0 0 0 0.01243
2.016 0.41299999 -0.64700001 38 0 0 0 0.01244
2.0409999 0.41600001 -0.64899999 48 0 0 0 0.01245
2.0669999 0.41800001 -0.65100002 60 0 0 0 0.01246
2.0840001 0.419 -0.64999998 57 0 0 0 0.01247
2.108 0.41999999 -0.65100002 53 0 0 0 0.01248
2.135 0.42300001 -0.653 53 0 0 0 0.01249
2.152 0.42300001 -0.65100002 47 0 0 0 0.0125
2.1730001 0.42399999 -0.65100002 42 0 0 0 0.01251
2.191 0.42399999 -0.64999998 39 0 0 0 0.01252
2.2130001 0.42500001 -0.64899999 38 0 0 0 0.01253
2.237 0.426 -0.64999998 37 0 0 0 0.01254
2.2609999 0.42699999 -0.64999998 36 0 0 0 0.01255
2.2839999 0.428 -0.64899999 35 0 0 0 0.01256
2.306 0.42899999 -0.64899999 35 0 0 0 0.01257
2.3269999 0.42899999 -0.64700001 32 0 0 0 0.01258
2.312 0.42300001 -0.63599998 26 0 0 0 0.01259
2.332 0.42300001 -0.63499999 21 0 0 0 0.0126
2.388 0.42899999 -0.64300001 29 0 0 0 0.01261
2.421 0.43099999 -0.64399999 29 0 0 0 0.01262
2.444 0.43200001 -0.64300001 29 0 0 0 0.01263
2.4749999 0.433 -0.64399999 31 0 0 0 0.01264
2.4890001 0.43200001 -0.63999999 29 0 0 0 0.01265
2.4519999 0.421 -0.62300003 19 0 0 0 0.01266
2.4349999 0.41499999 -0.611 20 0 0 0 0.01267
2.4300001 0.41 -0.60299999 20 0 0 0 0.01268
2.2520001 0.37599999 -0.55199999 35 0 0 0 0.01269
2.0610001 0.34099999 -0.49900001 24 0 0 0 0.0127
2 0.32699999 -0.47799999 39 0 0 0 0.01271
1.965 0.31900001 -0.46399999 34 0 0 0 0.01272
1.965 0.315 -0.45899999 20 0 0 0 0.01273
1.967 0.31200001 -0.45300001 32 0 0 0 0.01274
2.007 0.315 -0.45699999 12 0 0 0 0.01275
2.0569999 0.31999999 -0.46200001 13 0 0 0 0.01276
2.438 0.375 -0.54100001 6 0 0 0 0.01277
2.4159999 0.368 -0.52899998 13 0 0 0 0.01278
2.4130001 0.36300001 -0.52100003 9 0 0 0 0.01279
2.4070001 0.35800001 -0.51300001 6 0 0 0 0.0128
2.4219999 0.35600001 -0.509 0 0 0 0 0.01281
0 0 0 0 0 0 0 0.01282
0 0 0 0 0 0 0 0.01283
0 0 0 0 0 0 0 0.01284
1.679 0.235 -0.333 0 0 0 0 0.01285
1.682 0.233 -0.329 1 0 0 0 0.01286
1.682 0.23 -0.324 1 0 0 0 0.01287
1.714 0.23199999 -0.32600001 0 0 0 0 0.01288
0 0 0 0 0 0 0 0.01289
0 0 0 0 0 0 0 0.0129
0 0 0 0 0 0 0 0.01291
1.755 0.22499999 -0.31400001 0 0 0 0 0.01292
1.853 0.234 -0.32600001 0 0 0 0 0.01293
1.902 0.237 -0.329 0 0 0 0 0.01294
2.073 0.255 -0.35299999 1 0 0 0 0.01295
2.1400001 0.259 -0.35800001 2 0 0 0 0.01296
2.131 0.25400001 -0.35100001 14 0 0 0 0.01297
2.164 0.25400001 -0.34999999 15 0 0 0 0.01298
2.1919999 0.25400001 -0.34900001 16 0 0 0 0.01299
2.2149999 0.252 -0.34599999 28 0 0 0 0.013
2.223 0.249 -0.34099999 119 0 0 0 0.01301
2.217 0.245 -0.33399999 110 0 0 0 0.01302
2.2079999 0.23999999 -0.32699999 105 0 0 0 0.01303
2.151 0.23 -0.31200001 51 0 0 0 0.01304
1.936 0.20299999 -0.27599999 127 0 0 0 0.01305
1.698 0.175 -0.237 10 0 0 0 0.01306
1.694 0.171 -0.23199999 8 0 0 0 0.01307
1.716 0.17 -0.23 3 0 0 0 0.01308
1.8559999 0.18099999 -0.244 1 0 0 0 0.01309
1.867 0.17900001 -0.23999999 1 0 0 0 0.0131
1.845 0.17299999 -0.23199999 9 0 0 0 0.01311
1.87 0.17200001 -0.23 1 0 0 0 0.01312
1.902 0.17200001 -0.229 3 0 0 0 0.01313
1.919 0.169 -0.226 67 0 0 0 0.01314
1.9170001 0.16599999 -0.221 25 0 0 0 0.01315
1.9170001 0.162 -0.215 24 0 0 0 0.01316
1.921 0.15899999 -0.211 20 0 0 0 0.01317
1.925 0.156 -0.206 16 0 0 0 0.01318
1.906 0.15099999 -0.199 11 0 0 0 0.01319
1.827 0.141 -0.186 3 0 0 0 0.0132
1.7690001 0.133 -0.175 1 0 0 0 0.01321
1.758 0.12899999 -0.169 1 0 0 0 0.01322
1.753 0.125 -0.164 1 0 0 0 0.01323
1.745 0.121 -0.15899999 1 0 0 0 0.01324
1.74 0.118 -0.154 1 0 0 0 0.01325
1.73 0.114 -0.148 1 0 0 0 0.01326
1.73 0.11 -0.14399999 1 0 0 0 0.01327
1.712 0.106 -0.138 1 0 0 0 0.01328
1.697 0.102 -0.132 1 0 0 0 0.01329
1.704 0.098999999 -0.12800001 1 0 0 0 0.0133
1.732 0.097000003 -0.126 7 0 0 0 0.01331
1.743 0.094999999 -0.122 8 0 0 0 0.01332
1.744 0.090999998 -0.117 8 0 0 0 0.01333
1.749 0.088 -0.113 10 0 0 0 0.01334
1.743 0.083999999 -0.108 14 0 0 0 0.01335
1.739 0.081 -0.103 17 0 0 0 0.01336
1.744 0.078000002 -0.098999999 15 0 0 0 0.01337
1.744 0.074000001 -0.094999999 13 0 0 0 0.01338
1.751 0.071000002 -0.090000004 11 0 0 0 0.01339
1.794 0.068999998 -0.088 11 0 0 0 0.0134
1.79 0.066 -0.082999997 12 0 0 0 0.01341
1.8150001 0.063000001 -0.079999998 15 0 0 0 0.01342
1.9 0.061999999 -0.079000004 16 0 0 0 0.01343
1.909 0.059 -0.074000001 14 0 0 0 0.01344
1.955 0.056000002 -0.071000002 15 0 0 0 0.01345
2.006 0.054000001 -0.067000002 16 0 0 0 0.01346
2.0009999 0.050000001 -0.061999999 15 0 0 0 0.01347
1.998 0.046 -0.057 16 0 0 0 0.01348
1.994 0.041999999 -0.052000001 16 0 0 0 0.01349
1.987 0.037 -0.046999998 16 0 0 0 0.0135
1.985 0.033 -0.041000001 16 0 0 0 0.01351
1.982 0.028999999 -0.035999998 16 0 0 0 0.01352
1.978 0.025 -0.030999999 15 0 0 0 0.01353
1.967 0.021 -0.026000001 15 0 0 0 0.01354
1.97 0.017000001 -0.021 15 0 0 0 0.01355
1.961 0.013 -0.016000001 15 0 0 0 0.01356
1.9529999 0.0089999996 -0.011 15 0 0 0 0.01357
1.952 0.0049999999 -0.0060000001 88 0 0 0 0.01358
1.951 0.001 -0.001 15 0 0 0 0.01359
1.946 -0.0020000001 0.003 15 0 0 0 0.0136
1.939 -0.0060000001 0.0070000002 86 0 0 0 0.01361
1.932 -0.0099999998 0.012 15 0 0 0 0.01362
1.9299999 -0.014 0.017000001 16 0 0 0 0.01363
1.928 -0.017000001 0.022 16 0 0 0 0.01364
1.918 -0.021 0.027000001 16 0 0 0 0.01365
1.915 -0.025 0.030999999 17 0 0 0 0.01366
1.915 -0.028999999 0.035999998 16 0 0 0 0.01367
1.8839999 -0.033 0.039999999 95 0 0 0 0.01368
1.839 -0.035999998 0.044 22 0 0 0 0.01369
1.795 -0.039000001 0.046999998 22 0 0 0 0.0137
1.799 -0.043000001 0.052000001 29 0 0 0 0.01371
1.7869999 -0.046 0.056000002 28 0 0 0 0.01372
1.7869999 -0.050000001 0.059999999 26 0 0 0 0.01373
1.781 -0.052999999 0.064000003 24 0 0 0 0.01374
1.776 -0.057 0.068999998 25 0 0 0 0.01375
1.776 -0.061000001 0.072999999 25 0 0 0 0.01376
1.775 -0.064000003 0.077 28 0 0 0 0.01377
1.766 -0.068000004 0.081 32 0 0 0 0.01378
1.766 -0.071999997 0.085000001 29 0 0 0 0.01379
1.756 -0.075000003 0.089000002 28 0 0 0 0.0138
1.755 -0.079000004 0.093999997 28 0 0 0 0.01381
1.751 -0.082000002 0.097999997 26 0 0 0 0.01382
1.742 -0.085000001 0.101 29 0 0 0 0.01383
1.739 -0.089000002 0.105 30 0 0 0 0.01384
1.7359999 -0.093000002 0.109 35 0 0 0 0.01385
1.735 -0.096000001 0.114 36 0 0 0 0.01386
1.734 -0.1 0.118 36 0 0 0 0.01387
1.727 -0.103 0.121 34 0 0 0 0.01388
1.723 -0.107 0.125 31 0 0 0 0.01389
1.714 -0.11 0.12899999 35 0 0 0 0.0139
1.711 -0.114 0.133 39 0 0 0 0.01391
1.71 -0.117 0.13699999 36 0 0 0 0.01392
1.705 -0.121 0.14 30 0 0 0 0.01393
1.701 -0.124 0.14399999 32 0 0 0 0.01394
1.698 -0.12800001 0.148 35 0 0 0 0.01395
1.694 -0.131 0.152 36 0 0 0 0.01396
1.656 -0.132 0.152 55 0 0 0 0.01397
1.563 -0.12800001 0.147 100 0 0 0 0.01398
1.506 -0.127 0.146 105 0 0 0 0.01399
1.444 -0.125 0.14300001 74 0 0 0 0.014
1.325 -0.117 0.134 27 0 0 0 0.01401
1.2920001 -0.117 0.134 9 0 0 0 0.01402
1.29 -0.12 0.13699999 10 0 0 0 0.01403
1.291 -0.123 0.14 9 0 0 0 0.01404
1.295 -0.126 0.14399999 7 0 0 0 0.01405
1.303 -0.13 0.148 6 0 0 0 0.01406
1.3049999 -0.133 0.15099999 0 0 0 0 0.01407
1.319 -0.138 0.156 0 0 0 0 0.01408
1.322 -0.141 0.15899999 0 0 0 0 0.01409
1.325 -0.14399999 0.163 0 0 0 0 0.0141
1.329 -0.148 0.16599999 0 0 0 0 0.01411
1.3279999 -0.15099999 0.169 0 0 0 0 0.01412
1.332 -0.155 0.17299999 0 0 0 0 0.01413
1.337 -0.15800001 0.177 0 0 0 0 0.01414
1.339 -0.161 0.18000001 0 0 0 0 0.01415
1.342 -0.16500001 0.184 0 0 0 0 0.01416
1.344 -0.168 0.18700001 0 0 0 0 0.01417
1.349 -0.17200001 0.191 0 0 0 0 0.01418
1.353 -0.176 0.19499999 0 0 0 0 0.01419
1.353 -0.17900001 0.198 0 0 0 0 0.0142
1.357 -0.183 0.20200001 0 0 0 0 0.01421
1.359 -0.186 0.205 0 0 0 0 0.01422
1.367 -0.191 0.20900001 0 0 0 0 0.01423
1.3710001 -0.19499999 0.213 0 0 0 0 0.01424
1.37 -0.198 0.21600001 0 0 0 0 0.01425
1.372 -0.20100001 0.22 0 0 0 0 0.01426
1.374 -0.205 0.223 0 0 0 0 0.01427
1.3789999 -0.20900001 0.227 0 0 0 0 0.01428
1.378 -0.212 0.23 0 0 0 0 0.01429
1.382 -0.21600001 0.234 0 0 0 0 0.0143
1.39 -0.221 0.23800001 0 0 0 0 0.01431
1.395 -0.22499999 0.242 0 0 0 0 0.01432
4.0809999 -0.66900003 0.71899998 0 0 0 0 0.01433
4.0570002 -0.67400002 0.72399998 0 0 0 0 0.01434
4.0440001 -0.68199998 0.73100001 0 0 0 0 0.01435
4.0110002 -0.68699998 0.73400003 0 0 0 0 0.01436
4.0229998 -0.699 0.745 0 0 0 0 0.01437
4.0139999 -0.70700002 0.75199997 0 0 0 0 0.01438
3.9530001 -0.70599997 0.75 0 0 0 0 0.01439
4.0009999 -0.72500002 0.76800001 0 0 0 0 0.0144
3.9849999 -0.73199999 0.77399999 0 0 0 0 0.01441
3.948 -0.73500001 0.77600002 0 0 0 0 0.01442
3.9400001 -0.74299997 0.78299999 0 0 0 0 0.01443
3.9419999 -0.75400001 0.792 0 0 0 0 0.01444
3.9330001 -0.76200002 0.79900002 0 0 0 0 0.01445
3.9579999 -0.77700001 0.81300002 0 0 0 0 0.01446
1.4450001 -0.287 0.30000001 0 0 0 0 0.01447
1.454 -0.29300001 0.30500001 0 0 0 0 0.01448
1.457 -0.29699999 0.308 0 0 0 0 0.01449
1.456 -0.30000001 0.31200001 0 0 0 0 0.0145
1.466 -0.30599999 0.317 0 0 0 0 0.01451
1.47 -0.31099999 0.32100001 0 0 0 0 0.01452
1.472 -0.315 0.32499999 0 0 0 0 0.01453
1.48 -0.32100001 0.329 0 0 0 0 0.01454
1.479 -0.324 0.333 0 0 0 0 0.01455
1.484 -0.329 0.33700001 0 0 0 0 0.01456
1.49 -0.33399999 0.34099999 0 0 0 0 0.01457
1.492 -0.33899999 0.345 0 0 0 0 0.01458
1.497 -0.34400001 0.34999999 6 0 0 0 0.01459
1.5 -0.34900001 0.35299999 8 0 0 0 0.0146
1.502 -0.35299999 0.35699999 10 0 0 0 0.01461
1.498 -0.35600001 0.359 11 0 0 0 0.01462
1.494 -0.359 0.361 9 0 0 0 0.01463
1.489 -0.36199999 0.36399999 9 0 0 0 0.01464
1.488 -0.366 0.366 8 0 0 0 0.01465
1.4859999 -0.36899999 0.36899999 0 0 0 0 0.01466
1.497 -0.37599999 0.375 1 0 0 0 0.01467
0 0 0 0 0 0 0 0.01468
0 0 0 0 0 0 0 0.01469
0 0 0 0 0 0 0 0.0147
0 0 0 0 0 0 0 0.01471
0 0 0 0 0 0 0 0.01472
0 0 0 0 0 0 0 0.01473
0 0 0 0 0 0 0 0.01474
3.6359999 -0.99299997 0.97100002 2 0 0 0 0.01475
3.648 -1.006 0.98100001 3 0 0 0 0.01476
1.187 -0.33000001 0.32100001 9 0 0 0 0.01477
1.183 -0.333 0.32300001 18 0 0 0 0.01478
1.192 -0.338 0.32699999 0 0 0 0 0.01479
1.176 -0.33700001 0.32499999 9 0 0 0 0.0148
1.125 -0.32600001 0.31299999 150 0 0 0 0.01481
1.071 -0.31299999 0.30000001 152 0 0 0 0.01482
1.08 -0.31900001 0.30500001 154 0 0 0 0.01483
1.077 -0.32100001 0.30700001 154 0 0 0 0.01484
1.068 -0.32100001 0.30599999 152 0 0 0 0.01485
1.122 -0.34099999 0.32300001 150 0 0 0 0.01486
1.138 -0.34900001 0.33000001 150 0 0 0 0.01487
1.125 -0.34799999 0.329 150 0 0 0 0.01488
1.17 -0.36500001 0.34400001 15 0 0 0 0.01489
1.177 -0.37099999 0.34799999 0 0 0 0 0.0149
1.169 -0.37200001 0.34799999 0 0 0 0 0.01491
1.159 -0.37200001 0.347 0 0 0 0 0.01492
1.158 -0.375 0.34900001 6 0 0 0 0.01493
1.161 -0.37900001 0.352 0 0 0 0 0.01494
1.1619999 -0.382 0.354 0 0 0 0 0.01495
1.151 -0.382 0.35299999 8 0 0 0 0.01496
1.154 -0.38699999 0.35600001 7 0 0 0 0.01497
1.158 -0.391 0.36000001 6 0 0 0 0.01498
1.158 -0.39500001 0.36199999 0 0 0 0 0.01499
1.161 -0.39899999 0.36399999 0 0 0 0 0.015
1.156 -0.40099999 0.36500001 0 0 0 0 0.01501
1.168 -0.40799999 0.37099999 0 0 0 0 0.01502
3.3740001 -1.1900001 1.0779999 4 0 0 0 0.01503
3.372 -1.199 1.0829999 5 0 0 0 0.01504
3.362 -1.205 1.085 0 0 0 0 0.01505
3.382 -1.222 1.098 0 0 0 0 0.01506
3.3429999 -1.2180001 1.09 4 0 0 0 0.01507
3.329 -1.222 1.091 3 0 0 0 0.01508
3.3299999 -1.233 1.097 3 0 0 0 0.01509
3.3510001 -1.25 1.109 3 0 0 0 0.0151
3.3280001 -1.252 1.107 3 0 0 0 0.01511
3.3239999 -1.26 1.1109999 3 0 0 0 0.01512
3.309 -1.2640001 1.1109999 3 0 0 0 0.01513
3.2920001 -1.267 1.11 3 0 0 0 0.01514
3.273 -1.2690001 1.109 3 0 0 0 0.01515
3.2920001 -1.286 1.12 3 0 0 0 0.01516
3.2839999 -1.293 1.122 2 0 0 0 0.01517
3.2720001 -1.2970001 1.123 3 0 0 0 0.01518
3.256 -1.301 1.122 4 0 0 0 0.01519
3.244 -1.3049999 1.123 3 0 0 0 0.0152
3.2409999 -1.314 1.126 3 0 0 0 0.01521
1.449 -0.59200001 0.50599998 0 0 0 0 0.01522
1.4579999 -0.60000002 0.51099998 0 0 0 0 0.01523
0 0 0 0 0 0 0 0.01524
1.438 -0.60000002 0.50700003 0 0 0 0 0.01525
1.436 -0.60299999 0.509 1 0 0 0 0.01526
1.431 -0.60500002 0.509 1 0 0 0 0.01527
1.415 -0.602 0.505 0 0 0 0 0.01528
1.436 -0.616 0.514 0 0 0 0 0.01529
1.4069999 -0.60699999 0.505 0 0 0 0 0.0153
1.495 -0.64999998 0.53899997 0 0 0 0 0.01531
1.533 -0.671 0.55500001 0 0 0 0 0.01532
1.416 -0.62400001 0.514 0 0 0 0 0.01533
0 0 0 0 0 0 0 0.01534
0 0 0 0 0 0 0 0.01535
0 0 0 0 0 0 0 0.01536
0 0 0 0 0 0 0 0.01537
0 0 0 0 0 0 0 0.01538
0.93300003 -0.42699999 0.34400001 0 0 0 0 0.01539
0.93699998 -0.43099999 0.347 21 0 0 0 0.0154
0.926 -0.42899999 0.34400001 56 0 0 0 0.01541
0.91600001 -0.42699999 0.34099999 97 0 0 0 0.01542
0.91000003 -0.42699999 0.33899999 96 0 0 0 0.01543
0.912 -0.43000001 0.34099999 81 0 0 0 0.01544
0.91299999 -0.433 0.34200001 56 0 0 0 0.01545
0.912 -0.435 0.34299999 27 0 0 0 0.01546
0.92900002 -0.44600001 0.34999999 10 0 0 0 0.01547
0.93300003 -0.44999999 0.352 0 0 0 0 0.01548
0.935 -0.454 0.35299999 0 0 0 0 0.01549
0.93900001 -0.458 0.35499999 0 0 0 0 0.0155
0.94700003 -0.465 0.359 0 0 0 0 0.01551
0.95300001 -0.47099999 0.36199999 0 0 0 0 0.01552
0.95300001 -0.47299999 0.36300001 0 0 0 0 0.01553
0.95700002 -0.47799999 0.36500001 0 0 0 0 0.01554
0.958 -0.48100001 0.366 0 0 0 0 0.01555
0.97299999 -0.491 0.37200001 0 0 0 0 0.01556
0.97299999 -0.493 0.37200001 0 0 0 0 0.01557
0.977 -0.498 0.37400001 0 0 0 0 0.01558
0.97899997 -0.50099999 0.37599999 0 0 0 0 0.01559
0.98199999 -0.50599998 0.377 0 0 0 0 0.0156
0.98900002 -0.51099998 0.38 0 0 0 0 0.01561
0.991 -0.51499999 0.382 0 0 0 0 0.01562
0.99699998 -0.52100003 0.384 0 0 0 0 0.015629999
1.002 -0.52600002 0.38699999 0 0 0 0 0.01564
1.007 -0.53100002 0.389 0 0 0 0 0.01565
1.01 -0.53500003 0.38999999 0 0 0 0 0.015659999
1.0140001 -0.53899997 0.39199999 0 0 0 0 0.01567
1.0140001 -0.542 0.39199999 0 0 0 0 0.01568
1.021 -0.54799998 0.39500001 0 0 0 0 0.015690001
1.021 -0.55000001 0.39500001 0 0 0 0 0.015699999
1.027 -0.55599999 0.398 0 0 0 0 0.01571
1.033 -0.56199998 0.40000001 0 0 0 0 0.01572
1.036 -0.56599998 0.40099999 0 0 0 0 0.015729999
1.0420001 -0.57099998 0.403 0 0 0 0 0.01574
1.0470001 -0.57599998 0.405 0 0 0 0 0.01575
1.0470001 -0.579 0.405 0 0 0 0 0.015760001
1.054 -0.58499998 0.40799999 0 0 0 0 0.015769999
1.062 -0.59100002 0.41100001 0 0 0 0 0.01578
1.0650001 -0.59500003 0.41100001 0 0 0 0 0.015790001
1.066 -0.59799999 0.412 0 0 0 0 0.015799999
1.073 -0.60399997 0.414 0 0 0 0 0.01581
1.0779999 -0.60900003 0.41600001 1 0 0 0 0.01582
1.077 -0.611 0.41499999 0 0 0 0 0.015830001
1.08 -0.61400002 0.41600001 0 0 0 0 0.01584
1.085 -0.61900002 0.417 0 0 0 0 0.01585
1.086 -0.62199998 0.417 0 0 0 0 0.015860001
1.091 -0.62599999 0.41800001 0 0 0 0 0.015869999
1.097 -0.63099998 0.41999999 1 0 0 0 0.01588
1.098 -0.634 0.41999999 0 0 0 0 0.01589
1.104 -0.63999999 0.42199999 0 0 0 0 0.015900001
1.112 -0.64600003 0.42399999 0 0 0 0 0.01591
1.1160001 -0.64999998 0.42500001 0 0 0 0 0.01592
1.119 -0.653 0.426 0 0 0 0 0.015930001
1.1289999 -0.66100001 0.428 0 0 0 0 0.015939999
1.145 -0.67199999 0.43399999 0 0 0 0 0.01595
1.151 -0.67699999 0.435 1 0 0 0 0.01596
1.153 -0.68000001 0.435 26 0 0 0 0.015969999
1.16 -0.685 0.43700001 27 0 0 0 0.01598
1.16 -0.68699998 0.435 26 0 0 0 0.01599
1.164 -0.69099998 0.43599999 35 0 0 0 0.016000001
1.165 -0.69300002 0.43599999 30 0 0 0 0.016009999
1.1720001 -0.69800001 0.43700001 49 0 0 0 0.01602
1.178 -0.70300001 0.43799999 73 0 0 0 0.016030001
1.182 -0.70700002 0.43799999 110 0 0 0 0.016039999
1.181 -0.70700002 0.43700001 145 0 0 0 0.01605
1.175 -0.70499998 0.433 150 0 0 0 0.01606
1.175 -0.70599997 0.43200001 138 0 0 0 0.016070001
1.174 -0.70599997 0.43000001 150 0 0 0 0.01608
1.173 -0.70700002 0.42899999 150 0 0 0 0.01609
1.173 -0.708 0.42699999 150 0 0 0 0.016100001
1.171 -0.70700002 0.42500001 150 0 0 0 0.016109999
1.165 -0.70499998 0.421 151 0 0 0 0.01612
1.165 -0.70499998 0.41999999 150 0 0 0 0.01613
1.1670001 -0.70700002 0.419 150 0 0 0 0.016140001
1.165 -0.70700002 0.417 150 0 0 0 0.01615
1.169 -0.70899999 0.41600001 150 0 0 0 0.01616
1.166 -0.708 0.414 150 0 0 0 0.016170001
1.166 -0.70899999 0.412 150 0 0 0 0.016179999
1.166 -0.70899999 0.41100001 150 0 0 0 0.01619
1.165 -0.70899999 0.40799999 150 0 0 0 0.0162
1.165 -0.70899999 0.40700001 150 0 0 0 0.016209999
1.165 -0.70899999 0.405 150 0 0 0 0.01622
1.166 -0.70999998 0.403 150 0 0 0 0.01623
1.166 -0.70999998 0.40200001 150 0 0 0 0.016240001
1.1670001 -0.70999998 0.40000001 150 0 0 0 0.016249999
1.1670001 -0.71100003 0.398 150 0 0 0 0.01626
1.1670001 -0.71100003 0.39700001 150 0 0 0 0.01627
1.1670001 -0.71100003 0.39399999 150 0 0 0 0.016279999
1.1670001 -0.70999998 0.39199999 150 0 0 0 0.01629
1.168 -0.71100003 0.391 150 0 0 0 0.0163
1.17 -0.71100003 0.389 150 0 0 0 0.016310001
1.168 -0.70999998 0.38699999 150 0 0 0 0.016319999
1.168 -0.70999998 0.38499999 150 0 0 0 0.01633
1.1670001 -0.70899999 0.382 150 0 0 0 0.016340001
1.17 -0.70999998 0.38100001 150 0 0 0 0.016349999
1.1720001 -0.71100003 0.38 150 0 0 0 0.01636
1.169 -0.708 0.377 150 0 0 0 0.01637
1.173 -0.70999998 0.37599999 150 0 0 0 0.016380001
1.177 -0.71100003 0.375 150 0 0 0 0.01639
1.176 -0.70999998 0.37200001 150 0 0 0 0.0164
1.178 -0.70999998 0.37099999 96 0 0 0 0.016410001
1.178 -0.70899999 0.368 56 0 0 0 0.016419999
1.182 -0.71100003 0.36700001 27 0 0 0 0.01643
1.183 -0.71100003 0.366 16 0 0 0 0.01644
1.181 -0.708 0.36300001 12 0 0 0 0.016450001
1.175 -0.70300001 0.35800001 9 0 0 0 0.01646
1.169 -0.699 0.354 8 0 0 0 0.01647
1.163 -0.69400001 0.34999999 7 0 0 0 0.016480001
1.164 -0.69400001 0.34799999 7 0 0 0 0.016489999
1.163 -0.69099998 0.345 7 0 0 0 0.0165
1.1569999 -0.68699998 0.34200001 0 0 0 0 0.01651
1.145 -0.67799997 0.336 1 0 0 0 0.016519999
1.145 -0.67699999 0.333 0 0 0 0 0.01653
1.1390001 -0.671 0.329 4 0 0 0 0.01654
1.1289999 -0.66399997 0.324 0 0 0 0 0.016550001
1.119 -0.65700001 0.31900001 1 0 0 0 0.016559999
1.113 -0.65200001 0.315 1 0 0 0 0.01657
1.1059999 -0.64600003 0.31099999 0 0 0 0 0.016580001
1.107 -0.64499998 0.30899999 0 0 0 0 0.016589999
1.104 -0.64200002 0.30599999 0 0 0 0 0.0166
1.097 -0.63599998 0.301 0 0 0 0 0.01661
1.096 -0.634 0.29899999 0 0 0 0 0.016620001
1.0930001 -0.63 0.296 0 0 0 0 0.01663
1.092 -0.62800002 0.29300001 0 0 0 0 0.01664
1.09 -0.625 0.28999999 0 0 0 0 0.016650001
1.08 -0.61699998 0.28600001 0 0 0 0 0.016659999
1.081 -0.616 0.28400001 0 0 0 0 0.01667
1.079 -0.61299998 0.28099999 0 0 0 0 0.01668
1.073 -0.60699999 0.27700001 0 0 0 0 0.016690001
1.067 -0.602 0.273 0 0 0 0 0.0167
1.061 -0.59600002 0.26899999 0 0 0 0 0.01671
1.061 -0.59399998 0.26699999 0 0 0 0 0.016720001
1.057 -0.58999997 0.264 0 0 0 0 0.016729999
1.059 -0.58899999 0.26199999 0 0 0 0 0.01674
1.046 -0.57999998 0.257 0 0 0 0 0.01675
1.043 -0.57599998 0.25400001 0 0 0 0 0.016759999
1.04 -0.57200003 0.25099999 0 0 0 0 0.01677
3.0869999 -1.692 0.74000001 4 0 0 0 0.01678
1.034 -0.56400001 0.24600001 0 0 0 0 0.016790001
3.092 -1.681 0.72899997 4 0 0 0 0.016799999
3.082 -1.669 0.72000003 3 0 0 0 0.01681
3.0999999 -1.6720001 0.71700001 3 0 0 0 0.01682
3.0940001 -1.6619999 0.70999998 3 0 0 0 0.016829999
3.1110001 -1.664 0.70700002 4 0 0 0 0.01684
3.102 -1.652 0.699 4 0 0 0 0.01685
3.1029999 -1.645 0.69300002 3 0 0 0 0.016860001
3.098 -1.635 0.685 2 0 0 0 0.016869999
3.089 -1.623 0.67699999 1 0 0 0 0.01688
3.0899999 -1.6160001 0.671 1 0 0 0 0.016890001
3.056 -1.591 0.65799999 1 0 0 0 0.016899999
3.033 -1.572 0.64700001 1 0 0 0 0.01691
3.0280001 -1.562 0.639 2 0 0 0 0.01692
3.0309999 -1.556 0.634 3 0 0 0 0.016930001
3.052 -1.559 0.63200003 3 0 0 0 0.01694
3.0580001 -1.554 0.62800002 3 0 0 0 0.01695
3.0639999 -1.55 0.62300003 3 0 0 0 0.016960001
3.0650001 -1.543 0.61699998 3 0 0 0 0.016969999
3.0739999 -1.539 0.61299998 3 0 0 0 0.01698
3.0799999 -1.534 0.60799998 3 0 0 0 0.01699
3.066 -1.5190001 0.59899998 3 0 0 0 0.017000001
3.046 -1.501 0.58899999 2 0 0 0 0.01701
3.0580001 -1.499 0.58600003 1 0 0 0 0.01702
0.92199999 -0.449 0.175 0 0 0 0 0.017030001
0.92699999 -0.44999999 0.17399999 0 0 0 0 0.017039999
0.93000001 -0.44800001 0.17200001 0 0 0 0 0.01705
0.93000001 -0.44600001 0.171 5 0 0 0 0.01706
0.92900002 -0.44299999 0.169 5 0 0 0 0.017069999
0.93099999 -0.44100001 0.168 5 0 0 0 0.01708
0.94 -0.44299999 0.167 4 0 0 0 0.01709
0.92199999 -0.43200001 0.162 0 0 0 0 0.017100001
3.3440001 -1.558 0.58399999 0 0 0 0 0.017109999
3.309 -1.5319999 0.57200003 1 0 0 0 0.01712
3.395 -1.562 0.57999998 2 0 0 0 0.017130001
3.4649999 -1.585 0.58600003 3 0 0 0 0.017139999
3.5899999 -1.631 0.60100001 4 0 0 0 0.01715
3.6960001 -1.669 0.61199999 6 0 0 0 0.01716
3.7130001 -1.666 0.60799998 7 0 0 0 0.017170001
3.777 -1.684 0.611 8 0 0 0 0.01718
3.7720001 -1.671 0.60399997 12 0 0 0 0.01719
3.7909999 -1.669 0.60100001 20 0 0 0 0.017200001
3.806 -1.664 0.59600002 24 0 0 0 0.017209999
3.8169999 -1.658 0.59100002 30 0 0 0 0.01722
3.8269999 -1.651 0.58600003 34 0 0 0 0.01723
3.8369999 -1.6440001 0.58099997 35 0 0 0 0.017240001
3.8399999 -1.6339999 0.57499999 38 0 0 0 0.01725
3.8559999 -1.63 0.57099998 36 0 0 0 0.01726
3.8640001 -1.6210001 0.56599998 44 0 0 0 0.017270001
3.868 -1.612 0.56 43 0 0 0 0.017279999
3.8789999 -1.605 0.55500001 46 0 0 0 0.01729
3.8840001 -1.595 0.54900002 46 0 0 0 0.0173
3.8970001 -1.589 0.54500002 47 0 0 0 0.017309999
3.9000001 -1.5779999 0.53799999 50 0 0 0 0.01732
3.915 -1.573 0.53399998 42 0 0 0 0.01733
3.918 -1.562 0.528 44 0 0 0 0.017340001
3.9389999 -1.559 0.52499998 42 0 0 0 0.017349999
0 0 0 0 0 0 0 0.01736
0 0 0 0 0 0 0 0.01737
3.9619999 -1.5319999 0.509 44 0 0 0 0.017379999
3.9679999 -1.522 0.50400001 37 0 0 0 0.01739
0 0 0 0 0 0 0 0.0174
0 0 0 0 0 0 0 0.017410001
0 0 0 0 0 0 0 0.017419999
0 0 0 0 0 0 0 0.01743
0 0 0 0 0 0 0 0.017440001
4.0349998 -1.474 0.47499999 34 0 0 0 0.017449999
4.0479999 -1.466 0.47099999 32 0 0 0 0.01746
4.0599999 -1.4579999 0.46599999 27 0 0 0 0.01747
0 0 0 0 0 0 0 0.017480001
0 0 0 0 0 0 0 0.01749
1.823 -0.63800001 0.20100001 0 0 0 0 0.0175
1.702 -0.58999997 0.185 2 0 0 0 0.017510001
3.6860001 -1.267 0.396 0 0 0 0 0.017519999
1.6950001 -0.57700002 0.17900001 7 0 0 0 0.01753
1.6900001 -0.56999999 0.177 6 0 0 0 0.01754
3.586 -1.199 0.37 7 0 0 0 0.017550001
3.5450001 -1.175 0.361 7 0 0 0 0.01756
3.5120001 -1.153 0.35299999 6 0 0 0 0.01757
3.546 -1.153 0.35100001 3 0 0 0 0.017580001
3.5190001 -1.133 0.34400001 4 0 0 0 0.017589999
3.5339999 -1.127 0.34 3 0 0 0 0.0176
3.5580001 -1.123 0.338 6 0 0 0 0.01761
3.5799999 -1.119 0.33500001 4 0 0 0 0.017619999
3.5810001 -1.108 0.331 2 0 0 0 0.01763
3.5610001 -1.091 0.324 2 0 0 0 0.01764
3.5880001 -1.0880001 0.322 1 0 0 0 0.017650001
3.5669999 -1.0700001 0.315 2 0 0 0 0.017659999
3.585 -1.0650001 0.31200001 2 0 0 0 0.01767
3.6229999 -1.0650001 0.31099999 2 0 0 0 0.017680001
0 0 0 0 0 0 0 0.017689999
0 0 0 0 0 0 0 0.0177
0 0 0 0 0 0 0 0.01771
0 0 0 0 0 0 0 0.017720001
0 0 0 0 0 0 0 0.017729999
3.665 -1.008 0.287 1 0 0 0 0.01774
0 0 0 0 0 0 0 0.017750001
3.6900001 -0.99199998 0.28 2 0 0 0 0.017759999
0 0 0 0 0 0 0 0.01777
1.541 -0.40400001 0.113 0 0 0 0 0.01778
1.503 -0.389 0.108 1 0 0 0 0.017790001
0 0 0 0 0 0 0 0.0178
1.484 -0.375 0.104 0 0 0 0 0.01781
1.499 -0.37400001 0.103 0 0 0 0 0.017820001
1.503 -0.37099999 0.102 0 0 0 0 0.017829999
1.508 -0.36700001 0.1 0 0 0 0 0.01784
3.8169999 -0.91799998 0.25 2 0 0 0 0.01785
3.793 -0.89999998 0.244 2 0 0 0 0.017859999
3.7909999 -0.88700002 0.23999999 1 0 0 0 0.01787
3.8050001 -0.87900001 0.236 2 0 0 0 0.01788
3.813 -0.86900002 0.233 2 0 0 0 0.017890001
3.8540001 -0.866 0.23100001 0 0 0 0 0.017899999
3.8859999 -0.861 0.229 0 0 0 0 0.01791
3.888 -0.84899998 0.22499999 0 0 0 0 0.01792
3.9000001 -0.83899999 0.221 0 0 0 0 0.017929999
3.918 -0.83099997 0.21799999 0 0 0 0 0.01794
3.921 -0.81900001 0.214 0 0 0 0 0.01795
3.9100001 -0.80400002 0.20900001 0 0 0 0 0.017960001
3.9690001 -0.80400002 0.208 0 0 0 0 0.017969999
4.0009999 -0.79799998 0.206 0 0 0 0 0.01798
3.9820001 -0.78100002 0.20100001 0 0 0 0 0.017990001
3.987 -0.76999998 0.197 0 0 0 0 0.017999999
4.0089998 -0.76200002 0.19400001 0 0 0 0 0.01801
3.9860001 -0.745 0.189 3 0 0 0 0.01802
4.0240002 -0.73900002 0.18700001 3 0 0 0 0.018030001
4.0089998 -0.72299999 0.182 3 0 0 0 0.01804
4.0359998 -0.71600002 0.17900001 0 0 0 0 0.01805
1.408 -0.245 0.061000001 0 0 0 0 0.018060001
1.399 -0.23899999 0.059 0 0 0 0 0.018069999
1.392 -0.233 0.057999998 0 0 0 0 0.01808
1.385 -0.228 0.056000002 0 0 0 0 0.01809
1.383 -0.223 0.055 0 0 0 0 0.018100001
1.3789999 -0.21799999 0.052999999 0 0 0 0 0.01811
1.3839999 -0.215 0.052000001 0 0 0 0 0.01812
1.3839999 -0.20999999 0.050999999 0 0 0 0 0.018130001
1.3710001 -0.204 0.048999999 0 0 0 0 0.018139999
1.36 -0.198 0.046999998 0 0 0 0 0.01815
1.362 -0.19400001 0.046 0 0 0 0 0.01816
1.362 -0.19 0.045000002 0 0 0 0 0.018169999
1.35 -0.184 0.043000001 0 0 0 0 0.01818
1.346 -0.17900001 0.041999999 0 0 0 0 0.01819
1.336 -0.17299999 0.041000001 0 0 0 0 0.018200001
1.3380001 -0.17 0.039000001 0 0 0 0 0.018209999
1.33 -0.164 0.037999999 0 0 0 0 0.01822
1.331 -0.16 0.037 0 0 0 0 0.018230001
1.323 -0.155 0.035999998 0 0 0 0 0.018239999
1.319 -0.15000001 0.034000002 0 0 0 0 0.01825
1.319 -0.146 0.033 0 0 0 0 0.01826
1.309 -0.141 0.032000002 4 0 0 0 0.018270001
1.307 -0.13699999 0.030999999 5 0 0 0 0.018279999
1.295 -0.131 0.028999999 5 0 0 0 0.01829
1.291 -0.127 0.028000001 6 0 0 0 0.018300001
1.2970001 -0.123 0.027000001 6 0 0 0 0.018309999
1.439 -0.132 0.028999999 43 0 0 0 0.01832
1.569 -0.139 0.030999999 87 0 0 0 0.01833
1.694 -0.145 0.032000002 68 0 0 0 0.018340001
1.799 -0.149 0.033 13 0 0 0 0.01835
1.804 -0.14300001 0.030999999 13 0 0 0 0.01836
1.806 -0.138 0.029999999 13 0 0 0 0.018370001
1.8099999 -0.132 0.028999999 13 0 0 0 0.018379999
1.814 -0.127 0.027000001 12 0 0 0 0.01839
1.817 -0.121 0.026000001 12 0 0 0 0.0184
1.821 -0.116 0.025 12 0 0 0 0.018409999
1.821 -0.11 0.023 12 0 0 0 0.01842
1.83 -0.105 0.022 12 0 0 0 0.01843
1.847 -0.1 0.021 12 0 0 0 0.018440001
1.853 -0.093999997 0.02 12 0 0 0 0.018449999
1.8559999 -0.089000002 0.017999999 12 0 0 0 0.01846
1.863 -0.082999997 0.017000001 12 0 0 0 0.01847
1.864 -0.077 0.016000001 12 0 0 0 0.018479999
1.877 -0.071999997 0.014 12 0 0 0 0.01849
1.883 -0.066 0.013 12 0 0 0 0.0185
1.881 -0.059999999 0.012 63 0 0 0 0.018510001
1.89 -0.054000001 0.011 12 0 0 0 0.018519999
1.896 -0.048999999 0.0089999996 65 0 0 0 0.01853
1.906 -0.043000001 0.0080000004 12 0 0 0 0.018540001
1.908 -0.037 0.0070000002 65 0 0 0 0.018549999
1.924 -0.030999999 0.0060000001 62 0 0 0 0.01856
1.927 -0.025 0.0040000002 12 0 0 0 0.01857
1.933 -0.018999999 0.003 67 0 0 0 0.018580001
1.9450001 -0.013 0.0020000001 12 0 0 0 0.01859
1.949 -0.0070000002 0.001 12 0 0 0 0.0186
1.952 -0.001 0 12 0 0 0 0.018610001
1.96 0.0049999999 -0.001 12 0 0 0 0.018619999
1.9630001 0.011 -0.0020000001 62 0 0 0 0.01863
1.972 0.017000001 -0.003 64 0 0 0 0.01864
1.98 0.024 -0.0040000002 60 0 0 0 0.018650001
1.985 0.029999999 -0.0060000001 64 0 0 0 0.01866
1.997 0.037 -0.0070000002 58 0 0 0 0.01867
2 0.043000001 -0.0080000004 57 0 0 0 0.018680001
2.006 0.048999999 -0.0089999996 57 0 0 0 0.018689999
2.0150001 0.056000002 -0.011 62 0 0 0 0.0187
2.0250001 0.063000001 -0.012 57 0 0 0 0.01871
2.0309999 0.068999998 -0.013 59 0 0 0 0.018719999
2.0339999 0.075999998 -0.014 56 0 0 0 0.01873
2.049 0.082999997 -0.016000001 56 0 0 0 0.01874
2.0539999 0.090000004 -0.017000001 53 0 0 0 0.018750001
2.059 0.097000003 -0.017999999 57 0 0 0 0.018759999
2.0639999 0.104 -0.018999999 53 0 0 0 0.01877
2.0769999 0.111 -0.02 57 0 0 0 0.018780001
2.085 0.118 -0.022 57 0 0 0 0.018789999
2.0940001 0.125 -0.023 56 0 0 0 0.0188
2.0969999 0.132 -0.024 57 0 0 0 0.01881
2.1059999 0.139 -0.025 53 0 0 0 0.018820001
2.1159999 0.147 -0.026000001 51 0 0 0 0.018829999
2.128 0.154 -0.028000001 51 0 0 0 0.01884
2.1340001 0.162 -0.028999999 53 0 0 0 0.018850001
2.141 0.169 -0.029999999 51 0 0 0 0.018859999
2.154 0.177 -0.030999999 51 0 0 0 0.01887
2.1559999 0.184 -0.032000002 47 0 0 0 0.01888
2.1670001 0.192 -0.033 51 0 0 0 0.018890001
2.175 0.2 -0.035 50 0 0 0 0.0189
2.1830001 0.208 -0.035999998 50 0 0 0 0.01891
2.1960001 0.21600001 -0.037 48 0 0 0 0.018920001
2.201 0.22400001 -0.037999999 48 0 0 0 0.018929999
2.207 0.23100001 -0.039000001 50 0 0 0 0.01894
2.2190001 0.23999999 -0.039999999 49 0 0 0 0.01895
2.227 0.248 -0.041999999 44 0 0 0 0.018959999
2.2360001 0.25600001 -0.043000001 41 0 0 0 0.01897
2.2479999 0.26499999 -0.044 39 0 0 0 0.01898
2.256 0.273 -0.045000002 39 0 0 0 0.018990001
2.263 0.28099999 -0.046 38 0 0 0 0.018999999
2.2739999 0.28999999 -0.046999998 36 0 0 0 0.01901
2.2839999 0.29899999 -0.048999999 39 0 0 0 0.01902
2.293 0.30700001 -0.050000001 37 0 0 0 0.019029999
2.306 0.317 -0.050999999 33 0 0 0 0.01904
2.2839999 0.32100001 -0.050999999 30 0 0 0 0.01905
2.3050001 0.331 -0.052999999 5 0 0 0 0.019060001
1.601 0.235 -0.037 0 0 0 0 0.019069999
1.541 0.23100001 -0.035999998 0 0 0 0 0.01908
1.536 0.236 -0.037 0 0 0 0 0.019090001
1.545 0.242 -0.037 0 0 0 0 0.019099999
1.556 0.249 -0.037999999 0 0 0 0 0.01911
1.535 0.25099999 -0.037999999 0 0 0 0 0.01912
1.5190001 0.25299999 -0.037999999 0 0 0 0 0.019130001
1.522 0.25799999 -0.039000001 0 0 0 0 0.01914
1.5319999 0.26499999 -0.039999999 0 0 0 0 0.01915
1.49 0.26300001 -0.039000001 0 0 0 0 0.019160001
1.5039999 0.27000001 -0.039999999 0 0 0 0 0.019169999
1.495 0.273 -0.039999999 0 0 0 0 0.01918
1.495 0.278 -0.041000001 0 0 0 0 0.01919
1.495 0.28299999 -0.041000001 0 0 0 0 0.019200001
1.494 0.28799999 -0.041000001 0 0 0 0 0.01921
1.4859999 0.29100001 -0.041999999 0 0 0 0 0.01922
1.485 0.296 -0.041999999 0 0 0 0 0.019230001
1.478 0.30000001 -0.041999999 0 0 0 0 0.019239999
1.488 0.30599999 -0.043000001 0 0 0 0 0.01925
1.4859999 0.31099999 -0.043000001 0 0 0 0 0.01926
1.484 0.315 -0.044 0 0 0 0 0.019269999
1.483 0.31999999 -0.044 0 0 0 0 0.01928
1.4809999 0.32499999 -0.044 0 0 0 0 0.01929
1.477 0.329 -0.044 0 0 0 0 0.019300001
1.479 0.33399999 -0.045000002 0 0 0 0 0.019309999
1.472 0.33700001 -0.045000002 0 0 0 0 0.01932
1.459 0.33899999 -0.045000002 0 0 0 0 0.019330001
1.466 0.34599999 -0.045000002 0 0 0 0 0.019339999
1.465 0.35100001 -0.046 0 0 0 0 0.01935
1.452 0.352 -0.045000002 0 0 0 0 0.01936
1.4529999 0.35699999 -0.046 0 0 0 0 0.019370001
1.446 0.36000001 -0.046 0 0 0 0 0.019379999
1.4450001 0.36500001 -0.046 0 0 0 0 0.01939
1.444 0.37 -0.046 0 0 0 0 0.019400001
1.4349999 0.37200001 -0.046 0 0 0 0 0.019409999
1.443 0.37900001 -0.046 0 0 0 0 0.01942
1.454 0.38699999 -0.046999998 0 0 0 0 0.01943
1.448 0.38999999 -0.046999998 0 0 0 0 0.019440001
1.446 0.39399999 -0.046999998 0 0 0 0 0.01945
1.447 0.39899999 -0.046999998 0 0 0 0 0.01946
1.437 0.40099999 -0.046999998 0 0 0 0 0.019470001
1.438 0.40700001 -0.046999998 0 0 0 0 0.019479999
1.4299999 0.40900001 -0.046999998 0 0 0 0 0.01949
1.4 0.405 -0.046 0 0 0 0 0.0195
1.404 0.41100001 -0.046 0 0 0 0 0.019509999
1.405 0.41600001 -0.046 0 0 0 0 0.01952
1.392 0.417 -0.046 0 0 0 0 0.01953
1.391 0.42199999 -0.046 0 0 0 0 0.019540001
1.382 0.42399999 -0.046 0 0 0 0 0.019549999
1.381 0.428 -0.046 0 0 0 0 0.01956
1.38 0.43200001 -0.046 0 0 0 0 0.01957
1.386 0.43900001 -0.046 0 0 0 0 0.019579999
1.388 0.44400001 -0.046 0 0 0 0 0.01959
1.38 0.44600001 -0.046 0 0 0 0 0.0196
1.3789999 0.45100001 -0.046 0 0 0 0 0.019610001
1.38 0.456 -0.046 0 0 0 0 0.019619999
1.38 0.46000001 -0.046 0 0 0 0 0.01963
1.3839999 0.46599999 -0.046 0 0 0 0 0.019640001
1.38 0.47 -0.045000002 0 0 0 0 0.019649999
1.378 0.47400001 -0.045000002 0 0 0 0 0.01966
1.37 0.47600001 -0.045000002 0 0 0 0 0.01967
1.378 0.48300001 -0.045000002 0 0 0 0 0.019680001
1.374 0.486 -0.045000002 0 0 0 0 0.01969
1.376 0.49200001 -0.045000002 0 0 0 0 0.0197
1.383 0.49900001 -0.045000002 0 0 0 0 0.019710001
1.373 0.5 -0.044 0 0 0 0 0.019719999
1.3839999 0.509 -0.044 0 0 0 0 0.01973
1.4069999 0.52200001 -0.045000002 0 0 0 0 0.01974
1.4170001 0.52999997 -0.045000002 0 0 0 0 0.019750001
1.436 0.542 -0.045000002 0 0 0 0 0.01976
1.457 0.55599999 -0.046 0 0 0 0 0.01977
1.455 0.56 -0.045000002 0 0 0 0 0.019780001
1.4579999 0.56599998 -0.045000002 0 0 0 0 0.019789999
1.462 0.57200003 -0.045000002 0 0 0 0 0.0198
1.482 0.58499998 -0.045000002 0 0 0 0 0.01981
1.494 0.59500003 -0.045000002 0 0 0 0 0.019819999
1.489 0.59799999 -0.044 0 0 0 0 0.01983
1.5089999 0.611 -0.045000002 0 0 0 0 0.01984
1.515 0.61900002 -0.044 0 0 0 0 0.019850001
1.536 0.63300002 -0.045000002 0 0 0 0 0.019859999
1.539 0.639 -0.044 0 0 0 0 0.01987
1.5369999 0.64399999 -0.044 0 0 0 0 0.019880001
1.552 0.65499997 -0.044 0 0 0 0 0.019889999
1.561 0.66399997 -0.043000001 0 0 0 0 0.0199
1.5650001 0.671 -0.043000001 0 0 0 0 0.01991
1.5930001 0.68900001 -0.043000001 0 0 0 0 0.019920001
1.602 0.69800001 -0.043000001 0 0 0 0 0.019929999
1.619 0.71100003 -0.041999999 0 0 0 0 0.01994
1.627 0.72000003 -0.041999999 0 0 0 0 0.019950001
1.614 0.72000003 -0.041000001 0 0 0 0 0.019959999
1.633 0.73299998 -0.041000001 0 0 0 0 0.01997
1.626 0.736 -0.039999999 0 0 0 0 0.01998
1.646 0.75 -0.039999999 0 0 0 0 0.019990001
1.6720001 0.76800001 -0.039000001 0 0 0 0 0.02
1.674 0.77499998 -0.039000001 0 0 0 0 0.02001
1.692 0.78899997 -0.037999999 0 0 0 0 0.020020001
1.709 0.80199999 -0.037999999 0 0 0 0 0.020029999
1.722 0.81400001 -0.037 0 0 0 0 0.02004
1.751 0.833 -0.037 0 0 0 0 0.02005
1.7690001 0.84799999 -0.035999998 0 0 0 0 0.020059999
1.783 0.861 -0.035 0 0 0 0 0.02007
1.813 0.88099998 -0.035 0 0 0 0 0.02008
1.839 0.89999998 -0.034000002 0 0 0 0 0.020090001
1.839 0.90600002 -0.033 0 0 0 0 0.020099999
1.8890001 0.93699998 -0.033 0 0 0 0 0.02011
1.891 0.94400001 -0.032000002 0 0 0 0 0.02012
2.5899999 1.302 -0.041999999 4 0 0 0 0.020129999
2.5869999 1.308 -0.039999999 44 0 0 0 0.02014
2.6359999 1.342 -0.039000001 150 0 0 0 0.02015
2.675 1.3710001 -0.037999999 150 0 0 0 0.020160001
2.6719999 1.377 -0.035999998 150 0 0 0 0.020169999
2.6689999 1.3839999 -0.034000002 150 0 0 0 0.02018
2.6630001 1.39 -0.032000002 150 0 0 0 0.020190001
2.6589999 1.396 -0.029999999 150 0 0 0 0.020199999
2.6500001 1.4 -0.028000001 150 0 0 0 0.02021
2.6470001 1.4069999 -0.026000001 150 0 0 0 0.02022
2.642 1.413 -0.024 150 0 0 0 0.020230001
2.635 1.4170001 -0.022 150 0 0 0 0.02024
2.635 1.425 -0.018999999 150 0 0 0 0.02025
2.632 1.432 -0.017000001 150 0 0 0 0.020260001
2.652 1.451 -0.015 150 0 0 0 0.020269999
2.6559999 1.461 -0.013 151 0 0 0 0.02028
2.675 1.48 -0.011 151 0 0 0 0.02029
2.7 1.502 -0.0080000004 152 0 0 0 0.020300001
2.8989999 1.622 -0.0060000001 150 0 0 0 0.02031
3.092 1.739 -0.0040000002 36 0 0 0 0.02032
3.0899999 1.747 -0.001 37 0 0 0 0.020330001
3.102 1.763 0.001 37 0 0 0 0.020339999
3.178 1.816 0.0040000002 45 0 0 0 0.02035
3.187 1.831 0.0070000002 50 0 0 0 0.02036
3.194 1.844 0.0099999998 51 0 0 0 0.020369999
3.6059999 2.0929999 0.015 150 0 0 0 0.02038
3.8369999 2.237 0.02 135 0 0 0 0.02039
3.8399999 2.2509999 0.024 150 0 0 0 0.020400001
3.848 2.266 0.028000001 40 0 0 0 0.020409999
3.8610001 2.2839999 0.032000002 0 0 0 0 0.02042
3.869 2.3 0.035999998 0 0 0 0 0.02043
3.8659999 2.309 0.039999999 0 0 0 0 0.020439999
3.845 2.3069999 0.044 0 0 0 0 0.02045
3.8540001 2.323 0.048999999 0 0 0 0 0.02046
3.825 2.316 0.052999999 0 0 0 0 0.020470001
0 0 0 0 0 0 0 0.020479999
0 0 0 0 0 0 0 0.02049
0 0 0 0 0 0 0 0.020500001
3.8410001 2.3659999 0.071000002 0 0 0 0 0.020509999
3.835 2.372 0.075000003 1 0 0 0 0.02052
3.8299999 2.3789999 0.079999998 0 0 0 0 0.02053
3.8099999 2.375 0.083999999 30 0 0 0 0.020540001
3.7920001 2.3740001 0.088 134 0 0 0 0.02055
3.7980001 2.3870001 0.093000002 150 0 0 0 0.02056
3.7980001 2.3959999 0.097999997 66 0 0 0 0.020570001
3.7880001 2.3989999 0.102 5 0 0 0 0.020579999
3.809 2.421 0.108 0 0 0 0 0.02059
3.7939999 2.4200001 0.112 0 0 0 0 0.0206
0 0 0 0 0 0 0 0.020609999
3.809 2.447 0.122 0 0 0 0 0.02062
3.8010001 2.45 0.127 0 0 0 0 0.02063
0 0 0 0 0 0 0 0.020640001
0 0 0 0 0 0 0 0.020649999
0 0 0 0 0 0 0 0.02066
0 0 0 0 0 0 0 0.02067
3.7980001 2.4879999 0.152 0 0 0 0 0.020679999
3.7909999 2.4909999 0.15700001 0 0 0 0 0.02069
3.777 2.4890001 0.162 0 0 0 0 0.0207
0 0 0 0 0 0 0 0.020710001
0 0 0 0 0 0 0 0.020719999
3.783 2.5139999 0.178 0 0 0 0 0.02073
3.743 2.494 0.182 1 0 0 0 0.020740001
3.753 2.507 0.18700001 31 0 0 0 0.020749999
3.743 2.507 0.192 82 0 0 0 0.02076
3.7420001 2.5120001 0.197 130 0 0 0 0.02077
3.7360001 2.5150001 0.20299999 132 0 0 0 0.020780001
3.7360001 2.52 0.208 98 0 0 0 0.02079
3.7420001 2.53 0.214 64 0 0 0 0.0208
3.7420001 2.5350001 0.219 15 0 0 0 0.020810001
3.756 2.55 0.22499999 0 0 0 0 0.020819999
3.753 2.553 0.23100001 0 0 0 0 0.02083
3.7079999 2.527 0.233 0 0 0 0 0.02084
0 0 0 0 0 0 0 0.020850001
0.041999999 0.028999999 0.0020000001 0 0 0 0 0.02086
0.041999999 0.028999999 0.0020000001 0 0 0 0 0.02087
3.7320001 2.5610001 0.257 0 0 0 0 0.020880001
3.7379999 2.569 0.26300001 0 0 0 0 0.020889999
3.7449999 2.5780001 0.26899999 0 0 0 0 0.0209
3.7349999 2.5739999 0.27399999 0 0 0 0 0.02091
0.041999999 0.028999999 0.003 0 0 0 0 0.020919999
0.041999999 0.028999999 0.003 0 0 0 0 0.02093
3.7049999 2.563 0.28799999 0 0 0 0 0.02094
3.73 2.5840001 0.296 0 0 0 0 0.020950001
3.73 2.586 0.301 0 0 0 0 0.020959999
3.7349999 2.592 0.30700001 1 0 0 0 0.02097
3.7249999 2.5869999 0.31200001 1 0 0 0 0.02098
3.7320001 2.5940001 0.31799999 1 0 0 0 0.020989999
3.74 2.6010001 0.324 1 0 0 0 0.021
3.7379999 2.602 0.33000001 0 0 0 0 0.02101
3.733 2.5999999 0.33500001 0 0 0 0 0.021020001
0 0 0 0 0 0 0 0.021029999
0 0 0 0 0 0 0 0.02104
0 0 0 0 0 0 0 0.021050001
0.039999999 0.028000001 0.003 0 0 0 0 0.021059999
3.7449999 2.612 0.36300001 0 0 0 0 0.02107
3.723 2.5969999 0.366 0 0 0 0 0.02108
3.7349999 2.605 0.373 0 0 0 0 0.021090001
3.7049999 2.5840001 0.375 1 0 0 0 0.0211
3.711 2.5880001 0.38100001 13 0 0 0 0.02111
3.704 2.582 0.38600001 28 0 0 0 0.021120001
3.6989999 2.5780001 0.38999999 66 0 0 0 0.021129999
3.691 2.5710001 0.39399999 78 0 0 0 0.02114
3.688 2.5680001 0.39899999 98 0 0 0 0.02115
3.6849999 2.5639999 0.40400001 110 0 0 0 0.021159999
3.6800001 2.559 0.40799999 123 0 0 0 0.02117
3.6860001 2.5610001 0.414 150 0 0 0 0.02118
3.6860001 2.559 0.419 150 0 0 0 0.021190001
3.6819999 2.5539999 0.42399999 150 0 0 0 0.021199999
3.6849999 2.5539999 0.42899999 144 0 0 0 0.02121
3.6830001 2.55 0.433 125 0 0 0 0.02122
3.684 2.5469999 0.43799999 109 0 0 0 0.021229999
3.691 2.55 0.44400001 96 0 0 0 0.02124
3.701 2.553 0.44999999 83 0 0 0 0.02125
3.7 2.549 0.454 66 0 0 0 0.021260001
3.7130001 2.5539999 0.461 50 0 0 0 0.021269999
3.7130001 2.55 0.465 22 0 0 0 0.02128
3.723 2.553 0.47099999 12 0 0 0 0.021290001
3.7179999 2.546 0.47499999 4 0 0 0 0.021299999
3.737 2.5539999 0.48199999 1 0 0 0 0.02131
3.7620001 2.566 0.48899999 0 0 0 0 0.02132
3.74 2.546 0.491 0 0 0 0 0.021330001
3.7409999 2.5420001 0.495 0 0 0 0 0.02134
3.7390001 2.536 0.49900001 0 0 0 0 0.02135
3.747 2.5350001 0.50400001 0 0 0 0 0.021360001
3.7449999 2.529 0.50800002 0 0 0 0 0.021369999
3.7550001 2.529 0.514 0 0 0 0 0.02138
3.76 2.527 0.51800001 0 0 0 0 0.02139
3.76 2.52 0.52200001 0 0 0 0 0.021400001
3.7620001 2.516 0.52600002 0 0 0 0 0.02141
3.7290001 2.487 0.52600002 0 0 0 0 0.02142
3.76 2.5009999 0.53399998 0 0 0 0 0.021430001
3.7119999 2.4630001 0.52999997 0 0 0 0 0.021439999
3.747 2.4790001 0.53899997 0 0 0 0 0.02145
3.763 2.4820001 0.54500002 0 0 0 0 0.02146
3.7509999 2.467 0.54699999 0 0 0 0 0.021469999
3.6659999 2.404 0.537 0 0 0 0 0.02148
0 0 0 0 0 0 0 0.02149
0.041000001 0.027000001 0.0060000001 0 0 0 0 0.021500001
0 0 0 0 0 0 0 0.021509999
3.779 2.447 0.56699997 0 0 0 0 0.02152
3.773 2.4349999 0.56900001 0 0 0 0 0.02153
3.7750001 2.427 0.57200003 0 0 0 0 0.021539999
3.7869999 2.427 0.57700002 0 0 0 0 0.02155
3.786 2.418 0.579 0 0 0 0 0.02156
3.7690001 2.398 0.579 0 0 0 0 0.021570001
3.7839999 2.3989999 0.58399999 0 0 0 0 0.021579999
3.779 2.3859999 0.58600003 0 0 0 0 0.02159
3.7880001 2.3829999 0.58999997 0 0 0 0 0.021600001
3.803 2.3829999 0.59500003 0 0 0 0 0.021609999
3.78 2.359 0.59399998 0 0 0 0 0.02162
0 0 0 0 0 0 0 0.02163
0 0 0 0 0 0 0 0.021640001
0.043000001 0.026000001 0.0060000001 0 0 0 0 0.02165
3.8 2.332 0.60500002 0 0 0 0 0.02166
3.8099999 2.3280001 0.60900003 0 0 0 0 0.021670001
3.8080001 2.3169999 0.61000001 0 0 0 0 0.021679999
3.819 2.3139999 0.61400002 0 0 0 0 0.02169
3.8099999 2.2980001 0.61400002 0 0 0 0 0.0217
3.8180001 2.2920001 0.61699998 0 0 0 0 0.021709999
3.826 2.2869999 0.62 0 0 0 0 0.02172
3.8180001 2.2709999 0.62 0 0 0 0 0.02173
3.8399999 2.273 0.625 0 0 0 0 0.021740001
3.839 2.2620001 0.62599999 0 0 0 0 0.021749999
0 0 0 0 0 0 0 0.02176
3.8570001 2.25 0.63099998 0 0 0 0 0.02177
3.823 2.2190001 0.62699997 0 0 0 0 0.021779999
3.8559999 2.227 0.634 0 0 0 0 0.02179
3.8469999 2.211 0.63300002 0 0 0 0 0.0218
3.848 2.2 0.634 0 0 0 0 0.021810001
0 0 0 0 0 0 0 0.021819999
0 0 0 0 0 0 0 0.02183
0 0 0 0 0 0 0 0.021840001
2.6849999 1.502 0.44400001 51 0 0 0 0.021849999
2.6789999 1.4910001 0.44299999 150 0 0 0 0.02186
2.6589999 1.471 0.44 150 0 0 0 0.02187
2.6500001 1.4579999 0.43900001 150 0 0 0 0.021880001
2.6340001 1.441 0.43700001 78 0 0 0 0.02189
2.6240001 1.427 0.435 150 0 0 0 0.0219
2.628 1.421 0.43599999 150 0 0 0 0.021910001
2.631 1.415 0.43599999 150 0 0 0 0.021919999
2.6370001 1.41 0.43700001 150 0 0 0 0.02193
2.6470001 1.4069999 0.43900001 150 0 0 0 0.02194
2.6470001 1.398 0.43900001 150 0 0 0 0.021950001
2.654 1.3940001 0.44 150 0 0 0 0.02196
2.661 1.3890001 0.44100001 150 0 0 0 0.02197
2.668 1.3839999 0.442 150 0 0 0 0.021980001
2.6689999 1.376 0.442 150 0 0 0 0.021989999
2.678 1.372 0.44299999 150 0 0 0 0.022
2.681 1.365 0.44299999 150 0 0 0 0.02201
2.691 1.3609999 0.44400001 150 0 0 0 0.022019999
2.6949999 1.354 0.44400001 150 0 0 0 0.02203
2.6989999 1.347 0.44400001 150 0 0 0 0.02204
2.704 1.341 0.44499999 150 0 0 0 0.022050001
2.71 1.335 0.44499999 150 0 0 0 0.022059999
2.7179999 1.33 0.44499999 150 0 0 0 0.02207
2.721 1.323 0.44499999 150 0 0 0 0.02208
2.7279999 1.317 0.44600001 150 0 0 0 0.022089999
2.734 1.311 0.44600001 150 0 0 0 0.0221
2.737 1.303 0.44499999 150 0 0 0 0.02211
2.7460001 1.298 0.44600001 150 0 0 0 0.022120001
2.7490001 1.291 0.44499999 150 0 0 0 0.022129999
2.7550001 1.284 0.44499999 150 0 0 0 0.02214
2.7590001 1.277 0.44499999 150 0 0 0 0.022150001
2.7690001 1.273 0.44600001 150 0 0 0 0.022159999
2.776 1.266 0.44499999 150 0 0 0 0.02217
2.779 1.2589999 0.44499999 150 0 0 0 0.02218
2.786 1.252 0.44499999 150 0 0 0 0.022190001
2.7869999 1.244 0.44400001 150 0 0 0 0.0222
2.7909999 1.2359999 0.44299999 150 0 0 0 0.02221
2.8010001 1.2309999 0.44299999 150 0 0 0 0.022220001
2.8050001 1.223 0.442 150 0 0 0 0.022229999
2.8180001 1.219 0.44299999 150 0 0 0 0.02224
2.822 1.212 0.442 150 0 0 0 0.02225
2.8299999 1.206 0.442 150 0 0 0 0.022260001
2.8310001 1.197 0.44 150 0 0 0 0.02227
2.8399999 1.191 0.44 150 0 0 0 0.02228
2.846 1.184 0.43900001 150 0 0 0 0.022290001
2.852 1.177 0.43900001 150 0 0 0 0.022299999
2.855 1.169 0.43700001 150 0 0 0 0.02231
2.8640001 1.1619999 0.43700001 150 0 0 0 0.02232
2.8699999 1.156 0.43599999 150 0 0 0 0.022329999
2.875 1.148 0.435 150 0 0 0 0.02234
2.885 1.142 0.435 150 0 0 0 0.02235
2.892 1.135 0.43399999 150 0 0 0 0.022360001
2.892 1.126 0.43200001 150 0 0 0 0.022369999
2.902 1.12 0.43099999 150 0 0 0 0.02238
2.911 1.114 0.43000001 150 0 0 0 0.022390001
2.9170001 1.1059999 0.42899999 150 0 0 0 0.022399999
2.9200001 1.097 0.42699999 150 0 0 0 0.02241
2.9319999 1.092 0.42699999 150 0 0 0 0.02242
2.9360001 1.084 0.42500001 150 0 0 0 0.022430001
2.9430001 1.077 0.42399999 150 0 0 0 0.02244
2.951 1.0700001 0.42300001 150 0 0 0 0.02245
2.9549999 1.062 0.421 150 0 0 0 0.022460001
2.9630001 1.0549999 0.41999999 150 0 0 0 0.022469999
2.971 1.048 0.419 150 0 0 0 0.02248
2.9790001 1.041 0.41800001 150 0 0 0 0.02249
2.9820001 1.0319999 0.41600001 150 0 0 0 0.022500001
2.9920001 1.025 0.414 150 0 0 0 0.02251
