# .PCD v0.7 - Point Cloud Data file format
VERSION 0.7
FIELDS x y z intensity normal_x normal_y normal_z curvature
SIZE 4 4 4 4 4 4 4 4
TYPE F F F F F F F F
COUNT 1 1 1 1 1 1 1 1
WIDTH 1056
HEIGHT 1
VIEWPOINT 0 0 0 1 0 0 0
POINTS 1056
DATA ascii
0.96499997 0.45199999 -0.25999999 4 0 0 0 0.02138
0.94999999 0.44800001 -0.25600001 4 0 0 0 0.02139
0.94099998 0.447 -0.255 4 0 0 0 0.021400001
0.93000001 0.44499999 -0.252 5 0 0 0 0.02141
0.91799998 0.442 -0.25 5 0 0 0 0.02142
0.90700001 0.43900001 -0.24699999 6 0 0 0 0.021430001
0.90399998 0.44 -0.24699999 6 0 0 0 0.021439999
0.89099997 0.43700001 -0.244 6 0 0 0 0.02145
0.88800001 0.43799999 -0.244 6 0 0 0 0.02146
0.88300002 0.43799999 -0.243 7 0 0 0 0.021469999
0.87199998 0.43599999 -0.241 6 0 0 0 0.02148
0.86799997 0.43599999 -0.23999999 6 0 0 0 0.02149
0.86299998 0.43700001 -0.23899999 6 0 0 0 0.021500001
0.85399997 0.435 -0.237 8 0 0 0 0.021509999
0.852 0.43599999 -0.237 10 0 0 0 0.02152
0.84899998 0.43700001 -0.236 11 0 0 0 0.02153
0.84500003 0.43799999 -0.236 11 0 0 0 0.021539999
0.84399998 0.44 -0.236 14 0 0 0 0.02155
0.84200001 0.44100001 -0.236 16 0 0 0 0.02156
0.83700001 0.44100001 -0.235 14 0 0 0 0.021570001
0.83999997 0.44499999 -0.236 16 0 0 0 0.021579999
0.83499998 0.44499999 -0.235 14 0 0 0 0.02159
0.83200002 0.44499999 -0.234 14 0 0 0 0.021600001
0.83200002 0.44800001 -0.234 15 0 0 0 0.021609999
0.829 0.449 -0.234 17 0 0 0 0.02162
0.82800001 0.45100001 -0.234 21 0 0 0 0.02163
0.82099998 0.449 -0.23199999 20 0 0 0 0.021640001
0.81999999 0.45100001 -0.23199999 21 0 0 0 0.02165
0.824 0.456 -0.233 15 0 0 0 0.02166
0.82200003 0.45699999 -0.233 12 0 0 0 0.021670001
0.82499999 0.46000001 -0.234 9 0 0 0 0.021679999
0.82300001 0.46200001 -0.233 9 0 0 0 0.02169
0.81999999 0.46200001 -0.23199999 12 0 0 0 0.0217
0.81699997 0.463 -0.23199999 13 0 0 0 0.021709999
0.815 0.463 -0.23100001 16 0 0 0 0.02172
0.81599998 0.46700001 -0.23100001 22 0 0 0 0.02173
0.81400001 0.46700001 -0.23100001 26 0 0 0 0.021740001
0.80900002 0.46599999 -0.229 25 0 0 0 0.021749999
0.80500001 0.46700001 -0.228 23 0 0 0 0.02176
0.80699998 0.47 -0.229 26 0 0 0 0.02177
0.80299997 0.46900001 -0.227 27 0 0 0 0.021779999
0.80199999 0.47099999 -0.227 23 0 0 0 0.02179
0.80500001 0.47499999 -0.228 20 0 0 0 0.0218
0.80500001 0.47600001 -0.227 19 0 0 0 0.021810001
0.80299997 0.477 -0.227 17 0 0 0 0.021819999
0.80400002 0.47999999 -0.227 15 0 0 0 0.02183
0.80599999 0.48300001 -0.227 15 0 0 0 0.021840001
0.80199999 0.48199999 -0.226 16 0 0 0 0.021849999
0.80000001 0.48300001 -0.22499999 18 0 0 0 0.02186
0.79699999 0.48300001 -0.22400001 17 0 0 0 0.02187
0.80000001 0.48699999 -0.22400001 15 0 0 0 0.021880001
0.801 0.48800001 -0.22400001 12 0 0 0 0.02189
0.80699998 0.49399999 -0.22499999 9 0 0 0 0.0219
0.80599999 0.495 -0.22499999 9 0 0 0 0.021910001
0.79900002 0.49200001 -0.222 9 0 0 0 0.021919999
0.80500001 0.498 -0.22400001 10 0 0 0 0.02193
0.80400002 0.49900001 -0.223 11 0 0 0 0.02194
0.79699999 0.49599999 -0.221 13 0 0 0 0.021950001
0.796 0.49700001 -0.22 13 0 0 0 0.02196
0.79699999 0.49900001 -0.22 14 0 0 0 0.02197
0.79500002 0.49900001 -0.219 14 0 0 0 0.021980001
0.796 0.50199997 -0.21799999 12 0 0 0 0.021989999
0.801 0.50599998 -0.219 10 0 0 0 0.022
0.80000001 0.50700003 -0.21799999 10 0 0 0 0.02201
0.796 0.505 -0.21600001 9 0 0 0 0.022019999
0.80000001 0.509 -0.21699999 7 0 0 0 0.02203
0.78799999 0.50300002 -0.213 6 0 0 0 0.02204
0.79000002 0.505 -0.213 6 0 0 0 0.022050001
0.78299999 0.50199997 -0.20999999 6 0 0 0 0.022059999
0.79799998 0.51300001 -0.214 10 0 0 0 0.02207
0.79400003 0.51099998 -0.212 8 0 0 0 0.02208
0.801 0.51599997 -0.213 10 0 0 0 0.022089999
0.79400003 0.51300001 -0.20999999 8 0 0 0 0.0221
0.79799998 0.51700002 -0.20999999 7 0 0 0 0.02211
0.79799998 0.51800001 -0.20999999 7 0 0 0 0.022120001
0.78399998 0.50999999 -0.205 6 0 0 0 0.022129999
0.79799998 0.51999998 -0.208 7 0 0 0 0.02214
0.787 0.51300001 -0.204 6 0 0 0 0.022150001
0.792 0.51700002 -0.205 5 0 0 0 0.022159999
0.79100001 0.51700002 -0.20299999 5 0 0 0 0.02217
0.78600001 0.51499999 -0.20100001 6 0 0 0 0.02218
0.78600001 0.51599997 -0.2 6 0 0 0 0.022190001
0.78600001 0.51599997 -0.199 5 0 0 0 0.0222
0.78899997 0.51899999 -0.199 5 0 0 0 0.02221
0.79000002 0.51999998 -0.198 5 0 0 0 0.022220001
0.79000002 0.51999998 -0.197 5 0 0 0 0.022229999
0.79100001 0.52100003 -0.197 5 0 0 0 0.02224
0.79000002 0.52100003 -0.19499999 5 0 0 0 0.02225
0.79500002 0.52499998 -0.19499999 4 0 0 0 0.022260001
0.792 0.523 -0.19400001 4 0 0 0 0.02227
0.78899997 0.52200001 -0.192 5 0 0 0 0.02228
0.792 0.52399999 -0.191 5 0 0 0 0.022290001
0.79500002 0.52600002 -0.191 5 0 0 0 0.022299999
0.78799999 0.52100003 -0.18799999 5 0 0 0 0.02231
0.79000002 0.523 -0.18799999 5 0 0 0 0.02232
0.79299998 0.52499998 -0.18700001 5 0 0 0 0.022329999
0.79400003 0.52600002 -0.186 5 0 0 0 0.02234
0.792 0.52399999 -0.184 5 0 0 0 0.02235
0.79299998 0.52499998 -0.183 5 0 0 0 0.022360001
0.79799998 0.528 -0.183 4 0 0 0 0.022369999
0.801 0.52999997 -0.183 3 0 0 0 0.02238
0.801 0.52999997 -0.182 3 0 0 0 0.022390001
0.79900002 0.528 -0.18000001 3 0 0 0 0.022399999
0.79299998 0.52399999 -0.177 3 0 0 0 0.02241
0.78899997 0.52200001 -0.175 3 0 0 0 0.02242
0.78600001 0.51899999 -0.17299999 3 0 0 0 0.022430001
0.77999997 0.51499999 -0.171 3 0 0 0 0.02244
0.77999997 0.514 -0.169 3 0 0 0 0.02245
0.77999997 0.514 -0.168 3 0 0 0 0.022460001
0.778 0.51200002 -0.16599999 3 0 0 0 0.022469999
0.77899998 0.51200002 -0.16500001 3 0 0 0 0.02248
0.78200001 0.514 -0.16500001 2 0 0 0 0.02249
0.77700001 0.50999999 -0.162 3 0 0 0 0.022500001
0.77999997 0.51099998 -0.162 3 0 0 0 0.02251
0.79799998 0.52200001 -0.164 3 0 0 0 0.02252
0.81699997 0.53399998 -0.16599999 3 0 0 0 0.022530001
0.82999998 0.542 -0.168 3 0 0 0 0.022539999
0.83499998 0.54400003 -0.167 3 0 0 0 0.02255
0.84399998 0.54900002 -0.168 3 0 0 0 0.02256
0.85399997 0.55500001 -0.168 3 0 0 0 0.022569999
0.86000001 0.55699998 -0.168 3 0 0 0 0.02258
0.884 0.57200003 -0.171 3 0 0 0 0.02259
0.96100003 0.62 -0.184 6 0 0 0 0.022600001
1.049 0.676 -0.199 36 0 0 0 0.022609999
1.077 0.69199997 -0.20299999 74 0 0 0 0.02262
1.091 0.69999999 -0.204 84 0 0 0 0.02263
1.097 0.70200002 -0.20299999 133 0 0 0 0.022639999
1.099 0.70200002 -0.20100001 148 0 0 0 0.02265
1.096 0.699 -0.199 150 0 0 0 0.02266
1.104 0.70200002 -0.198 150 0 0 0 0.022670001
1.104 0.69999999 -0.19599999 149 0 0 0 0.022679999
1.104 0.699 -0.19400001 140 0 0 0 0.02269
1.1059999 0.69700003 -0.193 127 0 0 0 0.022700001
1.107 0.69599998 -0.191 114 0 0 0 0.022709999
1.105 0.69300002 -0.189 114 0 0 0 0.02272
1.107 0.69300002 -0.18700001 125 0 0 0 0.02273
1.108 0.69099998 -0.185 128 0 0 0 0.022740001
1.1109999 0.69099998 -0.184 132 0 0 0 0.02275
1.112 0.68900001 -0.182 137 0 0 0 0.02276
1.118 0.69099998 -0.18099999 142 0 0 0 0.022770001
1.119 0.68900001 -0.17900001 147 0 0 0 0.022779999
1.122 0.68900001 -0.178 134 0 0 0 0.02279
1.12 0.68599999 -0.176 150 0 0 0 0.0228
1.123 0.68400002 -0.17399999 144 0 0 0 0.022810001
1.124 0.68300003 -0.17200001 142 0 0 0 0.02282
1.128 0.68300003 -0.171 150 0 0 0 0.02283
1.131 0.68199998 -0.17 142 0 0 0 0.022840001
1.1339999 0.68199998 -0.168 150 0 0 0 0.022849999
1.1339999 0.67900002 -0.16599999 139 0 0 0 0.02286
1.137 0.67799997 -0.16500001 150 0 0 0 0.02287
1.1390001 0.67699999 -0.163 141 0 0 0 0.022879999
1.141 0.67500001 -0.162 149 0 0 0 0.02289
1.142 0.67299998 -0.16 131 0 0 0 0.0229
1.143 0.671 -0.15800001 150 0 0 0 0.022910001
1.149 0.67199999 -0.15700001 150 0 0 0 0.022919999
1.146 0.667 -0.155 147 0 0 0 0.02293
1.152 0.66799998 -0.154 150 0 0 0 0.022940001
1.159 0.66900003 -0.153 137 0 0 0 0.022949999
1.155 0.66399997 -0.15000001 138 0 0 0 0.02296
1.165 0.66600001 -0.15000001 137 0 0 0 0.02297
1.164 0.66299999 -0.148 142 0 0 0 0.022980001
1.165 0.66100001 -0.146 139 0 0 0 0.02299
1.169 0.66000003 -0.145 129 0 0 0 0.023
1.1720001 0.65799999 -0.14300001 134 0 0 0 0.023010001
1.175 0.65700001 -0.142 150 0 0 0 0.023019999
1.177 0.65499997 -0.14 150 0 0 0 0.02303
1.178 0.65200001 -0.138 131 0 0 0 0.02304
1.1799999 0.64999998 -0.13699999 147 0 0 0 0.023050001
1.184 0.64899999 -0.13500001 149 0 0 0 0.02306
1.186 0.64700001 -0.134 130 0 0 0 0.02307
1.187 0.64399999 -0.132 147 0 0 0 0.023080001
1.194 0.64399999 -0.131 150 0 0 0 0.023089999
1.196 0.64200002 -0.13 149 0 0 0 0.0231
1.197 0.639 -0.12800001 141 0 0 0 0.02311
1.2 0.63700002 -0.126 146 0 0 0 0.023119999
1.2 0.634 -0.125 149 0 0 0 0.02313
1.2029999 0.63200003 -0.123 138 0 0 0 0.02314
1.206 0.63 -0.122 149 0 0 0 0.023150001
1.212 0.63 -0.121 145 0 0 0 0.023159999
1.209 0.625 -0.119 139 0 0 0 0.02317
1.215 0.62400001 -0.118 149 0 0 0 0.02318
1.219 0.62199998 -0.116 143 0 0 0 0.023189999
1.219 0.61799997 -0.115 132 0 0 0 0.0232
1.225 0.61799997 -0.113 97 0 0 0 0.02321
1.227 0.61500001 -0.112 103 0 0 0 0.023220001
1.2309999 0.61299998 -0.111 132 0 0 0 0.023229999
1.235 0.61199999 -0.109 130 0 0 0 0.02324
1.235 0.60799998 -0.108 123 0 0 0 0.023250001
1.2410001 0.60699999 -0.107 106 0 0 0 0.023259999
1.242 0.60399997 -0.105 131 0 0 0 0.02327
1.244 0.60100001 -0.104 117 0 0 0 0.02328
1.249 0.59899998 -0.103 114 0 0 0 0.023290001
1.251 0.59600002 -0.101 120 0 0 0 0.0233
1.253 0.59399998 -0.1 124 0 0 0 0.02331
1.255 0.58999997 -0.097999997 126 0 0 0 0.023320001
1.26 0.58899999 -0.097000003 134 0 0 0 0.023329999
1.263 0.58700001 -0.096000001 136 0 0 0 0.02334
1.268 0.58499998 -0.094999999 150 0 0 0 0.02335
1.271 0.58200002 -0.093999997 129 0 0 0 0.023360001
1.274 0.579 -0.092 142 0 0 0 0.02337
1.275 0.57599998 -0.090999998 140 0 0 0 0.02338
1.277 0.57300001 -0.090000004 150 0 0 0 0.023390001
1.286 0.57200003 -0.089000002 141 0 0 0 0.023399999
1.29 0.56999999 -0.088 150 0 0 0 0.02341
1.2920001 0.56699997 -0.086000003 150 0 0 0 0.02342
1.293 0.56300002 -0.085000001 133 0 0 0 0.023429999
1.295 0.56 -0.083999999 150 0 0 0 0.02344
1.301 0.55800003 -0.082999997 150 0 0 0 0.02345
1.306 0.55599999 -0.081 143 0 0 0 0.023460001
1.307 0.55199999 -0.079999998 150 0 0 0 0.023469999
1.309 0.54900002 -0.079000004 150 0 0 0 0.02348
1.3150001 0.54699999 -0.078000002 6 0 0 0 0.023490001
1.317 0.54299998 -0.077 150 0 0 0 0.023499999
1.321 0.54100001 -0.075999998 106 0 0 0 0.02351
1.319 0.53600001 -0.074000001 41 0 0 0 0.02352
1.2970001 0.523 -0.071999997 11 0 0 0 0.023530001
1.281 0.51200002 -0.068999998 11 0 0 0 0.023539999
1.271 0.50400001 -0.068000004 13 0 0 0 0.02355
1.268 0.49900001 -0.066 16 0 0 0 0.023560001
1.2640001 0.493 -0.064999998 18 0 0 0 0.023569999
1.258 0.486 -0.063000001 17 0 0 0 0.02358
1.2539999 0.48100001 -0.061999999 20 0 0 0 0.02359
1.2539999 0.477 -0.061000001 22 0 0 0 0.023600001
1.2460001 0.46900001 -0.059 22 0 0 0 0.02361
1.24 0.463 -0.057999998 22 0 0 0 0.02362
1.238 0.458 -0.057 22 0 0 0 0.023630001
1.237 0.454 -0.056000002 19 0 0 0 0.023639999
1.23 0.447 -0.054000001 19 0 0 0 0.02365
1.226 0.442 -0.052999999 17 0 0 0 0.02366
1.222 0.43599999 -0.052000001 22 0 0 0 0.023669999
1.219 0.43099999 -0.050999999 21 0 0 0 0.02368
1.217 0.426 -0.050000001 20 0 0 0 0.02369
1.212 0.41999999 -0.048 21 0 0 0 0.023700001
1.207 0.41499999 -0.046999998 25 0 0 0 0.023709999
1.206 0.41 -0.046 27 0 0 0 0.02372
1.2029999 0.40599999 -0.045000002 32 0 0 0 0.02373
1.196 0.39899999 -0.044 51 0 0 0 0.023739999
1.198 0.396 -0.043000001 64 0 0 0 0.02375
1.199 0.39199999 -0.041999999 65 0 0 0 0.02376
1.199 0.38800001 -0.041000001 54 0 0 0 0.023770001
1.202 0.38499999 -0.041000001 56 0 0 0 0.023779999
1.205 0.382 -0.039999999 51 0 0 0 0.02379
1.209 0.37900001 -0.039000001 50 0 0 0 0.023800001
1.21 0.37599999 -0.037999999 17 0 0 0 0.023809999
1.216 0.37400001 -0.037999999 17 0 0 0 0.02382
1.22 0.37099999 -0.037 13 0 0 0 0.02383
1.223 0.368 -0.035999998 12 0 0 0 0.023840001
1.227 0.36500001 -0.035 13 0 0 0 0.02385
1.2309999 0.36199999 -0.035 13 0 0 0 0.02386
1.234 0.359 -0.034000002 51 0 0 0 0.023870001
1.238 0.35600001 -0.033 0 0 0 0 0.023879999
1.243 0.35299999 -0.033 13 0 0 0 0.02389
1.249 0.34999999 -0.032000002 14 0 0 0 0.0239
1.247 0.34599999 -0.030999999 15 0 0 0 0.023910001
1.252 0.34299999 -0.030999999 15 0 0 0 0.02392
1.256 0.34 -0.029999999 17 0 0 0 0.02393
1.263 0.338 -0.028999999 15 0 0 0 0.023940001
1.267 0.33500001 -0.028999999 15 0 0 0 0.023949999
1.274 0.33199999 -0.028000001 16 0 0 0 0.02396
1.276 0.329 -0.028000001 15 0 0 0 0.02397
1.28 0.32600001 -0.027000001 14 0 0 0 0.023979999
1.281 0.322 -0.026000001 14 0 0 0 0.02399
1.29 0.31900001 -0.026000001 15 0 0 0 0.024
1.299 0.317 -0.025 15 0 0 0 0.024010001
1.302 0.31400001 -0.025 14 0 0 0 0.024019999
1.304 0.31 -0.024 14 0 0 0 0.02403
1.3099999 0.30700001 -0.024 12 0 0 0 0.024040001
1.3150001 0.30399999 -0.023 16 0 0 0 0.024049999
1.316 0.30000001 -0.022 15 0 0 0 0.02406
1.325 0.29800001 -0.022 16 0 0 0 0.02407
1.326 0.29300001 -0.021 17 0 0 0 0.024080001
1.303 0.28400001 -0.02 20 0 0 0 0.024089999
1.26 0.27000001 -0.018999999 23 0 0 0 0.0241
1.209 0.255 -0.017999999 13 0 0 0 0.024110001
1.136 0.236 -0.016000001 8 0 0 0 0.024119999
1.1339999 0.23199999 -0.016000001 11 0 0 0 0.02413
1.136 0.229 -0.015 11 0 0 0 0.02414
1.132 0.22400001 -0.015 6 0 0 0 0.024150001
1.131 0.22 -0.014 3 0 0 0 0.02416
1.127 0.21600001 -0.014 3 0 0 0 0.02417
1.119 0.211 -0.013 3 0 0 0 0.024180001
1.1160001 0.207 -0.013 3 0 0 0 0.024189999
1.109 0.20200001 -0.012 4 0 0 0 0.0242
1.104 0.197 -0.012 4 0 0 0 0.02421
1.1 0.193 -0.011 4 0 0 0 0.024219999
1.096 0.18799999 -0.011 4 0 0 0 0.02423
1.095 0.185 -0.0099999998 4 0 0 0 0.02424
1.095 0.18099999 -0.0099999998 5 0 0 0 0.024250001
1.089 0.176 -0.0089999996 5 0 0 0 0.024259999
1.087 0.17299999 -0.0089999996 6 0 0 0 0.02427
1.09 0.17 -0.0089999996 5 0 0 0 0.02428
1.091 0.16599999 -0.0080000004 5 0 0 0 0.024289999
1.09 0.162 -0.0080000004 5 0 0 0 0.0243
1.086 0.15800001 -0.0080000004 5 0 0 0 0.02431
1.087 0.155 -0.0070000002 5 0 0 0 0.024320001
1.087 0.15099999 -0.0070000002 5 0 0 0 0.024329999
1.087 0.148 -0.0070000002 5 0 0 0 0.02434
1.086 0.14399999 -0.0060000001 5 0 0 0 0.024350001
1.0880001 0.141 -0.0060000001 4 0 0 0 0.024359999
1.086 0.13699999 -0.0060000001 0 0 0 0 0.02437
1.087 0.134 -0.0060000001 3 0 0 0 0.02438
1.0880001 0.13 -0.0049999999 3 0 0 0 0.024390001
1.095 0.127 -0.0049999999 3 0 0 0 0.0244
1.1 0.124 -0.0049999999 4 0 0 0 0.02441
1.087 0.119 -0.0040000002 5 0 0 0 0.024420001
1.097 0.117 -0.0040000002 4 0 0 0 0.024429999
1.097 0.113 -0.0040000002 4 0 0 0 0.02444
1.098 0.11 -0.0040000002 4 0 0 0 0.02445
1.099 0.106 -0.0040000002 4 0 0 0 0.024460001
1.103 0.103 -0.003 4 0 0 0 0.02447
1.107 0.1 -0.003 4 0 0 0 0.02448
1.108 0.097000003 -0.003 4 0 0 0 0.024490001
1.109 0.093000002 -0.003 4 0 0 0 0.024499999
1.112 0.090000004 -0.0020000001 3 0 0 0 0.02451
1.118 0.086000003 -0.0020000001 3 0 0 0 0.02452
1.118 0.082999997 -0.0020000001 3 0 0 0 0.024529999
1.123 0.079999998 -0.0020000001 3 0 0 0 0.02454
1.128 0.075999998 -0.0020000001 3 0 0 0 0.02455
1.1339999 0.072999999 -0.0020000001 3 0 0 0 0.024560001
1.14 0.07 -0.001 3 0 0 0 0.024569999
1.1440001 0.066 -0.001 3 0 0 0 0.02458
1.145 0.063000001 -0.001 3 0 0 0 0.024590001
1.154 0.059 -0.001 3 0 0 0 0.024599999
1.165 0.056000002 -0.001 3 0 0 0 0.02461
1.171 0.052999999 -0.001 3 0 0 0 0.02462
1.1720001 0.048999999 -0.001 3 0 0 0 0.024630001
1.188 0.046 0 3 0 0 0 0.024639999
1.207 0.043000001 0 3 0 0 0 0.02465
1.216 0.039000001 0 3 0 0 0 0.024660001
1.225 0.035 0 3 0 0 0 0.024669999
1.23 0.030999999 0 3 0 0 0 0.02468
1.238 0.028000001 0 3 0 0 0 0.02469
1.252 0.024 0 3 0 0 0 0.024700001
1.261 0.02 0 3 0 0 0 0.02471
1.277 0.016000001 0 3 0 0 0 0.02472
1.2869999 0.012 0 3 0 0 0 0.024730001
1.3099999 0.0080000004 0 4 0 0 0 0.024739999
1.317 0.0040000002 0 5 0 0 0 0.02475
1.325 0 0 5 0 0 0 0.02476
1.334 -0.0040000002 0 5 0 0 0 0.024769999
1.3430001 -0.0080000004 0 4 0 0 0 0.02478
1.3559999 -0.013 0 5 0 0 0 0.02479
1.374 -0.017000001 0 5 0 0 0 0.024800001
1.381 -0.022 0 6 0 0 0 0.024809999
1.387 -0.026000001 0 7 0 0 0 0.02482
1.395 -0.030999999 0 6 0 0 0 0.02483
1.405 -0.035999998 0 5 0 0 0 0.024839999
1.421 -0.041000001 0 6 0 0 0 0.02485
1.427 -0.046 0 8 0 0 0 0.02486
1.4299999 -0.050000001 0 9 0 0 0 0.024870001
1.438 -0.055 0 8 0 0 0 0.024879999
1.455 -0.061000001 0 7 0 0 0 0.02489
1.464 -0.066 0 7 0 0 0 0.024900001
1.466 -0.071000002 0 7 0 0 0 0.024909999
1.477 -0.075999998 0 6 0 0 0 0.02492
1.485 -0.081 0 6 0 0 0 0.02493
1.499 -0.086999997 0 7 0 0 0 0.024940001
1.51 -0.092 0 8 0 0 0 0.02495
1.513 -0.097999997 0 10 0 0 0 0.02496
1.518 -0.103 0 10 0 0 0 0.024970001
1.524 -0.108 0 8 0 0 0 0.024979999
1.534 -0.114 0 7 0 0 0 0.02499
1.544 -0.12 0 7 0 0 0 0.025
1.55 -0.125 0 8 0 0 0 0.025010001
1.557 -0.131 0 9 0 0 0 0.02502
1.561 -0.13600001 -0.001 9 0 0 0 0.02503
1.571 -0.142 -0.001 9 0 0 0 0.025040001
1.58 -0.148 -0.001 12 0 0 0 0.025049999
1.582 -0.153 -0.001 13 0 0 0 0.02506
1.592 -0.16 -0.001 10 0 0 0 0.02507
1.597 -0.16500001 -0.0020000001 9 0 0 0 0.025079999
1.613 -0.17200001 -0.0020000001 8 0 0 0 0.02509
1.623 -0.17900001 -0.0020000001 8 0 0 0 0.0251
1.63 -0.185 -0.0020000001 11 0 0 0 0.025110001
1.632 -0.19 -0.003 22 0 0 0 0.025119999
1.6339999 -0.19599999 -0.003 24 0 0 0 0.02513
1.6390001 -0.20200001 -0.003 17 0 0 0 0.025140001
1.645 -0.208 -0.0040000002 21 0 0 0 0.025149999
1.648 -0.214 -0.0040000002 23 0 0 0 0.02516
1.661 -0.221 -0.0040000002 13 0 0 0 0.02517
1.669 -0.227 -0.0049999999 16 0 0 0 0.025180001
1.677 -0.234 -0.0049999999 25 0 0 0 0.025189999
1.673 -0.23899999 -0.0049999999 15 0 0 0 0.0252
1.684 -0.24600001 -0.0060000001 13 0 0 0 0.025210001
1.698 -0.25299999 -0.0060000001 16 0 0 0 0.025219999
1.706 -0.25999999 -0.0070000002 17 0 0 0 0.02523
1.707 -0.266 -0.0070000002 13 0 0 0 0.02524
1.722 -0.27399999 -0.0070000002 12 0 0 0 0.025250001
1.732 -0.28099999 -0.0080000004 15 0 0 0 0.02526
1.734 -0.287 -0.0080000004 29 0 0 0 0.02527
1.733 -0.29300001 -0.0089999996 20 0 0 0 0.025280001
1.748 -0.301 -0.0089999996 15 0 0 0 0.025289999
1.76 -0.30899999 -0.0099999998 13 0 0 0 0.0253
1.779 -0.31799999 -0.011 18 0 0 0 0.02531
1.793 -0.32600001 -0.011 17 0 0 0 0.025319999
1.816 -0.33700001 -0.012 14 0 0 0 0.02533
1.836 -0.34599999 -0.013 52 0 0 0 0.02534
1.845 -0.354 -0.013 150 0 0 0 0.025350001
1.835 -0.35800001 -0.014 150 0 0 0 0.025359999
1.837 -0.36500001 -0.014 140 0 0 0 0.02537
1.845 -0.37200001 -0.015 60 0 0 0 0.02538
1.84 -0.377 -0.016000001 107 0 0 0 0.025389999
1.85 -0.38600001 -0.016000001 93 0 0 0 0.0254
1.849 -0.39199999 -0.017000001 112 0 0 0 0.02541
1.848 -0.39700001 -0.017999999 84 0 0 0 0.025420001
1.8559999 -0.405 -0.017999999 82 0 0 0 0.025429999
1.862 -0.41299999 -0.018999999 43 0 0 0 0.02544
1.867 -0.41999999 -0.02 32 0 0 0 0.025450001
1.87 -0.42699999 -0.021 25 0 0 0 0.025459999
1.88 -0.435 -0.022 24 0 0 0 0.02547
1.891 -0.44400001 -0.022 20 0 0 0 0.02548
1.899 -0.45199999 -0.023 108 0 0 0 0.025490001
1.91 -0.461 -0.024 94 0 0 0 0.0255
1.924 -0.47099999 -0.025 82 0 0 0 0.02551
1.936 -0.47999999 -0.026000001 93 0 0 0 0.025520001
1.947 -0.48899999 -0.027000001 78 0 0 0 0.025529999
1.9630001 -0.5 -0.028000001 51 0 0 0 0.02554
1.995 -0.51499999 -0.029999999 43 0 0 0 0.02555
2.0079999 -0.52499998 -0.030999999 73 0 0 0 0.025560001
2.0309999 -0.53799999 -0.032000002 97 0 0 0 0.02557
2.0550001 -0.551 -0.034000002 107 0 0 0 0.02558
2.0940001 -0.56800002 -0.035 132 0 0 0 0.025590001
2.108 -0.579 -0.037 150 0 0 0 0.025599999
2.1159999 -0.588 -0.037999999 150 0 0 0 0.02561
2.141 -0.602 -0.039000001 85 0 0 0 0.02562
2.1670001 -0.61699998 -0.041000001 66 0 0 0 0.025629999
2.1930001 -0.63200003 -0.043000001 150 0 0 0 0.02564
2.1960001 -0.63999999 -0.044 150 0 0 0 0.02565
2.2060001 -0.64999998 -0.045000002 71 0 0 0 0.025660001
2.2409999 -0.66799998 -0.046999998 95 0 0 0 0.025669999
2.266 -0.68300003 -0.048999999 150 0 0 0 0.02568
2.2720001 -0.69199997 -0.050999999 150 0 0 0 0.025690001
2.273 -0.69999999 -0.052000001 150 0 0 0 0.025699999
2.28 -0.70999998 -0.054000001 127 0 0 0 0.02571
2.3010001 -0.72399998 -0.056000002 126 0 0 0 0.02572
2.293 -0.72899997 -0.057 150 0 0 0 0.025730001
2.2119999 -0.71100003 -0.056000002 150 0 0 0 0.025739999
2.1389999 -0.69400001 -0.056000002 73 0 0 0 0.02575
2.1170001 -0.69400001 -0.057 85 0 0 0 0.025760001
2.102 -0.69700003 -0.057999998 81 0 0 0 0.025769999
2.079 -0.69599998 -0.057999998 90 0 0 0 0.02578
2.0699999 -0.69999999 -0.059999999 114 0 0 0 0.02579
2.056 -0.70200002 -0.061000001 148 0 0 0 0.025800001
2.0480001 -0.70599997 -0.061999999 150 0 0 0 0.02581
2.0380001 -0.70899999 -0.063000001 150 0 0 0 0.02582
2.027 -0.71200001 -0.064000003 150 0 0 0 0.025830001
2.0220001 -0.71700001 -0.064999998 150 0 0 0 0.025839999
2.0079999 -0.71899998 -0.066 150 0 0 0 0.02585
2.0009999 -0.72299999 -0.068000004 150 0 0 0 0.02586
1.998 -0.72899997 -0.068999998 150 0 0 0 0.025869999
1.99 -0.73199999 -0.07 150 0 0 0 0.02588
1.978 -0.73400003 -0.071000002 150 0 0 0 0.02589
1.9630001 -0.73500001 -0.071999997 150 0 0 0 0.025900001
1.9630001 -0.74199998 -0.074000001 150 0 0 0 0.025909999
1.952 -0.74400002 -0.075000003 150 0 0 0 0.02592
1.9450001 -0.74800003 -0.077 150 0 0 0 0.02593
1.938 -0.75199997 -0.078000002 150 0 0 0 0.025939999
1.931 -0.755 -0.079000004 150 0 0 0 0.02595
1.924 -0.759 -0.081 150 0 0 0 0.02596
1.919 -0.76300001 -0.082000002 150 0 0 0 0.025970001
1.916 -0.76899999 -0.083999999 150 0 0 0 0.025979999
1.906 -0.77100003 -0.085000001 150 0 0 0 0.02599
1.9 -0.77399999 -0.086000003 150 0 0 0 0.026000001
1.897 -0.77999997 -0.088 150 0 0 0 0.026009999
1.892 -0.78399998 -0.089000002 150 0 0 0 0.02602
1.886 -0.78799999 -0.090999998 150 0 0 0 0.02603
1.881 -0.79100001 -0.093000002 150 0 0 0 0.026040001
1.878 -0.796 -0.093999997 150 0 0 0 0.02605
1.877 -0.80199999 -0.096000001 150 0 0 0 0.02606
1.867 -0.80400002 -0.097000003 150 0 0 0 0.026070001
1.865 -0.80900002 -0.098999999 150 0 0 0 0.026079999
1.86 -0.81300002 -0.101 150 0 0 0 0.02609
1.857 -0.81800002 -0.102 150 0 0 0 0.0261
1.851 -0.82099998 -0.104 150 0 0 0 0.026110001
1.845 -0.824 -0.106 150 0 0 0 0.02612
1.842 -0.829 -0.107 150 0 0 0 0.02613
1.839 -0.83399999 -0.109 150 0 0 0 0.026140001
1.834 -0.83700001 -0.111 150 0 0 0 0.026149999
1.832 -0.84200001 -0.113 150 0 0 0 0.02616
1.826 -0.84500003 -0.114 150 0 0 0 0.02617
1.827 -0.852 -0.116 150 0 0 0 0.026179999
1.822 -0.85500002 -0.118 150 0 0 0 0.02619
1.822 -0.861 -0.12 150 0 0 0 0.0262
1.8200001 -0.866 -0.122 150 0 0 0 0.026210001
1.821 -0.87199998 -0.124 150 0 0 0 0.026219999
1.814 -0.87400001 -0.126 150 0 0 0 0.02623
1.816 -0.88099998 -0.12800001 150 0 0 0 0.026240001
1.822 -0.889 -0.131 150 0 0 0 0.026249999
1.817 -0.89300001 -0.133 150 0 0 0 0.02626
1.817 -0.898 -0.13500001 150 0 0 0 0.02627
1.8150001 -0.903 -0.13699999 150 0 0 0 0.026280001
1.816 -0.90899998 -0.139 150 0 0 0 0.026289999
1.8200001 -0.917 -0.142 150 0 0 0 0.0263
1.8200001 -0.92199999 -0.14399999 150 0 0 0 0.026310001
1.827 -0.93199998 -0.147 150 0 0 0 0.026319999
1.835 -0.94099998 -0.15000001 102 0 0 0 0.02633
1.96 -1.011 -0.163 150 0 0 0 0.02634
2.181 -1.132 -0.184 150 0 0 0 0.026350001
2.3180001 -1.21 -0.199 148 0 0 0 0.02636
2.335 -1.226 -0.204 131 0 0 0 0.02637
2.3510001 -1.2410001 -0.208 150 0 0 0 0.026380001
2.355 -1.25 -0.212 150 0 0 0 0.026389999
2.349 -1.2539999 -0.215 150 0 0 0 0.0264
2.3510001 -1.262 -0.21799999 150 0 0 0 0.02641
2.3529999 -1.2690001 -0.221 150 0 0 0 0.026419999
2.3529999 -1.276 -0.22499999 150 0 0 0 0.02643
2.3570001 -1.285 -0.229 150 0 0 0 0.02644
2.3469999 -1.286 -0.23100001 150 0 0 0 0.026450001
2.3440001 -1.291 -0.234 150 0 0 0 0.026459999
2.3369999 -1.294 -0.237 150 0 0 0 0.02647
2.326 -1.294 -0.23899999 115 0 0 0 0.02648
2.296 -1.284 -0.23899999 52 0 0 0 0.026489999
2.276 -1.279 -0.241 40 0 0 0 0.0265
2.243 -1.267 -0.241 34 0 0 0 0.02651
2.2179999 -1.258 -0.241 33 0 0 0 0.026520001
2.197 -1.252 -0.242 33 0 0 0 0.026529999
2.1830001 -1.25 -0.244 32 0 0 0 0.02654
2.1600001 -1.243 -0.245 32 0 0 0 0.026550001
2.145 -1.24 -0.24600001 32 0 0 0 0.026559999
2.1229999 -1.233 -0.24699999 33 0 0 0 0.02657
2.1040001 -1.227 -0.248 32 0 0 0 0.02658
2.0880001 -1.223 -0.25 34 0 0 0 0.026590001
2.062 -1.2130001 -0.25 33 0 0 0 0.0266
2.046 -1.2079999 -0.25099999 35 0 0 0 0.02661
2.026 -1.202 -0.252 34 0 0 0 0.026620001
2.0079999 -1.196 -0.25299999 34 0 0 0 0.026629999
1.99 -1.1900001 -0.25400001 34 0 0 0 0.02664
1.974 -1.1849999 -0.255 33 0 0 0 0.02665
1.957 -1.179 -0.25600001 34 0 0 0 0.026660001
1.937 -1.1720001 -0.257 32 0 0 0 0.02667
1.914 -1.1619999 -0.257 32 0 0 0 0.02668
1.8940001 -1.154 -0.257 33 0 0 0 0.026690001
1.88 -1.15 -0.25799999 35 0 0 0 0.026699999
1.864 -1.1440001 -0.259 36 0 0 0 0.02671
1.848 -1.138 -0.25999999 36 0 0 0 0.02672
1.829 -1.13 -0.25999999 35 0 0 0 0.026729999
1.8099999 -1.122 -0.26100001 35 0 0 0 0.02674
1.794 -1.1160001 -0.26100001 36 0 0 0 0.02675
1.776 -1.109 -0.26199999 34 0 0 0 0.026760001
1.7589999 -1.101 -0.26199999 35 0 0 0 0.026769999
1.744 -1.095 -0.26300001 36 0 0 0 0.02678
1.723 -1.085 -0.26300001 36 0 0 0 0.02679
1.7130001 -1.082 -0.264 39 0 0 0 0.026799999
1.696 -1.075 -0.264 36 0 0 0 0.02681
1.688 -1.072 -0.266 41 0 0 0 0.02682
1.669 -1.063 -0.266 37 0 0 0 0.026830001
1.654 -1.056 -0.266 39 0 0 0 0.026839999
1.641 -1.05 -0.26699999 38 0 0 0 0.02685
1.627 -1.045 -0.26800001 36 0 0 0 0.026860001
1.613 -1.038 -0.26800001 32 0 0 0 0.026869999
1.603 -1.034 -0.26899999 14 0 0 0 0.02688
1.592 -1.029 -0.27000001 13 0 0 0 0.02689
1.579 -1.023 -0.27000001 14 0 0 0 0.026900001
1.566 -1.017 -0.271 13 0 0 0 0.02691
1.553 -1.01 -0.271 13 0 0 0 0.02692
1.549 -1.01 -0.273 13 0 0 0 0.026930001
1.531 -1 -0.27200001 13 0 0 0 0.026939999
1.524 -0.99699998 -0.27399999 13 0 0 0 0.02695
1.511 -0.99000001 -0.27399999 13 0 0 0 0.02696
1.498 -0.98400003 -0.27399999 12 0 0 0 0.026969999
1.4910001 -0.98100001 -0.27599999 12 0 0 0 0.02698
1.482 -0.97600001 -0.27599999 12 0 0 0 0.02699
1.475 -0.97299999 -0.278 12 0 0 0 0.027000001
1.457 -0.963 -0.27700001 11 0 0 0 0.027009999
1.45 -0.95899999 -0.278 12 0 0 0 0.02702
1.447 -0.958 -0.28 12 0 0 0 0.02703
1.4450001 -0.958 -0.28200001 12 0 0 0 0.027039999
1.441 -0.95599997 -0.28299999 12 0 0 0 0.02705
1.432 -0.95099998 -0.28400001 12 0 0 0 0.02706
1.403 -0.93300003 -0.28 12 0 0 0 0.027070001
1.388 -0.92400002 -0.27900001 12 0 0 0 0.027079999
1.3609999 -0.90600002 -0.27599999 11 0 0 0 0.02709
1.346 -0.89700001 -0.27500001 11 0 0 0 0.027100001
1.337 -0.89200002 -0.27599999 11 0 0 0 0.027109999
1.326 -0.88499999 -0.27500001 11 0 0 0 0.02712
1.316 -0.87900001 -0.27500001 11 0 0 0 0.02713
1.308 -0.87300003 -0.27599999 11 0 0 0 0.027140001
1.301 -0.86900002 -0.27599999 11 0 0 0 0.02715
1.294 -0.86400002 -0.27700001 11 0 0 0 0.02716
1.289 -0.86199999 -0.278 11 0 0 0 0.027170001
1.279 -0.85500002 -0.27700001 10 0 0 0 0.027179999
1.2690001 -0.84799999 -0.27700001 10 0 0 0 0.02719
1.266 -0.84600002 -0.278 10 0 0 0 0.0272
1.257 -0.83999997 -0.278 10 0 0 0 0.027210001
1.25 -0.83499998 -0.278 10 0 0 0 0.02722
1.2410001 -0.829 -0.278 10 0 0 0 0.02723
1.24 -0.82800001 -0.28 10 0 0 0 0.027240001
1.235 -0.824 -0.28 10 0 0 0 0.027249999
1.227 -0.81800002 -0.28 10 0 0 0 0.02726
1.226 -0.81699997 -0.28200001 10 0 0 0 0.02727
1.217 -0.81 -0.28099999 10 0 0 0 0.027279999
1.2130001 -0.80699998 -0.28200001 10 0 0 0 0.02729
1.209 -0.80400002 -0.28299999 9 0 0 0 0.0273
1.2029999 -0.79900002 -0.28299999 9 0 0 0 0.027310001
1.196 -0.79299998 -0.28200001 9 0 0 0 0.027319999
1.193 -0.79100001 -0.28299999 9 0 0 0 0.02733
1.188 -0.78600001 -0.28299999 9 0 0 0 0.02734
1.1849999 -0.78299999 -0.28400001 9 0 0 0 0.027349999
1.1799999 -0.77899998 -0.28400001 9 0 0 0 0.02736
1.176 -0.77499998 -0.285 9 0 0 0 0.02737
1.17 -0.76999998 -0.285 9 0 0 0 0.027380001
1.1670001 -0.76700002 -0.285 9 0 0 0 0.027389999
1.164 -0.76300001 -0.28600001 9 0 0 0 0.0274
1.161 -0.75999999 -0.28600001 9 0 0 0 0.027410001
1.15 -0.75199997 -0.285 9 0 0 0 0.027419999
1.149 -0.74900001 -0.28600001 9 0 0 0 0.02743
1.147 -0.74599999 -0.28600001 9 0 0 0 0.02744
1.142 -0.74199998 -0.28600001 9 0 0 0 0.027450001
1.14 -0.73900002 -0.287 9 0 0 0 0.02746
1.138 -0.736 -0.287 9 0 0 0 0.02747
1.1339999 -0.73199999 -0.287 9 0 0 0 0.027480001
1.132 -0.72799999 -0.28799999 9 0 0 0 0.027489999
1.127 -0.72399998 -0.287 9 0 0 0 0.0275
1.122 -0.71899998 -0.287 9 0 0 0 0.02751
1.12 -0.71600002 -0.28799999 8 0 0 0 0.027519999
1.1210001 -0.71399999 -0.289 9 0 0 0 0.02753
1.115 -0.708 -0.28799999 9 0 0 0 0.02754
1.1160001 -0.70700002 -0.289 9 0 0 0 0.027550001
1.113 -0.70300001 -0.289 9 0 0 0 0.027559999
1.112 -0.69999999 -0.289 9 0 0 0 0.02757
1.109 -0.69599998 -0.289 9 0 0 0 0.02758
1.108 -0.69400001 -0.28999999 9 0 0 0 0.027589999
1.107 -0.69 -0.28999999 8 0 0 0 0.0276
1.107 -0.68800002 -0.29100001 8 0 0 0 0.02761
1.107 -0.68599999 -0.29100001 8 0 0 0 0.027620001
1.103 -0.68099999 -0.29100001 8 0 0 0 0.027629999
1.102 -0.67799997 -0.29100001 8 0 0 0 0.02764
1.103 -0.676 -0.292 8 0 0 0 0.027650001
1.1 -0.67199999 -0.29100001 8 0 0 0 0.027659999
1.1 -0.66900003 -0.292 8 0 0 0 0.02767
1.102 -0.66799998 -0.29300001 8 0 0 0 0.02768
1.098 -0.66399997 -0.292 8 0 0 0 0.027690001
1.095 -0.65899998 -0.292 8 0 0 0 0.0277
1.101 -0.66000003 -0.294 8 0 0 0 0.02771
1.097 -0.65399998 -0.29300001 8 0 0 0 0.027720001
1.095 -0.65100002 -0.29300001 8 0 0 0 0.027729999
1.096 -0.64899999 -0.29300001 8 0 0 0 0.02774
1.097 -0.64700001 -0.294 8 0 0 0 0.02775
1.098 -0.64399999 -0.294 8 0 0 0 0.027760001
1.099 -0.64200002 -0.29499999 8 0 0 0 0.02777
1.097 -0.63800001 -0.294 8 0 0 0 0.02778
1.096 -0.63499999 -0.294 8 0 0 0 0.027790001
1.099 -0.63300002 -0.29499999 8 0 0 0 0.027799999
1.099 -0.63099998 -0.29499999 8 0 0 0 0.02781
1.1 -0.62800002 -0.29499999 8 0 0 0 0.02782
1.097 -0.62300003 -0.294 8 0 0 0 0.027829999
1.103 -0.62400001 -0.296 8 0 0 0 0.02784
1.102 -0.62099999 -0.296 8 0 0 0 0.02785
1.102 -0.61699998 -0.296 8 0 0 0 0.027860001
1.102 -0.61400002 -0.29499999 8 0 0 0 0.027869999
1.105 -0.61299998 -0.296 8 0 0 0 0.02788
1.108 -0.611 -0.29699999 8 0 0 0 0.02789
1.107 -0.60799998 -0.296 8 0 0 0 0.027899999
1.11 -0.60600001 -0.29699999 8 0 0 0 0.02791
1.11 -0.60299999 -0.29699999 8 0 0 0 0.02792
1.1109999 -0.60000002 -0.29699999 8 0 0 0 0.027930001
1.112 -0.59799999 -0.29699999 8 0 0 0 0.027939999
1.114 -0.59500003 -0.29699999 8 0 0 0 0.02795
1.115 -0.59299999 -0.29699999 8 0 0 0 0.027960001
1.1210001 -0.59200001 -0.29800001 9 0 0 0 0.027969999
1.126 -0.59100002 -0.29899999 8 0 0 0 0.02798
1.125 -0.588 -0.29800001 9 0 0 0 0.02799
1.125 -0.58399999 -0.29800001 8 0 0 0 0.028000001
1.131 -0.58399999 -0.29899999 8 0 0 0 0.02801
1.136 -0.583 -0.29899999 8 0 0 0 0.02802
1.137 -0.57999998 -0.29899999 8 0 0 0 0.028030001
1.1440001 -0.57999998 -0.30000001 9 0 0 0 0.028039999
1.141 -0.57499999 -0.29899999 8 0 0 0 0.02805
1.1440001 -0.57300001 -0.29899999 8 0 0 0 0.02806
1.148 -0.57200003 -0.30000001 8 0 0 0 0.028069999
1.15 -0.56900001 -0.29899999 9 0 0 0 0.02808
1.155 -0.56800002 -0.30000001 9 0 0 0 0.02809
1.154 -0.56400001 -0.29899999 9 0 0 0 0.028100001
1.156 -0.56099999 -0.29899999 8 0 0 0 0.028109999
1.159 -0.55900002 -0.29899999 8 0 0 0 0.02812
1.1670001 -0.55900002 -0.30000001 9 0 0 0 0.02813
1.171 -0.55699998 -0.30000001 9 0 0 0 0.028139999
1.173 -0.55400002 -0.30000001 9 0 0 0 0.02815
1.175 -0.55199999 -0.30000001 9 0 0 0 0.02816
1.1799999 -0.55000001 -0.30000001 9 0 0 0 0.028170001
1.182 -0.54699999 -0.29899999 8 0 0 0 0.028179999
1.188 -0.54699999 -0.30000001 9 0 0 0 0.02819
1.194 -0.54500002 -0.301 8 0 0 0 0.028200001
1.199 -0.54400003 -0.301 9 0 0 0 0.028209999
1.2 -0.54100001 -0.30000001 8 0 0 0 0.02822
1.2029999 -0.53799999 -0.30000001 9 0 0 0 0.02823
1.207 -0.53600001 -0.30000001 8 0 0 0 0.028240001
1.216 -0.53600001 -0.301 9 0 0 0 0.02825
1.222 -0.53500003 -0.301 8 0 0 0 0.02826
1.223 -0.53200001 -0.301 8 0 0 0 0.028270001
1.234 -0.53200001 -0.30199999 8 0 0 0 0.028279999
1.237 -0.52999997 -0.30199999 8 0 0 0 0.02829
1.2410001 -0.52700001 -0.301 8 0 0 0 0.0283
1.249 -0.52700001 -0.30199999 7 0 0 0 0.028310001
1.253 -0.52399999 -0.30199999 7 0 0 0 0.02832
1.2589999 -0.523 -0.30199999 7 0 0 0 0.02833
1.262 -0.51999998 -0.301 7 0 0 0 0.028340001
1.267 -0.51800001 -0.301 7 0 0 0 0.028349999
1.275 -0.51700002 -0.301 7 0 0 0 0.02836
1.2819999 -0.51599997 -0.30199999 7 0 0 0 0.02837
1.2869999 -0.514 -0.30199999 8 0 0 0 0.028379999
1.293 -0.51200002 -0.30199999 7 0 0 0 0.02839
1.299 -0.51099998 -0.30199999 8 0 0 0 0.0284
1.3049999 -0.50800002 -0.301 7 0 0 0 0.028410001
1.311 -0.50700003 -0.301 7 0 0 0 0.028419999
1.316 -0.505 -0.301 7 0 0 0 0.02843
1.325 -0.50400001 -0.301 7 0 0 0 0.02844
1.3279999 -0.5 -0.30000001 7 0 0 0 0.028449999
1.3380001 -0.5 -0.301 7 0 0 0 0.02846
1.341 -0.49700001 -0.30000001 7 0 0 0 0.02847
1.353 -0.49700001 -0.301 7 0 0 0 0.028480001
1.359 -0.495 -0.301 7 0 0 0 0.028489999
1.3660001 -0.493 -0.301 7 0 0 0 0.0285
1.3710001 -0.491 -0.30000001 7 0 0 0 0.028510001
1.376 -0.48800001 -0.29899999 7 0 0 0 0.028519999
1.267 -0.44499999 -0.27399999 48 0 0 0 0.02853
1.175 -0.40900001 -0.252 76 0 0 0 0.02854
1.076 -0.37099999 -0.23 81 0 0 0 0.028550001
0.977 -0.33399999 -0.207 51 0 0 0 0.02856
0.833 -0.28200001 -0.176 20 0 0 0 0.02857
0.74900001 -0.25099999 -0.15700001 8 0 0 0 0.028580001
0.73100001 -0.243 -0.152 2 0 0 0 0.028589999
0.73199999 -0.241 -0.15099999 1 0 0 0 0.0286
0.73299998 -0.23899999 -0.15000001 1 0 0 0 0.02861
0.73000002 -0.236 -0.149 1 0 0 0 0.028620001
0.72500002 -0.23199999 -0.147 0 0 0 0 0.02863
0.70599997 -0.22400001 -0.142 0 0 0 0 0.02864
0.73900002 -0.23199999 -0.147 0 0 0 0 0.028650001
0.71600002 -0.223 -0.142 0 0 0 0 0.028659999
0.71399999 -0.22 -0.14 0 0 0 0 0.02867
0.71100003 -0.21699999 -0.139 0 0 0 0 0.02868
0.71200001 -0.215 -0.138 0 0 0 0 0.028689999
0.71700001 -0.214 -0.138 0 0 0 0 0.0287
0.71399999 -0.211 -0.13600001 0 0 0 0 0.02871
0.70300001 -0.205 -0.133 0 0 0 0 0.028720001
0.69499999 -0.20100001 -0.131 0 0 0 0 0.028729999
0.704 -0.20200001 -0.131 0 0 0 0 0.02874
0.68800002 -0.19499999 -0.127 0 0 0 0 0.028750001
0.68199998 -0.191 -0.125 0 0 0 0 0.028759999
0.68300003 -0.189 -0.124 0 0 0 0 0.02877
0.67500001 -0.185 -0.122 0 0 0 0 0.02878
0.68300003 -0.185 -0.122 0 0 0 0 0.028790001
0.685 -0.183 -0.121 0 0 0 0 0.0288
0.68800002 -0.182 -0.121 0 0 0 0 0.02881
0.70499998 -0.185 -0.123 0 0 0 0 0.028820001
0.71799999 -0.186 -0.124 0 0 0 0 0.028829999
0.73299998 -0.18799999 -0.125 0 0 0 0 0.02884
0.741 -0.18700001 -0.125 0 0 0 0 0.02885
0.741 -0.185 -0.124 0 0 0 0 0.028860001
0.741 -0.183 -0.123 0 0 0 0 0.02887
0.75700003 -0.185 -0.125 0 0 0 0 0.02888
0.77200001 -0.186 -0.126 0 0 0 0 0.028890001
0.79400003 -0.189 -0.12800001 0 0 0 0 0.028899999
0.801 -0.18799999 -0.12800001 0 0 0 0 0.02891
0.861 -0.2 -0.13600001 0 0 0 0 0.02892
0.94999999 -0.21799999 -0.149 0 0 0 0 0.028929999
1.0190001 -0.23100001 -0.15800001 0 0 0 0 0.02894
1.0140001 -0.227 -0.155 0 0 0 0 0.02895
1.029 -0.227 -0.156 0 0 0 0 0.028960001
1.033 -0.22499999 -0.155 0 0 0 0 0.028969999
1.044 -0.22400001 -0.155 0 0 0 0 0.02898
1.045 -0.221 -0.153 1 0 0 0 0.02899
1.063 -0.222 -0.154 0 0 0 0 0.028999999
1.046 -0.215 -0.15000001 0 0 0 0 0.02901
1.0089999 -0.205 -0.14300001 0 0 0 0 0.02902
0.87699997 -0.175 -0.122 1 0 0 0 0.029030001
0.87199998 -0.17200001 -0.12 2 0 0 0 0.029039999
0.875 -0.17 -0.119 2 0 0 0 0.02905
0.87800002 -0.168 -0.118 1 0 0 0 0.029060001
0.89499998 -0.169 -0.119 0 0 0 0 0.029069999
0.89899999 -0.167 -0.118 0 0 0 0 0.02908
0.88 -0.161 -0.114 0 0 0 0 0.02909
0.884 -0.15899999 -0.113 0 0 0 0 0.029100001
0.90799999 -0.161 -0.114 0 0 0 0 0.02911
0.93300003 -0.163 -0.116 0 0 0 0 0.02912
0.93599999 -0.161 -0.115 0 0 0 0 0.029130001
0.94 -0.15899999 -0.113 0 0 0 0 0.029139999
1.003 -0.167 -0.119 0 0 0 0 0.02915
0.97600001 -0.15899999 -0.114 0 0 0 0 0.02916
0.98100001 -0.15800001 -0.113 0 0 0 0 0.029170001
0.98199999 -0.155 -0.112 0 0 0 0 0.02918
0.96799999 -0.15000001 -0.108 0 0 0 0 0.02919
0.95899999 -0.146 -0.105 1 0 0 0 0.029200001
0.95599997 -0.14300001 -0.103 0 0 0 0 0.029209999
0.95499998 -0.14 -0.102 0 0 0 0 0.02922
0.97299999 -0.14 -0.102 0 0 0 0 0.02923
0.96899998 -0.13699999 -0.1 0 0 0 0 0.029239999
0.963 -0.133 -0.097000003 0 0 0 0 0.02925
0.96799999 -0.131 -0.096000001 0 0 0 0 0.02926
0.95599997 -0.127 -0.093000002 0 0 0 0 0.029270001
0.96899998 -0.126 -0.093000002 0 0 0 0 0.029279999
0.949 -0.121 -0.089000002 0 0 0 0 0.02929
0.97100002 -0.121 -0.089000002 0 0 0 0 0.029300001
0.94199997 -0.115 -0.085000001 0 0 0 0 0.029309999
0.97100002 -0.116 -0.086000003 0 0 0 0 0.02932
0.96600002 -0.112 -0.082999997 0 0 0 0 0.02933
0.96600002 -0.11 -0.082000002 0 0 0 0 0.029340001
0.96700001 -0.107 -0.079999998 0 0 0 0 0.02935
0.991 -0.107 -0.079999998 0 0 0 0 0.02936
0.96700001 -0.102 -0.075999998 0 0 0 0 0.029370001
0.986 -0.102 -0.075999998 0 0 0 0 0.029379999
0.98500001 -0.098999999 -0.074000001 0 0 0 0 0.02939
1.005 -0.097999997 -0.074000001 0 0 0 0 0.0294
1.006 -0.094999999 -0.071999997 0 0 0 0 0.029410001
1.002 -0.092 -0.07 0 0 0 0 0.02942
1.026 -0.092 -0.07 0 0 0 0 0.02943
1.029 -0.089000002 -0.068000004 0 0 0 0 0.029440001
1.098 -0.093000002 -0.07 0 0 0 0 0.029449999
1.177 -0.096000001 -0.072999999 0 0 0 0 0.02946
1.424 -0.113 -0.086000003 0 0 0 0 0.02947
1.465 -0.112 -0.086000003 1 0 0 0 0.029479999
1.46 -0.108 -0.082999997 4 0 0 0 0.02949
1.4579999 -0.104 -0.079999998 4 0 0 0 0.0295
1.449 -0.098999999 -0.075999998 2 0 0 0 0.029510001
1.444 -0.094999999 -0.072999999 1 0 0 0 0.029519999
1.437 -0.090999998 -0.07 0 0 0 0 0.02953
1.327 -0.079999998 -0.061999999 0 0 0 0 0.02954
1.142 -0.066 -0.050999999 0 0 0 0 0.029549999
1.044 -0.057999998 -0.045000002 0 0 0 0 0.02956
1.027 -0.054000001 -0.041999999 0 0 0 0 0.02957
1.044 -0.052000001 -0.041000001 0 0 0 0 0.029580001
1.045 -0.050000001 -0.039000001 0 0 0 0 0.029589999
1.076 -0.048 -0.037999999 0 0 0 0 0.0296
1.147 -0.048999999 -0.037999999 0 0 0 0 0.029610001
1.388 -0.055 -0.043000001 0 0 0 0 0.029619999
1.4069999 -0.052000001 -0.041000001 1 0 0 0 0.02963
1.399 -0.048999999 -0.037999999 4 0 0 0 0.02964
1.397 -0.045000002 -0.035999998 6 0 0 0 0.029650001
1.39 -0.041000001 -0.033 6 0 0 0 0.02966
1.388 -0.037 -0.029999999 5 0 0 0 0.02967
1.373 -0.034000002 -0.027000001 5 0 0 0 0.029680001
1.37 -0.029999999 -0.024 5 0 0 0 0.029689999
1.362 -0.026000001 -0.021 5 0 0 0 0.0297
1.35 -0.023 -0.017999999 4 0 0 0 0.02971
1.351 -0.018999999 -0.015 4 0 0 0 0.029720001
1.347 -0.016000001 -0.013 4 0 0 0 0.02973
1.34 -0.012 -0.0099999998 4 0 0 0 0.02974
1.337 -0.0089999996 -0.0070000002 4 0 0 0 0.029750001
1.334 -0.0049999999 -0.0049999999 4 0 0 0 0.029759999
1.326 -0.0020000001 -0.0020000001 4 0 0 0 0.02977
1.323 0 0 4 0 0 0 0.02978
1.322 0.0040000002 0.003 4 0 0 0 0.029789999
1.321 0.0070000002 0.0049999999 4 0 0 0 0.0298
1.323 0.0099999998 0.0080000004 4 0 0 0 0.02981
1.309 0.013 0.011 4 0 0 0 0.029820001
1.309 0.017000001 0.013 4 0 0 0 0.029829999
1.299 0.02 0.016000001 4 0 0 0 0.02984
1.298 0.023 0.017999999 4 0 0 0 0.029850001
1.294 0.026000001 0.021 4 0 0 0 0.029859999
1.281 0.028999999 0.024 4 0 0 0 0.02987
1.272 0.032000002 0.026000001 4 0 0 0 0.02988
1.267 0.035 0.028000001 4 0 0 0 0.029890001
1.256 0.037999999 0.030999999 4 0 0 0 0.029899999
1.2460001 0.041000001 0.033 4 0 0 0 0.02991
1.2410001 0.044 0.035999998 4 0 0 0 0.029920001
1.24 0.046999998 0.037999999 4 0 0 0 0.029929999
1.23 0.048999999 0.041000001 3 0 0 0 0.02994
1.227 0.052000001 0.043000001 3 0 0 0 0.02995
1.228 0.055 0.046 4 0 0 0 0.029960001
1.2410001 0.059 0.048999999 3 0 0 0 0.02997
1.244 0.061999999 0.050999999 2 0 0 0 0.02998
1.256 0.066 0.055 1 0 0 0 0.029990001
1.255 0.068999998 0.057 1 0 0 0 0.029999999
1.26 0.071999997 0.059999999 1 0 0 0 0.03001
1.281 0.077 0.064000003 1 0 0 0 0.03002
1.2970001 0.081 0.068000004 1 0 0 0 0.030029999
1.329 0.086000003 0.071999997 2 0 0 0 0.03004
1.386 0.093000002 0.078000002 6 0 0 0 0.03005
1.612 0.112 0.093999997 35 0 0 0 0.030060001
1.7130001 0.123 0.104 84 0 0 0 0.030069999
1.771 0.132 0.112 86 0 0 0 0.03008
1.848 0.142 0.12 50 0 0 0 0.03009
1.85 0.147 0.125 46 0 0 0 0.030099999
1.853 0.15099999 0.12899999 45 0 0 0 0.03011
1.846 0.155 0.132 40 0 0 0 0.03012
1.84 0.15899999 0.13600001 48 0 0 0 0.030130001
1.836 0.163 0.14 50 0 0 0 0.030139999
1.826 0.167 0.14300001 54 0 0 0 0.03015
1.822 0.171 0.147 56 0 0 0 0.030160001
1.8150001 0.175 0.15000001 49 0 0 0 0.030169999
1.812 0.17900001 0.154 52 0 0 0 0.03018
1.807 0.183 0.15800001 54 0 0 0 0.03019
1.807 0.18700001 0.162 51 0 0 0 0.030200001
1.8 0.19 0.16500001 53 0 0 0 0.03021
1.798 0.19499999 0.169 52 0 0 0 0.03022
1.794 0.198 0.17299999 55 0 0 0 0.030230001
1.784 0.20200001 0.176 56 0 0 0 0.030239999
1.784 0.206 0.18000001 54 0 0 0 0.03025
1.775 0.20900001 0.183 67 0 0 0 0.03026
1.772 0.213 0.186 53 0 0 0 0.030270001
1.7690001 0.21699999 0.19 52 0 0 0 0.03028
1.762 0.22 0.19400001 70 0 0 0 0.03029
1.758 0.22400001 0.197 60 0 0 0 0.030300001
1.756 0.227 0.20100001 61 0 0 0 0.030309999
1.747 0.23 0.204 59 0 0 0 0.03032
1.7460001 0.234 0.208 73 0 0 0 0.03033
1.738 0.237 0.211 56 0 0 0 0.030339999
1.734 0.241 0.214 59 0 0 0 0.03035
1.733 0.245 0.21799999 54 0 0 0 0.03036
1.727 0.248 0.222 63 0 0 0 0.030370001
1.723 0.25099999 0.22499999 68 0 0 0 0.030379999
1.721 0.255 0.229 78 0 0 0 0.03039
1.719 0.259 0.233 65 0 0 0 0.030400001
1.712 0.26199999 0.236 77 0 0 0 0.030409999
1.707 0.26499999 0.23899999 71 0 0 0 0.03042
1.7 0.26800001 0.242 76 0 0 0 0.03043
1.699 0.27200001 0.24600001 76 0 0 0 0.030440001
1.6950001 0.27500001 0.25 63 0 0 0 0.030449999
1.688 0.278 0.25299999 1 0 0 0 0.03046
1.686 0.28099999 0.25600001 74 0 0 0 0.030470001
1.681 0.28400001 0.25999999 75 0 0 0 0.030479999
1.6799999 0.28799999 0.264 74 0 0 0 0.03049
1.677 0.29100001 0.26699999 77 0 0 0 0.0305
1.673 0.294 0.271 81 0 0 0 0.030510001
1.669 0.29699999 0.27399999 74 0 0 0 0.03052
1.6619999 0.30000001 0.27700001 89 0 0 0 0.03053
1.66 0.303 0.28099999 68 0 0 0 0.030540001
1.655 0.30599999 0.28400001 82 0 0 0 0.030549999
1.652 0.30899999 0.287 76 0 0 0 0.03056
1.6440001 0.31200001 0.28999999 88 0 0 0 0.03057
1.643 0.315 0.294 81 0 0 0 0.030579999
1.637 0.31799999 0.29699999 90 0 0 0 0.03059
1.635 0.32100001 0.301 90 0 0 0 0.0306
1.6289999 0.32300001 0.30399999 95 0 0 0 0.030610001
1.627 0.32699999 0.30700001 102 0 0 0 0.030619999
1.622 0.329 0.31099999 89 0 0 0 0.03063
1.6210001 0.333 0.31400001 103 0 0 0 0.03064
1.61 0.33399999 0.31600001 89 0 0 0 0.030649999
1.614 0.33899999 0.32100001 85 0 0 0 0.03066
1.607 0.34099999 0.324 96 0 0 0 0.03067
1.6059999 0.34400001 0.32800001 81 0 0 0 0.030680001
1.601 0.34599999 0.331 100 0 0 0 0.030689999
1.596 0.34900001 0.33399999 81 0 0 0 0.0307
1.5930001 0.352 0.338 66 0 0 0 0.030710001
1.581 0.35299999 0.33899999 45 0 0 0 0.030719999
1.5700001 0.35299999 0.34099999 23 0 0 0 0.03073
1.5599999 0.35499999 0.34299999 16 0 0 0 0.03074
1.549 0.35499999 0.34400001 14 0 0 0 0.030750001
1.5420001 0.35699999 0.347 14 0 0 0 0.03076
1.543 0.361 0.35100001 14 0 0 0 0.03077
1.54 0.36300001 0.354 15 0 0 0 0.030780001
1.541 0.36700001 0.359 17 0 0 0 0.030789999
1.554 0.373 0.366 31 0 0 0 0.0308
1.554 0.377 0.37 59 0 0 0 0.03081
1.553 0.38 0.37400001 86 0 0 0 0.030820001
1.551 0.382 0.377 95 0 0 0 0.03083
1.546 0.38499999 0.38 91 0 0 0 0.03084
1.548 0.38800001 0.38499999 103 0 0 0 0.030850001
1.543 0.38999999 0.38800001 94 0 0 0 0.030859999
1.539 0.39199999 0.391 97 0 0 0 0.03087
1.535 0.39500001 0.39399999 150 0 0 0 0.03088
1.5319999 0.39700001 0.398 150 0 0 0 0.030889999
1.531 0.40000001 0.40099999 150 0 0 0 0.0309
1.523 0.40099999 0.40400001 150 0 0 0 0.03091
1.52 0.403 0.40700001 150 0 0 0 0.030920001
1.518 0.40599999 0.41100001 150 0 0 0 0.030929999
1.516 0.40900001 0.414 150 0 0 0 0.03094
1.515 0.41100001 0.41800001 150 0 0 0 0.030950001
1.512 0.41299999 0.421 150 0 0 0 0.030959999
1.51 0.41600001 0.42500001 150 0 0 0 0.03097
1.503 0.417 0.42699999 150 0 0 0 0.03098
1.501 0.41999999 0.43099999 150 0 0 0 0.030990001
1.498 0.421 0.43399999 145 0 0 0 0.030999999
1.498 0.42399999 0.43799999 150 0 0 0 0.03101
1.493 0.426 0.44100001 150 0 0 0 0.031020001
1.488 0.42699999 0.44400001 150 0 0 0 0.031029999
1.4859999 0.43000001 0.447 150 0 0 0 0.03104
1.484 0.43200001 0.45100001 141 0 0 0 0.03105
1.483 0.435 0.45500001 136 0 0 0 0.031060001
1.4809999 0.43700001 0.458 140 0 0 0 0.03107
1.479 0.43900001 0.46200001 150 0 0 0 0.03108
1.474 0.44 0.465 148 0 0 0 0.031090001
1.472 0.44299999 0.46799999 140 0 0 0 0.031099999
1.471 0.44499999 0.472 130 0 0 0 0.03111
1.469 0.447 0.47499999 132 0 0 0 0.03112
1.4630001 0.44800001 0.47799999 150 0 0 0 0.031129999
1.465 0.45100001 0.48300001 150 0 0 0 0.03114
1.457 0.45100001 0.484 150 0 0 0 0.03115
1.455 0.45300001 0.48800001 150 0 0 0 0.031160001
1.4529999 0.45500001 0.491 150 0 0 0 0.031169999
1.451 0.45699999 0.495 150 0 0 0 0.03118
1.45 0.45899999 0.498 150 0 0 0 0.03119
1.448 0.461 0.50199997 150 0 0 0 0.031199999
1.446 0.463 0.50599998 150 0 0 0 0.03121
1.444 0.465 0.509 150 0 0 0 0.03122
1.439 0.46599999 0.51099998 150 0 0 0 0.031230001
1.436 0.46700001 0.514 150 0 0 0 0.031239999
1.437 0.47 0.51899999 150 0 0 0 0.03125
1.4299999 0.47 0.52100003 150 0 0 0 0.031259999
1.433 0.47400001 0.52600002 150 0 0 0 0.031270001
1.425 0.47299999 0.52700001 150 0 0 0 0.03128
1.429 0.477 0.53299999 150 0 0 0 0.031289998
1.425 0.47799999 0.53500003 150 0 0 0 0.031300001
1.424 0.47999999 0.53899997 150 0 0 0 0.03131
1.421 0.48100001 0.542 150 0 0 0 0.031319998
1.418 0.48199999 0.54500002 150 0 0 0 0.031330001
1.421 0.48500001 0.551 150 0 0 0 0.031339999
1.414 0.48500001 0.55199999 150 0 0 0 0.031350002
1.413 0.48699999 0.55599999 150 0 0 0 0.03136
1.4069999 0.48699999 0.55800003 150 0 0 0 0.031369999
1.408 0.48899999 0.56199998 150 0 0 0 0.031380001
1.409 0.49200001 0.56699997 150 0 0 0 0.03139
1.402 0.491 0.56800002 150 0 0 0 0.031399999
1.4 0.49200001 0.57099998 150 0 0 0 0.031410001
1.401 0.495 0.57599998 150 0 0 0 0.03142
1.397 0.495 0.57800001 150 0 0 0 0.031429999
1.397 0.49700001 0.58200002 150 0 0 0 0.031440001
1.395 0.498 0.58600003 150 0 0 0 0.03145
1.396 0.5 0.58999997 150 0 0 0 0.031459998
1.392 0.50099999 0.59200001 150 0 0 0 0.031470001
1.39 0.50199997 0.59600002 150 0 0 0 0.031479999
1.3839999 0.50099999 0.597 150 0 0 0 0.031490002
1.382 0.50199997 0.60000002 150 0 0 0 0.031500001
1.378 0.50199997 0.602 150 0 0 0 0.031509999
1.378 0.50400001 0.60699999 150 0 0 0 0.031520002
1.377 0.505 0.61000001 150 0 0 0 0.03153
1.375 0.50599998 0.61299998 150 0 0 0 0.031539999
1.373 0.50700003 0.616 150 0 0 0 0.031550001
1.3710001 0.50800002 0.61900002 150 0 0 0 0.03156
1.365 0.50700003 0.62099999 150 0 0 0 0.031569999
1.368 0.509 0.62599999 150 0 0 0 0.031580001
1.3660001 0.50999999 0.62900001 150 0 0 0 0.03159
1.3660001 0.51099998 0.63200003 150 0 0 0 0.031599998
1.3660001 0.51200002 0.63599998 150 0 0 0 0.031610001
1.3609999 0.51200002 0.63800001 150 0 0 0 0.03162
1.3609999 0.51300001 0.64099997 150 0 0 0 0.031629998
1.362 0.51499999 0.64600003 150 0 0 0 0.031640001
1.357 0.514 0.64700001 150 0 0 0 0.031649999
1.357 0.51499999 0.65100002 150 0 0 0 0.031660002
1.358 0.51599997 0.65499997 150 0 0 0 0.03167
1.3559999 0.51700002 0.65799999 150 0 0 0 0.031679999
1.359 0.51899999 0.66299999 150 0 0 0 0.031690001
1.353 0.51700002 0.66399997 150 0 0 0 0.0317
1.357 0.51999998 0.67000002 150 0 0 0 0.031709999
1.351 0.51800001 0.67000002 150 0 0 0 0.031720001
1.354 0.51999998 0.67500001 150 0 0 0 0.03173
1.35 0.51999998 0.67699999 150 0 0 0 0.031739999
1.351 0.52100003 0.68099999 150 0 0 0 0.031750001
1.351 0.52100003 0.68400002 150 0 0 0 0.03176
1.353 0.523 0.68900001 150 0 0 0 0.031769998
1.349 0.52200001 0.69099998 150 0 0 0 0.031780001
1.348 0.52200001 0.69300002 150 0 0 0 0.031789999
1.35 0.523 0.69800001 150 0 0 0 0.031800002
1.349 0.523 0.69999999 150 0 0 0 0.031810001
1.35 0.52399999 0.704 150 0 0 0 0.031819999
1.346 0.523 0.70599997 150 0 0 0 0.031830002
1.347 0.52399999 0.70999998 150 0 0 0 0.03184
1.348 0.52399999 0.713 150 0 0 0 0.031849999
1.346 0.52399999 0.71600002 150 0 0 0 0.031860001
1.348 0.52499998 0.72000003 150 0 0 0 0.03187
1.345 0.52399999 0.722 150 0 0 0 0.031879999
1.3430001 0.523 0.72299999 150 0 0 0 0.031890001
1.35 0.52600002 0.73000002 150 0 0 0 0.0319
1.349 0.52600002 0.73199999 150 0 0 0 0.031909999
1.349 0.52600002 0.736 150 0 0 0 0.031920001
1.348 0.52600002 0.73799998 150 0 0 0 0.03193
