# .PCD v0.7 - Point Cloud Data file format
VERSION 0.7
FIELDS x y z intensity normal_x normal_y normal_z curvature
SIZE 4 4 4 4 4 4 4 4
TYPE F F F F F F F F
COUNT 1 1 1 1 1 1 1 1
WIDTH 1082
HEIGHT 1
VIEWPOINT 0 0 0 1 0 0 0
POINTS 1082
DATA ascii
1.693 -0.40799999 -0.155 12 0 0 0 0.01045
1.671 -0.40799999 -0.156 13 0 0 0 0.01046
1.546 -0.382 -0.146 66 0 0 0 0.01047
1.443 -0.361 -0.139 67 0 0 0 0.01048
1.2819999 -0.32499999 -0.125 13 0 0 0 0.01049
1.253 -0.32100001 -0.124 8 0 0 0 0.0105
1.258 -0.32600001 -0.126 9 0 0 0 0.01051
1.25 -0.32800001 -0.127 8 0 0 0 0.01052
1.252 -0.33199999 -0.13 5 0 0 0 0.01053
1.253 -0.336 -0.132 5 0 0 0 0.01054
1.251 -0.33899999 -0.133 5 0 0 0 0.01055
1.2460001 -0.34200001 -0.13500001 5 0 0 0 0.01056
1.245 -0.345 -0.13600001 5 0 0 0 0.01057
1.2539999 -0.35100001 -0.139 5 0 0 0 0.01058
1.258 -0.35600001 -0.142 6 0 0 0 0.01059
1.263 -0.361 -0.14399999 6 0 0 0 0.0106
1.266 -0.366 -0.147 6 0 0 0 0.01061
1.267 -0.37 -0.149 6 0 0 0 0.01062
1.275 -0.377 -0.152 6 0 0 0 0.01063
1.275 -0.38 -0.154 6 0 0 0 0.01064
1.277 -0.38499999 -0.156 6 0 0 0 0.01065
1.281 -0.38999999 -0.15899999 7 0 0 0 0.01066
1.28 -0.39300001 -0.161 6 0 0 0 0.01067
1.285 -0.39899999 -0.163 7 0 0 0 0.01068
1.29 -0.40400001 -0.16599999 6 0 0 0 0.01069
1.294 -0.40900001 -0.169 7 0 0 0 0.0107
1.2970001 -0.414 -0.171 7 0 0 0 0.01071
1.298 -0.41800001 -0.17399999 7 0 0 0 0.01072
1.304 -0.42399999 -0.177 6 0 0 0 0.01073
1.308 -0.42899999 -0.18000001 1 0 0 0 0.01074
1.291 -0.42699999 -0.17900001 0 0 0 0 0.01075
1.261 -0.421 -0.177 0 0 0 0 0.01076
1.1900001 -0.40099999 -0.169 1 0 0 0 0.01077
1.1670001 -0.39700001 -0.168 4 0 0 0 0.01078
1.156 -0.396 -0.169 4 0 0 0 0.01079
1.154 -0.39899999 -0.17 5 0 0 0 0.0108
1.153 -0.40200001 -0.17200001 5 0 0 0 0.01081
1.152 -0.405 -0.17399999 4 0 0 0 0.01082
1.155 -0.40900001 -0.177 4 0 0 0 0.01083
1.158 -0.41299999 -0.17900001 5 0 0 0 0.01084
1.16 -0.41800001 -0.182 4 0 0 0 0.01085
1.166 -0.42300001 -0.185 5 0 0 0 0.01086
1.168 -0.42699999 -0.18700001 5 0 0 0 0.01087
1.168 -0.43099999 -0.189 5 0 0 0 0.01088
1.171 -0.435 -0.192 5 0 0 0 0.01089
1.173 -0.43900001 -0.19400001 5 0 0 0 0.0109
1.178 -0.44400001 -0.197 5 0 0 0 0.01091
1.174 -0.44600001 -0.199 2 0 0 0 0.01092
1.166 -0.447 -0.2 0 0 0 0 0.01093
1.133 -0.43700001 -0.19599999 0 0 0 0 0.01094
1.117 -0.43399999 -0.19599999 0 0 0 0 0.01095
1.112 -0.435 -0.197 0 0 0 0 0.01096
1.0779999 -0.42500001 -0.193 0 0 0 0 0.01097
1.086 -0.43099999 -0.19599999 0 0 0 0 0.01098
1.0930001 -0.43700001 -0.2 0 0 0 0 0.01099
1.096 -0.442 -0.20299999 0 0 0 0 0.011
1.164 -0.472 -0.21699999 0 0 0 0 0.01101
1.206 -0.49200001 -0.228 0 0 0 0 0.01102
1.219 -0.50099999 -0.23199999 5 0 0 0 0.01103
1.216 -0.50300002 -0.234 7 0 0 0 0.01104
1.216 -0.50700003 -0.237 6 0 0 0 0.01105
1.2079999 -0.50700003 -0.23800001 1 0 0 0 0.01106
1.184 -0.5 -0.235 1 0 0 0 0.01107
1.133 -0.48100001 -0.227 1 0 0 0 0.01108
1.082 -0.463 -0.219 4 0 0 0 0.01109
1.063 -0.45699999 -0.21799999 4 0 0 0 0.0111
1.061 -0.45899999 -0.22 6 0 0 0 0.01111
1.057 -0.46000001 -0.221 6 0 0 0 0.01112
1.052 -0.461 -0.222 5 0 0 0 0.01113
1.053 -0.46399999 -0.22400001 5 0 0 0 0.01114
1.058 -0.46900001 -0.228 5 0 0 0 0.01115
1.064 -0.47499999 -0.23100001 5 0 0 0 0.01116
1.061 -0.47600001 -0.233 5 0 0 0 0.01117
1.062 -0.479 -0.235 5 0 0 0 0.01118
1.059 -0.47999999 -0.237 4 0 0 0 0.01119
1.056 -0.48199999 -0.23800001 2 0 0 0 0.0112
1.043 -0.479 -0.23800001 4 0 0 0 0.01121
1.031 -0.47600001 -0.237 5 0 0 0 0.01122
1.033 -0.479 -0.23999999 5 0 0 0 0.01123
1.026 -0.47799999 -0.23999999 6 0 0 0 0.01124
1.025 -0.47999999 -0.242 6 0 0 0 0.01125
1.023 -0.48199999 -0.244 6 0 0 0 0.01126
1.023 -0.48500001 -0.24600001 6 0 0 0 0.01127
1.021 -0.486 -0.248 6 0 0 0 0.01128
1.039 -0.49700001 -0.255 6 0 0 0 0.01129
1.056 -0.50800002 -0.26100001 6 0 0 0 0.0113
1.082 -0.523 -0.27000001 5 0 0 0 0.01131
1.098 -0.53299999 -0.27599999 6 0 0 0 0.01132
1.103 -0.53799999 -0.28 6 0 0 0 0.01133
1.1059999 -0.542 -0.28299999 6 0 0 0 0.01134
1.105 -0.54400003 -0.285 6 0 0 0 0.01135
1.11 -0.54900002 -0.289 6 0 0 0 0.01136
1.112 -0.55299997 -0.292 6 0 0 0 0.01137
1.109 -0.55400002 -0.294 6 0 0 0 0.01138
1.118 -0.56099999 -0.29899999 6 0 0 0 0.01139
1.119 -0.56400001 -0.30199999 7 0 0 0 0.0114
1.123 -0.56800002 -0.30500001 7 0 0 0 0.01141
1.124 -0.57099998 -0.308 5 0 0 0 0.01142
1.1 -0.56099999 -0.30399999 0 0 0 0 0.01143
1.09 -0.55800003 -0.30399999 0 0 0 0 0.01144
0 0 0 0 0 0 0 0.01145
0 0 0 0 0 0 0 0.01146
0 0 0 0 0 0 0 0.01147
0 0 0 0 0 0 0 0.01148
0.98799998 -0.51599997 -0.28600001 0 0 0 0 0.01149
0.96399999 -0.505 -0.28200001 0 0 0 0 0.0115
0.93699998 -0.493 -0.27599999 1 0 0 0 0.01151
0.92799997 -0.48899999 -0.27500001 6 0 0 0 0.01152
0.91900003 -0.486 -0.27500001 19 0 0 0 0.01153
0.917 -0.48699999 -0.27599999 20 0 0 0 0.01154
0.91600001 -0.48800001 -0.278 28 0 0 0 0.01155
0.91500002 -0.48899999 -0.28 27 0 0 0 0.01156
0.912 -0.48899999 -0.28099999 29 0 0 0 0.01157
0.91100001 -0.49000001 -0.28299999 28 0 0 0 0.01158
0.91000003 -0.491 -0.28400001 28 0 0 0 0.01159
0.90899998 -0.49200001 -0.28600001 32 0 0 0 0.0116
0.90700001 -0.49200001 -0.287 35 0 0 0 0.01161
0.90399998 -0.49200001 -0.289 37 0 0 0 0.01162
0.903 -0.493 -0.28999999 38 0 0 0 0.01163
0.90200001 -0.49399999 -0.292 35 0 0 0 0.01164
0.89999998 -0.49399999 -0.29300001 34 0 0 0 0.01165
0.89899999 -0.495 -0.29499999 32 0 0 0 0.01166
0.898 -0.495 -0.296 39 0 0 0 0.01167
0.898 -0.49700001 -0.29899999 38 0 0 0 0.01168
0.89700001 -0.49700001 -0.30000001 35 0 0 0 0.01169
0.89300001 -0.49599999 -0.301 29 0 0 0 0.0117
0.89300001 -0.49700001 -0.303 31 0 0 0 0.01171
0.89499998 -0.49900001 -0.30500001 28 0 0 0 0.01172
0.89399999 -0.5 -0.30700001 29 0 0 0 0.01173
0.89499998 -0.50099999 -0.30899999 22 0 0 0 0.01174
0.89300001 -0.50099999 -0.31 24 0 0 0 0.01175
0.89099997 -0.50099999 -0.31099999 17 0 0 0 0.01176
0.89200002 -0.50199997 -0.31400001 14 0 0 0 0.01177
0.89700001 -0.50599998 -0.317 12 0 0 0 0.01178
0.89099997 -0.50300002 -0.317 14 0 0 0 0.01179
0.88999999 -0.50400001 -0.31900001 18 0 0 0 0.0118
0.889 -0.50400001 -0.31999999 23 0 0 0 0.01181
0.889 -0.505 -0.322 29 0 0 0 0.01182
0.88800001 -0.505 -0.32300001 30 0 0 0 0.01183
0.884 -0.50300002 -0.324 48 0 0 0 0.01184
0.88099998 -0.50199997 -0.324 57 0 0 0 0.01185
0.88 -0.50199997 -0.32600001 49 0 0 0 0.01186
0.88499999 -0.505 -0.329 68 0 0 0 0.01187
0.88499999 -0.505 -0.331 67 0 0 0 0.01188
0.87800002 -0.50199997 -0.33000001 55 0 0 0 0.01189
0.88300002 -0.50599998 -0.33399999 64 0 0 0 0.0119
0.88099998 -0.505 -0.33500001 61 0 0 0 0.01191
0.88200003 -0.50599998 -0.33700001 61 0 0 0 0.01192
0.88200003 -0.505 -0.338 70 0 0 0 0.01193
0.88 -0.50400001 -0.33899999 45 0 0 0 0.01194
0.88300002 -0.50700003 -0.34200001 31 0 0 0 0.01195
0.88599998 -0.50800002 -0.34400001 23 0 0 0 0.01196
0.89300001 -0.51300001 -0.34900001 11 0 0 0 0.01197
0.90200001 -0.51800001 -0.354 9 0 0 0 0.01198
0.92400002 -0.52999997 -0.36399999 8 0 0 0 0.01199
0.93699998 -0.53799999 -0.37099999 7 0 0 0 0.012
0.95899999 -0.55000001 -0.38100001 6 0 0 0 0.01201
0.97600001 -0.56 -0.389 6 0 0 0 0.01202
0.97899997 -0.56099999 -0.39199999 6 0 0 0 0.01203
0.97799999 -0.56099999 -0.39300001 6 0 0 0 0.01204
0.97799999 -0.56 -0.39399999 6 0 0 0 0.01205
0.97799999 -0.56 -0.396 6 0 0 0 0.01206
0.977 -0.55900002 -0.39700001 6 0 0 0 0.01207
0.977 -0.55900002 -0.398 6 0 0 0 0.01208
0.97600001 -0.55800003 -0.39899999 6 0 0 0 0.01209
0.97399998 -0.55599999 -0.40000001 6 0 0 0 0.0121
0.97500002 -0.55599999 -0.40200001 7 0 0 0 0.01211
0.97399998 -0.55500001 -0.40200001 7 0 0 0 0.01212
0.97500002 -0.55500001 -0.40400001 7 0 0 0 0.01213
0.97500002 -0.55400002 -0.405 7 0 0 0 0.01214
0.972 -0.55199999 -0.405 7 0 0 0 0.01215
0.97100002 -0.551 -0.40599999 7 0 0 0 0.01216
0.97100002 -0.55000001 -0.40700001 7 0 0 0 0.01217
0.972 -0.55000001 -0.40900001 6 0 0 0 0.01218
0.97100002 -0.54799998 -0.40900001 7 0 0 0 0.01219
0.97100002 -0.54699999 -0.41 7 0 0 0 0.0122
0.97000003 -0.54500002 -0.41100001 7 0 0 0 0.01221
0.97100002 -0.54500002 -0.412 7 0 0 0 0.01222
0.96799999 -0.54299998 -0.412 7 0 0 0 0.01223
0.963 -0.53799999 -0.41100001 7 0 0 0 0.01224
0.96200001 -0.537 -0.41100001 7 0 0 0 0.01225
0.96200001 -0.53600001 -0.412 7 0 0 0 0.01226
0.95499998 -0.53100002 -0.41 7 0 0 0 0.01227
0.95899999 -0.53100002 -0.412 8 0 0 0 0.01228
0.958 -0.52899998 -0.412 9 0 0 0 0.01229
0.95099998 -0.52499998 -0.41 10 0 0 0 0.0123
0.954 -0.52499998 -0.412 11 0 0 0 0.01231
0.95300001 -0.523 -0.412 13 0 0 0 0.01232
0.95099998 -0.51999998 -0.412 13 0 0 0 0.01233
0.95300001 -0.51999998 -0.414 18 0 0 0 0.01234
0.954 -0.51899999 -0.414 19 0 0 0 0.01235
0.95700002 -0.51899999 -0.41600001 14 0 0 0 0.01236
0.958 -0.51800001 -0.417 12 0 0 0 0.01237
0.96499997 -0.51999998 -0.41999999 9 0 0 0 0.01238
0.96700001 -0.51999998 -0.42199999 6 0 0 0 0.01239
0.96899998 -0.51899999 -0.42300001 4 0 0 0 0.0124
0.972 -0.51899999 -0.42500001 0 0 0 0 0.01241
0.972 -0.51700002 -0.42500001 0 0 0 0 0.01242
1.002 -0.53100002 -0.43799999 0 0 0 0 0.01243
0.98500001 -0.51999998 -0.43099999 0 0 0 0 0.01244
0.977 -0.514 -0.428 0 0 0 0 0.01245
0.98500001 -0.51599997 -0.43099999 0 0 0 0 0.01246
0.98799998 -0.51599997 -0.43200001 1 0 0 0 0.01247
0.99199998 -0.51599997 -0.43399999 1 0 0 0 0.01248
0.99199998 -0.514 -0.43399999 2 0 0 0 0.01249
0.99199998 -0.51200002 -0.43399999 4 0 0 0 0.0125
0.98500001 -0.50599998 -0.43099999 4 0 0 0 0.01251
0.986 -0.50400001 -0.43099999 4 0 0 0 0.01252
0.98799998 -0.50400001 -0.43200001 4 0 0 0 0.01253
0.98100001 -0.498 -0.42899999 1 0 0 0 0.01254
0.97299999 -0.49200001 -0.42500001 0 0 0 0 0.01255
0.97100002 -0.48899999 -0.42399999 0 0 0 0 0.01256
0.95599997 -0.479 -0.417 0 0 0 0 0.01257
0.97600001 -0.486 -0.42500001 0 0 0 0 0.01258
0.97899997 -0.486 -0.42699999 0 0 0 0 0.01259
0.958 -0.47299999 -0.417 0 0 0 0 0.0126
0.96200001 -0.47299999 -0.419 0 0 0 0 0.01261
0.972 -0.47499999 -0.42199999 0 0 0 0 0.01262
0.96100003 -0.46799999 -0.417 0 0 0 0 0.01263
0.97399998 -0.47099999 -0.42199999 0 0 0 0 0.01264
0.972 -0.46799999 -0.421 0 0 0 0 0.01265
0 0 0 0 0 0 0 0.01266
0 0 0 0 0 0 0 0.01267
1.0420001 -0.49399999 -0.449 0 0 0 0 0.01268
1.072 -0.50599998 -0.461 0 0 0 0 0.01269
1.063 -0.49900001 -0.45699999 1 0 0 0 0.0127
1.0779999 -0.50300002 -0.46200001 6 0 0 0 0.01271
1.071 -0.49700001 -0.458 8 0 0 0 0.01272
1.069 -0.493 -0.456 10 0 0 0 0.01273
1.066 -0.48899999 -0.45500001 10 0 0 0 0.01274
1.061 -0.484 -0.45100001 9 0 0 0 0.01275
1.061 -0.48100001 -0.44999999 10 0 0 0 0.01276
1.0599999 -0.47799999 -0.449 10 0 0 0 0.01277
1.0549999 -0.47299999 -0.44600001 11 0 0 0 0.01278
1.051 -0.46799999 -0.44299999 12 0 0 0 0.01279
1.046 -0.46399999 -0.44 14 0 0 0 0.0128
1.05 -0.46200001 -0.44100001 18 0 0 0 0.01281
1.051 -0.46000001 -0.44 21 0 0 0 0.01282
1.054 -0.45899999 -0.44 15 0 0 0 0.01283
1.069 -0.46200001 -0.44499999 12 0 0 0 0.01284
1.0930001 -0.46900001 -0.454 10 0 0 0 0.01285
1.117 -0.477 -0.46200001 8 0 0 0 0.01286
1.137 -0.48199999 -0.46900001 8 0 0 0 0.01287
1.143 -0.48100001 -0.47 8 0 0 0 0.01288
1.146 -0.47999999 -0.47 8 0 0 0 0.01289
1.147 -0.477 -0.46900001 8 0 0 0 0.0129
1.154 -0.477 -0.47 8 0 0 0 0.01291
1.155 -0.47400001 -0.46900001 8 0 0 0 0.01292
1.159 -0.472 -0.46900001 8 0 0 0 0.01293
1.165 -0.472 -0.47 8 0 0 0 0.01294
1.169 -0.47 -0.47 7 0 0 0 0.01295
1.173 -0.46799999 -0.47 5 0 0 0 0.01296
1.1799999 -0.46799999 -0.47099999 1 0 0 0 0.01297
1.173 -0.46200001 -0.46599999 0 0 0 0 0.01298
1.171 -0.458 -0.46399999 0 0 0 0 0.01299
1.165 -0.45199999 -0.45899999 0 0 0 0 0.013
1.166 -0.449 -0.458 0 0 0 0 0.01301
1.158 -0.44299999 -0.45300001 1 0 0 0 0.01302
1.181 -0.44800001 -0.46000001 3 0 0 0 0.01303
1.174 -0.442 -0.45500001 6 0 0 0 0.01304
1.17 -0.43700001 -0.45199999 9 0 0 0 0.01305
1.163 -0.43099999 -0.447 12 0 0 0 0.01306
1.159 -0.42699999 -0.44400001 12 0 0 0 0.01307
1.155 -0.42199999 -0.44 12 0 0 0 0.01308
1.155 -0.419 -0.43799999 12 0 0 0 0.01309
1.152 -0.41499999 -0.435 12 0 0 0 0.0131
1.148 -0.41 -0.43200001 12 0 0 0 0.01311
1.143 -0.405 -0.428 13 0 0 0 0.01312
1.1440001 -0.40200001 -0.426 16 0 0 0 0.01313
1.1440001 -0.39899999 -0.42399999 16 0 0 0 0.01314
1.149 -0.398 -0.42399999 13 0 0 0 0.01315
1.1720001 -0.403 -0.43000001 12 0 0 0 0.01316
1.2079999 -0.41100001 -0.44100001 11 0 0 0 0.01317
1.252 -0.42300001 -0.45500001 10 0 0 0 0.01318
1.298 -0.435 -0.46900001 10 0 0 0 0.01319
1.294 -0.43000001 -0.46599999 15 0 0 0 0.0132
1.2920001 -0.426 -0.46200001 21 0 0 0 0.01321
1.291 -0.42199999 -0.46000001 19 0 0 0 0.01322
1.2869999 -0.417 -0.45500001 16 0 0 0 0.01323
1.284 -0.41299999 -0.45199999 16 0 0 0 0.01324
1.279 -0.40799999 -0.44800001 15 0 0 0 0.01325
1.277 -0.403 -0.44400001 18 0 0 0 0.01326
1.279 -0.40000001 -0.442 17 0 0 0 0.01327
1.276 -0.396 -0.43900001 18 0 0 0 0.01328
1.274 -0.39199999 -0.43599999 17 0 0 0 0.01329
1.273 -0.38800001 -0.433 18 0 0 0 0.0133
1.272 -0.384 -0.43000001 16 0 0 0 0.01331
1.27 -0.38 -0.426 19 0 0 0 0.01332
1.258 -0.37400001 -0.41999999 15 0 0 0 0.01333
1.2589999 -0.37 -0.417 17 0 0 0 0.01334
1.255 -0.366 -0.41299999 19 0 0 0 0.01335
1.2539999 -0.36199999 -0.41 17 0 0 0 0.01336
1.249 -0.35800001 -0.40599999 17 0 0 0 0.01337
1.249 -0.354 -0.403 18 0 0 0 0.01338
1.244 -0.34900001 -0.39899999 16 0 0 0 0.01339
1.242 -0.34599999 -0.396 15 0 0 0 0.0134
1.2410001 -0.34200001 -0.39300001 15 0 0 0 0.01341
1.24 -0.338 -0.38999999 12 0 0 0 0.01342
1.244 -0.336 -0.38800001 12 0 0 0 0.01343
1.2460001 -0.33399999 -0.38600001 15 0 0 0 0.01344
1.249 -0.331 -0.384 23 0 0 0 0.01345
1.249 -0.32800001 -0.382 34 0 0 0 0.01346
1.248 -0.324 -0.37900001 39 0 0 0 0.01347
1.2640001 -0.32499999 -0.38100001 35 0 0 0 0.01348
1.288 -0.32800001 -0.38499999 34 0 0 0 0.01349
1.309 -0.33000001 -0.38800001 28 0 0 0 0.0135
1.321 -0.33000001 -0.389 25 0 0 0 0.01351
1.325 -0.32699999 -0.38699999 24 0 0 0 0.01352
1.321 -0.32300001 -0.38299999 31 0 0 0 0.01353
1.3200001 -0.31900001 -0.38 42 0 0 0 0.01354
1.322 -0.31600001 -0.377 51 0 0 0 0.01355
1.326 -0.31400001 -0.375 45 0 0 0 0.01356
1.3329999 -0.31200001 -0.37400001 37 0 0 0 0.01357
1.344 -0.31200001 -0.37400001 49 0 0 0 0.01358
1.351 -0.31 -0.373 106 0 0 0 0.01359
1.35 -0.30599999 -0.37 121 0 0 0 0.0136
1.355 -0.30399999 -0.368 63 0 0 0 0.01361
1.353 -0.30000001 -0.36399999 45 0 0 0 0.01362
1.353 -0.29699999 -0.361 32 0 0 0 0.01363
1.357 -0.29499999 -0.359 26 0 0 0 0.01364
1.359 -0.292 -0.35600001 28 0 0 0 0.01365
1.36 -0.289 -0.35299999 26 0 0 0 0.01366
1.364 -0.28600001 -0.35100001 29 0 0 0 0.01367
1.368 -0.28400001 -0.34900001 38 0 0 0 0.01368
1.374 -0.28099999 -0.347 31 0 0 0 0.01369
1.377 -0.27900001 -0.34400001 32 0 0 0 0.0137
1.382 -0.27599999 -0.34200001 21 0 0 0 0.01371
1.393 -0.27500001 -0.34200001 12 0 0 0 0.01372
1.41 -0.27500001 -0.34299999 8 0 0 0 0.01373
1.4220001 -0.27399999 -0.34200001 7 0 0 0 0.01374
1.434 -0.273 -0.34200001 7 0 0 0 0.01375
1.439 -0.271 -0.33899999 7 0 0 0 0.01376
1.457 -0.271 -0.34 6 0 0 0 0.01377
1.477 -0.271 -0.34099999 3 0 0 0 0.01378
1.493 -0.27000001 -0.34099999 2 0 0 0 0.01379
1.507 -0.26899999 -0.34099999 1 0 0 0 0.0138
1.512 -0.26699999 -0.338 1 0 0 0 0.01381
1.517 -0.264 -0.336 0 0 0 0 0.01382
1.545 -0.26499999 -0.338 0 0 0 0 0.01383
1.561 -0.264 -0.33700001 0 0 0 0 0.01384
1.552 -0.25999999 -0.33199999 0 0 0 0 0.01385
1.545 -0.255 -0.32600001 0 0 0 0 0.01386
1.576 -0.25600001 -0.329 0 0 0 0 0.01387
1.556 -0.249 -0.32100001 0 0 0 0 0.01388
1.54 -0.243 -0.31400001 0 0 0 0 0.01389
1.573 -0.245 -0.317 0 0 0 0 0.0139
1.566 -0.23999999 -0.31200001 0 0 0 0 0.01391
1.5779999 -0.23899999 -0.31 0 0 0 0 0.01392
1.552 -0.23100001 -0.301 0 0 0 0 0.01393
1.549 -0.227 -0.29699999 0 0 0 0 0.01394
1.529 -0.221 -0.289 0 0 0 0 0.01395
1.551 -0.221 -0.289 0 0 0 0 0.01396
1.557 -0.21799999 -0.287 0 0 0 0 0.01397
1.582 -0.21799999 -0.287 0 0 0 0 0.01398
1.603 -0.21799999 -0.287 0 0 0 0 0.01399
1.628 -0.21799999 -0.287 0 0 0 0 0.014
1.623 -0.213 -0.28200001 0 0 0 0 0.01401
1.6619999 -0.215 -0.285 0 0 0 0 0.01402
1.6950001 -0.215 -0.28600001 0 0 0 0 0.01403
1.724 -0.21600001 -0.287 0 0 0 0 0.01404
1.865 -0.229 -0.30599999 0 0 0 0 0.01405
1.9 -0.229 -0.30700001 1 0 0 0 0.01406
1.893 -0.22400001 -0.301 1 0 0 0 0.01407
1.911 -0.223 -0.29899999 1 0 0 0 0.01408
1.909 -0.21799999 -0.294 1 0 0 0 0.01409
1.872 -0.20999999 -0.28299999 9 0 0 0 0.0141
1.779 -0.19599999 -0.26499999 53 0 0 0 0.01411
1.688 -0.182 -0.24699999 25 0 0 0 0.01412
1.594 -0.169 -0.229 8 0 0 0 0.01413
1.594 -0.16500001 -0.22499999 6 0 0 0 0.01414
1.61 -0.164 -0.223 1 0 0 0 0.01415
1.624 -0.162 -0.221 1 0 0 0 0.01416
1.666 -0.162 -0.222 1 0 0 0 0.01417
1.674 -0.16 -0.219 1 0 0 0 0.01418
1.717 -0.16 -0.22 1 0 0 0 0.01419
1.7410001 -0.15899999 -0.219 1 0 0 0 0.0142
1.7640001 -0.15800001 -0.21699999 2 0 0 0 0.01421
1.772 -0.155 -0.214 11 0 0 0 0.01422
1.822 -0.155 -0.215 1 0 0 0 0.01423
1.8380001 -0.153 -0.212 8 0 0 0 0.01424
1.906 -0.155 -0.215 1 0 0 0 0.01425
1.939 -0.154 -0.214 4 0 0 0 0.01426
1.9400001 -0.15000001 -0.20900001 11 0 0 0 0.01427
1.926 -0.145 -0.20200001 14 0 0 0 0.01428
1.9220001 -0.141 -0.197 114 0 0 0 0.01429
1.916 -0.13600001 -0.191 22 0 0 0 0.0143
1.916 -0.133 -0.186 150 0 0 0 0.01431
1.9170001 -0.12899999 -0.182 150 0 0 0 0.01432
1.916 -0.125 -0.177 150 0 0 0 0.01433
1.9069999 -0.121 -0.171 39 0 0 0 0.01434
1.909 -0.117 -0.16599999 150 0 0 0 0.01435
1.908 -0.113 -0.161 150 0 0 0 0.01436
1.909 -0.11 -0.156 150 0 0 0 0.01437
1.897 -0.105 -0.15000001 121 0 0 0 0.01438
1.911 -0.102 -0.146 150 0 0 0 0.01439
1.911 -0.098999999 -0.141 150 0 0 0 0.0144
1.9069999 -0.094999999 -0.13600001 150 0 0 0 0.01441
1.915 -0.090999998 -0.131 150 0 0 0 0.01442
1.915 -0.088 -0.126 150 0 0 0 0.01443
1.918 -0.083999999 -0.122 108 0 0 0 0.01444
1.933 -0.081 -0.117 35 0 0 0 0.01445
1.946 -0.078000002 -0.113 13 0 0 0 0.01446
1.965 -0.075000003 -0.109 14 0 0 0 0.01447
1.9859999 -0.071999997 -0.105 15 0 0 0 0.01448
1.933 -0.066 -0.097000003 11 0 0 0 0.01449
1.927 -0.063000001 -0.092 10 0 0 0 0.0145
1.925 -0.059 -0.086000003 11 0 0 0 0.01451
1.9170001 -0.055 -0.081 12 0 0 0 0.01452
1.918 -0.052000001 -0.075999998 12 0 0 0 0.01453
1.929 -0.048 -0.071000002 11 0 0 0 0.01454
1.95 -0.045000002 -0.067000002 11 0 0 0 0.01455
2.0320001 -0.043000001 -0.064000003 10 0 0 0 0.01456
2.178 -0.041999999 -0.063000001 101 0 0 0 0.01457
2.2950001 -0.041000001 -0.061000001 73 0 0 0 0.01458
2.332 -0.037 -0.055 61 0 0 0 0.01459
2.3280001 -0.033 -0.048999999 45 0 0 0 0.0146
2.322 -0.028000001 -0.043000001 13 0 0 0 0.01461
2.3329999 -0.024 -0.037 6 0 0 0 0.01462
2.3139999 -0.02 -0.029999999 2 0 0 0 0.01463
1.608 -0.011 -0.016000001 0 0 0 0 0.01464
1.5700001 -0.0080000004 -0.012 0 0 0 0 0.01465
1.569 -0.0049999999 -0.0080000004 0 0 0 0 0.01466
1.5599999 -0.0020000001 -0.003 0 0 0 0 0.01467
1.594 0 0 0 0 0 0 0.01468
0 0 0 0 0 0 0 0.01469
2.382 0.0089999996 0.013 11 0 0 0 0.0147
2.3989999 0.013 0.018999999 13 0 0 0 0.01471
2.395 0.017000001 0.026000001 14 0 0 0 0.01472
2.4170001 0.022 0.033 14 0 0 0 0.01473
2.339 0.025 0.037999999 18 0 0 0 0.01474
2.3759999 0.029999999 0.045000002 21 0 0 0 0.01475
2.345 0.034000002 0.050999999 18 0 0 0 0.01476
2.299 0.037 0.056000002 72 0 0 0 0.01477
2.3180001 0.041000001 0.063000001 68 0 0 0 0.01478
2.325 0.045000002 0.068999998 70 0 0 0 0.01479
2.339 0.050000001 0.075999998 74 0 0 0 0.0148
2.348 0.054000001 0.082999997 72 0 0 0 0.01481
2.3510001 0.057999998 0.089000002 76 0 0 0 0.01482
2.3640001 0.063000001 0.096000001 114 0 0 0 0.01483
2.382 0.067000002 0.104 150 0 0 0 0.01484
2.4319999 0.072999999 0.113 150 0 0 0 0.01485
2.4489999 0.078000002 0.12 150 0 0 0 0.01486
2.4579999 0.082000002 0.127 150 0 0 0 0.01487
2.4630001 0.086000003 0.134 150 0 0 0 0.01488
2.4749999 0.090999998 0.142 150 0 0 0 0.01489
2.4820001 0.096000001 0.149 150 0 0 0 0.0149
2.49 0.1 0.15700001 150 0 0 0 0.01491
2.493 0.104 0.164 150 0 0 0 0.01492
2.5020001 0.109 0.171 150 0 0 0 0.01493
2.513 0.114 0.17900001 150 0 0 0 0.01494
2.52 0.118 0.18700001 150 0 0 0 0.01495
2.5250001 0.123 0.19400001 150 0 0 0 0.01496
2.53 0.127 0.20100001 150 0 0 0 0.01497
2.4809999 0.12899999 0.204 150 0 0 0 0.01498
2.46 0.132 0.20999999 59 0 0 0 0.01499
2.467 0.13600001 0.21699999 43 0 0 0 0.015
2.4690001 0.141 0.22400001 14 0 0 0 0.01501
2.3710001 0.139 0.222 1 0 0 0 0.01502
2.1240001 0.12800001 0.205 0 0 0 0 0.01503
1.846 0.114 0.183 0 0 0 0 0.01504
1.822 0.116 0.186 0 0 0 0 0.01505
1.835 0.119 0.192 0 0 0 0 0.01506
1.835 0.122 0.198 0 0 0 0 0.01507
1.84 0.126 0.20299999 0 0 0 0 0.01508
1.8710001 0.131 0.212 0 0 0 0 0.01509
1.962 0.14 0.228 0 0 0 0 0.0151
2.279 0.167 0.27200001 0 0 0 0 0.01511
2.322 0.17299999 0.28299999 0 0 0 0 0.01512
2.348 0.17900001 0.29300001 0 0 0 0 0.01513
2.3399999 0.182 0.29899999 0 0 0 0 0.01514
2.3510001 0.18700001 0.30700001 0 0 0 0 0.01515
2.362 0.191 0.315 0 0 0 0 0.01516
2.3659999 0.19599999 0.32300001 0 0 0 0 0.01517
2.3729999 0.2 0.331 0 0 0 0 0.01518
2.378 0.204 0.338 0 0 0 0 0.01519
2.3829999 0.208 0.34599999 0 0 0 0 0.0152
2.398 0.213 0.35499999 0 0 0 0 0.01521
2.4719999 0.22400001 0.373 0 0 0 0 0.01522
3.138 0.289 0.48300001 3 0 0 0 0.01523
3.256 0.30500001 0.50999999 6 0 0 0 0.01524
3.2449999 0.30899999 0.51800001 6 0 0 0 0.01525
3.243 0.31400001 0.52700001 6 0 0 0 0.01526
3.2390001 0.31799999 0.53600001 6 0 0 0 0.01527
3.237 0.32300001 0.54500002 6 0 0 0 0.01528
3.2309999 0.32699999 0.55400002 6 0 0 0 0.01529
3.2260001 0.33199999 0.56300002 6 0 0 0 0.0153
3.227 0.336 0.57200003 6 0 0 0 0.01531
3.2249999 0.34099999 0.58099997 6 0 0 0 0.01532
3.2219999 0.34599999 0.59100002 6 0 0 0 0.01533
3.22 0.34999999 0.60000002 6 0 0 0 0.01534
3.2179999 0.35499999 0.60900003 6 0 0 0 0.01535
3.22 0.36000001 0.61900002 6 0 0 0 0.01536
3.214 0.36399999 0.62699997 6 0 0 0 0.01537
3.211 0.368 0.63599998 6 0 0 0 0.01538
3.1919999 0.37099999 0.64200002 6 0 0 0 0.01539
3.198 0.37599999 0.653 6 0 0 0 0.0154
3.204 0.38100001 0.66399997 6 0 0 0 0.01541
3.0899999 0.37200001 0.64899999 6 0 0 0 0.01542
3.033 0.37 0.64700001 7 0 0 0 0.01543
3.1700001 0.391 0.685 5 0 0 0 0.01544
2.7539999 0.34400001 0.60399997 8 0 0 0 0.01545
2.865 0.36199999 0.63700002 32 0 0 0 0.01546
2.7190001 0.347 0.61299998 28 0 0 0 0.01547
2.5799999 0.333 0.58899999 12 0 0 0 0.01548
2.5810001 0.336 0.597 8 0 0 0 0.01549
2.767 0.36500001 0.64899999 28 0 0 0 0.0155
2.8640001 0.38100001 0.68000001 33 0 0 0 0.01551
2.9119999 0.39199999 0.69999999 72 0 0 0 0.01552
2.9159999 0.396 0.70999998 98 0 0 0 0.01553
2.9170001 0.40099999 0.72000003 96 0 0 0 0.01554
2.928 0.40599999 0.73199999 91 0 0 0 0.01555
2.9349999 0.41100001 0.74199998 82 0 0 0 0.01556
2.9349999 0.41499999 0.75099999 72 0 0 0 0.01557
2.9419999 0.41999999 0.76200002 69 0 0 0 0.01558
2.947 0.42500001 0.773 64 0 0 0 0.01559
2.9489999 0.42899999 0.78200001 61 0 0 0 0.0156
2.947 0.43200001 0.79100001 63 0 0 0 0.01561
2.9089999 0.43099999 0.79000002 69 0 0 0 0.01562
2.891 0.43200001 0.79400003 87 0 0 0 0.015629999
2.8940001 0.43599999 0.80400002 100 0 0 0 0.01564
2.845 0.43200001 0.79900002 117 0 0 0 0.01565
2.8499999 0.43599999 0.81 124 0 0 0 0.015659999
2.816 0.435 0.80900002 91 0 0 0 0.01567
2.8199999 0.43900001 0.81900001 63 0 0 0 0.01568
2.8369999 0.44499999 0.833 59 0 0 0 0.015690001
2.747 0.435 0.815 63 0 0 0 0.015699999
2.7520001 0.43900001 0.82499999 66 0 0 0 0.01571
2.6040001 0.41800001 0.78899997 48 0 0 0 0.01572
2.5680001 0.41499999 0.78600001 47 0 0 0 0.015729999
2.5669999 0.41800001 0.79400003 47 0 0 0 0.01574
2.572 0.42199999 0.80400002 42 0 0 0 0.01575
2.5999999 0.43000001 0.82099998 41 0 0 0 0.015760001
2.6340001 0.43900001 0.83999997 38 0 0 0 0.015769999
2.5929999 0.435 0.83600003 35 0 0 0 0.01578
2.579 0.43599999 0.83899999 27 0 0 0 0.015790001
2.5780001 0.43900001 0.847 24 0 0 0 0.015799999
2.6210001 0.449 0.87 30 0 0 0 0.01581
2.612 0.44999999 0.875 30 0 0 0 0.01582
2.6949999 0.46799999 0.912 59 0 0 0 0.015830001
2.743 0.479 0.93699998 60 0 0 0 0.01584
2.6099999 0.45899999 0.89999998 25 0 0 0 0.01585
2.6140001 0.46200001 0.91000003 25 0 0 0 0.015860001
2.6210001 0.46599999 0.921 24 0 0 0 0.015869999
2.6259999 0.47 0.93099999 25 0 0 0 0.01588
2.6199999 0.472 0.93699998 18 0 0 0 0.01589
2.618 0.47400001 0.94499999 21 0 0 0 0.015900001
2.6459999 0.48199999 0.96399999 26 0 0 0 0.01591
2.6760001 0.49000001 0.98299998 26 0 0 0 0.01592
2.6689999 0.491 0.98900002 23 0 0 0 0.015930001
2.6359999 0.48800001 0.986 16 0 0 0 0.015939999
2.6040001 0.48500001 0.98199999 15 0 0 0 0.01595
2.5869999 0.484 0.98400003 14 0 0 0 0.01596
2.724 0.51200002 1.045 42 0 0 0 0.015969999
2.8640001 0.542 1.108 61 0 0 0 0.01598
2.954 0.56099999 1.153 60 0 0 0 0.01599
2.9449999 0.56199998 1.159 61 0 0 0 0.016000001
2.891 0.55500001 1.147 59 0 0 0 0.016009999
2.8610001 0.551 1.145 52 0 0 0 0.01602
2.7920001 0.54100001 1.127 45 0 0 0 0.016030001
2.6700001 0.51899999 1.086 32 0 0 0 0.016039999
2.618 0.51099998 1.074 19 0 0 0 0.01605
2.658 0.52200001 1.099 33 0 0 0 0.01606
2.7030001 0.53299999 1.126 34 0 0 0 0.016070001
2.885 0.57099998 1.212 60 0 0 0 0.01608
2.9560001 0.58700001 1.251 76 0 0 0 0.01609
2.9579999 0.58999997 1.262 60 0 0 0 0.016100001
2.96 0.59299999 1.272 72 0 0 0 0.016109999
2.984 0.60000002 1.2920001 150 0 0 0 0.01612
2.9749999 0.60000002 1.298 150 0 0 0 0.01613
2.902 0.588 1.276 150 0 0 0 0.016140001
2.8529999 0.57999998 1.263 63 0 0 0 0.01615
2.8870001 0.58899999 1.288 63 0 0 0 0.01616
2.9319999 0.60000002 1.318 150 0 0 0 0.016170001
2.951 0.60600001 1.336 150 0 0 0 0.016179999
2.9679999 0.61199999 1.354 150 0 0 0 0.01619
3.0250001 0.625 1.39 150 0 0 0 0.0162
3.072 0.63700002 1.421 150 0 0 0 0.016209999
3.0699999 0.63800001 1.4299999 150 0 0 0 0.01622
3.0710001 0.63999999 1.441 150 0 0 0 0.01623
3.0710001 0.64200002 1.451 150 0 0 0 0.016240001
3.0710001 0.64399999 1.461 150 0 0 0 0.016249999
3.0680001 0.64499998 1.469 150 0 0 0 0.01626
3.0639999 0.64600003 1.477 150 0 0 0 0.01627
3.0650001 0.64700001 1.488 150 0 0 0 0.016279999
3.0669999 0.64899999 1.498 150 0 0 0 0.01629
3.066 0.65100002 1.508 150 0 0 0 0.0163
3.0639999 0.65200001 1.517 150 0 0 0 0.016310001
3.063 0.653 1.526 150 0 0 0 0.016319999
3.0650001 0.65399998 1.5369999 150 0 0 0 0.01633
3.063 0.65499997 1.546 150 0 0 0 0.016340001
3.063 0.65600002 1.5549999 150 0 0 0 0.016349999
3.062 0.65700001 1.564 150 0 0 0 0.01636
3.0599999 0.65799999 1.573 150 0 0 0 0.01637
3.0599999 0.65899998 1.5829999 150 0 0 0 0.016380001
3.0580001 0.65899998 1.592 150 0 0 0 0.01639
3.059 0.66000003 1.601 150 0 0 0 0.0164
3.0550001 0.66000003 1.609 150 0 0 0 0.016410001
3.0599999 0.662 1.6210001 150 0 0 0 0.016419999
3.049 0.66000003 1.625 150 0 0 0 0.01643
3.036 0.65799999 1.627 150 0 0 0 0.01644
3.0090001 0.653 1.622 150 0 0 0 0.016450001
2.984 0.648 1.617 150 0 0 0 0.01646
2.9779999 0.64700001 1.624 150 0 0 0 0.01647
2.983 0.648 1.635 150 0 0 0 0.016480001
2.98 0.648 1.642 150 0 0 0 0.016489999
2.973 0.64700001 1.648 134 0 0 0 0.0165
2.9549999 0.64300001 1.646 90 0 0 0 0.01651
2.937 0.639 1.645 86 0 0 0 0.016519999
2.924 0.63599998 1.646 84 0 0 0 0.01653
2.9059999 0.63200003 1.645 85 0 0 0 0.01654
2.8929999 0.62900001 1.646 87 0 0 0 0.016550001
2.878 0.62599999 1.646 84 0 0 0 0.016559999
2.862 0.62199998 1.645 87 0 0 0 0.01657
2.8429999 0.61799997 1.641 81 0 0 0 0.016580001
2.8280001 0.61400002 1.641 85 0 0 0 0.016589999
2.8180001 0.611 1.643 96 0 0 0 0.0166
2.8050001 0.60799998 1.643 96 0 0 0 0.01661
2.789 0.60399997 1.642 94 0 0 0 0.016620001
2.7780001 0.60100001 1.642 95 0 0 0 0.01663
2.763 0.597 1.641 97 0 0 0 0.01664
2.7539999 0.59500003 1.643 96 0 0 0 0.016650001
2.744 0.59200001 1.6440001 95 0 0 0 0.016659999
2.727 0.58700001 1.641 93 0 0 0 0.01667
2.72 0.58499998 1.6440001 96 0 0 0 0.01668
2.704 0.57999998 1.642 94 0 0 0 0.016690001
2.6930001 0.57700002 1.642 86 0 0 0 0.0167
2.6800001 0.57300001 1.64 84 0 0 0 0.01671
2.6719999 0.56999999 1.642 84 0 0 0 0.016720001
2.6619999 0.56699997 1.642 88 0 0 0 0.016729999
2.6459999 0.56199998 1.6390001 85 0 0 0 0.01674
2.642 0.56 1.643 89 0 0 0 0.01675
2.6259999 0.55500001 1.6390001 86 0 0 0 0.016759999
2.618 0.55199999 1.64 89 0 0 0 0.01677
2.608 0.54900002 1.64 87 0 0 0 0.01678
2.598 0.54500002 1.6390001 88 0 0 0 0.016790001
2.5880001 0.54100001 1.638 89 0 0 0 0.016799999
2.582 0.53799999 1.64 101 0 0 0 0.01681
2.5680001 0.53399998 1.637 93 0 0 0 0.01682
2.5650001 0.53100002 1.64 89 0 0 0 0.016829999
2.556 0.528 1.64 98 0 0 0 0.01684
2.5469999 0.52399999 1.6390001 91 0 0 0 0.01685
2.533 0.51899999 1.635 89 0 0 0 0.016860001
2.5309999 0.51700002 1.6390001 97 0 0 0 0.016869999
2.526 0.514 1.64 93 0 0 0 0.01688
2.52 0.50999999 1.641 86 0 0 0 0.016890001
2.5090001 0.50599998 1.6390001 96 0 0 0 0.016899999
2.503 0.50199997 1.6390001 93 0 0 0 0.01691
2.494 0.49900001 1.637 90 0 0 0 0.01692
2.4920001 0.49599999 1.64 100 0 0 0 0.016930001
2.4820001 0.49200001 1.638 100 0 0 0 0.01694
2.4760001 0.48800001 1.637 95 0 0 0 0.01695
2.467 0.484 1.635 101 0 0 0 0.016960001
2.4630001 0.48100001 1.637 99 0 0 0 0.016969999
2.46 0.47799999 1.638 108 0 0 0 0.01698
2.454 0.47400001 1.637 102 0 0 0 0.01699
2.4460001 0.47 1.635 106 0 0 0 0.017000001
2.4430001 0.46599999 1.636 105 0 0 0 0.01701
2.437 0.463 1.635 110 0 0 0 0.01702
2.4360001 0.46000001 1.638 112 0 0 0 0.017030001
2.4300001 0.456 1.636 116 0 0 0 0.017039999
2.4260001 0.45199999 1.636 118 0 0 0 0.01705
2.428 0.44999999 1.64 121 0 0 0 0.01706
2.4200001 0.44600001 1.637 109 0 0 0 0.017069999
2.4170001 0.442 1.637 107 0 0 0 0.01708
2.415 0.43900001 1.638 100 0 0 0 0.01709
2.4070001 0.43399999 1.635 105 0 0 0 0.017100001
2.408 0.43200001 1.638 107 0 0 0 0.017109999
2.4059999 0.428 1.637 102 0 0 0 0.01712
2.4030001 0.42399999 1.637 103 0 0 0 0.017130001
2.4000001 0.421 1.637 106 0 0 0 0.017139999
2.398 0.417 1.637 107 0 0 0 0.01715
2.3970001 0.414 1.637 105 0 0 0 0.01716
2.3940001 0.41 1.637 103 0 0 0 0.017170001
2.3970001 0.40700001 1.6390001 112 0 0 0 0.01718
2.395 0.40400001 1.6390001 102 0 0 0 0.01719
2.391 0.40000001 1.637 104 0 0 0 0.017200001
2.3940001 0.39700001 1.64 98 0 0 0 0.017209999
2.3940001 0.39300001 1.64 108 0 0 0 0.01722
2.395 0.38999999 1.641 113 0 0 0 0.01723
2.3889999 0.38600001 1.637 103 0 0 0 0.017240001
2.3900001 0.382 1.638 103 0 0 0 0.01725
2.3900001 0.37900001 1.638 104 0 0 0 0.01726
2.3959999 0.37599999 1.642 109 0 0 0 0.017270001
2.3940001 0.37200001 1.64 107 0 0 0 0.017279999
2.392 0.36899999 1.638 105 0 0 0 0.01729
2.395 0.36500001 1.64 104 0 0 0 0.0173
2.3959999 0.36199999 1.6390001 100 0 0 0 0.017309999
2.3959999 0.35800001 1.6390001 107 0 0 0 0.01732
2.402 0.35499999 1.642 112 0 0 0 0.01733
2.401 0.352 1.64 116 0 0 0 0.017340001
2.401 0.34799999 1.6390001 114 0 0 0 0.017349999
2.4030001 0.345 1.6390001 108 0 0 0 0.01736
2.4070001 0.34099999 1.64 106 0 0 0 0.01737
2.4089999 0.338 1.64 117 0 0 0 0.017379999
2.4100001 0.33399999 1.6390001 109 0 0 0 0.01739
2.415 0.331 1.64 105 0 0 0 0.0174
2.4189999 0.32800001 1.641 110 0 0 0 0.017410001
2.4200001 0.324 1.64 95 0 0 0 0.017419999
2.424 0.32100001 1.64 101 0 0 0 0.01743
2.4300001 0.31799999 1.642 108 0 0 0 0.017440001
2.4330001 0.315 1.642 103 0 0 0 0.017449999
2.4349999 0.31099999 1.64 108 0 0 0 0.01746
2.4389999 0.308 1.64 110 0 0 0 0.01747
2.441 0.30399999 1.638 110 0 0 0 0.017480001
2.45 0.301 1.641 104 0 0 0 0.01749
2.4549999 0.29800001 1.642 102 0 0 0 0.0175
2.4579999 0.29499999 1.641 100 0 0 0 0.017510001
2.4630001 0.29100001 1.64 112 0 0 0 0.017519999
2.47 0.28799999 1.642 109 0 0 0 0.01753
2.477 0.285 1.642 114 0 0 0 0.01754
2.4820001 0.28099999 1.642 110 0 0 0 0.017550001
2.4860001 0.278 1.641 109 0 0 0 0.01756
2.497 0.27500001 1.6440001 115 0 0 0 0.01757
2.5009999 0.27200001 1.643 105 0 0 0 0.017580001
2.5050001 0.26800001 1.641 107 0 0 0 0.017589999
2.5139999 0.266 1.643 103 0 0 0 0.0176
2.523 0.26300001 1.645 112 0 0 0 0.01761
2.5280001 0.259 1.643 104 0 0 0 0.017619999
2.5369999 0.25600001 1.6440001 107 0 0 0 0.01763
2.5409999 0.25299999 1.642 105 0 0 0 0.01764
2.5510001 0.25 1.6440001 116 0 0 0 0.017650001
2.5610001 0.24699999 1.645 106 0 0 0 0.017659999
2.5650001 0.243 1.642 98 0 0 0 0.01767
2.5769999 0.23999999 1.645 112 0 0 0 0.017680001
2.5840001 0.237 1.6440001 101 0 0 0 0.017689999
2.589 0.234 1.641 94 0 0 0 0.0177
2.5999999 0.23100001 1.643 106 0 0 0 0.01771
2.6099999 0.228 1.6440001 89 0 0 0 0.017720001
2.6240001 0.22499999 1.647 98 0 0 0 0.017729999
2.6329999 0.222 1.646 97 0 0 0 0.01774
2.642 0.219 1.646 91 0 0 0 0.017750001
2.6500001 0.21600001 1.645 90 0 0 0 0.017759999
2.6630001 0.213 1.647 96 0 0 0 0.01777
2.6719999 0.20999999 1.646 98 0 0 0 0.01778
2.6819999 0.207 1.645 141 0 0 0 0.017790001
2.6889999 0.204 1.643 113 0 0 0 0.0178
2.694 0.2 1.64 63 0 0 0 0.01781
2.6889999 0.19599999 1.63 49 0 0 0 0.017820001
2.681 0.192 1.618 46 0 0 0 0.017829999
2.6700001 0.18700001 1.605 45 0 0 0 0.01784
2.6700001 0.184 1.598 45 0 0 0 0.01785
2.6619999 0.17900001 1.586 45 0 0 0 0.017859999
2.6559999 0.175 1.576 47 0 0 0 0.01787
2.6530001 0.17200001 1.566 47 0 0 0 0.01788
2.6459999 0.168 1.5549999 48 0 0 0 0.017890001
2.642 0.164 1.546 48 0 0 0 0.017899999
2.635 0.16 1.534 46 0 0 0 0.01791
2.628 0.156 1.523 46 0 0 0 0.01792
2.6229999 0.153 1.513 46 0 0 0 0.017929999
2.6199999 0.149 1.5039999 47 0 0 0 0.01794
2.612 0.145 1.492 47 0 0 0 0.01795
2.602 0.142 1.479 47 0 0 0 0.017960001
2.6010001 0.138 1.471 45 0 0 0 0.017969999
2.5999999 0.13500001 1.4630001 46 0 0 0 0.01798
2.5929999 0.132 1.451 46 0 0 0 0.017990001
2.589 0.12800001 1.441 48 0 0 0 0.017999999
2.5840001 0.125 1.431 47 0 0 0 0.01801
2.579 0.122 1.421 47 0 0 0 0.01802
2.572 0.118 1.409 46 0 0 0 0.018030001
2.572 0.116 1.401 47 0 0 0 0.01804
2.5650001 0.112 1.39 47 0 0 0 0.01805
2.5639999 0.109 1.381 48 0 0 0 0.018060001
2.556 0.106 1.369 48 0 0 0 0.018069999
2.549 0.103 1.358 49 0 0 0 0.01808
2.5439999 0.1 1.347 50 0 0 0 0.01809
2.5450001 0.097999997 1.34 50 0 0 0 0.018100001
2.536 0.094999999 1.327 50 0 0 0 0.01811
2.4289999 0.088 1.2640001 150 0 0 0 0.01812
2.2950001 0.081 1.187 149 0 0 0 0.018130001
2.142 0.072999999 1.101 27 0 0 0 0.018139999
2.1140001 0.07 1.08 25 0 0 0 0.01815
2.1259999 0.068000004 1.079 31 0 0 0 0.01816
2.1370001 0.067000002 1.0779999 33 0 0 0 0.018169999
2.152 0.064999998 1.079 34 0 0 0 0.01818
2.1619999 0.063000001 1.077 33 0 0 0 0.01819
2.1800001 0.061999999 1.079 32 0 0 0 0.018200001
2.1989999 0.059999999 1.081 32 0 0 0 0.018209999
2.2119999 0.059 1.08 32 0 0 0 0.01822
2.2279999 0.057 1.081 32 0 0 0 0.018230001
2.243 0.056000002 1.081 33 0 0 0 0.018239999
2.263 0.054000001 1.0829999 34 0 0 0 0.01825
2.2739999 0.052000001 1.081 34 0 0 0 0.01826
2.289 0.050999999 1.081 32 0 0 0 0.018270001
2.3080001 0.048999999 1.082 34 0 0 0 0.018279999
2.322 0.048 1.081 32 0 0 0 0.01829
2.345 0.046 1.084 34 0 0 0 0.018300001
2.3599999 0.045000002 1.0829999 33 0 0 0 0.018309999
2.3800001 0.043000001 1.084 33 0 0 0 0.01832
2.4000001 0.041999999 1.086 33 0 0 0 0.01833
2.418 0.039999999 1.086 33 0 0 0 0.018340001
2.434 0.039000001 1.085 40 0 0 0 0.01835
2.4389999 0.037 1.079 39 0 0 0 0.01836
2.437 0.035 1.0700001 35 0 0 0 0.018370001
2.4349999 0.033 1.061 34 0 0 0 0.018379999
2.4319999 0.032000002 1.051 33 0 0 0 0.01839
2.4319999 0.029999999 1.043 34 0 0 0 0.0184
2.4289999 0.028000001 1.034 34 0 0 0 0.018409999
2.4000001 0.026000001 1.0140001 41 0 0 0 0.01842
2.329 0.024 0.97600001 150 0 0 0 0.01843
2.29 0.022 0.95200002 150 0 0 0 0.018440001
2.2869999 0.021 0.94300002 150 0 0 0 0.018449999
2.29 0.018999999 0.93699998 150 0 0 0 0.01846
2.289 0.017999999 0.92799997 150 0 0 0 0.01847
2.2839999 0.017000001 0.91799998 150 0 0 0 0.018479999
2.2809999 0.015 0.91000003 150 0 0 0 0.01849
2.2750001 0.014 0.89999998 150 0 0 0 0.0185
2.2720001 0.013 0.89099997 150 0 0 0 0.018510001
2.2720001 0.011 0.88300002 150 0 0 0 0.018519999
2.2690001 0.0099999998 0.87400001 150 0 0 0 0.01853
2.257 0.0089999996 0.86199999 150 0 0 0 0.018540001
2.247 0.0080000004 0.85100001 29 0 0 0 0.018549999
2.22 0.0070000002 0.833 4 0 0 0 0.01856
2.082 0.0049999999 0.77399999 0 0 0 0 0.01857
2.098 0.0040000002 0.773 0 0 0 0 0.018580001
0 0 0 0 0 0 0 0.01859
0 0 0 0 0 0 0 0.0186
2.2609999 0.001 0.81 0 0 0 0 0.018610001
2.085 0 0.74000001 0 0 0 0 0.018619999
2.0910001 0 0.73500001 0 0 0 0 0.01863
2.092 0 0.72899997 0 0 0 0 0.01864
2.0550001 -0.001 0.708 0 0 0 0 0.018650001
2.0739999 -0.0020000001 0.708 0 0 0 0 0.01866
2.0569999 -0.003 0.69499999 0 0 0 0 0.01867
2.0599999 -0.0040000002 0.68900001 0 0 0 0 0.018680001
2.059 -0.0040000002 0.68199998 0 0 0 0 0.018689999
2.0539999 -0.0049999999 0.67299998 0 0 0 0 0.0187
2.039 -0.0060000001 0.662 0 0 0 0 0.01871
2.05 -0.0070000002 0.65799999 0 0 0 0 0.018719999
2.029 -0.0070000002 0.64499998 0 0 0 0 0.01873
2.0420001 -0.0080000004 0.64200002 0 0 0 0 0.01874
2.039 -0.0080000004 0.634 0 0 0 0 0.018750001
2.0250001 -0.0089999996 0.62300003 0 0 0 0 0.018759999
2.0209999 -0.0099999998 0.61500001 0 0 0 0 0.01877
2.0339999 -0.0099999998 0.61199999 0 0 0 0 0.018780001
2.0369999 -0.011 0.60600001 0 0 0 0 0.018789999
2.0350001 -0.011 0.59899998 0 0 0 0 0.0188
2.017 -0.012 0.58600003 0 0 0 0 0.01881
2.0020001 -0.012 0.57599998 0 0 0 0 0.018820001
2.0039999 -0.013 0.56900001 0 0 0 0 0.018829999
2.0109999 -0.013 0.56400001 0 0 0 0 0.01884
2.0239999 -0.014 0.56099999 0 0 0 0 0.018850001
2.026 -0.014 0.55500001 0 0 0 0 0.018859999
2.0190001 -0.014 0.546 0 0 0 0 0.01887
2.0420001 -0.015 0.546 0 0 0 0 0.01888
2.053 -0.015 0.542 0 0 0 0 0.018890001
2.04 -0.016000001 0.53200001 0 0 0 0 0.0189
2.056 -0.016000001 0.52899998 0 0 0 0 0.01891
2.0420001 -0.016000001 0.51800001 0 0 0 0 0.018920001
2.03 -0.017000001 0.509 0 0 0 0 0.018929999
2.0450001 -0.017000001 0.505 0 0 0 0 0.01894
2.0409999 -0.017000001 0.498 0 0 0 0 0.01895
2.0339999 -0.017999999 0.48899999 0 0 0 0 0.018959999
2.0439999 -0.017999999 0.48500001 0 0 0 0 0.01897
2.016 -0.017999999 0.47099999 0 0 0 0 0.01898
2.02 -0.017999999 0.46599999 0 0 0 0 0.018990001
2.0150001 -0.017999999 0.458 0 0 0 0 0.018999999
2.023 -0.017999999 0.45300001 0 0 0 0 0.01901
2.0309999 -0.018999999 0.44800001 1 0 0 0 0.01902
2.033 -0.018999999 0.442 2 0 0 0 0.019029999
2.0320001 -0.018999999 0.435 6 0 0 0 0.01904
2.0339999 -0.018999999 0.428 6 0 0 0 0.01905
2.0309999 -0.018999999 0.421 2 0 0 0 0.019060001
2.0350001 -0.018999999 0.41499999 1 0 0 0 0.019069999
2.0280001 -0.018999999 0.40700001 1 0 0 0 0.01908
2.013 -0.018999999 0.39700001 0 0 0 0 0.019090001
2.027 -0.02 0.39300001 0 0 0 0 0.019099999
2.0179999 -0.018999999 0.38499999 0 0 0 0 0.01911
2.0150001 -0.018999999 0.37799999 0 0 0 0 0.01912
2.0239999 -0.02 0.373 0 0 0 0 0.019130001
2.027 -0.02 0.36700001 0 0 0 0 0.01914
2.0120001 -0.018999999 0.35699999 0 0 0 0 0.01915
2.013 -0.018999999 0.35100001 0 0 0 0 0.019160001
2.0050001 -0.018999999 0.34299999 0 0 0 0 0.019169999
2.02 -0.018999999 0.33899999 0 0 0 0 0.01918
2.01 -0.018999999 0.33000001 0 0 0 0 0.01919
2.0250001 -0.018999999 0.32600001 0 0 0 0 0.019200001
2.026 -0.018999999 0.31999999 0 0 0 0 0.01921
1.9859999 -0.018999999 0.30700001 0 0 0 0 0.01922
1.995 -0.018999999 0.30199999 0 0 0 0 0.019230001
1.988 -0.017999999 0.294 0 0 0 0 0.019239999
1.989 -0.017999999 0.28799999 0 0 0 0 0.01925
2.0309999 -0.018999999 0.287 0 0 0 0 0.01926
2.0179999 -0.017999999 0.27900001 0 0 0 0 0.019269999
2.016 -0.017999999 0.27200001 0 0 0 0 0.01928
2.026 -0.017999999 0.266 0 0 0 0 0.01929
2.027 -0.017999999 0.25999999 0 0 0 0 0.019300001
2.02 -0.017000001 0.252 0 0 0 0 0.019309999
2.016 -0.017000001 0.245 0 0 0 0 0.01932
2.006 -0.017000001 0.23800001 0 0 0 0 0.019330001
2.01 -0.017000001 0.23199999 0 0 0 0 0.019339999
2.0090001 -0.016000001 0.22499999 0 0 0 0 0.01935
2.1559999 -0.017000001 0.234 0 0 0 0 0.01936
2.1289999 -0.017000001 0.22400001 0 0 0 0 0.019370001
2.2119999 -0.017000001 0.226 1 0 0 0 0.019379999
2.2279999 -0.017000001 0.22 20 0 0 0 0.01939
2.227 -0.016000001 0.213 61 0 0 0 0.019400001
2.2249999 -0.016000001 0.206 64 0 0 0 0.019409999
2.2260001 -0.016000001 0.198 65 0 0 0 0.01942
2.2260001 -0.015 0.191 59 0 0 0 0.01943
2.23 -0.015 0.184 65 0 0 0 0.019440001
2.23 -0.014 0.177 60 0 0 0 0.01945
2.2309999 -0.014 0.17 61 0 0 0 0.01946
2.2320001 -0.014 0.163 60 0 0 0 0.019470001
2.2320001 -0.013 0.155 62 0 0 0 0.019479999
2.233 -0.013 0.148 62 0 0 0 0.01949
2.233 -0.012 0.141 61 0 0 0 0.0195
2.2360001 -0.012 0.134 58 0 0 0 0.019509999
2.237 -0.011 0.127 57 0 0 0 0.01952
2.2390001 -0.011 0.12 65 0 0 0 0.01953
2.24 -0.0099999998 0.112 61 0 0 0 0.019540001
2.24 -0.0089999996 0.105 65 0 0 0 0.019549999
2.2409999 -0.0089999996 0.097999997 62 0 0 0 0.01956
2.2479999 -0.0080000004 0.090999998 63 0 0 0 0.01957
2.243 -0.0080000004 0.083999999 61 0 0 0 0.019579999
2.243 -0.0070000002 0.075999998 60 0 0 0 0.01959
2.2479999 -0.0060000001 0.068999998 62 0 0 0 0.0196
2.2490001 -0.0060000001 0.061999999 59 0 0 0 0.019610001
2.277 -0.0049999999 0.056000002 69 0 0 0 0.019619999
2.348 -0.0049999999 0.050000001 54 0 0 0 0.01963
2.375 -0.0040000002 0.043000001 37 0 0 0 0.019640001
2.382 -0.003 0.035 40 0 0 0 0.019649999
2.3469999 -0.003 0.027000001 58 0 0 0 0.01966
2.214 -0.0020000001 0.017999999 75 0 0 0 0.01967
2.119 -0.001 0.011 19 0 0 0 0.019680001
1.601 0 0.003 0 0 0 0 0.01969
1.52 0 -0.001 0 0 0 0 0.0197
1.524 0 -0.0060000001 0 0 0 0 0.019710001
1.536 0.001 -0.011 0 0 0 0 0.019719999
1.539 0.001 -0.016000001 0 0 0 0 0.01973
1.535 0.0020000001 -0.021 0 0 0 0 0.01974
1.549 0.0020000001 -0.026000001 0 0 0 0 0.019750001
1.544 0.003 -0.030999999 0 0 0 0 0.01976
1.5599999 0.003 -0.035999998 0 0 0 0 0.01977
1.562 0.0040000002 -0.041000001 0 0 0 0 0.019780001
1.562 0.0049999999 -0.046999998 0 0 0 0 0.019789999
1.564 0.0049999999 -0.052000001 0 0 0 0 0.0198
1.649 0.0060000001 -0.059999999 0 0 0 0 0.01981
2.0139999 0.0080000004 -0.079999998 12 0 0 0 0.019819999
2.178 0.0099999998 -0.093000002 53 0 0 0 0.01983
2.313 0.012 -0.106 98 0 0 0 0.01984
2.3989999 0.013 -0.118 41 0 0 0 0.019850001
2.4100001 0.014 -0.126 32 0 0 0 0.019859999
2.415 0.015 -0.134 34 0 0 0 0.01987
2.4170001 0.016000001 -0.142 38 0 0 0 0.019880001
2.4230001 0.017000001 -0.15000001 41 0 0 0 0.019889999
2.4219999 0.017999999 -0.15800001 35 0 0 0 0.0199
2.402 0.018999999 -0.16500001 38 0 0 0 0.01991
2.4030001 0.02 -0.17200001 37 0 0 0 0.019920001
2.425 0.022 -0.182 38 0 0 0 0.019929999
2.431 0.023 -0.19 37 0 0 0 0.01994
2.401 0.024 -0.19599999 29 0 0 0 0.019950001
2.3050001 0.024 -0.19499999 12 0 0 0 0.019959999
2.0009999 0.022 -0.176 0 0 0 0 0.01997
2.01 0.023 -0.183 0 0 0 0 0.01998
2.007 0.024 -0.189 0 0 0 0 0.019990001
2.026 0.025 -0.197 0 0 0 0 0.02
2.1059999 0.027000001 -0.212 2 0 0 0 0.02001
2.0880001 0.028000001 -0.21699999 3 0 0 0 0.020020001
2.0280001 0.028000001 -0.21699999 2 0 0 0 0.020029999
1.967 0.028000001 -0.21699999 3 0 0 0 0.02004
1.916 0.028999999 -0.21799999 6 0 0 0 0.02005
1.893 0.028999999 -0.221 13 0 0 0 0.020059999
1.905 0.029999999 -0.228 14 0 0 0 0.02007
2.1989999 0.035999998 -0.271 150 0 0 0 0.02008
2.4260001 0.041999999 -0.30700001 78 0 0 0 0.020090001
2.467 0.044 -0.31999999 42 0 0 0 0.020099999
2.4719999 0.045000002 -0.329 46 0 0 0 0.02011
2.46 0.046 -0.33500001 16 0 0 0 0.02012
2.4189999 0.046999998 -0.33700001 11 0 0 0 0.020129999
2.3789999 0.048 -0.33899999 11 0 0 0 0.02014
2.348 0.048 -0.34200001 11 0 0 0 0.02015
2.3010001 0.048999999 -0.34299999 12 0 0 0 0.020160001
2.2639999 0.050000001 -0.345 12 0 0 0 0.020169999
2.2320001 0.050000001 -0.347 12 0 0 0 0.02018
2.2049999 0.050999999 -0.34999999 13 0 0 0 0.020190001
2.1760001 0.052000001 -0.352 13 0 0 0 0.020199999
2.1470001 0.052000001 -0.354 14 0 0 0 0.02021
2.1070001 0.052999999 -0.35499999 14 0 0 0 0.02022
2.0769999 0.052999999 -0.35600001 15 0 0 0 0.020230001
2.0039999 0.052999999 -0.34999999 13 0 0 0 0.02024
1.921 0.052000001 -0.34200001 17 0 0 0 0.02025
1.903 0.052999999 -0.345 48 0 0 0 0.020260001
1.902 0.054000001 -0.35100001 72 0 0 0 0.020269999
2.0280001 0.059 -0.38100001 150 0 0 0 0.02028
2.4230001 0.071999997 -0.463 31 0 0 0 0.02029
2.5650001 0.078000002 -0.498 11 0 0 0 0.020300001
2.563 0.079999998 -0.50599998 12 0 0 0 0.02031
2.539 0.081 -0.50999999 16 0 0 0 0.02032
2.529 0.082999997 -0.51599997 17 0 0 0 0.020330001
2.5179999 0.083999999 -0.52200001 18 0 0 0 0.020339999
2.5090001 0.086000003 -0.528 19 0 0 0 0.02035
2.507 0.086999997 -0.53600001 19 0 0 0 0.02036
2.506 0.089000002 -0.54400003 19 0 0 0 0.020369999
2.4909999 0.090999998 -0.54799998 20 0 0 0 0.02038
2.4419999 0.090999998 -0.54500002 24 0 0 0 0.02039
2.4319999 0.092 -0.551 24 0 0 0 0.020400001
2.4790001 0.096000001 -0.56999999 20 0 0 0 0.020409999
2.529 0.1 -0.58899999 17 0 0 0 0.02042
2.543 0.102 -0.60100001 97 0 0 0 0.02043
2.5320001 0.104 -0.60600001 150 0 0 0 0.020439999
2.4590001 0.103 -0.597 131 0 0 0 0.02045
2.398 0.102 -0.58999997 28 0 0 0 0.02046
2.381 0.104 -0.59399998 16 0 0 0 0.020470001
2.3110001 0.102 -0.583 13 0 0 0 0.020479999
2.3050001 0.104 -0.58999997 17 0 0 0 0.02049
2.2980001 0.106 -0.59500003 21 0 0 0 0.020500001
2.2980001 0.108 -0.60299999 22 0 0 0 0.020509999
2.2950001 0.11 -0.60900003 20 0 0 0 0.02052
2.29 0.111 -0.61500001 20 0 0 0 0.02053
2.2869999 0.113 -0.62199998 16 0 0 0 0.020540001
2.286 0.115 -0.62900001 14 0 0 0 0.02055
2.2609999 0.116 -0.63 19 0 0 0 0.02056
2.243 0.117 -0.63200003 22 0 0 0 0.020570001
2.221 0.118 -0.63300002 23 0 0 0 0.020579999
2.1949999 0.119 -0.63300002 23 0 0 0 0.02059
2.1719999 0.12 -0.63300002 23 0 0 0 0.0206
2.151 0.121 -0.634 23 0 0 0 0.020609999
2.128 0.121 -0.634 23 0 0 0 0.02062
2.1099999 0.122 -0.63599998 24 0 0 0 0.02063
2.086 0.123 -0.63499999 24 0 0 0 0.020640001
2.0639999 0.124 -0.63499999 25 0 0 0 0.020649999
2.046 0.125 -0.63599998 25 0 0 0 0.02066
2.0250001 0.126 -0.63599998 34 0 0 0 0.02067
2.0420001 0.12899999 -0.648 56 0 0 0 0.020679999
2.178 0.14 -0.69800001 115 0 0 0 0.02069
2.355 0.153 -0.76300001 30 0 0 0 0.0207
2.395 0.15800001 -0.78299999 23 0 0 0 0.020710001
2.368 0.15899999 -0.78200001 27 0 0 0 0.020719999
2.345 0.16 -0.78200001 32 0 0 0 0.02073
2.325 0.161 -0.78299999 29 0 0 0 0.020740001
2.3069999 0.163 -0.78399998 25 0 0 0 0.020749999
2.2809999 0.163 -0.78299999 26 0 0 0 0.02076
2.2650001 0.16500001 -0.78500003 25 0 0 0 0.02077
2.24 0.16500001 -0.78299999 24 0 0 0 0.020780001
2.223 0.16599999 -0.78399998 25 0 0 0 0.02079
2.198 0.167 -0.78299999 26 0 0 0 0.0208
2.187 0.169 -0.78600001 27 0 0 0 0.020810001
2.1630001 0.169 -0.78399998 25 0 0 0 0.020819999
2.1389999 0.17 -0.78200001 28 0 0 0 0.02083
2.122 0.171 -0.78299999 35 0 0 0 0.02084
2.1070001 0.17299999 -0.78399998 40 0 0 0 0.020850001
2.089 0.17399999 -0.78399998 45 0 0 0 0.02086
2.0710001 0.175 -0.78399998 37 0 0 0 0.02087
2.0569999 0.176 -0.78500003 38 0 0 0 0.020880001
2.0350001 0.177 -0.78299999 76 0 0 0 0.020889999
2.027 0.178 -0.78600001 150 0 0 0 0.0209
2.01 0.17900001 -0.78600001 137 0 0 0 0.02091
1.995 0.18099999 -0.787 89 0 0 0 0.020919999
1.98 0.182 -0.787 78 0 0 0 0.02093
1.9630001 0.183 -0.78600001 49 0 0 0 0.02094
1.951 0.184 -0.78799999 54 0 0 0 0.020950001
1.934 0.185 -0.787 57 0 0 0 0.020959999
1.925 0.18700001 -0.79000002 32 0 0 0 0.02097
1.9170001 0.189 -0.79299998 25 0 0 0 0.02098
1.901 0.19 -0.792 26 0 0 0 0.020989999
1.8890001 0.191 -0.79299998 23 0 0 0 0.021
1.8660001 0.191 -0.78899997 28 0 0 0 0.02101
1.853 0.192 -0.78899997 70 0 0 0 0.021020001
1.839 0.193 -0.78899997 92 0 0 0 0.021029999
1.831 0.19499999 -0.79100001 79 0 0 0 0.02104
1.822 0.197 -0.79299998 35 0 0 0 0.021050001
1.807 0.198 -0.792 25 0 0 0 0.021059999
1.79 0.198 -0.79000002 36 0 0 0 0.02107
1.777 0.2 -0.79000002 105 0 0 0 0.02108
1.7690001 0.20100001 -0.792 150 0 0 0 0.021090001
1.752 0.20200001 -0.78899997 150 0 0 0 0.0211
1.747 0.204 -0.792 150 0 0 0 0.02111
1.734 0.205 -0.792 150 0 0 0 0.021120001
1.721 0.206 -0.79100001 47 0 0 0 0.021129999
1.7130001 0.207 -0.792 24 0 0 0 0.02114
1.702 0.20900001 -0.79299998 57 0 0 0 0.02115
1.688 0.20999999 -0.79100001 11 0 0 0 0.021159999
1.6440001 0.207 -0.77499998 3 0 0 0 0.02117
1.638 0.208 -0.77700001 2 0 0 0 0.02118
1.625 0.20900001 -0.77600002 0 0 0 0 0.021190001
1.607 0.20900001 -0.77200001 0 0 0 0 0.021199999
1.599 0.211 -0.773 0 0 0 0 0.02121
1.605 0.214 -0.78100002 0 0 0 0 0.02122
1.613 0.21799999 -0.78899997 5 0 0 0 0.021229999
1.602 0.219 -0.78899997 20 0 0 0 0.02124
1.609 0.223 -0.79699999 14 0 0 0 0.02125
1.595 0.223 -0.79400003 19 0 0 0 0.021260001
