# .PCD v0.7 - Point Cloud Data file format
VERSION 0.7
FIELDS x y z intensity normal_x normal_y normal_z curvature
SIZE 4 4 4 4 4 4 4 4
TYPE F F F F F F F F
COUNT 1 1 1 1 1 1 1 1
WIDTH 1062
HEIGHT 1
VIEWPOINT 0 0 0 1 0 0 0
POINTS 1062
DATA ascii
1.094 0.51499999 0.48300001 150 0 0 0 0.0062799999
1.092 0.51499999 0.484 150 0 0 0 0.0062899999
1.092 0.51599997 0.48699999 150 0 0 0 0.0063
1.09 0.51599997 0.48899999 150 0 0 0 0.0063100001
1.09 0.51700002 0.491 150 0 0 0 0.0063200002
1.089 0.51700002 0.493 150 0 0 0 0.0063299998
1.089 0.51800001 0.49599999 150 0 0 0 0.0063399998
1.0880001 0.51800001 0.498 150 0 0 0 0.0063499999
1.087 0.51800001 0.5 150 0 0 0 0.00636
1.087 0.51899999 0.50300002 150 0 0 0 0.0063700001
1.086 0.51899999 0.505 150 0 0 0 0.0063800002
1.085 0.51899999 0.50700003 150 0 0 0 0.0063900002
1.085 0.51899999 0.509 150 0 0 0 0.0063999998
1.084 0.51899999 0.51099998 150 0 0 0 0.0064099999
1.091 0.52200001 0.51599997 150 0 0 0 0.00642
1.09 0.52200001 0.51800001 150 0 0 0 0.0064300001
1.091 0.523 0.52100003 150 0 0 0 0.0064400001
1.081 0.51899999 0.51800001 150 0 0 0 0.0064500002
1.0880001 0.52200001 0.52399999 150 0 0 0 0.0064599998
1.087 0.52200001 0.52600002 150 0 0 0 0.0064699999
1.089 0.523 0.52899998 150 0 0 0 0.00648
1.091 0.52399999 0.53200001 150 0 0 0 0.0064900001
1.0880001 0.52200001 0.53299999 150 0 0 0 0.0065000001
1.0880001 0.52200001 0.53500003 150 0 0 0 0.0065100002
1.087 0.52200001 0.53600001 150 0 0 0 0.0065199998
1.0880001 0.52200001 0.53899997 150 0 0 0 0.0065299999
1.09 0.523 0.54100001 150 0 0 0 0.00654
1.089 0.52200001 0.54299998 150 0 0 0 0.00655
1.087 0.52100003 0.54400003 150 0 0 0 0.0065600001
1.0880001 0.52100003 0.546 150 0 0 0 0.0065700002
1.09 0.52200001 0.54900002 150 0 0 0 0.0065799998
1.0930001 0.523 0.55199999 150 0 0 0 0.0065899999
1.0930001 0.52200001 0.55400002 150 0 0 0 0.0066
1.0880001 0.51999998 0.55400002 150 0 0 0 0.00661
1.091 0.52100003 0.55699998 150 0 0 0 0.0066200001
1.091 0.51999998 0.55800003 150 0 0 0 0.0066300002
1.091 0.51999998 0.56 150 0 0 0 0.0066399998
1.091 0.51899999 0.56199998 150 0 0 0 0.0066499999
1.091 0.51800001 0.56300002 150 0 0 0 0.00666
1.091 0.51800001 0.565 150 0 0 0 0.00667
1.091 0.51700002 0.56599998 150 0 0 0 0.0066800001
1.092 0.51599997 0.56800002 150 0 0 0 0.0066900002
1.092 0.51599997 0.56900001 150 0 0 0 0.0066999998
1.09 0.514 0.56999999 150 0 0 0 0.0067099999
1.0930001 0.514 0.57200003 150 0 0 0 0.0067199999
1.092 0.51300001 0.57300001 150 0 0 0 0.00673
1.0930001 0.51200002 0.57499999 150 0 0 0 0.0067400001
1.0930001 0.51099998 0.57599998 150 0 0 0 0.0067500002
1.0930001 0.50999999 0.57700002 150 0 0 0 0.0067599998
1.095 0.50999999 0.579 150 0 0 0 0.0067699999
1.0930001 0.50800002 0.579 150 0 0 0 0.0067799999
1.097 0.50800002 0.58200002 150 0 0 0 0.00679
1.101 0.509 0.58499998 8 0 0 0 0.0068000001
1.097 0.50599998 0.58399999 150 0 0 0 0.0068100002
1.099 0.505 0.58600003 150 0 0 0 0.0068199998
1.103 0.505 0.58899999 150 0 0 0 0.0068299999
1.1 0.50300002 0.588 150 0 0 0 0.0068399999
1.105 0.50300002 0.59100002 150 0 0 0 0.00685
1.105 0.50199997 0.59200001 150 0 0 0 0.0068600001
1.102 0.49900001 0.59100002 150 0 0 0 0.0068700002
1.105 0.49900001 0.59299999 150 0 0 0 0.0068799998
1.1059999 0.498 0.59399998 150 0 0 0 0.0068899998
1.104 0.495 0.59399998 150 0 0 0 0.0068999999
1.109 0.49599999 0.59600002 150 0 0 0 0.00691
1.1109999 0.495 0.59799999 150 0 0 0 0.0069200001
1.11 0.493 0.59799999 150 0 0 0 0.0069300001
1.11 0.491 0.59799999 150 0 0 0 0.0069400002
1.1109999 0.48899999 0.59799999 150 0 0 0 0.0069499998
1.1109999 0.48800001 0.59899998 150 0 0 0 0.0069599999
1.112 0.486 0.59899998 150 0 0 0 0.00697
1.112 0.484 0.60000002 150 0 0 0 0.0069800001
1.1109999 0.48199999 0.59899998 150 0 0 0 0.0069900001
1.113 0.48100001 0.60000002 150 0 0 0 0.0070000002
1.112 0.47799999 0.60000002 150 0 0 0 0.0070099998
1.1160001 0.47799999 0.602 150 0 0 0 0.0070199999
1.115 0.47600001 0.60100001 150 0 0 0 0.00703
1.114 0.47299999 0.60000002 150 0 0 0 0.0070400001
1.115 0.47099999 0.60000002 150 0 0 0 0.0070500001
1.119 0.47099999 0.602 150 0 0 0 0.0070600002
1.12 0.46900001 0.602 150 0 0 0 0.0070699998
1.119 0.46599999 0.60100001 150 0 0 0 0.0070799999
1.122 0.465 0.602 150 0 0 0 0.00709
1.125 0.46399999 0.60299999 150 0 0 0 0.0071
1.126 0.46200001 0.60299999 150 0 0 0 0.0071100001
1.126 0.46000001 0.60299999 150 0 0 0 0.0071200002
1.128 0.458 0.60299999 150 0 0 0 0.0071299998
1.128 0.456 0.60299999 150 0 0 0 0.0071399999
1.127 0.45300001 0.60100001 150 0 0 0 0.00715
1.128 0.45100001 0.60100001 150 0 0 0 0.00716
1.13 0.449 0.60100001 150 0 0 0 0.0071700001
1.131 0.447 0.60000002 150 0 0 0 0.0071800002
1.132 0.44499999 0.60000002 150 0 0 0 0.0071899998
1.1339999 0.44400001 0.60000002 150 0 0 0 0.0071999999
1.135 0.44100001 0.60000002 150 0 0 0 0.00721
1.135 0.43900001 0.59899998 150 0 0 0 0.00722
1.1339999 0.43599999 0.597 150 0 0 0 0.0072300001
1.136 0.43399999 0.597 150 0 0 0 0.0072400002
1.1390001 0.433 0.597 150 0 0 0 0.0072499998
1.1390001 0.43000001 0.59600002 150 0 0 0 0.0072599999
1.14 0.428 0.59500003 150 0 0 0 0.0072699999
1.141 0.426 0.59399998 150 0 0 0 0.00728
1.141 0.42300001 0.59299999 150 0 0 0 0.0072900001
1.143 0.421 0.59200001 150 0 0 0 0.0073000002
1.1440001 0.419 0.59200001 150 0 0 0 0.0073099998
1.146 0.417 0.59100002 150 0 0 0 0.0073199999
1.147 0.41499999 0.58999997 150 0 0 0 0.0073299999
1.153 0.414 0.59200001 150 0 0 0 0.00734
1.15 0.41 0.588 150 0 0 0 0.0073500001
1.151 0.40799999 0.58700001 150 0 0 0 0.0073600002
1.152 0.40599999 0.58600003 150 0 0 0 0.0073699998
1.153 0.403 0.58499998 150 0 0 0 0.0073799998
1.154 0.40099999 0.58399999 150 0 0 0 0.0073899999
1.153 0.398 0.58099997 150 0 0 0 0.0074
1.156 0.396 0.58099997 150 0 0 0 0.0074100001
1.158 0.39399999 0.57999998 150 0 0 0 0.0074200002
1.163 0.39300001 0.58099997 150 0 0 0 0.0074300002
1.1619999 0.389 0.57800001 150 0 0 0 0.0074399998
1.163 0.38699999 0.57700002 150 0 0 0 0.0074499999
1.164 0.38499999 0.57499999 150 0 0 0 0.00746
1.165 0.382 0.574 150 0 0 0 0.0074700001
1.165 0.37900001 0.57200003 150 0 0 0 0.0074800001
1.1670001 0.377 0.56999999 150 0 0 0 0.0074900002
1.168 0.375 0.56900001 150 0 0 0 0.0074999998
1.17 0.37200001 0.56699997 150 0 0 0 0.0075099999
1.169 0.36899999 0.565 150 0 0 0 0.00752
1.173 0.368 0.56400001 150 0 0 0 0.0075300001
1.1720001 0.36500001 0.56199998 150 0 0 0 0.0075400001
1.176 0.36300001 0.56099999 150 0 0 0 0.0075500002
1.177 0.36000001 0.56 150 0 0 0 0.0075599998
1.173 0.35600001 0.55500001 150 0 0 0 0.0075699999
1.178 0.35499999 0.55500001 150 0 0 0 0.00758
1.174 0.35100001 0.551 150 0 0 0 0.0075900001
1.153 0.34200001 0.53899997 150 0 0 0 0.0076000001
1.178 0.34599999 0.54799998 150 0 0 0 0.0076100002
1.181 0.34400001 0.54699999 150 0 0 0 0.0076199998
1.186 0.34299999 0.546 150 0 0 0 0.0076299999
1.1569999 0.33199999 0.52999997 150 0 0 0 0.00764
1.182 0.336 0.53899997 150 0 0 0 0.00765
1.163 0.32800001 0.528 150 0 0 0 0.0076600001
1.1569999 0.324 0.523 150 0 0 0 0.0076700002
1.188 0.329 0.53399998 150 0 0 0 0.0076799998
1.16 0.31900001 0.51899999 150 0 0 0 0.0076899999
1.1900001 0.324 0.52999997 150 0 0 0 0.0077
1.191 0.322 0.528 150 0 0 0 0.00771
1.194 0.31999999 0.52600002 150 0 0 0 0.0077200001
1.196 0.31799999 0.52399999 150 0 0 0 0.0077300002
1.197 0.315 0.52200001 150 0 0 0 0.0077399998
1.198 0.31299999 0.51899999 150 0 0 0 0.0077499999
1.197 0.31 0.51599997 150 0 0 0 0.0077599999
1.201 0.308 0.51499999 150 0 0 0 0.00777
1.201 0.30500001 0.51200002 150 0 0 0 0.0077800001
1.202 0.303 0.509 150 0 0 0 0.0077900002
1.204 0.30000001 0.50700003 150 0 0 0 0.0077999998
1.2029999 0.29699999 0.50400001 150 0 0 0 0.0078099999
1.207 0.29499999 0.50300002 150 0 0 0 0.0078199999
1.2079999 0.29300001 0.5 150 0 0 0 0.0078299996
1.21 0.29100001 0.498 150 0 0 0 0.0078400001
1.2130001 0.289 0.49599999 150 0 0 0 0.0078499997
1.211 0.28600001 0.49200001 150 0 0 0 0.0078600002
1.2130001 0.28299999 0.49000001 150 0 0 0 0.0078699999
1.216 0.28099999 0.48800001 150 0 0 0 0.0078800004
1.216 0.27900001 0.48500001 150 0 0 0 0.00789
1.219 0.27700001 0.48300001 150 0 0 0 0.0078999996
1.223 0.27500001 0.48100001 150 0 0 0 0.0079100002
1.222 0.27200001 0.47799999 150 0 0 0 0.0079199998
1.222 0.26899999 0.47499999 150 0 0 0 0.0079300003
1.225 0.26699999 0.47299999 150 0 0 0 0.0079399999
1.225 0.264 0.47 150 0 0 0 0.0079500005
1.228 0.26199999 0.46799999 150 0 0 0 0.0079600001
1.228 0.25999999 0.46399999 150 0 0 0 0.0079699997
1.229 0.257 0.46200001 150 0 0 0 0.0079800002
1.233 0.255 0.46000001 150 0 0 0 0.0079899998
1.234 0.25299999 0.45699999 150 0 0 0 0.0080000004
1.235 0.25099999 0.454 150 0 0 0 0.00801
1.237 0.248 0.45100001 150 0 0 0 0.0080199996
1.2359999 0.24600001 0.447 150 0 0 0 0.0080300001
1.239 0.244 0.44499999 150 0 0 0 0.0080399998
1.237 0.241 0.44100001 150 0 0 0 0.0080500003
1.24 0.23899999 0.43900001 150 0 0 0 0.0080599999
1.24 0.236 0.435 150 0 0 0 0.0080700004
1.245 0.235 0.43399999 150 0 0 0 0.0080800001
1.247 0.23199999 0.43099999 150 0 0 0 0.0080899997
1.248 0.23 0.428 150 0 0 0 0.0081000002
1.248 0.227 0.42500001 150 0 0 0 0.0081099998
1.251 0.22499999 0.42199999 150 0 0 0 0.0081200004
1.25 0.223 0.419 150 0 0 0 0.00813
1.252 0.221 0.41600001 150 0 0 0 0.0081399996
1.253 0.21799999 0.41299999 150 0 0 0 0.0081500001
1.255 0.21600001 0.41 150 0 0 0 0.0081599997
1.262 0.215 0.40799999 150 0 0 0 0.0081700003
1.271 0.214 0.40799999 55 0 0 0 0.0081799999
1.242 0.207 0.39500001 4 0 0 0 0.0081900004
1.177 0.193 0.37099999 1 0 0 0 0.0082
1.173 0.19 0.366 1 0 0 0 0.0082099997
1.175 0.18799999 0.36399999 1 0 0 0 0.0082200002
1.175 0.186 0.361 1 0 0 0 0.0082299998
1.1799999 0.185 0.359 1 0 0 0 0.0082400003
1.178 0.182 0.35499999 1 0 0 0 0.00825
1.17 0.17900001 0.34900001 1 0 0 0 0.0082599996
1.1799999 0.178 0.34900001 1 0 0 0 0.0082700001
1.1849999 0.177 0.347 1 0 0 0 0.0082799997
1.171 0.17200001 0.33899999 1 0 0 0 0.0082900003
1.1799999 0.171 0.33899999 1 0 0 0 0.0082999999
1.168 0.167 0.33199999 1 0 0 0 0.0083100004
1.186 0.168 0.33399999 1 0 0 0 0.00832
1.187 0.16599999 0.331 1 0 0 0 0.0083299996
1.1799999 0.163 0.32499999 1 0 0 0 0.0083400002
1.1720001 0.16 0.31999999 1 0 0 0 0.0083499998
1.1900001 0.16 0.32100001 1 0 0 0 0.0083600003
1.2309999 0.163 0.329 1 0 0 0 0.0083699999
1.238 0.162 0.32699999 4 0 0 0 0.0083799995
1.227 0.15800001 0.32100001 5 0 0 0 0.0083900001
1.1900001 0.15099999 0.308 3 0 0 0 0.0083999997
1.178 0.148 0.301 3 0 0 0 0.0084100002
1.189 0.147 0.301 3 0 0 0 0.0084199999
1.186 0.145 0.296 3 0 0 0 0.0084300004
1.178 0.142 0.29100001 2 0 0 0 0.00844
1.171 0.139 0.28600001 1 0 0 0 0.0084499996
1.174 0.13699999 0.28299999 1 0 0 0 0.0084600002
1.184 0.13600001 0.28200001 1 0 0 0 0.0084699998
1.187 0.134 0.27900001 1 0 0 0 0.0084800003
1.182 0.132 0.27500001 1 0 0 0 0.0084899999
1.178 0.12899999 0.27000001 1 0 0 0 0.0085000005
1.177 0.127 0.26699999 1 0 0 0 0.0085100001
1.176 0.125 0.26300001 1 0 0 0 0.0085199997
1.1799999 0.124 0.26100001 0 0 0 0 0.0085300002
1.177 0.121 0.257 0 0 0 0 0.0085399998
1.177 0.12 0.25299999 0 0 0 0 0.0085500004
1.181 0.118 0.25099999 0 0 0 0 0.00856
1.166 0.115 0.244 0 0 0 0 0.0085699996
1.179 0.114 0.243 0 0 0 0 0.0085800001
1.165 0.111 0.237 0 0 0 0 0.0085899998
1.17 0.109 0.235 0 0 0 0 0.0086000003
1.187 0.109 0.235 0 0 0 0 0.0086099999
1.309 0.118 0.255 3 0 0 0 0.0086200004
1.311 0.116 0.252 9 0 0 0 0.0086300001
1.313 0.114 0.248 68 0 0 0 0.0086399997
1.302 0.111 0.242 72 0 0 0 0.0086500002
1.295 0.109 0.237 16 0 0 0 0.0086599998
1.211 0.1 0.21799999 1 0 0 0 0.0086700004
1.177 0.094999999 0.20900001 1 0 0 0 0.00868
1.146 0.090999998 0.2 1 0 0 0 0.0086899996
1.156 0.090000004 0.198 2 0 0 0 0.0087000001
1.143 0.086999997 0.193 4 0 0 0 0.0087099997
1.15 0.086000003 0.19 1 0 0 0 0.0087200003
1.165 0.085000001 0.189 1 0 0 0 0.0087299999
1.2 0.086000003 0.192 1 0 0 0 0.0087400004
1.316 0.092 0.206 4 0 0 0 0.00875
1.318 0.090999998 0.20299999 18 0 0 0 0.0087599996
1.326 0.089000002 0.2 76 0 0 0 0.0087700002
1.3200001 0.086999997 0.19499999 147 0 0 0 0.0087799998
1.324 0.085000001 0.192 74 0 0 0 0.0087900003
1.313 0.082000002 0.186 30 0 0 0 0.0088
1.319 0.081 0.184 4 0 0 0 0.0088099996
1.192 0.071000002 0.162 1 0 0 0 0.0088200001
1.1720001 0.068000004 0.156 1 0 0 0 0.0088299997
1.159 0.066 0.15099999 0 0 0 0 0.0088400003
1.154 0.064000003 0.147 0 0 0 0 0.0088499999
1.16 0.063000001 0.14399999 0 0 0 0 0.0088600004
1.154 0.061000001 0.14 0 0 0 0 0.00887
1.161 0.059 0.13699999 0 0 0 0 0.0088799996
1.161 0.057999998 0.134 0 0 0 0 0.0088900002
1.155 0.056000002 0.13 0 0 0 0 0.0088999998
1.1619999 0.055 0.127 0 0 0 0 0.0089100003
1.2 0.055 0.12800001 0 0 0 0 0.0089199999
1.332 0.059 0.138 3 0 0 0 0.0089299995
1.349 0.057999998 0.13600001 10 0 0 0 0.0089400001
1.344 0.056000002 0.131 60 0 0 0 0.0089499997
1.341 0.054000001 0.127 129 0 0 0 0.0089600002
1.341 0.052000001 0.123 123 0 0 0 0.0089699998
1.345 0.050000001 0.12 102 0 0 0 0.0089800004
1.353 0.048999999 0.116 100 0 0 0 0.00899
1.348 0.046999998 0.112 116 0 0 0 0.0089999996
1.348 0.045000002 0.108 94 0 0 0 0.0090100002
1.354 0.043000001 0.104 101 0 0 0 0.0090199998
1.353 0.041999999 0.1 100 0 0 0 0.0090300003
1.349 0.039999999 0.096000001 97 0 0 0 0.0090399999
1.355 0.037999999 0.092 101 0 0 0 0.0090500005
1.355 0.035999998 0.088 97 0 0 0 0.0090600001
1.355 0.035 0.083999999 98 0 0 0 0.0090699997
1.358 0.033 0.079999998 90 0 0 0 0.0090800002
1.3559999 0.030999999 0.075999998 86 0 0 0 0.0090899998
1.355 0.028999999 0.071999997 89 0 0 0 0.0091000004
1.359 0.028000001 0.068000004 80 0 0 0 0.00911
1.359 0.026000001 0.064000003 86 0 0 0 0.0091199996
1.36 0.024 0.059999999 81 0 0 0 0.0091300001
1.36 0.022 0.056000002 77 0 0 0 0.0091399997
1.36 0.021 0.052000001 87 0 0 0 0.0091500003
1.36 0.018999999 0.048 85 0 0 0 0.0091599999
1.3609999 0.017000001 0.044 96 0 0 0 0.0091700004
1.34 0.015 0.039000001 150 0 0 0 0.0091800001
1.36 0.014 0.035999998 88 0 0 0 0.0091899997
1.3609999 0.012 0.032000002 83 0 0 0 0.0092000002
1.34 0.0099999998 0.027000001 150 0 0 0 0.0092099998
1.34 0.0089999996 0.023 150 0 0 0 0.0092200004
1.348 0.0070000002 0.018999999 150 0 0 0 0.00923
1.34 0.0060000001 0.015 150 0 0 0 0.0092399996
1.363 0.0040000002 0.011 85 0 0 0 0.0092500001
1.364 0.0020000001 0.0070000002 80 0 0 0 0.0092599997
1.364 0.001 0.003 87 0 0 0 0.0092700003
1.348 0 0 150 0 0 0 0.0092799999
1.351 -0.001 -0.0040000002 150 0 0 0 0.0092900004
1.351 -0.003 -0.0080000004 150 0 0 0 0.0093
1.351 -0.0049999999 -0.012 150 0 0 0 0.0093099996
1.378 -0.0060000001 -0.016000001 76 0 0 0 0.0093200002
1.378 -0.0080000004 -0.021 75 0 0 0 0.0093299998
1.376 -0.0099999998 -0.025 72 0 0 0 0.0093400003
1.378 -0.011 -0.028999999 79 0 0 0 0.0093499999
1.378 -0.013 -0.033 73 0 0 0 0.0093599996
1.38 -0.014 -0.037 70 0 0 0 0.0093700001
1.383 -0.016000001 -0.041999999 72 0 0 0 0.0093799997
1.3839999 -0.017999999 -0.046 75 0 0 0 0.0093900003
1.383 -0.018999999 -0.050000001 79 0 0 0 0.0093999999
1.386 -0.021 -0.054000001 74 0 0 0 0.0094100004
1.383 -0.022 -0.057999998 73 0 0 0 0.00942
1.385 -0.024 -0.063000001 66 0 0 0 0.0094299996
1.391 -0.025 -0.067000002 71 0 0 0 0.0094400002
1.39 -0.027000001 -0.071000002 70 0 0 0 0.0094499998
1.39 -0.028000001 -0.075999998 84 0 0 0 0.0094600003
1.391 -0.029999999 -0.079999998 83 0 0 0 0.0094699999
1.3940001 -0.032000002 -0.083999999 70 0 0 0 0.0094799995
1.39 -0.033 -0.088 81 0 0 0 0.0094900001
1.399 -0.035 -0.093000002 79 0 0 0 0.0094999997
1.4 -0.035999998 -0.097999997 97 0 0 0 0.0095100002
1.399 -0.037999999 -0.102 89 0 0 0 0.0095199998
1.398 -0.039000001 -0.106 81 0 0 0 0.0095300004
1.4 -0.041000001 -0.111 57 0 0 0 0.00954
1.386 -0.041999999 -0.114 27 0 0 0 0.0095499996
1.382 -0.043000001 -0.118 12 0 0 0 0.0095600002
1.3329999 -0.043000001 -0.118 3 0 0 0 0.0095699998
1.275 -0.041999999 -0.116 1 0 0 0 0.0095800003
1.234 -0.041999999 -0.117 1 0 0 0 0.0095899999
1.21 -0.043000001 -0.118 1 0 0 0 0.0096000005
1.168 -0.041999999 -0.117 1 0 0 0 0.0096100001
1.146 -0.043000001 -0.119 3 0 0 0 0.0096199997
1.147 -0.044 -0.122 3 0 0 0 0.0096300002
1.155 -0.045000002 -0.127 4 0 0 0 0.0096399998
1.149 -0.046 -0.13 5 0 0 0 0.0096500004
1.15 -0.048 -0.133 5 0 0 0 0.00966
1.1440001 -0.048 -0.13600001 5 0 0 0 0.0096699996
1.141 -0.048999999 -0.14 4 0 0 0 0.0096800001
1.136 -0.050000001 -0.14300001 5 0 0 0 0.0096899997
1.132 -0.050999999 -0.145 5 0 0 0 0.0097000003
1.138 -0.052999999 -0.15000001 5 0 0 0 0.0097099999
1.13 -0.052999999 -0.152 5 0 0 0 0.0097200004
1.13 -0.054000001 -0.156 3 0 0 0 0.00973
1.137 -0.056000002 -0.16 3 0 0 0 0.0097399997
1.13 -0.057 -0.163 3 0 0 0 0.0097500002
1.128 -0.057999998 -0.16599999 3 0 0 0 0.0097599998
1.1210001 -0.057999998 -0.169 3 0 0 0 0.0097700004
1.132 -0.059999999 -0.17399999 3 0 0 0 0.00978
1.12 -0.059999999 -0.176 3 0 0 0 0.0097899996
1.125 -0.061999999 -0.18000001 3 0 0 0 0.0098000001
1.12 -0.061999999 -0.183 3 0 0 0 0.0098099997
1.119 -0.063000001 -0.186 3 0 0 0 0.0098200003
1.118 -0.064000003 -0.189 3 0 0 0 0.0098299999
1.117 -0.064999998 -0.193 3 0 0 0 0.0098400004
1.117 -0.066 -0.19599999 3 0 0 0 0.00985
1.1160001 -0.067000002 -0.2 3 0 0 0 0.0098599996
1.115 -0.068000004 -0.20299999 3 0 0 0 0.0098700002
1.114 -0.068999998 -0.207 3 0 0 0 0.0098799998
1.112 -0.07 -0.20999999 3 0 0 0 0.0098900003
1.1059999 -0.07 -0.212 3 0 0 0 0.0098999999
1.108 -0.071000002 -0.21600001 3 0 0 0 0.0099099996
1.109 -0.071999997 -0.22 3 0 0 0 0.0099200001
1.1109999 -0.072999999 -0.22400001 3 0 0 0 0.0099299997
1.108 -0.074000001 -0.227 3 0 0 0 0.0099400003
1.104 -0.075000003 -0.23 3 0 0 0 0.0099499999
1.102 -0.075999998 -0.233 3 0 0 0 0.0099600004
1.101 -0.075999998 -0.236 3 0 0 0 0.00997
1.101 -0.077 -0.23999999 3 0 0 0 0.0099799996
1.0930001 -0.078000002 -0.241 3 0 0 0 0.0099900002
1.0880001 -0.078000002 -0.244 1 0 0 0 0.0099999998
1.068 -0.078000002 -0.243 0 0 0 0 0.01001
1.05 -0.077 -0.242 0 0 0 0 0.01002
1.0599999 -0.079000004 -0.248 0 0 0 0 0.01003
1.063 -0.079999998 -0.252 0 0 0 0 0.01004
1.023 -0.077 -0.24600001 0 0 0 0 0.01005
1.041 -0.079999998 -0.25400001 0 0 0 0 0.01006
1.048 -0.081 -0.259 0 0 0 0 0.01007
1.0599999 -0.082999997 -0.26499999 1 0 0 0 0.01008
1.085 -0.085000001 -0.27500001 3 0 0 0 0.01009
1.085 -0.086000003 -0.278 3 0 0 0 0.0101
1.08 -0.086999997 -0.28099999 3 0 0 0 0.01011
1.0779999 -0.086999997 -0.28400001 3 0 0 0 0.01012
1.077 -0.088 -0.287 3 0 0 0 0.01013
1.0829999 -0.089000002 -0.292 3 0 0 0 0.01014
1.073 -0.089000002 -0.29300001 3 0 0 0 0.01015
1.079 -0.090000004 -0.29800001 3 0 0 0 0.01016
1.075 -0.090999998 -0.301 3 0 0 0 0.01017
1.073 -0.090999998 -0.30399999 3 0 0 0 0.01018
1.077 -0.092 -0.308 4 0 0 0 0.01019
1.071 -0.092 -0.31 3 0 0 0 0.0102
1.075 -0.093000002 -0.315 4 0 0 0 0.01021
1.077 -0.093999997 -0.31900001 4 0 0 0 0.01022
1.072 -0.093999997 -0.32100001 4 0 0 0 0.01023
1.072 -0.094999999 -0.32499999 4 0 0 0 0.01024
1.073 -0.096000001 -0.329 4 0 0 0 0.01025
1.073 -0.096000001 -0.33199999 4 0 0 0 0.01026
1.071 -0.097000003 -0.33500001 4 0 0 0 0.01027
1.064 -0.097000003 -0.33700001 4 0 0 0 0.01028
1.064 -0.097000003 -0.34 4 0 0 0 0.01029
1.064 -0.097999997 -0.34400001 4 0 0 0 0.0103
1.064 -0.098999999 -0.347 4 0 0 0 0.01031
1.061 -0.098999999 -0.34999999 4 0 0 0 0.01032
1.059 -0.098999999 -0.35299999 4 0 0 0 0.01033
1.062 -0.1 -0.35800001 5 0 0 0 0.01034
1.061 -0.1 -0.361 5 0 0 0 0.01035
1.063 -0.101 -0.36500001 5 0 0 0 0.01036
1.058 -0.101 -0.36700001 5 0 0 0 0.01037
1.057 -0.102 -0.37 5 0 0 0 0.01038
1.059 -0.102 -0.37400001 5 0 0 0 0.01039
1.0549999 -0.102 -0.37599999 5 0 0 0 0.0104
1.056 -0.103 -0.38 5 0 0 0 0.01041
1.0549999 -0.103 -0.384 5 0 0 0 0.01042
1.056 -0.104 -0.38699999 5 0 0 0 0.01043
1.057 -0.104 -0.39199999 5 0 0 0 0.01044
1.056 -0.105 -0.39500001 5 0 0 0 0.01045
1.056 -0.105 -0.398 6 0 0 0 0.01046
1.053 -0.105 -0.40099999 6 0 0 0 0.01047
1.052 -0.105 -0.40400001 6 0 0 0 0.01048
1.054 -0.106 -0.40799999 6 0 0 0 0.01049
1.054 -0.106 -0.412 7 0 0 0 0.0105
1.051 -0.107 -0.414 7 0 0 0 0.01051
1.0549999 -0.107 -0.419 7 0 0 0 0.01052
1.053 -0.107 -0.42199999 7 0 0 0 0.01053
1.052 -0.108 -0.42500001 7 0 0 0 0.01054
1.051 -0.108 -0.42899999 7 0 0 0 0.01055
1.049 -0.108 -0.43099999 7 0 0 0 0.01056
1.048 -0.108 -0.43399999 7 0 0 0 0.01057
1.046 -0.108 -0.43700001 7 0 0 0 0.01058
1.044 -0.108 -0.44 8 0 0 0 0.01059
1.051 -0.109 -0.44600001 8 0 0 0 0.0106
1.048 -0.109 -0.449 8 0 0 0 0.01061
1.05 -0.109 -0.45300001 8 0 0 0 0.01062
1.0470001 -0.109 -0.456 8 0 0 0 0.01063
1.049 -0.11 -0.46000001 8 0 0 0 0.01064
1.048 -0.11 -0.463 8 0 0 0 0.01065
1.0470001 -0.11 -0.46599999 9 0 0 0 0.01066
1.05 -0.11 -0.47099999 9 0 0 0 0.01067
1.0470001 -0.11 -0.47299999 9 0 0 0 0.01068
1.048 -0.11 -0.477 9 0 0 0 0.01069
1.049 -0.11 -0.48100001 9 0 0 0 0.0107
1.048 -0.111 -0.484 10 0 0 0 0.01071
1.0470001 -0.11 -0.48699999 9 0 0 0 0.01072
1.046 -0.11 -0.49000001 9 0 0 0 0.01073
1.05 -0.111 -0.49599999 10 0 0 0 0.01074
1.048 -0.111 -0.498 10 0 0 0 0.01075
1.0470001 -0.111 -0.50099999 10 0 0 0 0.01076
1.048 -0.111 -0.50599998 10 0 0 0 0.01077
1.049 -0.111 -0.509 10 0 0 0 0.01078
1.053 -0.111 -0.51499999 12 0 0 0 0.01079
1.05 -0.111 -0.51700002 11 0 0 0 0.0108
1.048 -0.11 -0.51999998 13 0 0 0 0.01081
1.052 -0.111 -0.52499998 11 0 0 0 0.01082
1.049 -0.11 -0.52700001 10 0 0 0 0.01083
1.048 -0.11 -0.52999997 12 0 0 0 0.01084
1.052 -0.11 -0.53500003 12 0 0 0 0.01085
1.048 -0.11 -0.537 12 0 0 0 0.01086
1.049 -0.11 -0.54100001 12 0 0 0 0.01087
1.052 -0.11 -0.546 14 0 0 0 0.01088
1.049 -0.109 -0.54799998 15 0 0 0 0.01089
1.05 -0.109 -0.55199999 14 0 0 0 0.0109
1.054 -0.109 -0.55699998 16 0 0 0 0.01091
1.054 -0.109 -0.56 20 0 0 0 0.01092
1.059 -0.109 -0.56699997 19 0 0 0 0.01093
1.056 -0.109 -0.56800002 16 0 0 0 0.01094
1.0599999 -0.109 -0.574 17 0 0 0 0.01095
1.058 -0.108 -0.57599998 17 0 0 0 0.01096
1.056 -0.108 -0.57800001 16 0 0 0 0.01097
1.0599999 -0.108 -0.58399999 19 0 0 0 0.01098
1.061 -0.107 -0.58700001 13 0 0 0 0.01099
1.062 -0.107 -0.59200001 14 0 0 0 0.011
1.062 -0.107 -0.59500003 12 0 0 0 0.01101
1.071 -0.107 -0.60299999 12 0 0 0 0.01102
1.074 -0.107 -0.60799998 11 0 0 0 0.01103
1.075 -0.107 -0.61199999 10 0 0 0 0.01104
1.079 -0.106 -0.61699998 9 0 0 0 0.01105
1.089 -0.107 -0.62699997 8 0 0 0 0.01106
1.1059999 -0.108 -0.63999999 7 0 0 0 0.01107
1.124 -0.109 -0.653 6 0 0 0 0.01108
1.145 -0.111 -0.66900003 6 0 0 0 0.01109
1.147 -0.11 -0.67299998 6 0 0 0 0.0111
1.151 -0.11 -0.67900002 6 0 0 0 0.01111
1.163 -0.11 -0.69 6 0 0 0 0.01112
1.207 -0.114 -0.71899998 9 0 0 0 0.01113
1.256 -0.118 -0.75199997 12 0 0 0 0.01114
1.276 -0.119 -0.76800001 14 0 0 0 0.01115
1.291 -0.119 -0.77999997 14 0 0 0 0.01116
1.29 -0.118 -0.78399998 13 0 0 0 0.01117
1.288 -0.117 -0.78600001 14 0 0 0 0.01118
1.284 -0.116 -0.787 14 0 0 0 0.01119
1.277 -0.115 -0.78600001 13 0 0 0 0.0112
1.275 -0.113 -0.78799999 14 0 0 0 0.01121
1.268 -0.112 -0.787 13 0 0 0 0.01122
1.261 -0.11 -0.78600001 14 0 0 0 0.01123
1.257 -0.109 -0.787 14 0 0 0 0.01124
1.255 -0.108 -0.78899997 14 0 0 0 0.01125
1.249 -0.106 -0.78899997 14 0 0 0 0.01126
1.2460001 -0.105 -0.78899997 14 0 0 0 0.01127
1.24 -0.103 -0.78899997 15 0 0 0 0.01128
1.237 -0.102 -0.79000002 15 0 0 0 0.01129
1.232 -0.1 -0.78899997 15 0 0 0 0.0113
1.228 -0.098999999 -0.79000002 15 0 0 0 0.01131
1.224 -0.097000003 -0.79000002 15 0 0 0 0.01132
1.22 -0.096000001 -0.79000002 15 0 0 0 0.01133
1.215 -0.093999997 -0.79000002 15 0 0 0 0.01134
1.2130001 -0.093000002 -0.79100001 15 0 0 0 0.01135
1.207 -0.090999998 -0.79000002 16 0 0 0 0.01136
1.2029999 -0.090000004 -0.79000002 15 0 0 0 0.01137
1.202 -0.088 -0.792 16 0 0 0 0.01138
1.199 -0.086999997 -0.79299998 16 0 0 0 0.01139
1.197 -0.086000003 -0.79299998 15 0 0 0 0.0114
1.192 -0.083999999 -0.79299998 16 0 0 0 0.01141
1.1900001 -0.082000002 -0.79299998 16 0 0 0 0.01142
1.184 -0.081 -0.79100001 15 0 0 0 0.01143
1.183 -0.079000004 -0.79299998 15 0 0 0 0.01144
1.176 -0.077 -0.79100001 16 0 0 0 0.01145
1.1619999 -0.075000003 -0.78299999 18 0 0 0 0.01146
1.152 -0.072999999 -0.778 22 0 0 0 0.01147
1.138 -0.071000002 -0.77100003 24 0 0 0 0.01148
1.13 -0.068999998 -0.76700002 23 0 0 0 0.01149
1.1210001 -0.067000002 -0.76300001 24 0 0 0 0.0115
1.117 -0.066 -0.76200002 26 0 0 0 0.01151
1.112 -0.064000003 -0.75999999 22 0 0 0 0.01152
1.1109999 -0.063000001 -0.76099998 24 0 0 0 0.01153
1.11 -0.061000001 -0.76200002 23 0 0 0 0.01154
1.1109999 -0.059999999 -0.764 27 0 0 0 0.01155
1.109 -0.057999998 -0.764 25 0 0 0 0.01156
1.109 -0.057 -0.76599997 29 0 0 0 0.01157
1.109 -0.055 -0.76700002 29 0 0 0 0.01158
1.107 -0.054000001 -0.76700002 32 0 0 0 0.01159
1.108 -0.052999999 -0.76899999 31 0 0 0 0.0116
1.107 -0.050999999 -0.76899999 31 0 0 0 0.01161
1.107 -0.048999999 -0.76999998 31 0 0 0 0.01162
1.103 -0.048 -0.76899999 27 0 0 0 0.01163
1.103 -0.046 -0.76899999 26 0 0 0 0.01164
1.105 -0.045000002 -0.77200001 17 0 0 0 0.01165
1.11 -0.044 -0.77600002 15 0 0 0 0.01166
1.115 -0.041999999 -0.77999997 14 0 0 0 0.01167
1.118 -0.041000001 -0.78299999 15 0 0 0 0.01168
1.127 -0.039999999 -0.79000002 16 0 0 0 0.01169
1.1289999 -0.037999999 -0.79299998 16 0 0 0 0.0117
1.132 -0.037 -0.79500002 17 0 0 0 0.01171
1.131 -0.035 -0.79500002 17 0 0 0 0.01172
1.132 -0.033 -0.796 20 0 0 0 0.01173
1.131 -0.032000002 -0.796 20 0 0 0 0.01174
1.127 -0.029999999 -0.79299998 19 0 0 0 0.01175
1.127 -0.028000001 -0.79299998 19 0 0 0 0.01176
1.127 -0.027000001 -0.79299998 17 0 0 0 0.01177
1.131 -0.025 -0.796 19 0 0 0 0.01178
1.128 -0.024 -0.79500002 18 0 0 0 0.01179
1.131 -0.022 -0.79699999 20 0 0 0 0.0118
1.1289999 -0.021 -0.79500002 18 0 0 0 0.01181
1.131 -0.018999999 -0.796 19 0 0 0 0.01182
1.132 -0.017000001 -0.79699999 18 0 0 0 0.01183
1.132 -0.016000001 -0.79699999 18 0 0 0 0.01184
1.1339999 -0.014 -0.79799998 19 0 0 0 0.01185
1.13 -0.012 -0.79500002 18 0 0 0 0.01186
1.1339999 -0.011 -0.79699999 18 0 0 0 0.01187
1.133 -0.0089999996 -0.796 19 0 0 0 0.01188
1.133 -0.0080000004 -0.79500002 18 0 0 0 0.01189
1.137 -0.0060000001 -0.79799998 18 0 0 0 0.0119
1.138 -0.0049999999 -0.79699999 18 0 0 0 0.01191
1.136 -0.003 -0.796 18 0 0 0 0.01192
1.1390001 -0.001 -0.79699999 18 0 0 0 0.01193
1.145 0 -0.80000001 19 0 0 0 0.01194
1.146 0.001 -0.80000001 18 0 0 0 0.01195
1.148 0.0020000001 -0.80000001 19 0 0 0 0.01196
1.147 0.0040000002 -0.79799998 19 0 0 0 0.01197
1.147 0.0060000001 -0.79699999 19 0 0 0 0.01198
1.15 0.0070000002 -0.79799998 19 0 0 0 0.01199
1.153 0.0089999996 -0.79900002 20 0 0 0 0.012
1.154 0.0099999998 -0.79799998 19 0 0 0 0.01201
1.1569999 0.012 -0.79900002 20 0 0 0 0.01202
1.155 0.014 -0.796 18 0 0 0 0.01203
1.158 0.015 -0.79699999 18 0 0 0 0.01204
1.1619999 0.017000001 -0.79799998 18 0 0 0 0.01205
1.164 0.017999999 -0.79799998 17 0 0 0 0.01206
1.169 0.02 -0.79900002 18 0 0 0 0.01207
1.17 0.021 -0.79799998 19 0 0 0 0.01208
1.173 0.023 -0.79900002 17 0 0 0 0.01209
1.175 0.025 -0.79900002 18 0 0 0 0.0121
1.176 0.026000001 -0.79699999 18 0 0 0 0.01211
1.186 0.028000001 -0.801 18 0 0 0 0.01212
1.186 0.028999999 -0.80000001 17 0 0 0 0.01213
1.188 0.030999999 -0.79900002 18 0 0 0 0.01214
1.193 0.032000002 -0.80000001 17 0 0 0 0.01215
1.194 0.034000002 -0.79900002 17 0 0 0 0.01216
1.2 0.035999998 -0.801 17 0 0 0 0.01217
1.2029999 0.037 -0.80000001 17 0 0 0 0.01218
1.204 0.039000001 -0.79799998 17 0 0 0 0.01219
1.207 0.039999999 -0.79799998 17 0 0 0 0.0122
1.2079999 0.041000001 -0.796 17 0 0 0 0.01221
1.217 0.043000001 -0.80000001 17 0 0 0 0.01222
1.221 0.045000002 -0.80000001 16 0 0 0 0.01223
1.223 0.046 -0.79799998 16 0 0 0 0.01224
1.226 0.048 -0.79699999 15 0 0 0 0.01225
1.233 0.048999999 -0.79900002 16 0 0 0 0.01226
1.237 0.050999999 -0.79900002 16 0 0 0 0.01227
1.238 0.052000001 -0.79699999 16 0 0 0 0.01228
1.247 0.054000001 -0.80000001 16 0 0 0 0.01229
1.25 0.055 -0.79900002 15 0 0 0 0.0123
1.255 0.057 -0.79900002 15 0 0 0 0.01231
1.262 0.057999998 -0.80000001 16 0 0 0 0.01232
1.267 0.059999999 -0.80000001 15 0 0 0 0.01233
1.268 0.061000001 -0.79799998 15 0 0 0 0.01234
1.278 0.063000001 -0.801 16 0 0 0 0.01235
1.279 0.064000003 -0.79799998 15 0 0 0 0.01236
1.2869999 0.066 -0.80000001 16 0 0 0 0.01237
1.2920001 0.067000002 -0.80000001 16 0 0 0 0.01238
1.2970001 0.068000004 -0.79900002 16 0 0 0 0.01239
1.301 0.07 -0.79799998 16 0 0 0 0.0124
1.306 0.071000002 -0.79799998 16 0 0 0 0.01241
1.313 0.072999999 -0.79799998 15 0 0 0 0.01242
1.318 0.074000001 -0.79799998 15 0 0 0 0.01243
1.324 0.075000003 -0.79699999 16 0 0 0 0.01244
1.331 0.077 -0.79799998 16 0 0 0 0.01245
1.337 0.078000002 -0.79799998 17 0 0 0 0.01246
1.342 0.079000004 -0.79699999 17 0 0 0 0.01247
1.341 0.079999998 -0.792 19 0 0 0 0.01248
1.352 0.082000002 -0.79500002 16 0 0 0 0.01249
1.358 0.082999997 -0.79400003 13 0 0 0 0.0125
1.359 0.085000001 -0.79100001 9 0 0 0 0.01251
1.359 0.085000001 -0.787 8 0 0 0 0.01252
1.3609999 0.086000003 -0.78399998 7 0 0 0 0.01253
1.36 0.086999997 -0.77999997 7 0 0 0 0.01254
1.353 0.088 -0.77200001 12 0 0 0 0.01255
1.339 0.088 -0.75999999 51 0 0 0 0.01256
1.327 0.088 -0.74900001 150 0 0 0 0.01257
1.326 0.088 -0.74400002 150 0 0 0 0.01258
1.322 0.089000002 -0.73699999 150 0 0 0 0.01259
1.322 0.090000004 -0.73299998 150 0 0 0 0.0126
1.323 0.090000004 -0.73000002 150 0 0 0 0.01261
1.325 0.090999998 -0.727 150 0 0 0 0.01262
1.3200001 0.090999998 -0.72000003 150 0 0 0 0.01263
1.318 0.092 -0.71499997 150 0 0 0 0.01264
1.317 0.093000002 -0.70999998 150 0 0 0 0.01265
1.317 0.093000002 -0.70599997 150 0 0 0 0.01266
1.318 0.093999997 -0.70200002 150 0 0 0 0.01267
1.3150001 0.093999997 -0.69599998 150 0 0 0 0.01268
1.317 0.094999999 -0.69300002 150 0 0 0 0.01269
1.317 0.094999999 -0.68900001 150 0 0 0 0.0127
1.317 0.096000001 -0.68400002 150 0 0 0 0.01271
1.319 0.096000001 -0.68099999 150 0 0 0 0.01272
1.316 0.097000003 -0.67500001 150 0 0 0 0.01273
1.316 0.097000003 -0.671 150 0 0 0 0.01274
1.316 0.097000003 -0.66600001 150 0 0 0 0.01275
1.316 0.097999997 -0.662 150 0 0 0 0.01276
1.314 0.097999997 -0.65700001 150 0 0 0 0.01277
1.316 0.098999999 -0.653 150 0 0 0 0.01278
1.318 0.098999999 -0.64999998 150 0 0 0 0.01279
1.314 0.098999999 -0.64399999 150 0 0 0 0.0128
1.3150001 0.1 -0.63999999 150 0 0 0 0.01281
1.317 0.1 -0.63599998 150 0 0 0 0.01282
1.3150001 0.1 -0.63099998 150 0 0 0 0.01283
1.316 0.1 -0.62699997 150 0 0 0 0.01284
1.313 0.1 -0.62099999 150 0 0 0 0.01285
1.304 0.1 -0.61299998 150 0 0 0 0.01286
1.2869999 0.098999999 -0.60000002 150 0 0 0 0.01287
1.262 0.097000003 -0.58399999 150 0 0 0 0.01288
1.2410001 0.096000001 -0.56999999 150 0 0 0 0.01289
1.215 0.093999997 -0.55400002 104 0 0 0 0.0129
1.193 0.092 -0.54000002 71 0 0 0 0.01291
1.145 0.088 -0.51499999 40 0 0 0 0.01292
1.08 0.082999997 -0.48199999 18 0 0 0 0.01293
1.0549999 0.082000002 -0.46700001 11 0 0 0 0.01294
1.051 0.081 -0.461 14 0 0 0 0.01295
1.054 0.082000002 -0.45899999 15 0 0 0 0.01296
1.0549999 0.082000002 -0.456 16 0 0 0 0.01297
1.052 0.081 -0.45100001 14 0 0 0 0.01298
1.053 0.081 -0.44800001 15 0 0 0 0.01299
1.052 0.081 -0.44400001 17 0 0 0 0.013
1.053 0.081 -0.44100001 13 0 0 0 0.01301
1.05 0.081 -0.43599999 12 0 0 0 0.01302
1.054 0.081 -0.43399999 12 0 0 0 0.01303
1.05 0.081 -0.42899999 11 0 0 0 0.01304
1.054 0.081 -0.42699999 10 0 0 0 0.01305
1.051 0.081 -0.42199999 11 0 0 0 0.01306
1.052 0.081 -0.419 11 0 0 0 0.01307
1.053 0.081 -0.41600001 11 0 0 0 0.01308
1.051 0.079999998 -0.41100001 11 0 0 0 0.01309
1.052 0.079999998 -0.40799999 12 0 0 0 0.0131
1.056 0.079999998 -0.40599999 10 0 0 0 0.01311
1.053 0.079999998 -0.40099999 10 0 0 0 0.01312
1.053 0.079999998 -0.398 9 0 0 0 0.01313
1.054 0.079999998 -0.39500001 10 0 0 0 0.01314
1.058 0.079999998 -0.39199999 9 0 0 0 0.01315
1.056 0.079000004 -0.38800001 8 0 0 0 0.01316
1.053 0.079000004 -0.38299999 7 0 0 0 0.01317
1.059 0.079000004 -0.382 7 0 0 0 0.01318
1.057 0.079000004 -0.37799999 7 0 0 0 0.01319
1.054 0.078000002 -0.373 6 0 0 0 0.0132
1.0549999 0.078000002 -0.37 6 0 0 0 0.01321
1.057 0.078000002 -0.36700001 6 0 0 0 0.01322
1.057 0.078000002 -0.36300001 6 0 0 0 0.01323
1.054 0.077 -0.359 5 0 0 0 0.01324
1.012 0.074000001 -0.34099999 3 0 0 0 0.01325
1.054 0.075999998 -0.35100001 0 0 0 0 0.01326
0.95599997 0.068999998 -0.31600001 0 0 0 0 0.01327
0.85600001 0.061000001 -0.28 0 0 0 0 0.01328
0.84500003 0.059999999 -0.273 0 0 0 0 0.01329
0.80400002 0.057 -0.257 0 0 0 0 0.0133
0.81099999 0.057 -0.257 0 0 0 0 0.01331
0.83499998 0.059 -0.26199999 0 0 0 0 0.01332
0.852 0.059 -0.264 0 0 0 0 0.01333
0.861 0.059999999 -0.264 0 0 0 0 0.01334
0.875 0.059999999 -0.26499999 0 0 0 0 0.01335
0.87 0.059999999 -0.26100001 0 0 0 0 0.01336
0.87 0.059 -0.25799999 0 0 0 0 0.01337
0.889 0.059999999 -0.25999999 0 0 0 0 0.01338
0.89899999 0.061000001 -0.26100001 0 0 0 0 0.01339
0.898 0.059999999 -0.257 0 0 0 0 0.0134
0.89899999 0.059999999 -0.25400001 0 0 0 0 0.01341
0.88599998 0.057999998 -0.248 0 0 0 0 0.01342
0.90600002 0.059 -0.25 0 0 0 0 0.01343
0.91500002 0.059 -0.25 0 0 0 0 0.01344
0.91900003 0.059 -0.248 0 0 0 0 0.01345
0.94 0.059999999 -0.25 0 0 0 0 0.01346
0.949 0.059999999 -0.25 0 0 0 0 0.01347
0.94 0.059 -0.244 0 0 0 0 0.01348
0.94 0.059 -0.241 0 0 0 0 0.01349
0.95899999 0.059 -0.243 0 0 0 0 0.0135
0.98299998 0.059999999 -0.24600001 2 0 0 0 0.01351
0.98299998 0.059999999 -0.242 3 0 0 0 0.01352
0.99400002 0.059999999 -0.242 4 0 0 0 0.01353
0.99599999 0.059999999 -0.23899999 4 0 0 0 0.01354
0.98199999 0.057999998 -0.23199999 3 0 0 0 0.01355
0.95499998 0.056000002 -0.223 3 0 0 0 0.01356
0.94999999 0.055 -0.21799999 3 0 0 0 0.01357
0.95599997 0.055 -0.21699999 3 0 0 0 0.01358
0.95499998 0.054000001 -0.213 3 0 0 0 0.01359
0.95300001 0.054000001 -0.20999999 3 0 0 0 0.0136
0.95599997 0.052999999 -0.207 3 0 0 0 0.01361
0.954 0.052999999 -0.204 3 0 0 0 0.01362
0.958 0.052000001 -0.20100001 3 0 0 0 0.01363
0.95899999 0.052000001 -0.198 3 0 0 0 0.01364
0.95200002 0.050999999 -0.19400001 3 0 0 0 0.01365
0.95300001 0.050000001 -0.191 2 0 0 0 0.01366
0.958 0.050000001 -0.189 2 0 0 0 0.01367
0.95499998 0.048999999 -0.185 2 0 0 0 0.01368
0.95599997 0.048 -0.182 2 0 0 0 0.01369
0.95700002 0.048 -0.17900001 3 0 0 0 0.0137
0.95999998 0.046999998 -0.177 3 0 0 0 0.01371
0.95700002 0.046 -0.17299999 2 0 0 0 0.01372
0.95899999 0.046 -0.171 2 0 0 0 0.01373
0.95599997 0.045000002 -0.167 2 0 0 0 0.01374
0.96799999 0.045000002 -0.16599999 2 0 0 0 0.01375
0.97899997 0.045000002 -0.16500001 2 0 0 0 0.01376
0.98400003 0.044 -0.162 2 0 0 0 0.01377
1.021 0.045000002 -0.16500001 2 0 0 0 0.01378
1.079 0.046999998 -0.171 3 0 0 0 0.01379
1.117 0.048 -0.17299999 4 0 0 0 0.0138
1.141 0.048 -0.17399999 4 0 0 0 0.01381
1.151 0.048 -0.171 4 0 0 0 0.01382
1.1289999 0.046 -0.164 2 0 0 0 0.01383
1.094 0.044 -0.156 0 0 0 0 0.01384
1.084 0.041999999 -0.15099999 1 0 0 0 0.01385
1.091 0.041999999 -0.148 3 0 0 0 0.01386
1.082 0.041000001 -0.14399999 3 0 0 0 0.01387
1.087 0.039999999 -0.141 2 0 0 0 0.01388
1.0599999 0.037999999 -0.134 1 0 0 0 0.01389
1.131 0.039999999 -0.14 0 0 0 0 0.0139
1.256 0.043000001 -0.15099999 4 0 0 0 0.01391
1.27 0.043000001 -0.149 6 0 0 0 0.01392
1.256 0.041000001 -0.14300001 7 0 0 0 0.01393
1.257 0.039999999 -0.139 6 0 0 0 0.01394
1.284 0.039999999 -0.138 6 0 0 0 0.01395
1.319 0.039999999 -0.138 6 0 0 0 0.01396
1.325 0.039000001 -0.134 5 0 0 0 0.01397
1.306 0.037999999 -0.12800001 4 0 0 0 0.01398
1.324 0.037 -0.126 5 0 0 0 0.01399
1.339 0.035999998 -0.123 7 0 0 0 0.014
1.352 0.035999998 -0.12 7 0 0 0 0.01401
1.37 0.035 -0.117 23 0 0 0 0.01402
1.3710001 0.034000002 -0.113 68 0 0 0 0.01403
1.372 0.033 -0.109 68 0 0 0 0.01404
1.369 0.030999999 -0.104 59 0 0 0 0.01405
1.374 0.029999999 -0.1 75 0 0 0 0.01406
1.375 0.028999999 -0.096000001 61 0 0 0 0.01407
1.373 0.028000001 -0.092 60 0 0 0 0.01408
1.372 0.027000001 -0.086999997 73 0 0 0 0.01409
1.3710001 0.025 -0.082999997 66 0 0 0 0.0141
1.3710001 0.024 -0.079000004 49 0 0 0 0.01411
1.3789999 0.023 -0.075000003 58 0 0 0 0.01412
1.376 0.022 -0.07 67 0 0 0 0.01413
1.3789999 0.02 -0.066 54 0 0 0 0.01414
1.38 0.018999999 -0.061999999 51 0 0 0 0.01415
1.375 0.017999999 -0.057999998 54 0 0 0 0.01416
1.372 0.017000001 -0.052999999 50 0 0 0 0.01417
1.383 0.015 -0.048999999 72 0 0 0 0.01418
1.381 0.014 -0.045000002 60 0 0 0 0.01419
1.381 0.013 -0.041000001 71 0 0 0 0.0142
1.383 0.011 -0.037 56 0 0 0 0.01421
1.383 0.0099999998 -0.032000002 54 0 0 0 0.01422
1.383 0.0089999996 -0.028000001 54 0 0 0 0.01423
1.3839999 0.0070000002 -0.024 55 0 0 0 0.01424
1.3839999 0.0060000001 -0.018999999 58 0 0 0 0.01425
1.3839999 0.0049999999 -0.015 54 0 0 0 0.01426
1.385 0.003 -0.011 67 0 0 0 0.01427
1.385 0.0020000001 -0.0070000002 60 0 0 0 0.01428
1.387 0.001 -0.0020000001 75 0 0 0 0.01429
1.385 0 0.001 82 0 0 0 0.0143
1.385 -0.001 0.0049999999 66 0 0 0 0.01431
1.385 -0.003 0.0089999996 59 0 0 0 0.01432
1.387 -0.0040000002 0.014 69 0 0 0 0.01433
1.387 -0.0049999999 0.017999999 63 0 0 0 0.01434
1.387 -0.0070000002 0.022 61 0 0 0 0.01435
1.3890001 -0.0080000004 0.027000001 74 0 0 0 0.01436
1.392 -0.0099999998 0.030999999 69 0 0 0 0.01437
1.387 -0.011 0.035 69 0 0 0 0.01438
1.3890001 -0.013 0.039000001 69 0 0 0 0.01439
1.3890001 -0.014 0.044 76 0 0 0 0.0144
1.3940001 -0.016000001 0.048 84 0 0 0 0.01441
1.393 -0.017000001 0.052000001 79 0 0 0 0.01442
1.393 -0.018999999 0.057 85 0 0 0 0.01443
1.393 -0.02 0.061000001 77 0 0 0 0.01444
1.396 -0.022 0.064999998 77 0 0 0 0.01445
1.392 -0.023 0.068999998 99 0 0 0 0.01446
1.393 -0.025 0.074000001 79 0 0 0 0.01447
1.3940001 -0.026000001 0.078000002 88 0 0 0 0.01448
1.397 -0.028000001 0.082000002 95 0 0 0 0.01449
1.398 -0.028999999 0.086999997 82 0 0 0 0.0145
1.402 -0.030999999 0.090999998 107 0 0 0 0.01451
1.3940001 -0.032000002 0.094999999 79 0 0 0 0.01452
1.3890001 -0.034000002 0.098999999 43 0 0 0 0.01453
1.374 -0.035 0.102 50 0 0 0 0.01454
1.3660001 -0.035999998 0.105 78 0 0 0 0.01455
1.357 -0.037999999 0.109 85 0 0 0 0.01456
1.3559999 -0.039000001 0.113 81 0 0 0 0.01457
1.3559999 -0.041000001 0.117 80 0 0 0 0.01458
1.355 -0.041999999 0.121 68 0 0 0 0.01459
1.355 -0.044 0.125 73 0 0 0 0.0146
1.353 -0.045000002 0.12899999 67 0 0 0 0.01461
1.35 -0.046999998 0.133 60 0 0 0 0.01462
1.35 -0.048 0.13699999 66 0 0 0 0.01463
1.348 -0.050000001 0.141 58 0 0 0 0.01464
1.348 -0.052000001 0.145 65 0 0 0 0.01465
1.345 -0.052999999 0.149 88 0 0 0 0.01466
1.342 -0.055 0.152 85 0 0 0 0.01467
1.337 -0.056000002 0.156 109 0 0 0 0.01468
1.334 -0.057999998 0.16 98 0 0 0 0.01469
1.3430001 -0.059999999 0.16500001 86 0 0 0 0.0147
1.341 -0.061000001 0.169 60 0 0 0 0.01471
1.33 -0.061999999 0.171 47 0 0 0 0.01472
1.325 -0.064000003 0.175 67 0 0 0 0.01473
1.316 -0.064999998 0.177 68 0 0 0 0.01474
1.303 -0.066 0.18000001 68 0 0 0 0.01475
1.301 -0.067000002 0.183 112 0 0 0 0.01476
1.2920001 -0.068999998 0.186 144 0 0 0 0.01477
1.293 -0.07 0.19 148 0 0 0 0.01478
1.294 -0.071999997 0.19400001 129 0 0 0 0.01479
1.294 -0.074000001 0.198 150 0 0 0 0.0148
1.294 -0.075000003 0.20200001 150 0 0 0 0.01481
1.29 -0.077 0.205 150 0 0 0 0.01482
1.2920001 -0.079000004 0.20900001 150 0 0 0 0.01483
1.286 -0.079999998 0.212 150 0 0 0 0.01484
1.288 -0.082000002 0.21699999 150 0 0 0 0.01485
1.2869999 -0.083999999 0.22 150 0 0 0 0.01486
1.294 -0.086000003 0.22499999 150 0 0 0 0.01487
1.294 -0.088 0.229 150 0 0 0 0.01488
1.296 -0.089000002 0.234 150 0 0 0 0.01489
1.298 -0.090999998 0.23800001 150 0 0 0 0.0149
1.283 -0.092 0.23899999 150 0 0 0 0.01491
1.311 -0.096000001 0.248 150 0 0 0 0.01492
1.317 -0.097999997 0.25299999 150 0 0 0 0.01493
1.321 -0.1 0.25799999 150 0 0 0 0.01494
1.3279999 -0.103 0.26300001 113 0 0 0 0.01495
1.331 -0.105 0.26800001 104 0 0 0 0.01496
1.334 -0.107 0.273 98 0 0 0 0.01497
1.335 -0.109 0.27700001 97 0 0 0 0.01498
1.342 -0.111 0.28200001 81 0 0 0 0.01499
1.349 -0.114 0.28799999 74 0 0 0 0.015
1.352 -0.116 0.29300001 70 0 0 0 0.01501
1.357 -0.118 0.29800001 82 0 0 0 0.01502
1.357 -0.12 0.30199999 89 0 0 0 0.01503
1.357 -0.122 0.30599999 114 0 0 0 0.01504
1.357 -0.124 0.31 120 0 0 0 0.01505
1.3609999 -0.127 0.315 114 0 0 0 0.01506
1.3609999 -0.12899999 0.31900001 54 0 0 0 0.01507
1.373 -0.132 0.32600001 47 0 0 0 0.01508
1.376 -0.134 0.331 44 0 0 0 0.01509
1.38 -0.13699999 0.336 36 0 0 0 0.0151
1.382 -0.139 0.34 53 0 0 0 0.01511
1.3839999 -0.142 0.345 59 0 0 0 0.01512
1.386 -0.14399999 0.34999999 58 0 0 0 0.01513
1.3890001 -0.146 0.35499999 58 0 0 0 0.01514
1.39 -0.149 0.359 51 0 0 0 0.01515
1.398 -0.152 0.36500001 65 0 0 0 0.01516
1.395 -0.154 0.36899999 83 0 0 0 0.01517
1.4 -0.156 0.37400001 76 0 0 0 0.01518
1.421 -0.161 0.384 82 0 0 0 0.01519
1.449 -0.167 0.396 150 0 0 0 0.0152
1.4680001 -0.171 0.405 150 0 0 0 0.01521
1.472 -0.17399999 0.41100001 150 0 0 0 0.01522
1.473 -0.176 0.41499999 150 0 0 0 0.01523
1.474 -0.17900001 0.41999999 150 0 0 0 0.01524
1.473 -0.18099999 0.42399999 150 0 0 0 0.01525
1.477 -0.184 0.43000001 150 0 0 0 0.01526
1.479 -0.18700001 0.435 150 0 0 0 0.01527
1.477 -0.189 0.43799999 150 0 0 0 0.01528
1.479 -0.192 0.44400001 150 0 0 0 0.01529
1.485 -0.19499999 0.449 150 0 0 0 0.0153
1.4859999 -0.198 0.454 150 0 0 0 0.01531
1.475 -0.199 0.45500001 150 0 0 0 0.01532
1.472 -0.20100001 0.45899999 150 0 0 0 0.01533
1.48 -0.205 0.46599999 107 0 0 0 0.01534
1.493 -0.20900001 0.47400001 150 0 0 0 0.01535
1.4910001 -0.212 0.47799999 150 0 0 0 0.01536
1.492 -0.214 0.48199999 150 0 0 0 0.01537
1.4960001 -0.21699999 0.48800001 150 0 0 0 0.01538
1.498 -0.22 0.493 150 0 0 0 0.01539
1.502 -0.22400001 0.49900001 150 0 0 0 0.0154
1.5 -0.226 0.50199997 150 0 0 0 0.01541
1.499 -0.229 0.50599998 150 0 0 0 0.01542
1.501 -0.23199999 0.51099998 150 0 0 0 0.01543
1.502 -0.235 0.51599997 150 0 0 0 0.01544
1.506 -0.23800001 0.52200001 150 0 0 0 0.01545
1.506 -0.241 0.52600002 150 0 0 0 0.01546
1.507 -0.244 0.53100002 150 0 0 0 0.01547
1.507 -0.24699999 0.53500003 150 0 0 0 0.01548
1.508 -0.25 0.54000002 150 0 0 0 0.01549
1.515 -0.25299999 0.546 150 0 0 0 0.0155
1.516 -0.25600001 0.551 150 0 0 0 0.01551
1.516 -0.259 0.55599999 150 0 0 0 0.01552
1.5140001 -0.26199999 0.55900002 150 0 0 0 0.01553
1.522 -0.266 0.56599998 150 0 0 0 0.01554
1.52 -0.26899999 0.56999999 150 0 0 0 0.01555
1.518 -0.27200001 0.57300001 150 0 0 0 0.01556
1.528 -0.27599999 0.58200002 150 0 0 0 0.01557
1.529 -0.27900001 0.58600003 150 0 0 0 0.01558
1.5319999 -0.28299999 0.59100002 150 0 0 0 0.01559
1.533 -0.28600001 0.59600002 150 0 0 0 0.0156
1.533 -0.289 0.60000002 150 0 0 0 0.01561
1.543 -0.294 0.60799998 150 0 0 0 0.01562
1.539 -0.29699999 0.611 150 0 0 0 0.015629999
1.541 -0.30000001 0.616 150 0 0 0 0.01564
1.549 -0.30500001 0.62400001 150 0 0 0 0.01565
1.551 -0.308 0.62900001 150 0 0 0 0.015659999
1.552 -0.31200001 0.63300002 150 0 0 0 0.01567
1.551 -0.315 0.63700002 150 0 0 0 0.01568
1.551 -0.31799999 0.64099997 150 0 0 0 0.015690001
1.557 -0.322 0.648 150 0 0 0 0.015699999
1.559 -0.32600001 0.653 150 0 0 0 0.01571
1.563 -0.33000001 0.65899998 150 0 0 0 0.01572
1.563 -0.333 0.66299999 150 0 0 0 0.015729999
1.567 -0.338 0.66900003 150 0 0 0 0.01574
1.567 -0.34099999 0.67299998 150 0 0 0 0.01575
1.568 -0.34400001 0.67699999 150 0 0 0 0.015760001
1.573 -0.34900001 0.68400002 150 0 0 0 0.015769999
1.5779999 -0.35299999 0.69 150 0 0 0 0.01578
1.576 -0.35600001 0.69300002 150 0 0 0 0.015790001
1.58 -0.361 0.699 150 0 0 0 0.015799999
1.582 -0.36399999 0.704 150 0 0 0 0.01581
1.582 -0.368 0.708 150 0 0 0 0.01582
1.586 -0.37200001 0.713 150 0 0 0 0.015830001
1.587 -0.37599999 0.71799999 150 0 0 0 0.01584
1.591 -0.38 0.72299999 150 0 0 0 0.01585
1.596 -0.38499999 0.73000002 150 0 0 0 0.015860001
1.5930001 -0.38800001 0.73299998 150 0 0 0 0.015869999
1.594 -0.39199999 0.73699999 150 0 0 0 0.01588
1.598 -0.396 0.74299997 150 0 0 0 0.01589
1.602 -0.40099999 0.74800003 150 0 0 0 0.015900001
1.605 -0.405 0.75400001 150 0 0 0 0.01591
1.6059999 -0.40900001 0.75800002 150 0 0 0 0.01592
1.608 -0.41299999 0.76300001 150 0 0 0 0.015930001
1.613 -0.41800001 0.76899999 150 0 0 0 0.015939999
1.615 -0.42199999 0.773 150 0 0 0 0.01595
1.615 -0.426 0.77700001 150 0 0 0 0.01596
1.617 -0.43000001 0.78200001 150 0 0 0 0.015969999
1.622 -0.435 0.78799999 150 0 0 0 0.01598
1.624 -0.43900001 0.792 150 0 0 0 0.01599
1.624 -0.44299999 0.796 150 0 0 0 0.016000001
1.625 -0.447 0.80000001 150 0 0 0 0.016009999
1.625 -0.45100001 0.80299997 150 0 0 0 0.01602
1.632 -0.456 0.81 150 0 0 0 0.016030001
1.632 -0.46000001 0.81400001 150 0 0 0 0.016039999
1.636 -0.465 0.81900001 150 0 0 0 0.01605
1.637 -0.46900001 0.82300001 150 0 0 0 0.01606
1.6390001 -0.47299999 0.82700002 150 0 0 0 0.016070001
1.641 -0.47799999 0.83200002 150 0 0 0 0.01608
1.645 -0.48300001 0.83700001 150 0 0 0 0.01609
1.647 -0.48699999 0.84100002 150 0 0 0 0.016100001
1.651 -0.49200001 0.84600002 150 0 0 0 0.016109999
1.653 -0.49599999 0.85100001 150 0 0 0 0.01612
1.659 -0.50199997 0.85699999 150 0 0 0 0.01613
1.66 -0.50599998 0.86000001 150 0 0 0 0.016140001
1.659 -0.50999999 0.86299998 150 0 0 0 0.01615
1.668 -0.51599997 0.87099999 150 0 0 0 0.01616
1.669 -0.51999998 0.87400001 150 0 0 0 0.016170001
1.669 -0.52399999 0.87699997 150 0 0 0 0.016179999
1.67 -0.528 0.88 150 0 0 0 0.01619
1.673 -0.53299999 0.88499999 150 0 0 0 0.0162
1.676 -0.53799999 0.889 150 0 0 0 0.016209999
1.679 -0.54299998 0.89300001 150 0 0 0 0.01622
1.679 -0.54699999 0.89600003 150 0 0 0 0.01623
1.6849999 -0.55199999 0.90200001 150 0 0 0 0.016240001
1.686 -0.55699998 0.90499997 150 0 0 0 0.016249999
1.689 -0.56099999 0.90899998 150 0 0 0 0.01626
1.696 -0.56800002 0.91500002 150 0 0 0 0.01627
1.696 -0.57099998 0.917 150 0 0 0 0.016279999
1.698 -0.57599998 0.921 150 0 0 0 0.01629
1.698 -0.579 0.92299998 150 0 0 0 0.0163
1.698 -0.58399999 0.92500001 150 0 0 0 0.016310001
1.702 -0.588 0.92900002 150 0 0 0 0.016319999
1.706 -0.59399998 0.93400002 150 0 0 0 0.01633
1.705 -0.597 0.935 150 0 0 0 0.016340001
1.707 -0.60100001 0.93800002 150 0 0 0 0.016349999
1.712 -0.60699999 0.94300002 150 0 0 0 0.01636
1.715 -0.61199999 0.94700003 150 0 0 0 0.01637
1.7180001 -0.61699998 0.94999999 150 0 0 0 0.016380001
1.719 -0.62099999 0.95200002 150 0 0 0 0.01639
1.724 -0.62599999 0.95700002 150 0 0 0 0.0164
1.725 -0.63 0.95899999 150 0 0 0 0.016410001
1.726 -0.634 0.96100003 150 0 0 0 0.016419999
1.732 -0.63999999 0.96499997 150 0 0 0 0.01643
1.732 -0.64399999 0.96700001 150 0 0 0 0.01644
1.7309999 -0.64700001 0.96799999 150 0 0 0 0.016450001
1.7309999 -0.65100002 0.96899998 150 0 0 0 0.01646
1.733 -0.65499997 0.972 150 0 0 0 0.01647
1.733 -0.65799999 0.972 150 0 0 0 0.016480001
1.747 -0.667 0.98100001 150 0 0 0 0.016489999
1.749 -0.671 0.98299998 150 0 0 0 0.0165
1.751 -0.67500001 0.98500001 150 0 0 0 0.01651
1.752 -0.67900002 0.98699999 150 0 0 0 0.016519999
1.7589999 -0.685 0.991 150 0 0 0 0.01653
1.758 -0.68800002 0.991 150 0 0 0 0.01654
1.763 -0.69300002 0.99400002 150 0 0 0 0.016550001
1.762 -0.69599998 0.99400002 150 0 0 0 0.016559999
1.763 -0.69999999 0.99599999 150 0 0 0 0.01657
1.7690001 -0.70499998 1 150 0 0 0 0.016580001
1.767 -0.708 0.99800003 150 0 0 0 0.016589999
1.768 -0.71100003 0.99900001 150 0 0 0 0.0166
1.774 -0.71700001 1.003 141 0 0 0 0.01661
1.775 -0.72000003 1.003 147 0 0 0 0.016620001
1.779 -0.72500002 1.005 145 0 0 0 0.01663
1.778 -0.727 1.005 143 0 0 0 0.01664
1.783 -0.73199999 1.007 144 0 0 0 0.016650001
1.781 -0.73400003 1.006 146 0 0 0 0.016659999
1.784 -0.73799998 1.007 141 0 0 0 0.01667
1.7869999 -0.74199998 1.008 134 0 0 0 0.01668
1.788 -0.745 1.008 136 0 0 0 0.016690001
1.79 -0.74900001 1.0089999 135 0 0 0 0.0167
1.79 -0.75099999 1.008 133 0 0 0 0.01671
1.794 -0.755 1.0089999 136 0 0 0 0.016720001
1.793 -0.75800002 1.008 139 0 0 0 0.016729999
1.793 -0.75999999 1.007 142 0 0 0 0.01674
1.796 -0.764 1.007 137 0 0 0 0.01675
1.796 -0.76599997 1.006 134 0 0 0 0.016759999
1.8 -0.76999998 1.007 132 0 0 0 0.01677
1.803 -0.77399999 1.007 134 0 0 0 0.01678
1.806 -0.77700001 1.008 137 0 0 0 0.016790001
1.803 -0.778 1.005 124 0 0 0 0.016799999
1.806 -0.78100002 1.005 132 0 0 0 0.01681
1.8099999 -0.78500003 1.005 133 0 0 0 0.01682
1.8099999 -0.787 1.0039999 131 0 0 0 0.016829999
1.809 -0.78799999 1.001 126 0 0 0 0.01684
1.809 -0.79000002 0.99900001 129 0 0 0 0.01685
1.816 -0.79500002 1.001 116 0 0 0 0.016860001
1.813 -0.79500002 0.99800003 113 0 0 0 0.016869999
1.814 -0.79699999 0.99599999 110 0 0 0 0.01688
1.818 -0.801 0.99599999 116 0 0 0 0.016890001
