# .PCD v0.7 - Point Cloud Data file format
VERSION 0.7
FIELDS x y z intensity normal_x normal_y normal_z curvature
SIZE 4 4 4 4 4 4 4 4
TYPE F F F F F F F F
COUNT 1 1 1 1 1 1 1 1
WIDTH 1071
HEIGHT 1
VIEWPOINT 0 0 0 1 0 0 0
POINTS 1071
DATA ascii
0 0 0 0 0 0 0 0.0064099999
0 0 0 0 0 0 0 0.00642
1.253 0.56400001 -0.097000003 0 0 0 0 0.0064300001
1.16 0.51800001 -0.088 0 0 0 0 0.0064400001
1.08 0.479 -0.081 0 0 0 0 0.0064500002
1.072 0.472 -0.079000004 0 0 0 0 0.0064599998
1.104 0.48300001 -0.079999998 0 0 0 0 0.0064699999
1.197 0.51999998 -0.085000001 0 0 0 0 0.00648
1.2869999 0.55500001 -0.090000004 1 0 0 0 0.0064900001
1.314 0.56199998 -0.090999998 1 0 0 0 0.0065000001
1.331 0.565 -0.090999998 1 0 0 0 0.0065100002
1.3380001 0.56400001 -0.090000004 2 0 0 0 0.0065199998
1.347 0.56300002 -0.089000002 2 0 0 0 0.0065299999
1.357 0.56300002 -0.088 5 0 0 0 0.00654
1.3559999 0.55800003 -0.086000003 6 0 0 0 0.00655
1.363 0.55699998 -0.085000001 6 0 0 0 0.0065600001
1.365 0.55299997 -0.083999999 6 0 0 0 0.0065700002
1.37 0.551 -0.082999997 6 0 0 0 0.0065799998
1.378 0.54900002 -0.082000002 6 0 0 0 0.0065899999
1.381 0.546 -0.081 6 0 0 0 0.0066
1.386 0.54400003 -0.079999998 6 0 0 0 0.00661
1.391 0.54100001 -0.079000004 8 0 0 0 0.0066200001
1.3940001 0.53799999 -0.077 8 0 0 0 0.0066300002
1.392 0.53200001 -0.075999998 7 0 0 0 0.0066399998
1.399 0.52999997 -0.075000003 7 0 0 0 0.0066499999
1.403 0.52700001 -0.074000001 69 0 0 0 0.00666
2.7690001 1.0319999 -0.14399999 150 0 0 0 0.00667
2.845 1.051 -0.145 29 0 0 0 0.0066800001
3.5280001 1.2920001 -0.177 2 0 0 0 0.0066900002
3.9879999 1.447 -0.19599999 3 0 0 0 0.0066999998
3.977 1.4299999 -0.192 1 0 0 0 0.0067099999
3.961 1.411 -0.18799999 1 0 0 0 0.0067199999
3.9719999 1.402 -0.185 0 0 0 0 0.00673
3.973 1.3890001 -0.18099999 0 0 0 0 0.0067400001
3.961 1.372 -0.177 1 0 0 0 0.0067500002
3.9660001 1.3609999 -0.17399999 0 0 0 0 0.0067599998
3.9200001 1.332 -0.169 2 0 0 0 0.0067699999
3.9449999 1.327 -0.167 0 0 0 0 0.0067799999
3.9300001 1.309 -0.163 2 0 0 0 0.00679
3.8610001 1.274 -0.15700001 3 0 0 0 0.0068000001
3.8540001 1.2589999 -0.154 3 0 0 0 0.0068100002
3.875 1.253 -0.152 43 0 0 0 0.0068199998
3.8870001 1.244 -0.149 7 0 0 0 0.0068299999
3.901 1.235 -0.147 18 0 0 0 0.0068399999
3.8870001 1.2180001 -0.14300001 31 0 0 0 0.00685
3.8759999 1.202 -0.14 38 0 0 0 0.0068600001
3.869 1.187 -0.13699999 27 0 0 0 0.0068700002
3.8610001 1.1720001 -0.134 14 0 0 0 0.0068799998
3.845 1.154 -0.13 9 0 0 0 0.0068899998
3.846 1.141 -0.127 5 0 0 0 0.0068999999
3.839 1.127 -0.125 3 0 0 0 0.00691
3.832 1.112 -0.122 3 0 0 0 0.0069200001
3.812 1.094 -0.118 42 0 0 0 0.0069300001
3.8050001 1.079 -0.116 71 0 0 0 0.0069400002
3.8 1.0650001 -0.113 78 0 0 0 0.0069499998
3.816 1.057 -0.111 100 0 0 0 0.0069599999
3.832 1.049 -0.109 99 0 0 0 0.00697
3.8469999 1.04 -0.107 97 0 0 0 0.0069800001
3.865 1.0319999 -0.105 98 0 0 0 0.0069900001
3.8770001 1.023 -0.103 93 0 0 0 0.0070000002
3.8889999 1.013 -0.101 86 0 0 0 0.0070099998
3.908 1.005 -0.098999999 76 0 0 0 0.0070199999
3.885 0.986 -0.096000001 1 0 0 0 0.00703
3.881 0.972 -0.093999997 0 0 0 0 0.0070400001
1.584 0.39199999 -0.037 1 0 0 0 0.0070500001
1.589 0.38800001 -0.035999998 1 0 0 0 0.0070600002
1.596 0.384 -0.035999998 1 0 0 0 0.0070699998
1.613 0.38299999 -0.035 1 0 0 0 0.0070799999
1.618 0.37900001 -0.034000002 1 0 0 0 0.00709
1.631 0.37599999 -0.034000002 1 0 0 0 0.0071
1.655 0.37599999 -0.033 1 0 0 0 0.0071100001
1.663 0.373 -0.033 1 0 0 0 0.0071200002
1.67 0.36899999 -0.032000002 1 0 0 0 0.0071299998
1.674 0.36399999 -0.030999999 1 0 0 0 0.0071399999
1.684 0.361 -0.029999999 1 0 0 0 0.00715
1.694 0.35699999 -0.029999999 1 0 0 0 0.00716
1.701 0.35299999 -0.028999999 1 0 0 0 0.0071700001
1.7079999 0.34900001 -0.028000001 1 0 0 0 0.0071800002
1.712 0.34400001 -0.028000001 1 0 0 0 0.0071899998
1.722 0.34099999 -0.027000001 1 0 0 0 0.0071999999
1.733 0.33700001 -0.026000001 1 0 0 0 0.00721
1.743 0.333 -0.026000001 1 0 0 0 0.00722
1.752 0.329 -0.025 1 0 0 0 0.0072300001
1.758 0.32499999 -0.024 1 0 0 0 0.0072400002
1.768 0.32100001 -0.024 1 0 0 0 0.0072499998
1.774 0.31600001 -0.023 1 0 0 0 0.0072599999
1.779 0.31099999 -0.022 1 0 0 0 0.0072699999
1.705 0.29300001 -0.021 7 0 0 0 0.00728
1.4450001 0.243 -0.017000001 6 0 0 0 0.0072900001
1.341 0.221 -0.015 4 0 0 0 0.0073000002
1.331 0.215 -0.015 6 0 0 0 0.0073099998
1.323 0.20999999 -0.014 14 0 0 0 0.0073199999
1.303 0.20200001 -0.013 150 0 0 0 0.0073299999
1.288 0.19599999 -0.013 150 0 0 0 0.00734
1.286 0.191 -0.012 150 0 0 0 0.0073500001
1.3099999 0.19 -0.012 96 0 0 0 0.0073600002
1.327 0.189 -0.012 10 0 0 0 0.0073699998
1.34 0.186 -0.011 5 0 0 0 0.0073799998
1.375 0.18700001 -0.011 6 0 0 0 0.0073899999
1.591 0.211 -0.012 8 0 0 0 0.0074
1.841 0.23800001 -0.014 7 0 0 0 0.0074100001
1.8839999 0.237 -0.014 12 0 0 0 0.0074200002
1.886 0.23199999 -0.013 12 0 0 0 0.0074300002
1.896 0.227 -0.013 14 0 0 0 0.0074399998
1.898 0.221 -0.012 14 0 0 0 0.0074499999
0 0 0 0 0 0 0 0.00746
0 0 0 0 0 0 0 0.0074700001
3.4809999 0.37099999 -0.02 28 0 0 0 0.0074800001
3.4690001 0.35800001 -0.018999999 24 0 0 0 0.0074900002
3.4579999 0.34599999 -0.017999999 18 0 0 0 0.0074999998
3.4590001 0.33500001 -0.017000001 21 0 0 0 0.0075099999
3.45 0.32300001 -0.016000001 11 0 0 0 0.00752
3.447 0.31099999 -0.015 13 0 0 0 0.0075300001
3.4400001 0.30000001 -0.014 15 0 0 0 0.0075400001
3.4319999 0.28799999 -0.013 26 0 0 0 0.0075500002
3.4330001 0.27700001 -0.012 27 0 0 0 0.0075599998
3.4330001 0.266 -0.012 27 0 0 0 0.0075699999
3.375 0.25 -0.011 150 0 0 0 0.00758
2.1059999 0.149 -0.0060000001 151 0 0 0 0.0075900001
2.0079999 0.13600001 -0.0049999999 150 0 0 0 0.0076000001
2.0039999 0.12899999 -0.0049999999 150 0 0 0 0.0076100002
2.0050001 0.122 -0.0049999999 150 0 0 0 0.0076199998
1.984 0.115 -0.0040000002 150 0 0 0 0.0076299999
1.902 0.104 -0.0040000002 14 0 0 0 0.00764
1.72 0.088 -0.003 6 0 0 0 0.00765
1.71 0.082000002 -0.003 7 0 0 0 0.0076600001
1.712 0.077 -0.0020000001 7 0 0 0 0.0076700002
1.701 0.071000002 -0.0020000001 8 0 0 0 0.0076799998
1.702 0.064999998 -0.0020000001 8 0 0 0 0.0076899999
1.699 0.059999999 -0.001 8 0 0 0 0.0077
1.697 0.054000001 -0.001 9 0 0 0 0.00771
1.683 0.048 -0.001 14 0 0 0 0.0077200001
1.653 0.041999999 -0.001 151 0 0 0 0.0077300002
1.64 0.035999998 0 151 0 0 0 0.0077399998
1.677 0.032000002 0 17 0 0 0 0.0077499999
1.689 0.026000001 0 12 0 0 0 0.0077599999
1.6849999 0.021 0 11 0 0 0 0.00777
1.7690001 0.016000001 0 50 0 0 0 0.0077800001
1.8380001 0.011 0 150 0 0 0 0.0077900002
1.9299999 0.0049999999 0 150 0 0 0 0.0077999998
1.928 0 0 150 0 0 0 0.0078099999
1.923 -0.0060000001 0 150 0 0 0 0.0078199999
1.898 -0.012 0 18 0 0 0 0.0078299996
1.895 -0.017999999 0 2 0 0 0 0.0078400001
1.566 -0.02 0 0 0 0 0 0.0078499997
1.5700001 -0.025 0 0 0 0 0 0.0078600002
1.582 -0.030999999 0 0 0 0 0 0.0078699999
1.735 -0.039000001 0.001 1 0 0 0 0.0078800004
1.6900001 -0.044 0.001 6 0 0 0 0.00789
1.6849999 -0.048999999 0.001 13 0 0 0 0.0078999996
1.598 -0.052000001 0.001 10 0 0 0 0.0079100002
1.559 -0.055 0.001 7 0 0 0 0.0079199998
1.551 -0.059999999 0.001 8 0 0 0 0.0079300003
1.551 -0.064999998 0.001 3 0 0 0 0.0079399999
1.508 -0.068000004 0.001 1 0 0 0 0.0079500005
1.409 -0.068000004 0.001 3 0 0 0 0.0079600001
1.376 -0.071000002 0.001 5 0 0 0 0.0079699997
1.367 -0.075000003 0.001 8 0 0 0 0.0079800002
1.35 -0.079000004 0.001 57 0 0 0 0.0079899998
1.332 -0.082000002 0.001 150 0 0 0 0.0080000004
1.318 -0.085000001 0 150 0 0 0 0.00801
1.331 -0.090000004 0 150 0 0 0 0.0080199996
1.355 -0.096000001 0 20 0 0 0 0.0080300001
1.365 -0.101 0 7 0 0 0 0.0080399998
1.377 -0.107 0 5 0 0 0 0.0080500003
1.416 -0.115 0 5 0 0 0 0.0080599999
1.467 -0.124 0 3 0 0 0 0.0080700004
1.484 -0.13 0 4 0 0 0 0.0080800001
1.477 -0.134 0 1 0 0 0 0.0080899997
1.48 -0.139 0 0 0 0 0 0.0081000002
1.4809999 -0.14399999 0 0 0 0 0 0.0081099998
1.498 -0.15099999 0 0 0 0 0 0.0081200004
1.4809999 -0.154 0 0 0 0 0 0.00813
1.49 -0.15899999 0 0 0 0 0 0.0081399996
1.476 -0.163 0 0 0 0 0 0.0081500001
1.473 -0.167 0 0 0 0 0 0.0081599997
1.45 -0.169 0 0 0 0 0 0.0081700003
1.474 -0.177 0 0 0 0 0 0.0081799999
1.478 -0.182 0 0 0 0 0 0.0081900004
1.457 -0.184 -0.001 1 0 0 0 0.0082
1.4450001 -0.18799999 -0.001 5 0 0 0 0.0082099997
1.444 -0.192 -0.001 7 0 0 0 0.0082200002
1.448 -0.198 -0.001 6 0 0 0 0.0082299998
1.45 -0.20299999 -0.0020000001 6 0 0 0 0.0082400003
1.448 -0.207 -0.0020000001 6 0 0 0 0.00825
1.442 -0.211 -0.0020000001 8 0 0 0 0.0082599996
1.441 -0.21600001 -0.0020000001 8 0 0 0 0.0082700001
1.448 -0.221 -0.003 8 0 0 0 0.0082799997
1.442 -0.22499999 -0.003 8 0 0 0 0.0082900003
1.449 -0.23100001 -0.003 7 0 0 0 0.0082999999
1.449 -0.236 -0.003 7 0 0 0 0.0083100004
1.454 -0.241 -0.0040000002 6 0 0 0 0.00832
1.4450001 -0.244 -0.0040000002 9 0 0 0 0.0083299996
1.444 -0.249 -0.0040000002 9 0 0 0 0.0083400002
1.449 -0.255 -0.0049999999 9 0 0 0 0.0083499998
1.444 -0.259 -0.0049999999 9 0 0 0 0.0083600003
1.456 -0.266 -0.0049999999 7 0 0 0 0.0083699999
1.457 -0.271 -0.0060000001 6 0 0 0 0.0083799995
1.454 -0.27500001 -0.0060000001 8 0 0 0 0.0083900001
1.4579999 -0.28 -0.0070000002 9 0 0 0 0.0083999997
1.4630001 -0.28600001 -0.0070000002 10 0 0 0 0.0084100002
1.47 -0.292 -0.0070000002 11 0 0 0 0.0084199999
1.48 -0.29899999 -0.0080000004 8 0 0 0 0.0084300004
1.58 -0.32499999 -0.0089999996 19 0 0 0 0.00844
1.61 -0.336 -0.0099999998 117 0 0 0 0.0084499996
1.6569999 -0.35100001 -0.0099999998 103 0 0 0 0.0084600002
1.705 -0.36700001 -0.011 17 0 0 0 0.0084699998
1.707 -0.373 -0.012 56 0 0 0 0.0084800003
1.701 -0.37799999 -0.012 96 0 0 0 0.0084899999
1.694 -0.382 -0.013 10 0 0 0 0.0085000005
1.6619999 -0.38 -0.013 8 0 0 0 0.0085100001
1.688 -0.391 -0.014 1 0 0 0 0.0085199997
1.6440001 -0.38699999 -0.014 0 0 0 0 0.0085300002
0 0 0 0 0 0 0 0.0085399998
0 0 0 0 0 0 0 0.0085500004
1.362 -0.33399999 -0.013 0 0 0 0 0.00856
1.365 -0.33899999 -0.014 0 0 0 0 0.0085699996
1.3279999 -0.33399999 -0.014 150 0 0 0 0.0085800001
1.304 -0.333 -0.014 151 0 0 0 0.0085899998
1.3049999 -0.33700001 -0.015 150 0 0 0 0.0086000003
1.358 -0.35499999 -0.016000001 0 0 0 0 0.0086099999
1.354 -0.359 -0.017000001 0 0 0 0 0.0086200004
1.39 -0.373 -0.017999999 0 0 0 0 0.0086300001
0 0 0 0 0 0 0 0.0086399997
1.473 -0.405 -0.02 0 0 0 0 0.0086500002
1.451 -0.40400001 -0.021 4 0 0 0 0.0086599998
1.403 -0.39500001 -0.021 150 0 0 0 0.0086700004
1.391 -0.39700001 -0.021 150 0 0 0 0.00868
1.4400001 -0.41499999 -0.022 10 0 0 0 0.0086899996
1.429 -0.417 -0.023 0 0 0 0 0.0087000001
1.448 -0.42699999 -0.024 0 0 0 0 0.0087099997
1.45 -0.433 -0.025 0 0 0 0 0.0087200003
1.446 -0.43599999 -0.026000001 0 0 0 0 0.0087299999
1.6390001 -0.5 -0.029999999 1 0 0 0 0.0087400004
1.6390001 -0.50599998 -0.030999999 54 0 0 0 0.00875
1.618 -0.505 -0.030999999 150 0 0 0 0.0087599996
1.615 -0.509 -0.032000002 150 0 0 0 0.0087700002
1.613 -0.514 -0.033 150 0 0 0 0.0087799998
1.608 -0.51700002 -0.034000002 150 0 0 0 0.0087900003
1.6059999 -0.52200001 -0.035 150 0 0 0 0.0088
1.602 -0.52600002 -0.035999998 150 0 0 0 0.0088099996
1.6 -0.53100002 -0.037 150 0 0 0 0.0088200001
1.598 -0.53600001 -0.037999999 150 0 0 0 0.0088299997
1.597 -0.54100001 -0.039000001 150 0 0 0 0.0088400003
1.5930001 -0.54500002 -0.039999999 150 0 0 0 0.0088499999
1.591 -0.54900002 -0.041000001 150 0 0 0 0.0088600004
1.5880001 -0.55400002 -0.041999999 150 0 0 0 0.00887
1.574 -0.55400002 -0.041999999 150 0 0 0 0.0088799996
1.5700001 -0.55800003 -0.043000001 150 0 0 0 0.0088900002
1.556 -0.55800003 -0.044 150 0 0 0 0.0088999998
1.541 -0.55800003 -0.045000002 150 0 0 0 0.0089100003
1.523 -0.55599999 -0.045000002 150 0 0 0 0.0089199999
1.533 -0.565 -0.046999998 92 0 0 0 0.0089299995
1.576 -0.58600003 -0.048999999 21 0 0 0 0.0089400001
0.55500001 -0.208 -0.017000001 0 0 0 0 0.0089499997
0.54000002 -0.204 -0.017000001 0 0 0 0 0.0089600002
0.54500002 -0.208 -0.017999999 0 0 0 0 0.0089699998
0.52899998 -0.204 -0.017999999 0 0 0 0 0.0089800004
0.551 -0.214 -0.018999999 0 0 0 0 0.00899
0.56300002 -0.221 -0.02 0 0 0 0 0.0089999996
0.56599998 -0.22400001 -0.02 0 0 0 0 0.0090100002
0.56599998 -0.22499999 -0.021 0 0 0 0 0.0090199998
0.57099998 -0.229 -0.022 0 0 0 0 0.0090300003
0.58600003 -0.237 -0.023 0 0 0 0 0.0090399999
0.59200001 -0.242 -0.023 0 0 0 0 0.0090500005
0.59200001 -0.243 -0.024 0 0 0 0 0.0090600001
0.56599998 -0.235 -0.023 0 0 0 0 0.0090699997
0.58999997 -0.24699999 -0.025 0 0 0 0 0.0090800002
0.59200001 -0.25 -0.026000001 0 0 0 0 0.0090899998
0.58700001 -0.249 -0.026000001 0 0 0 0 0.0091000004
0.60900003 -0.26100001 -0.027000001 0 0 0 0 0.00911
0.60900003 -0.26199999 -0.028000001 0 0 0 0 0.0091199996
0.60799998 -0.264 -0.028999999 0 0 0 0 0.0091300001
0.616 -0.27000001 -0.029999999 0 0 0 0 0.0091399997
0.62199998 -0.27399999 -0.029999999 0 0 0 0 0.0091500003
0.64999998 -0.289 -0.032000002 0 0 0 0 0.0091599999
0.66100001 -0.296 -0.034000002 0 0 0 0 0.0091700004
0.70099998 -0.31600001 -0.035999998 0 0 0 0 0.0091800001
1.4859999 -0.67500001 -0.079000004 1 0 0 0 0.0091899997
1.533 -0.70200002 -0.082999997 10 0 0 0 0.0092000002
1.502 -0.69199997 -0.082999997 71 0 0 0 0.0092099998
1.483 -0.68800002 -0.083999999 150 0 0 0 0.0092200004
1.475 -0.68900001 -0.085000001 150 0 0 0 0.00923
1.404 -0.66000003 -0.082000002 150 0 0 0 0.0092399996
1.326 -0.62800002 -0.079000004 48 0 0 0 0.0092500001
1.113 -0.52999997 -0.068000004 2 0 0 0 0.0092599997
1.099 -0.528 -0.068000004 1 0 0 0 0.0092700003
1.103 -0.53299999 -0.07 0 0 0 0 0.0092799999
1.123 -0.546 -0.071999997 0 0 0 0 0.0092900004
1.165 -0.56999999 -0.075999998 0 0 0 0 0.0093
1.498 -0.73799998 -0.1 2 0 0 0 0.0093099996
1.476 -0.73100001 -0.1 53 0 0 0 0.0093200002
1.473 -0.73500001 -0.102 150 0 0 0 0.0093299998
1.474 -0.74000001 -0.103 151 0 0 0 0.0093400003
1.469 -0.74199998 -0.105 151 0 0 0 0.0093499999
1.467 -0.745 -0.107 151 0 0 0 0.0093599996
1.4680001 -0.75 -0.108 151 0 0 0 0.0093700001
1.465 -0.75300002 -0.11 151 0 0 0 0.0093799997
1.4630001 -0.75700003 -0.112 151 0 0 0 0.0093900003
1.46 -0.759 -0.114 151 0 0 0 0.0093999999
1.46 -0.764 -0.115 151 0 0 0 0.0094100004
1.456 -0.76599997 -0.117 151 0 0 0 0.00942
1.454 -0.76899999 -0.119 151 0 0 0 0.0094299996
1.455 -0.77399999 -0.121 151 0 0 0 0.0094400002
1.4529999 -0.77700001 -0.122 151 0 0 0 0.0094499998
1.447 -0.778 -0.124 151 0 0 0 0.0094600003
1.447 -0.78299999 -0.126 151 0 0 0 0.0094699999
1.4450001 -0.78600001 -0.12800001 151 0 0 0 0.0094799995
1.4450001 -0.79000002 -0.13 151 0 0 0 0.0094900001
1.442 -0.792 -0.131 151 0 0 0 0.0094999997
1.4400001 -0.79500002 -0.133 151 0 0 0 0.0095100002
1.439 -0.79900002 -0.13500001 151 0 0 0 0.0095199998
1.4400001 -0.80299997 -0.13699999 151 0 0 0 0.0095300004
1.434 -0.80400002 -0.139 151 0 0 0 0.00954
1.434 -0.80800003 -0.141 151 0 0 0 0.0095499996
1.432 -0.81099999 -0.14300001 151 0 0 0 0.0095600002
1.432 -0.815 -0.145 151 0 0 0 0.0095699998
1.434 -0.81999999 -0.147 151 0 0 0 0.0095800003
1.432 -0.82300001 -0.149 151 0 0 0 0.0095899999
1.429 -0.824 -0.15099999 151 0 0 0 0.0096000005
1.429 -0.82800001 -0.153 151 0 0 0 0.0096100001
1.425 -0.82999998 -0.155 151 0 0 0 0.0096199997
1.425 -0.833 -0.15700001 151 0 0 0 0.0096300002
1.427 -0.838 -0.16 151 0 0 0 0.0096399998
1.423 -0.83999997 -0.161 151 0 0 0 0.0096500004
1.419 -0.84100002 -0.163 151 0 0 0 0.00966
1.4220001 -0.84600002 -0.16599999 151 0 0 0 0.0096699996
1.418 -0.847 -0.167 151 0 0 0 0.0096800001
1.418 -0.85000002 -0.17 151 0 0 0 0.0096899997
1.418 -0.85399997 -0.17200001 151 0 0 0 0.0097000003
1.414 -0.85500002 -0.17399999 151 0 0 0 0.0097099999
1.413 -0.85699999 -0.176 151 0 0 0 0.0097200004
1.409 -0.85799998 -0.178 151 0 0 0 0.00973
1.41 -0.86199999 -0.18000001 151 0 0 0 0.0097399997
1.408 -0.86400002 -0.182 151 0 0 0 0.0097500002
1.4069999 -0.866 -0.184 151 0 0 0 0.0097599998
1.405 -0.86799997 -0.186 151 0 0 0 0.0097700004
1.404 -0.87 -0.18799999 151 0 0 0 0.00978
1.402 -0.87199998 -0.191 151 0 0 0 0.0097899996
1.405 -0.87699997 -0.193 151 0 0 0 0.0098000001
1.404 -0.87900001 -0.19499999 151 0 0 0 0.0098099997
1.4069999 -0.884 -0.198 151 0 0 0 0.0098200003
1.401 -0.88300002 -0.2 151 0 0 0 0.0098299999
1.402 -0.88599998 -0.20200001 151 0 0 0 0.0098400004
1.4 -0.88700002 -0.204 151 0 0 0 0.00985
1.398 -0.889 -0.206 150 0 0 0 0.0098599996
1.401 -0.89300001 -0.20900001 150 0 0 0 0.0098700002
1.399 -0.89399999 -0.211 151 0 0 0 0.0098799998
1.399 -0.89700001 -0.214 150 0 0 0 0.0098900003
1.393 -0.89499998 -0.215 151 0 0 0 0.0098999999
1.396 -0.89899999 -0.21799999 151 0 0 0 0.0099099996
1.396 -0.90100002 -0.22 150 0 0 0 0.0099200001
1.395 -0.903 -0.222 150 0 0 0 0.0099299997
1.393 -0.90399998 -0.22400001 151 0 0 0 0.0099400003
1.392 -0.90499997 -0.227 150 0 0 0 0.0099499999
1.388 -0.90399998 -0.228 150 0 0 0 0.0099600004
1.387 -0.90600002 -0.23 150 0 0 0 0.00997
1.393 -0.912 -0.234 150 0 0 0 0.0099799996
1.392 -0.91299999 -0.236 150 0 0 0 0.0099900002
1.3890001 -0.912 -0.23800001 150 0 0 0 0.0099999998
1.391 -0.91500002 -0.241 150 0 0 0 0.01001
1.39 -0.91600001 -0.243 150 0 0 0 0.01002
1.388 -0.91600001 -0.245 150 0 0 0 0.01003
1.391 -0.92000002 -0.248 150 0 0 0 0.01004
1.3839999 -0.91600001 -0.249 150 0 0 0 0.01005
1.385 -0.91900003 -0.25099999 150 0 0 0 0.01006
1.3890001 -0.92199999 -0.25400001 150 0 0 0 0.01007
1.387 -0.92199999 -0.25600001 150 0 0 0 0.01008
1.386 -0.92299998 -0.25799999 150 0 0 0 0.01009
1.387 -0.92400002 -0.26100001 150 0 0 0 0.0101
1.383 -0.92299998 -0.26199999 150 0 0 0 0.01011
1.386 -0.92500001 -0.26499999 150 0 0 0 0.01012
1.386 -0.926 -0.26699999 150 0 0 0 0.01013
1.385 -0.926 -0.26899999 150 0 0 0 0.01014
1.385 -0.92699999 -0.271 150 0 0 0 0.01015
1.383 -0.926 -0.273 150 0 0 0 0.01016
1.385 -0.92799997 -0.27599999 150 0 0 0 0.01017
1.3839999 -0.92799997 -0.278 150 0 0 0 0.01018
1.3839999 -0.92799997 -0.28 150 0 0 0 0.01019
1.383 -0.92799997 -0.28200001 150 0 0 0 0.0102
1.383 -0.92799997 -0.28400001 150 0 0 0 0.01021
1.387 -0.93099999 -0.287 150 0 0 0 0.01022
1.381 -0.92699999 -0.28799999 150 0 0 0 0.01023
1.385 -0.93000001 -0.28999999 150 0 0 0 0.01024
1.3839999 -0.92900002 -0.292 17 0 0 0 0.01025
1.386 -0.93000001 -0.29499999 150 0 0 0 0.01026
1.386 -0.93000001 -0.29699999 150 0 0 0 0.01027
1.386 -0.92900002 -0.29899999 150 0 0 0 0.01028
1.386 -0.92900002 -0.301 150 0 0 0 0.01029
1.386 -0.92799997 -0.30199999 150 0 0 0 0.0103
1.38 -0.92400002 -0.303 150 0 0 0 0.01031
1.388 -0.92900002 -0.30700001 150 0 0 0 0.01032
1.388 -0.92799997 -0.30899999 150 0 0 0 0.01033
1.386 -0.926 -0.31 150 0 0 0 0.01034
1.388 -0.92699999 -0.31200001 150 0 0 0 0.01035
1.386 -0.92400002 -0.31400001 150 0 0 0 0.01036
1.3890001 -0.92500001 -0.31600001 150 0 0 0 0.01037
1.386 -0.92299998 -0.317 150 0 0 0 0.01038
1.3890001 -0.92299998 -0.31900001 150 0 0 0 0.01039
1.3890001 -0.92199999 -0.32100001 150 0 0 0 0.0104
1.387 -0.92000002 -0.322 150 0 0 0 0.01041
1.39 -0.92000002 -0.32499999 150 0 0 0 0.01042
1.39 -0.91900003 -0.32600001 150 0 0 0 0.01043
1.391 -0.91799998 -0.32800001 150 0 0 0 0.01044
1.391 -0.91600001 -0.33000001 150 0 0 0 0.01045
1.392 -0.91500002 -0.331 150 0 0 0 0.01046
1.391 -0.91299999 -0.333 150 0 0 0 0.01047
1.393 -0.912 -0.33500001 150 0 0 0 0.01048
1.393 -0.91100001 -0.336 150 0 0 0 0.01049
1.3940001 -0.91000003 -0.338 150 0 0 0 0.0105
1.397 -0.91000003 -0.34 150 0 0 0 0.01051
1.398 -0.90799999 -0.34099999 150 0 0 0 0.01052
1.396 -0.90499997 -0.34200001 150 0 0 0 0.01053
1.397 -0.903 -0.34299999 150 0 0 0 0.01054
1.397 -0.90100002 -0.345 150 0 0 0 0.01055
1.398 -0.89999998 -0.34599999 150 0 0 0 0.01056
1.401 -0.89899999 -0.34799999 150 0 0 0 0.01057
1.402 -0.898 -0.34900001 150 0 0 0 0.01058
1.403 -0.89600003 -0.35100001 150 0 0 0 0.01059
1.404 -0.89399999 -0.352 150 0 0 0 0.0106
1.405 -0.89200002 -0.35299999 150 0 0 0 0.01061
1.406 -0.88999999 -0.354 150 0 0 0 0.01062
1.4069999 -0.88800001 -0.35600001 150 0 0 0 0.01063
1.408 -0.88599998 -0.35699999 150 0 0 0 0.01064
1.409 -0.88300002 -0.35800001 150 0 0 0 0.01065
1.41 -0.88099998 -0.359 150 0 0 0 0.01066
1.409 -0.87699997 -0.359 150 0 0 0 0.01067
1.4119999 -0.87699997 -0.361 150 0 0 0 0.01068
1.414 -0.87400001 -0.36199999 150 0 0 0 0.01069
1.415 -0.87199998 -0.36300001 150 0 0 0 0.0107
1.416 -0.87 -0.36399999 150 0 0 0 0.01071
1.4170001 -0.86699998 -0.36500001 150 0 0 0 0.01072
1.419 -0.86500001 -0.366 150 0 0 0 0.01073
1.42 -0.86199999 -0.36700001 150 0 0 0 0.01074
1.421 -0.86000001 -0.368 150 0 0 0 0.01075
1.423 -0.85699999 -0.36899999 150 0 0 0 0.01076
1.424 -0.85500002 -0.36899999 150 0 0 0 0.01077
1.423 -0.85000002 -0.36899999 150 0 0 0 0.01078
1.427 -0.84899998 -0.37099999 150 0 0 0 0.01079
1.428 -0.84600002 -0.37200001 150 0 0 0 0.0108
1.4299999 -0.84399998 -0.37200001 150 0 0 0 0.01081
1.431 -0.84100002 -0.373 150 0 0 0 0.01082
1.433 -0.838 -0.373 150 0 0 0 0.01083
1.434 -0.83499998 -0.37400001 150 0 0 0 0.01084
1.436 -0.83200002 -0.375 150 0 0 0 0.01085
1.438 -0.82999998 -0.375 150 0 0 0 0.01086
1.439 -0.82599998 -0.37599999 150 0 0 0 0.01087
1.4400001 -0.82300001 -0.37599999 150 0 0 0 0.01088
1.442 -0.81999999 -0.37599999 150 0 0 0 0.01089
1.4450001 -0.81800002 -0.377 150 0 0 0 0.0109
1.4400001 -0.81099999 -0.37599999 150 0 0 0 0.01091
1.447 -0.81099999 -0.377 150 0 0 0 0.01092
1.449 -0.80800003 -0.37799999 150 0 0 0 0.01093
1.451 -0.80500001 -0.37799999 150 0 0 0 0.01094
1.4529999 -0.80199999 -0.37900001 150 0 0 0 0.01095
1.455 -0.79900002 -0.37900001 150 0 0 0 0.01096
1.456 -0.79500002 -0.37900001 150 0 0 0 0.01097
1.4579999 -0.792 -0.37900001 150 0 0 0 0.01098
1.46 -0.78899997 -0.37900001 150 0 0 0 0.01099
1.456 -0.78200001 -0.37799999 150 0 0 0 0.011
1.464 -0.78200001 -0.37900001 150 0 0 0 0.01101
1.465 -0.77899998 -0.37900001 150 0 0 0 0.01102
1.467 -0.77499998 -0.37900001 150 0 0 0 0.01103
1.469 -0.77200001 -0.37900001 150 0 0 0 0.01104
1.471 -0.76800001 -0.37900001 150 0 0 0 0.01105
1.473 -0.76499999 -0.37900001 150 0 0 0 0.01106
1.4680001 -0.75800002 -0.377 150 0 0 0 0.01107
1.476 -0.75800002 -0.37900001 150 0 0 0 0.01108
1.478 -0.75400001 -0.37900001 150 0 0 0 0.01109
1.48 -0.75099999 -0.37799999 150 0 0 0 0.0111
1.482 -0.74699998 -0.37799999 150 0 0 0 0.01111
1.484 -0.74299997 -0.37799999 150 0 0 0 0.01112
1.4859999 -0.74000001 -0.377 150 0 0 0 0.01113
1.488 -0.736 -0.377 150 0 0 0 0.01114
1.492 -0.73400003 -0.377 150 0 0 0 0.01115
1.4859999 -0.72600001 -0.375 150 0 0 0 0.01116
1.4960001 -0.72600001 -0.37599999 150 0 0 0 0.01117
1.498 -0.722 -0.37599999 150 0 0 0 0.01118
1.498 -0.71700001 -0.375 150 0 0 0 0.01119
1.502 -0.71499997 -0.375 150 0 0 0 0.0112
1.4960001 -0.70700002 -0.37200001 98 0 0 0 0.01121
1.408 -0.66100001 -0.34900001 18 0 0 0 0.01122
1.24 -0.57800001 -0.30700001 7 0 0 0 0.01123
1.137 -0.52700001 -0.28 2 0 0 0 0.01124
1.122 -0.51599997 -0.27599999 1 0 0 0 0.01125
1.119 -0.51099998 -0.27399999 1 0 0 0 0.01126
1.12 -0.50800002 -0.273 3 0 0 0 0.01127
1.115 -0.50199997 -0.271 5 0 0 0 0.01128
1.117 -0.49900001 -0.271 5 0 0 0 0.01129
1.1339999 -0.50300002 -0.27399999 8 0 0 0 0.0113
1.3660001 -0.602 -0.329 112 0 0 0 0.01131
1.447 -0.63300002 -0.347 150 0 0 0 0.01132
1.5089999 -0.65499997 -0.361 150 0 0 0 0.01133
1.418 -0.611 -0.33700001 150 0 0 0 0.01134
1.353 -0.579 -0.32100001 150 0 0 0 0.01135
1.284 -0.54500002 -0.303 150 0 0 0 0.01136
0.89600003 -0.37799999 -0.211 7 0 0 0 0.01137
0.85399997 -0.35699999 -0.2 0 0 0 0 0.01138
0.85100001 -0.35299999 -0.198 0 0 0 0 0.01139
0.85600001 -0.352 -0.198 0 0 0 0 0.0114
0.77700001 -0.317 -0.17900001 0 0 0 0 0.01141
0.70099998 -0.28400001 -0.161 0 0 0 0 0.01142
0.65499997 -0.26300001 -0.15000001 0 0 0 0 0.01143
0.65700001 -0.26199999 -0.15000001 0 0 0 0 0.01144
0.66100001 -0.26100001 -0.15000001 0 0 0 0 0.01145
0.64700001 -0.25400001 -0.146 0 0 0 0 0.01146
0.648 -0.252 -0.145 0 0 0 0 0.01147
0.60299999 -0.233 -0.13500001 0 0 0 0 0.01148
0.62300003 -0.23800001 -0.138 0 0 0 0 0.01149
0.60100001 -0.228 -0.133 0 0 0 0 0.0115
0.60600001 -0.228 -0.133 0 0 0 0 0.01151
0.60900003 -0.227 -0.133 0 0 0 0 0.01152
0.57099998 -0.211 -0.124 0 0 0 0 0.01153
0.574 -0.211 -0.124 0 0 0 0 0.01154
0.56900001 -0.207 -0.122 0 0 0 0 0.01155
0.56099999 -0.20200001 -0.12 0 0 0 0 0.01156
0.56199998 -0.2 -0.119 0 0 0 0 0.01157
0.55599999 -0.197 -0.117 0 0 0 0 0.01158
0.55299997 -0.19400001 -0.116 0 0 0 0 0.01159
0.54100001 -0.18799999 -0.113 0 0 0 0 0.0116
0.54500002 -0.18799999 -0.113 0 0 0 0 0.01161
0.54100001 -0.184 -0.111 0 0 0 0 0.01162
0.52499998 -0.177 -0.107 0 0 0 0 0.01163
0.55900002 -0.18700001 -0.114 0 0 0 0 0.01164
1.623 -0.53899997 -0.32800001 43 0 0 0 0.01165
1.5599999 -0.51300001 -0.31400001 92 0 0 0 0.01166
1.5650001 -0.50999999 -0.31200001 141 0 0 0 0.01167
1.571 -0.50700003 -0.31200001 150 0 0 0 0.01168
1.592 -0.50800002 -0.31400001 150 0 0 0 0.01169
1.605 -0.50800002 -0.31400001 150 0 0 0 0.0117
1.62 -0.50700003 -0.315 150 0 0 0 0.01171
1.62 -0.50199997 -0.31200001 150 0 0 0 0.01172
1.623 -0.498 -0.31099999 150 0 0 0 0.01173
1.626 -0.49399999 -0.30899999 150 0 0 0 0.01174
1.627 -0.48899999 -0.30700001 150 0 0 0 0.01175
1.63 -0.48500001 -0.30500001 150 0 0 0 0.01176
1.631 -0.48100001 -0.303 150 0 0 0 0.01177
1.6390001 -0.47799999 -0.30199999 150 0 0 0 0.01178
1.635 -0.47099999 -0.29899999 150 0 0 0 0.01179
1.64 -0.46799999 -0.29699999 150 0 0 0 0.0118
1.6440001 -0.46399999 -0.29499999 150 0 0 0 0.01181
1.643 -0.45899999 -0.29300001 150 0 0 0 0.01182
1.647 -0.45500001 -0.29100001 150 0 0 0 0.01183
1.651 -0.45100001 -0.289 150 0 0 0 0.01184
1.653 -0.447 -0.287 150 0 0 0 0.01185
1.652 -0.44100001 -0.285 150 0 0 0 0.01186
1.656 -0.43700001 -0.28299999 150 0 0 0 0.01187
1.664 -0.43399999 -0.28099999 150 0 0 0 0.01188
1.665 -0.43000001 -0.27900001 150 0 0 0 0.01189
1.6670001 -0.42500001 -0.27700001 150 0 0 0 0.0119
1.669 -0.421 -0.27500001 150 0 0 0 0.01191
1.671 -0.41600001 -0.27200001 150 0 0 0 0.01192
1.6720001 -0.41100001 -0.27000001 150 0 0 0 0.01193
1.679 -0.40799999 -0.26800001 150 0 0 0 0.01194
1.682 -0.40400001 -0.266 150 0 0 0 0.01195
1.684 -0.39899999 -0.264 150 0 0 0 0.01196
1.686 -0.39500001 -0.26100001 150 0 0 0 0.01197
1.688 -0.38999999 -0.259 150 0 0 0 0.01198
1.691 -0.38600001 -0.257 150 0 0 0 0.01199
1.693 -0.38100001 -0.25400001 150 0 0 0 0.012
1.7 -0.37799999 -0.25299999 150 0 0 0 0.01201
1.702 -0.373 -0.25 150 0 0 0 0.01202
1.706 -0.36899999 -0.248 61 0 0 0 0.01203
1.7079999 -0.36500001 -0.245 86 0 0 0 0.01204
1.702 -0.35800001 -0.242 69 0 0 0 0.01205
1.704 -0.354 -0.23899999 23 0 0 0 0.01206
1.734 -0.35499999 -0.241 10 0 0 0 0.01207
1.722 -0.347 -0.236 1 0 0 0 0.01208
1.258 -0.25 -0.17 0 0 0 0 0.01209
0.88999999 -0.17399999 -0.119 0 0 0 0 0.0121
0.84799999 -0.163 -0.112 0 0 0 0 0.01211
0.84799999 -0.161 -0.11 0 0 0 0 0.01212
0.82999998 -0.155 -0.107 0 0 0 0 0.01213
0.80400002 -0.148 -0.102 0 0 0 0 0.01214
0.75700003 -0.13699999 -0.094999999 0 0 0 0 0.01215
0.69800001 -0.125 -0.086000003 0 0 0 0 0.01216
0.65100002 -0.114 -0.079000004 0 0 0 0 0.01217
0.62599999 -0.108 -0.075000003 0 0 0 0 0.01218
0.61500001 -0.105 -0.072999999 0 0 0 0 0.01219
0.579 -0.097000003 -0.067000002 0 0 0 0 0.0122
0.56300002 -0.092 -0.064000003 0 0 0 0 0.01221
0.54900002 -0.089000002 -0.061999999 0 0 0 0 0.01222
0.54900002 -0.086999997 -0.061000001 0 0 0 0 0.01223
0.55000001 -0.086000003 -0.059999999 0 0 0 0 0.01224
0.542 -0.082999997 -0.057999998 0 0 0 0 0.01225
0.53399998 -0.079999998 -0.057 0 0 0 0 0.01226
0.52600002 -0.077 -0.055 0 0 0 0 0.01227
0.52600002 -0.075999998 -0.054000001 0 0 0 0 0.01228
0.528 -0.075000003 -0.052999999 0 0 0 0 0.01229
0.50700003 -0.07 -0.050000001 0 0 0 0 0.0123
0.51599997 -0.07 -0.050000001 0 0 0 0 0.01231
0.514 -0.068000004 -0.048999999 0 0 0 0 0.01232
0.52999997 -0.068999998 -0.048999999 0 0 0 0 0.01233
0.537 -0.068999998 -0.048999999 0 0 0 0 0.01234
0.542 -0.068000004 -0.048999999 0 0 0 0 0.01235
0.57800001 -0.071000002 -0.050999999 0 0 0 0 0.01236
1.263 -0.152 -0.109 0 0 0 0 0.01237
1.359 -0.16 -0.115 0 0 0 0 0.01238
1.437 -0.16500001 -0.119 5 0 0 0 0.01239
1.432 -0.16 -0.116 5 0 0 0 0.0124
1.451 -0.15800001 -0.115 1 0 0 0 0.01241
1.416 -0.15099999 -0.11 0 0 0 0 0.01242
1.4299999 -0.148 -0.108 0 0 0 0 0.01243
1.408 -0.142 -0.104 0 0 0 0 0.01244
1.025 -0.101 -0.074000001 0 0 0 0 0.01245
0.71399999 -0.068000004 -0.050000001 0 0 0 0 0.01246
0.67000002 -0.061999999 -0.046 0 0 0 0 0.01247
0.667 -0.059999999 -0.044 0 0 0 0 0.01248
0.73799998 -0.064000003 -0.046999998 0 0 0 0 0.01249
0.80699998 -0.068000004 -0.050000001 0 0 0 0 0.0125
0.86900002 -0.071000002 -0.052999999 0 0 0 0 0.01251
0.91500002 -0.072999999 -0.054000001 0 0 0 0 0.01252
0.95700002 -0.072999999 -0.055 0 0 0 0 0.01253
1.094 -0.081 -0.059999999 0 0 0 0 0.01254
1.272 -0.090999998 -0.068000004 0 0 0 0 0.01255
1.288 -0.089000002 -0.066 4 0 0 0 0.01256
1.309 -0.086999997 -0.064999998 106 0 0 0 0.01257
1.312 -0.082999997 -0.063000001 28 0 0 0 0.01258
1.2410001 -0.075999998 -0.057 2 0 0 0 0.01259
1.237 -0.071999997 -0.054000001 3 0 0 0 0.0126
1.244 -0.068999998 -0.052000001 3 0 0 0 0.01261
1.25 -0.066 -0.050000001 2 0 0 0 0.01262
1.255 -0.063000001 -0.048 2 0 0 0 0.01263
1.256 -0.059999999 -0.046 3 0 0 0 0.01264
1.2589999 -0.057 -0.043000001 3 0 0 0 0.01265
1.258 -0.054000001 -0.041000001 3 0 0 0 0.01266
1.258 -0.050000001 -0.037999999 3 0 0 0 0.01267
1.26 -0.046999998 -0.035999998 3 0 0 0 0.01268
1.267 -0.044 -0.034000002 3 0 0 0 0.01269
1.263 -0.041000001 -0.030999999 3 0 0 0 0.0127
1.261 -0.037 -0.028999999 3 0 0 0 0.01271
1.2640001 -0.034000002 -0.026000001 3 0 0 0 0.01272
1.268 -0.030999999 -0.024 2 0 0 0 0.01273
1.427 -0.030999999 -0.024 1 0 0 0 0.01274
1.554 -0.029999999 -0.023 1 0 0 0 0.01275
1.576 -0.026000001 -0.021 0 0 0 0 0.01276
1.6059999 -0.023 -0.017999999 0 0 0 0 0.01277
0 0 0 0 0 0 0 0.01278
1.949 -0.017999999 -0.014 0 0 0 0 0.01279
1.926 -0.013 -0.0099999998 22 0 0 0 0.0128
1.923 -0.0080000004 -0.0060000001 150 0 0 0 0.01281
1.915 -0.003 -0.0020000001 150 0 0 0 0.01282
1.936 0.001 0.001 150 0 0 0 0.01283
1.876 0.0060000001 0.0040000002 150 0 0 0 0.01284
1.8099999 0.0099999998 0.0080000004 85 0 0 0 0.01285
1.737 0.014 0.011 17 0 0 0 0.01286
1.694 0.017999999 0.014 8 0 0 0 0.01287
1.681 0.022 0.017000001 17 0 0 0 0.01288
1.681 0.027000001 0.021 61 0 0 0 0.01289
1.693 0.030999999 0.024 7 0 0 0 0.0129
1.693 0.035 0.028000001 2 0 0 0 0.01291
1.702 0.039999999 0.030999999 2 0 0 0 0.01292
1.7079999 0.044 0.035 4 0 0 0 0.01293
1.715 0.048999999 0.039000001 7 0 0 0 0.01294
1.712 0.052999999 0.041999999 8 0 0 0 0.01295
1.714 0.057 0.046 8 0 0 0 0.01296
1.72 0.061999999 0.048999999 9 0 0 0 0.01297
1.723 0.066 0.052999999 9 0 0 0 0.01298
1.725 0.071000002 0.057 9 0 0 0 0.01299
1.727 0.075000003 0.059999999 8 0 0 0 0.013
1.739 0.079999998 0.064000003 8 0 0 0 0.01301
1.749 0.085000001 0.068000004 8 0 0 0 0.01302
1.85 0.093999997 0.075999998 17 0 0 0 0.01303
1.911 0.102 0.082999997 83 0 0 0 0.01304
1.964 0.11 0.089000002 150 0 0 0 0.01305
1.9859999 0.116 0.093999997 150 0 0 0 0.01306
1.989 0.121 0.098999999 150 0 0 0 0.01307
1.993 0.126 0.103 150 0 0 0 0.01308
1.994 0.131 0.107 150 0 0 0 0.01309
2 0.13699999 0.112 150 0 0 0 0.0131
2.0120001 0.142 0.117 151 0 0 0 0.01311
4.1110001 0.30199999 0.248 82 0 0 0 0.01312
0 0 0 0 0 0 0 0.01313
4.1500001 0.32499999 0.26800001 86 0 0 0 0.01314
4.158 0.336 0.278 87 0 0 0 0.01315
4.1669998 0.347 0.287 88 0 0 0 0.01316
4.1739998 0.35699999 0.29699999 86 0 0 0 0.01317
4.1739998 0.368 0.30599999 86 0 0 0 0.01318
4.1810002 0.37799999 0.315 83 0 0 0 0.01319
4.1880002 0.389 0.32499999 84 0 0 0 0.0132
4.1989999 0.40000001 0.33500001 84 0 0 0 0.01321
4.204 0.41100001 0.345 85 0 0 0 0.01322
4.211 0.42199999 0.354 84 0 0 0 0.01323
4.2160001 0.43200001 0.36399999 84 0 0 0 0.01324
4.224 0.44400001 0.37400001 81 0 0 0 0.01325
4.2280002 0.454 0.384 72 0 0 0 0.01326
4.2379999 0.465 0.39399999 81 0 0 0 0.01327
4.2420001 0.47600001 0.40400001 71 0 0 0 0.01328
4.2470002 0.48699999 0.414 73 0 0 0 0.01329
4.2509999 0.498 0.42399999 82 0 0 0 0.0133
4.2579999 0.509 0.43399999 82 0 0 0 0.01331
4.263 0.51899999 0.44400001 80 0 0 0 0.01332
4.2680001 0.52999997 0.454 85 0 0 0 0.01333
4.2740002 0.54100001 0.46399999 84 0 0 0 0.01334
4.2779999 0.55199999 0.47400001 85 0 0 0 0.01335
4.283 0.56300002 0.48500001 84 0 0 0 0.01336
4.296 0.57499999 0.49599999 85 0 0 0 0.01337
4.2950001 0.58499998 0.50599998 85 0 0 0 0.01338
4.3049998 0.59600002 0.51700002 84 0 0 0 0.01339
4.3099999 0.60699999 0.52700001 82 0 0 0 0.0134
4.3140001 0.61799997 0.53799999 81 0 0 0 0.01341
4.3239999 0.63 0.54900002 82 0 0 0 0.01342
4.3260002 0.63999999 0.55900002 79 0 0 0 0.01343
4.3340001 0.65200001 0.56999999 80 0 0 0 0.01344
4.3460002 0.66399997 0.58200002 80 0 0 0 0.01345
4.348 0.67500001 0.59200001 79 0 0 0 0.01346
4.3590002 0.68699998 0.60399997 81 0 0 0 0.01347
4.3610001 0.69700003 0.61500001 89 0 0 0 0.01348
4.369 0.70899999 0.62599999 89 0 0 0 0.01349
4.3730001 0.72000003 0.63700002 87 0 0 0 0.0135
4.3829999 0.73100001 0.64899999 90 0 0 0 0.01351
4.3839998 0.74199998 0.65899998 85 0 0 0 0.01352
4.3730001 0.75 0.66799998 55 0 0 0 0.01353
4.3070002 0.74900001 0.66799998 27 0 0 0 0.01354
4.2480001 0.74800003 0.66900003 26 0 0 0 0.01355
4.184 0.74699998 0.66900003 27 0 0 0 0.01356
4.1259999 0.74599999 0.67000002 26 0 0 0 0.01357
4.0770001 0.74699998 0.67199999 28 0 0 0 0.01358
4.0190001 0.745 0.67199999 45 0 0 0 0.01359
4.0040002 0.75199997 0.67900002 24 0 0 0 0.0136
4.0009999 0.75999999 0.68900001 8 0 0 0 0.01361
4.0029998 0.76999998 0.699 6 0 0 0 0.01362
3.9990001 0.778 0.708 12 0 0 0 0.01363
4.0019999 0.78799999 0.71799999 67 0 0 0 0.01364
4.0110002 0.79900002 0.73000002 116 0 0 0 0.01365
4.0170002 0.80900002 0.741 117 0 0 0 0.01366
4.0159998 0.81800002 0.75 108 0 0 0 0.01367
4.0229998 0.829 0.76200002 113 0 0 0 0.01368
4.0289998 0.83899999 0.773 111 0 0 0 0.01369
4.0339999 0.84899998 0.78399998 108 0 0 0 0.0137
4.0419998 0.86000001 0.796 110 0 0 0 0.01371
4.0469999 0.87 0.80699998 110 0 0 0 0.01372
4.0539999 0.88099998 0.81900001 106 0 0 0 0.01373
4.059 0.89099997 0.82999998 105 0 0 0 0.01374
4.073 0.903 0.84299999 105 0 0 0 0.01375
4.0739999 0.912 0.85399997 100 0 0 0 0.01376
4.0809999 0.92299998 0.866 101 0 0 0 0.01377
4.085 0.93300003 0.87699997 99 0 0 0 0.01378
4.0939999 0.94400001 0.889 112 0 0 0 0.01379
4.092 0.95200002 0.89899999 110 0 0 0 0.0138
4.1009998 0.963 0.912 107 0 0 0 0.01381
4.1030002 0.97299999 0.92299998 104 0 0 0 0.01382
4.1110001 0.98400003 0.935 106 0 0 0 0.01383
4.112 0.99299997 0.94700003 105 0 0 0 0.01384
4.1160002 1.003 0.958 102 0 0 0 0.01385
4.1230001 1.0140001 0.97100002 103 0 0 0 0.01386
4.132 1.025 0.98400003 102 0 0 0 0.01387
4.1339998 1.034 0.995 101 0 0 0 0.01388
4.138 1.044 1.007 99 0 0 0 0.01389
4.1459999 1.0549999 1.02 99 0 0 0 0.0139
4.158 1.067 1.034 96 0 0 0 0.01391
4.1630001 1.077 1.046 98 0 0 0 0.01392
4.1690001 1.087 1.059 99 0 0 0 0.01393
4.1700001 1.096 1.0700001 98 0 0 0 0.01394
4.1760001 1.107 1.0829999 96 0 0 0 0.01395
4.1880002 1.118 1.098 94 0 0 0 0.01396
4.1900001 1.128 1.109 94 0 0 0 0.01397
4.1960001 1.138 1.122 95 0 0 0 0.01398
4.1960001 1.147 1.1339999 93 0 0 0 0.01399
4.211 1.16 1.149 94 0 0 0 0.014
4.2129998 1.169 1.161 93 0 0 0 0.01401
4.223 1.1799999 1.176 93 0 0 0 0.01402
4.2290001 1.1900001 1.189 90 0 0 0 0.01403
4.2319999 1.2 1.202 92 0 0 0 0.01404
4.2449999 1.212 1.217 89 0 0 0 0.01405
4.244 1.22 1.228 88 0 0 0 0.01406
4.3530002 1.26 1.272 150 0 0 0 0.01407
4.4990001 1.311 1.327 136 0 0 0 0.01408
4.6269999 1.358 1.378 76 0 0 0 0.01409
4.5890002 1.3559999 1.3789999 75 0 0 0 0.0141
4.553 1.354 1.381 75 0 0 0 0.01411
3.4530001 1.034 1.057 152 0 0 0 0.01412
3.1670001 0.954 0.97799999 27 0 0 0 0.01413
3.165 0.95999998 0.98699999 78 0 0 0 0.01414
3.1570001 0.963 0.99299997 78 0 0 0 0.01415
3.1530001 0.96799999 1.001 79 0 0 0 0.01416
3.1459999 0.972 1.008 78 0 0 0 0.01417
3.1400001 0.97600001 1.015 79 0 0 0 0.01418
3.1340001 0.98000002 1.021 79 0 0 0 0.01419
3.1300001 0.98400003 1.029 79 0 0 0 0.0142
3.122 0.98699999 1.036 79 0 0 0 0.01421
3.1159999 0.991 1.043 79 0 0 0 0.01422
3.112 0.99599999 1.05 79 0 0 0 0.01423
3.1029999 0.99800003 1.056 77 0 0 0 0.01424
3.099 1.002 1.063 87 0 0 0 0.01425
3.0940001 1.006 1.071 86 0 0 0 0.01426
3.086 1.0089999 1.077 85 0 0 0 0.01427
3.079 1.012 1.0829999 85 0 0 0 0.01428
3.076 1.017 1.091 86 0 0 0 0.01429
3.0710001 1.02 1.098 84 0 0 0 0.0143
3.0669999 1.024 1.105 85 0 0 0 0.01431
3.062 1.027 1.113 83 0 0 0 0.01432
3.0550001 1.03 1.119 79 0 0 0 0.01433
3.0510001 1.034 1.126 82 0 0 0 0.01434
3.0469999 1.0369999 1.1339999 80 0 0 0 0.01435
3.0369999 1.039 1.1390001 77 0 0 0 0.01436
3.0369999 1.044 1.148 79 0 0 0 0.01437
3.029 1.046 1.153 77 0 0 0 0.01438
3.0250001 1.049 1.16 77 0 0 0 0.01439
3.0209999 1.052 1.168 77 0 0 0 0.0144
3.016 1.0549999 1.175 79 0 0 0 0.01441
3.013 1.059 1.182 78 0 0 0 0.01442
3.0090001 1.062 1.189 78 0 0 0 0.01443
3.0039999 1.0650001 1.196 78 0 0 0 0.01444
3 1.067 1.204 77 0 0 0 0.01445
2.994 1.069 1.21 76 0 0 0 0.01446
2.9909999 1.073 1.217 77 0 0 0 0.01447
2.9890001 1.076 1.225 76 0 0 0 0.01448
2.9849999 1.079 1.232 76 0 0 0 0.01449
2.9779999 1.08 1.238 75 0 0 0 0.0145
2.9779999 1.084 1.247 77 0 0 0 0.01451
2.971 1.086 1.252 76 0 0 0 0.01452
2.967 1.0880001 1.2589999 73 0 0 0 0.01453
2.964 1.09 1.266 75 0 0 0 0.01454
2.96 1.0930001 1.273 73 0 0 0 0.01455
2.96 1.097 1.2819999 75 0 0 0 0.01456
2.9519999 1.097 1.2869999 73 0 0 0 0.01457
2.948 1.099 1.294 74 0 0 0 0.01458
2.9489999 1.103 1.303 73 0 0 0 0.01459
2.9460001 1.105 1.3099999 72 0 0 0 0.0146
2.938 1.105 1.3150001 73 0 0 0 0.01461
2.9360001 1.108 1.322 72 0 0 0 0.01462
2.9319999 1.109 1.329 71 0 0 0 0.01463
2.9330001 1.113 1.337 67 0 0 0 0.01464
2.9300001 1.114 1.344 59 0 0 0 0.01465
2.927 1.1160001 1.351 47 0 0 0 0.01466
2.938 1.123 1.364 42 0 0 0 0.01467
2.9219999 1.12 1.365 43 0 0 0 0.01468
2.895 1.112 1.36 56 0 0 0 0.01469
2.8699999 1.105 1.357 69 0 0 0 0.0147
2.8510001 1.1 1.3559999 68 0 0 0 0.01471
2.839 1.098 1.358 63 0 0 0 0.01472
2.8199999 1.092 1.3559999 64 0 0 0 0.01473
2.806 1.089 1.357 65 0 0 0 0.01474
2.7880001 1.084 1.3559999 62 0 0 0 0.01475
2.7750001 1.081 1.357 63 0 0 0 0.01476
2.7609999 1.0779999 1.357 61 0 0 0 0.01477
2.7509999 1.075 1.36 62 0 0 0 0.01478
2.737 1.072 1.36 63 0 0 0 0.01479
2.72 1.066 1.359 62 0 0 0 0.0148
2.7090001 1.063 1.36 62 0 0 0 0.01481
2.6919999 1.058 1.359 60 0 0 0 0.01482
2.6830001 1.056 1.3609999 60 0 0 0 0.01483
2.664 1.05 1.358 60 0 0 0 0.01484
2.658 1.048 1.362 63 0 0 0 0.01485
2.642 1.043 1.36 63 0 0 0 0.01486
2.6329999 1.041 1.362 65 0 0 0 0.01487
2.618 1.035 1.3609999 63 0 0 0 0.01488
2.605 1.031 1.36 64 0 0 0 0.01489
2.5940001 1.027 1.3609999 62 0 0 0 0.0149
2.582 1.023 1.36 64 0 0 0 0.01491
2.5780001 1.022 1.364 63 0 0 0 0.01492
2.562 1.016 1.362 64 0 0 0 0.01493
2.5550001 1.0140001 1.364 62 0 0 0 0.01494
2.5450001 1.01 1.365 66 0 0 0 0.01495
2.5350001 1.006 1.365 64 0 0 0 0.01496
2.5220001 1.001 1.363 65 0 0 0 0.01497
2.51 0.99599999 1.362 67 0 0 0 0.01498
2.4990001 0.99199998 1.362 66 0 0 0 0.01499
2.4960001 0.991 1.3660001 68 0 0 0 0.015
2.49 0.98799998 1.367 66 0 0 0 0.01501
2.4849999 0.986 1.37 64 0 0 0 0.01502
2.484 0.98500001 1.375 65 0 0 0 0.01503
2.487 0.98500001 1.382 64 0 0 0 0.01504
2.484 0.98400003 1.3839999 62 0 0 0 0.01505
2.4820001 0.98199999 1.388 62 0 0 0 0.01506
2.483 0.98199999 1.3940001 64 0 0 0 0.01507
2.4820001 0.98000002 1.397 62 0 0 0 0.01508
2.48 0.97899997 1.401 63 0 0 0 0.01509
2.4809999 0.97799999 1.406 63 0 0 0 0.0151
2.48 0.977 1.41 62 0 0 0 0.01511
2.4790001 0.97500002 1.413 62 0 0 0 0.01512
2.477 0.97299999 1.416 62 0 0 0 0.01513
2.48 0.97299999 1.4220001 62 0 0 0 0.01514
2.4779999 0.97100002 1.425 62 0 0 0 0.01515
2.4760001 0.96799999 1.428 60 0 0 0 0.01516
2.474 0.96600002 1.4299999 59 0 0 0 0.01517
2.473 0.96399999 1.433 59 0 0 0 0.01518
2.474 0.96200001 1.437 61 0 0 0 0.01519
2.473 0.95999998 1.4400001 61 0 0 0 0.0152
2.467 0.95599997 1.4400001 60 0 0 0 0.01521
2.471 0.95499998 1.446 59 0 0 0 0.01522
2.4679999 0.95200002 1.447 60 0 0 0 0.01523
2.4630001 0.94800001 1.447 58 0 0 0 0.01524
2.4619999 0.94499999 1.449 58 0 0 0 0.01525
2.4630001 0.94300002 1.4529999 59 0 0 0 0.01526
2.461 0.94 1.454 59 0 0 0 0.01527
2.461 0.93699998 1.457 61 0 0 0 0.01528
2.4590001 0.93400002 1.4579999 62 0 0 0 0.01529
2.454 0.93000001 1.4579999 61 0 0 0 0.0153
2.4519999 0.926 1.4579999 60 0 0 0 0.01531
2.4489999 0.92199999 1.459 62 0 0 0 0.01532
2.4489999 0.91900003 1.461 60 0 0 0 0.01533
2.4449999 0.91500002 1.46 63 0 0 0 0.01534
2.4430001 0.91100001 1.461 59 0 0 0 0.01535
2.4400001 0.90700001 1.461 60 0 0 0 0.01536
2.4389999 0.903 1.461 62 0 0 0 0.01537
2.438 0.89999998 1.462 60 0 0 0 0.01538
2.437 0.89600003 1.4630001 62 0 0 0 0.01539
2.434 0.89099997 1.462 63 0 0 0 0.0154
2.431 0.88700002 1.462 62 0 0 0 0.01541
2.4300001 0.88300002 1.462 63 0 0 0 0.01542
2.427 0.87900001 1.461 63 0 0 0 0.01543
2.425 0.87400001 1.461 61 0 0 0 0.01544
2.4189999 0.86799997 1.457 62 0 0 0 0.01545
2.4189999 0.86500001 1.4579999 64 0 0 0 0.01546
2.414 0.85900003 1.455 61 0 0 0 0.01547
2.415 0.85600001 1.456 62 0 0 0 0.01548
2.4100001 0.85000002 1.4529999 60 0 0 0 0.01549
2.4070001 0.84500003 1.451 63 0 0 0 0.0155
2.4030001 0.83899999 1.448 64 0 0 0 0.01551
2.404 0.83600003 1.449 65 0 0 0 0.01552
2.3989999 0.82999998 1.4450001 65 0 0 0 0.01553
2.3970001 0.82499999 1.444 63 0 0 0 0.01554
2.3889999 0.81900001 1.438 65 0 0 0 0.01555
2.3889999 0.815 1.438 63 0 0 0 0.01556
2.388 0.81 1.436 63 0 0 0 0.01557
2.3859999 0.80500001 1.434 62 0 0 0 0.01558
2.3800001 0.79900002 1.4299999 64 0 0 0 0.01559
2.375 0.79299998 1.425 65 0 0 0 0.0156
2.3710001 0.787 1.421 64 0 0 0 0.01561
2.3699999 0.78200001 1.42 61 0 0 0 0.01562
2.3670001 0.77700001 1.416 62 0 0 0 0.015629999
2.3640001 0.77100003 1.413 64 0 0 0 0.01564
2.362 0.76599997 1.41 63 0 0 0 0.01565
2.358 0.75999999 1.406 64 0 0 0 0.015659999
2.3599999 0.75599998 1.405 67 0 0 0 0.01567
2.3529999 0.74900001 1.399 65 0 0 0 0.01568
2.348 0.74299997 1.3940001 66 0 0 0 0.015690001
2.342 0.73699999 1.388 71 0 0 0 0.015699999
2.342 0.73199999 1.386 74 0 0 0 0.01571
2.342 0.727 1.383 77 0 0 0 0.01572
2.3440001 0.72299999 1.382 80 0 0 0 0.015729999
2.346 0.71899998 1.38 75 0 0 0 0.01574
2.348 0.71499997 1.3789999 77 0 0 0 0.01575
2.3510001 0.71100003 1.378 81 0 0 0 0.015760001
2.3529999 0.70700002 1.376 77 0 0 0 0.015769999
2.359 0.704 1.376 75 0 0 0 0.01578
2.3640001 0.70099998 1.377 81 0 0 0 0.015790001
2.3729999 0.69800001 1.3789999 75 0 0 0 0.015799999
2.378 0.69499999 1.378 74 0 0 0 0.01581
2.385 0.69199997 1.3789999 81 0 0 0 0.01582
2.388 0.68800002 1.377 74 0 0 0 0.015830001
2.3989999 0.68599999 1.38 75 0 0 0 0.01584
2.4059999 0.68300003 1.38 75 0 0 0 0.01585
2.408 0.67900002 1.377 73 0 0 0 0.015860001
2.414 0.67500001 1.377 72 0 0 0 0.015869999
2.4189999 0.67199999 1.376 76 0 0 0 0.01588
2.4300001 0.66900003 1.378 76 0 0 0 0.01589
2.4319999 0.66500002 1.375 70 0 0 0 0.015900001
2.448 0.66399997 1.3789999 78 0 0 0 0.01591
2.4549999 0.66100001 1.3789999 75 0 0 0 0.01592
2.4649999 0.65799999 1.38 81 0 0 0 0.015930001
2.4719999 0.65499997 1.38 84 0 0 0 0.015939999
2.4790001 0.65100002 1.3789999 74 0 0 0 0.01595
2.4879999 0.64899999 1.3789999 82 0 0 0 0.01596
2.4979999 0.64600003 1.38 82 0 0 0 0.015969999
2.5020001 0.64200002 1.377 75 0 0 0 0.01598
2.5150001 0.63999999 1.3789999 85 0 0 0 0.01599
2.5239999 0.63700002 1.3789999 81 0 0 0 0.016000001
2.529 0.63300002 1.377 81 0 0 0 0.016009999
2.5409999 0.63 1.378 88 0 0 0 0.01602
2.552 0.62699997 1.378 81 0 0 0 0.016030001
2.5580001 0.62400001 1.376 78 0 0 0 0.016039999
2.572 0.62199998 1.378 75 0 0 0 0.01605
2.5929999 0.62099999 1.3839999 87 0 0 0 0.01606
2.651 0.63 1.408 135 0 0 0 0.016070001
2.691 0.63300002 1.423 150 0 0 0 0.01608
2.743 0.63999999 1.4450001 106 0 0 0 0.01609
2.7620001 0.639 1.448 85 0 0 0 0.016100001
2.776 0.63599998 1.449 89 0 0 0 0.016109999
2.789 0.63300002 1.45 86 0 0 0 0.01612
2.7969999 0.62900001 1.447 82 0 0 0 0.01613
2.8150001 0.62800002 1.45 83 0 0 0 0.016140001
2.8269999 0.625 1.449 82 0 0 0 0.01615
2.8429999 0.62300003 1.451 81 0 0 0 0.01616
2.8529999 0.61900002 1.449 80 0 0 0 0.016170001
2.869 0.616 1.45 81 0 0 0 0.016179999
2.8800001 0.61299998 1.448 90 0 0 0 0.01619
2.892 0.61000001 1.446 88 0 0 0 0.0162
2.9070001 0.60699999 1.447 90 0 0 0 0.016209999
2.918 0.60299999 1.4450001 83 0 0 0 0.01622
2.9349999 0.60100001 1.446 85 0 0 0 0.01623
2.9489999 0.59799999 1.4450001 88 0 0 0 0.016240001
2.9649999 0.59600002 1.4450001 82 0 0 0 0.016249999
2.983 0.59299999 1.446 88 0 0 0 0.01626
2.9979999 0.58999997 1.4450001 83 0 0 0 0.01627
3.013 0.588 1.444 80 0 0 0 0.016279999
3.0280001 0.58499998 1.444 84 0 0 0 0.01629
3.046 0.58200002 1.444 82 0 0 0 0.0163
3.0610001 0.579 1.443 83 0 0 0 0.016310001
3.0769999 0.57599998 1.442 79 0 0 0 0.016319999
3.095 0.574 1.442 81 0 0 0 0.01633
3.115 0.57099998 1.443 78 0 0 0 0.016340001
3.1300001 0.56800002 1.441 74 0 0 0 0.016349999
3.152 0.56599998 1.443 77 0 0 0 0.01636
3.1689999 0.56300002 1.441 76 0 0 0 0.01637
3.181 0.56 1.438 76 0 0 0 0.016380001
3.2019999 0.55699998 1.439 77 0 0 0 0.01639
3.223 0.55500001 1.439 76 0 0 0 0.0164
3.233 0.551 1.434 89 0 0 0 0.016410001
3.253 0.54799998 1.434 93 0 0 0 0.016419999
3.2650001 0.54400003 1.4299999 53 0 0 0 0.01643
3.28 0.54100001 1.427 17 0 0 0 0.01644
3.3139999 0.54100001 1.432 2 0 0 0 0.016450001
3.3399999 0.53899997 1.434 2 0 0 0 0.01646
3.365 0.537 1.4349999 2 0 0 0 0.01647
3.3859999 0.53500003 1.434 2 0 0 0 0.016480001
3.4289999 0.53500003 1.442 5 0 0 0 0.016489999
3.4419999 0.53100002 1.438 25 0 0 0 0.0165
3.4560001 0.52700001 1.434 53 0 0 0 0.01651
3.4779999 0.52499998 1.433 69 0 0 0 0.016519999
3.503 0.52200001 1.432 67 0 0 0 0.01653
3.526 0.51999998 1.431 66 0 0 0 0.01654
3.5569999 0.51899999 1.434 67 0 0 0 0.016550001
3.586 0.51700002 1.434 69 0 0 0 0.016559999
3.6070001 0.514 1.432 67 0 0 0 0.01657
3.641 0.51200002 1.4349999 67 0 0 0 0.016580001
3.6670001 0.50999999 1.434 65 0 0 0 0.016589999
3.697 0.50800002 1.4349999 67 0 0 0 0.0166
3.7190001 0.505 1.432 65 0 0 0 0.01661
3.7460001 0.50300002 1.431 65 0 0 0 0.016620001
3.777 0.50099999 1.432 65 0 0 0 0.01663
3.8069999 0.49900001 1.432 65 0 0 0 0.01664
3.8410001 0.49700001 1.433 68 0 0 0 0.016650001
3.869 0.495 1.432 66 0 0 0 0.016659999
3.9000001 0.49200001 1.431 68 0 0 0 0.01667
3.9319999 0.49000001 1.431 68 0 0 0 0.01668
3.9690001 0.48899999 1.432 70 0 0 0 0.016690001
3.9920001 0.486 1.429 69 0 0 0 0.0167
4.0250001 0.48300001 1.428 70 0 0 0 0.01671
4.0609999 0.48100001 1.428 70 0 0 0 0.016720001
4.0869999 0.47799999 1.425 70 0 0 0 0.016729999
4.125 0.477 1.426 68 0 0 0 0.01674
4.0799999 0.465 1.398 150 0 0 0 0.01675
3.9360001 0.44299999 1.336 150 0 0 0 0.016759999
3.7920001 0.421 1.276 108 0 0 0 0.01677
3.7909999 0.41600001 1.2640001 108 0 0 0 0.01678
3.783 0.40900001 1.25 110 0 0 0 0.016790001
3.7809999 0.40400001 1.237 111 0 0 0 0.016799999
3.78 0.398 1.225 104 0 0 0 0.01681
3.773 0.39199999 1.211 100 0 0 0 0.01682
3.7720001 0.38699999 1.199 109 0 0 0 0.016829999
3.767 0.38100001 1.186 117 0 0 0 0.01684
3.7579999 0.375 1.171 125 0 0 0 0.01685
3.7579999 0.36899999 1.16 135 0 0 0 0.016860001
3.756 0.36399999 1.148 122 0 0 0 0.016869999
3.7490001 0.35800001 1.1339999 121 0 0 0 0.01688
3.7479999 0.35299999 1.122 124 0 0 0 0.016890001
3.7509999 0.34799999 1.1109999 136 0 0 0 0.016899999
3.7479999 0.34299999 1.099 141 0 0 0 0.01691
3.737 0.33700001 1.084 143 0 0 0 0.01692
3.737 0.33199999 1.072 139 0 0 0 0.016930001
3.7290001 0.32600001 1.058 141 0 0 0 0.01694
3.73 0.322 1.0470001 144 0 0 0 0.01695
3.7290001 0.317 1.035 144 0 0 0 0.016960001
3.7290001 0.31200001 1.023 150 0 0 0 0.016969999
3.721 0.30599999 1.0089999 150 0 0 0 0.01698
3.721 0.30199999 0.99800003 150 0 0 0 0.01699
3.7179999 0.29699999 0.98500001 150 0 0 0 0.017000001
3.7119999 0.292 0.972 150 0 0 0 0.01701
3.7149999 0.287 0.96200001 150 0 0 0 0.01702
3.7119999 0.28299999 0.949 150 0 0 0 0.017030001
3.7060001 0.278 0.93599999 150 0 0 0 0.017039999
3.7019999 0.273 0.92299998 150 0 0 0 0.01705
3.6989999 0.26800001 0.91100001 150 0 0 0 0.01706
3.7019999 0.264 0.89999998 150 0 0 0 0.017069999
3.687 0.25799999 0.88499999 150 0 0 0 0.01708
3.6860001 0.25400001 0.87300003 150 0 0 0 0.01709
3.6860001 0.25 0.86199999 150 0 0 0 0.017100001
3.6860001 0.245 0.85000002 150 0 0 0 0.017109999
