# .PCD v0.7 - Point Cloud Data file format
VERSION 0.7
FIELDS x y z intensity normal_x normal_y normal_z curvature
SIZE 4 4 4 4 4 4 4 4
TYPE F F F F F F F F
COUNT 1 1 1 1 1 1 1 1
WIDTH 1029
HEIGHT 1
VIEWPOINT 0 0 0 1 0 0 0
POINTS 1029
DATA ascii
1.214 0.146 -0.45899999 2 0 0 0 0.06515
1.214 0.146 -0.45500001 3 0 0 0 0.065159999
1.2130001 0.145 -0.44999999 3 0 0 0 0.065169998
1.215 0.14399999 -0.447 3 0 0 0 0.065180004
1.222 0.145 -0.44499999 3 0 0 0 0.065190002
1.223 0.14399999 -0.442 3 0 0 0 0.065200001
1.223 0.14300001 -0.43799999 4 0 0 0 0.06521
1.217 0.142 -0.43099999 4 0 0 0 0.065219998
1.219 0.141 -0.428 5 0 0 0 0.065229997
1.222 0.141 -0.42500001 4 0 0 0 0.065240003
1.22 0.14 -0.41999999 4 0 0 0 0.065250002
1.22 0.139 -0.41600001 5 0 0 0 0.065260001
1.223 0.139 -0.41299999 5 0 0 0 0.065269999
1.225 0.138 -0.41 5 0 0 0 0.065279998
1.226 0.13699999 -0.40599999 5 0 0 0 0.065289997
1.222 0.13600001 -0.40000001 4 0 0 0 0.065300003
1.221 0.13500001 -0.396 5 0 0 0 0.065310001
1.224 0.134 -0.39300001 5 0 0 0 0.06532
1.232 0.134 -0.391 3 0 0 0 0.065329999
1.23 0.133 -0.38699999 1 0 0 0 0.065339997
1.24 0.133 -0.38600001 1 0 0 0 0.065350004
1.237 0.132 -0.38100001 1 0 0 0 0.065360002
1.243 0.132 -0.37799999 1 0 0 0 0.065370001
1.248 0.132 -0.37599999 1 0 0 0 0.06538
1.248 0.13 -0.37099999 1 0 0 0 0.065389998
1.244 0.12899999 -0.366 1 0 0 0 0.065399997
1.251 0.12899999 -0.36399999 1 0 0 0 0.065410003
1.2460001 0.127 -0.359 1 0 0 0 0.065420002
1.251 0.127 -0.35600001 1 0 0 0 0.06543
1.253 0.126 -0.352 1 0 0 0 0.065439999
1.257 0.125 -0.34900001 1 0 0 0 0.065449998
1.257 0.124 -0.345 1 0 0 0 0.065459996
1.255 0.123 -0.34099999 1 0 0 0 0.065470003
1.26 0.122 -0.338 1 0 0 0 0.065480001
1.26 0.121 -0.33399999 1 0 0 0 0.06549
1.261 0.12 -0.33000001 1 0 0 0 0.065499999
1.263 0.12 -0.32699999 1 0 0 0 0.065509997
1.267 0.119 -0.32300001 1 0 0 0 0.065520003
1.266 0.118 -0.31900001 1 0 0 0 0.065530002
1.275 0.117 -0.317 1 0 0 0 0.065540001
1.274 0.116 -0.31299999 1 0 0 0 0.065549999
1.272 0.115 -0.308 1 0 0 0 0.065559998
1.28 0.114 -0.30599999 1 0 0 0 0.065569997
1.279 0.113 -0.30199999 1 0 0 0 0.065580003
1.276 0.111 -0.29699999 1 0 0 0 0.065590002
1.284 0.111 -0.29499999 1 0 0 0 0.0656
1.285 0.11 -0.29100001 1 0 0 0 0.065609999
1.2869999 0.109 -0.287 1 0 0 0 0.065619998
1.288 0.108 -0.28299999 1 0 0 0 0.065629996
1.286 0.106 -0.27900001 1 0 0 0 0.065640002
1.2920001 0.105 -0.27599999 1 0 0 0 0.065650001
1.295 0.104 -0.27200001 1 0 0 0 0.06566
1.2970001 0.103 -0.26800001 1 0 0 0 0.065669999
1.296 0.102 -0.264 1 0 0 0 0.065679997
1.3 0.101 -0.26100001 1 0 0 0 0.065690003
1.304 0.1 -0.25799999 1 0 0 0 0.065700002
1.307 0.098999999 -0.25400001 1 0 0 0 0.065710001
1.306 0.097999997 -0.25 1 0 0 0 0.065719999
1.3099999 0.096000001 -0.24600001 1 0 0 0 0.065729998
1.306 0.094999999 -0.241 1 0 0 0 0.065739997
1.316 0.093999997 -0.23899999 1 0 0 0 0.065750003
1.314 0.093000002 -0.235 1 0 0 0 0.065760002
1.317 0.092 -0.23100001 1 0 0 0 0.06577
1.319 0.090000004 -0.227 1 0 0 0 0.065779999
1.316 0.089000002 -0.223 1 0 0 0 0.065789998
1.322 0.088 -0.22 1 0 0 0 0.065800004
1.326 0.086999997 -0.21600001 1 0 0 0 0.065810002
1.3279999 0.085000001 -0.212 1 0 0 0 0.065820001
1.33 0.083999999 -0.208 1 0 0 0 0.06583
1.323 0.082000002 -0.20299999 1 0 0 0 0.065839998
1.33 0.081 -0.2 1 0 0 0 0.065849997
1.34 0.079999998 -0.198 1 0 0 0 0.065860003
1.342 0.079000004 -0.19400001 1 0 0 0 0.065870002
1.339 0.077 -0.189 1 0 0 0 0.065880001
1.348 0.075999998 -0.186 1 0 0 0 0.065889999
1.344 0.075000003 -0.182 1 0 0 0 0.065899998
1.35 0.072999999 -0.178 1 0 0 0 0.065909997
1.353 0.071999997 -0.17399999 1 0 0 0 0.065920003
1.358 0.071000002 -0.171 1 0 0 0 0.065930001
1.355 0.068999998 -0.16599999 1 0 0 0 0.06594
1.349 0.067000002 -0.161 1 0 0 0 0.065949999
1.3279999 0.064999998 -0.155 1 0 0 0 0.065959997
1.353 0.064000003 -0.154 2 0 0 0 0.065970004
1.085 0.050000001 -0.12 0 0 0 0 0.065980002
0.90899998 0.041000001 -0.097999997 0 0 0 0 0.065990001
0.85000002 0.037 -0.089000002 0 0 0 0 0.066
0.85699999 0.035999998 -0.086999997 0 0 0 0 0.066009998
0.84899998 0.035 -0.082999997 0 0 0 0 0.066019997
0.84600002 0.034000002 -0.079999998 0 0 0 0 0.066030003
0.83700001 0.033 -0.077 0 0 0 0 0.066040002
0.82300001 0.030999999 -0.072999999 0 0 0 0 0.06605
0.82300001 0.029999999 -0.071000002 0 0 0 0 0.066059999
0.81999999 0.028999999 -0.068000004 0 0 0 0 0.066069998
0.81300002 0.028000001 -0.064999998 0 0 0 0 0.066079997
0.82099998 0.027000001 -0.063000001 0 0 0 0 0.066090003
0.82499999 0.026000001 -0.061000001 0 0 0 0 0.066100001
0.83099997 0.025 -0.059 0 0 0 0 0.06611
0.84799999 0.025 -0.057999998 0 0 0 0 0.066119999
0.89499998 0.025 -0.057999998 0 0 0 0 0.066129997
1.358 0.037 -0.083999999 0 0 0 0 0.066140004
1.416 0.035999998 -0.083999999 0 0 0 0 0.066150002
1.3710001 0.034000002 -0.077 0 0 0 0 0.066160001
1.308 0.029999999 -0.068999998 0 0 0 0 0.06617
1.359 0.029999999 -0.068000004 0 0 0 0 0.066179998
1.441 0.029999999 -0.068000004 0 0 0 0 0.066189997
1.432 0.028000001 -0.063000001 1 0 0 0 0.066200003
1.436 0.026000001 -0.059 1 0 0 0 0.066210002
1.436 0.024 -0.055 1 0 0 0 0.06622
1.4450001 0.023 -0.050999999 1 0 0 0 0.066229999
1.447 0.021 -0.046999998 1 0 0 0 0.066239998
1.449 0.018999999 -0.041999999 1 0 0 0 0.066249996
1.457 0.017000001 -0.037999999 1 0 0 0 0.066260003
1.457 0.015 -0.034000002 1 0 0 0 0.066270001
1.46 0.013 -0.029999999 1 0 0 0 0.06628
1.464 0.011 -0.026000001 1 0 0 0 0.066289999
1.462 0.0099999998 -0.021 1 0 0 0 0.066299997
1.465 0.0080000004 -0.017000001 1 0 0 0 0.066310003
1.471 0.0060000001 -0.013 1 0 0 0 0.066320002
1.469 0.0040000002 -0.0080000004 1 0 0 0 0.066330001
1.471 0.0020000001 -0.0040000002 1 0 0 0 0.066339999
1.474 0 0 1 0 0 0 0.066349998
1.478 -0.001 0.0040000002 1 0 0 0 0.066359997
1.48 -0.003 0.0080000004 1 0 0 0 0.066370003
1.487 -0.0049999999 0.013 1 0 0 0 0.066380002
1.4859999 -0.0070000002 0.017000001 1 0 0 0 0.06639
1.4910001 -0.0089999996 0.021 2 0 0 0 0.066399999
1.498 -0.012 0.026000001 2 0 0 0 0.066409998
1.499 -0.014 0.029999999 2 0 0 0 0.066419996
1.503 -0.016000001 0.035 2 0 0 0 0.066430002
1.506 -0.017999999 0.039000001 2 0 0 0 0.066440001
1.505 -0.02 0.044 1 0 0 0 0.06645
4.79 -0.071000002 0.154 2 0 0 0 0.066459998
4.7649999 -0.077 0.167 4 0 0 0 0.066469997
4.7940001 -0.085000001 0.182 8 0 0 0 0.066480003
4.8060002 -0.092 0.19599999 8 0 0 0 0.066490002
4.803 -0.097999997 0.20999999 8 0 0 0 0.066500001
4.8109999 -0.106 0.22400001 8 0 0 0 0.066509999
4.8169999 -0.113 0.23899999 8 0 0 0 0.066519998
4.8260002 -0.12 0.25299999 8 0 0 0 0.066529997
4.829 -0.127 0.26800001 8 0 0 0 0.066540003
4.8319998 -0.134 0.28200001 8 0 0 0 0.066550002
3.5929999 -0.105 0.22 0 0 0 0 0.06656
4.842 -0.148 0.31 8 0 0 0 0.066569999
4.8569999 -0.156 0.32600001 8 0 0 0 0.066579998
4.8540001 -0.163 0.33899999 8 0 0 0 0.066590004
3.6730001 -0.12899999 0.26699999 0 0 0 0 0.066600002
3.599 -0.131 0.27200001 0 0 0 0 0.066610001
4.869 -0.185 0.38299999 8 0 0 0 0.06662
3.6730001 -0.145 0.29899999 0 0 0 0 0.066629998
3.6429999 -0.149 0.30700001 0 0 0 0 0.066639997
4.882 -0.207 0.426 8 0 0 0 0.066650003
3.01 -0.132 0.271 0 0 0 0 0.066660002
4.8959999 -0.223 0.45500001 8 0 0 0 0.066670001
2.98 -0.14 0.28600001 0 0 0 0 0.066679999
3.0309999 -0.147 0.29899999 0 0 0 0 0.066689998
3.638 -0.182 0.37 0 0 0 0 0.066699997
3.0840001 -0.15899999 0.322 0 0 0 0 0.066710003
3.0469999 -0.162 0.32699999 1 0 0 0 0.066720001
3.056 -0.167 0.33700001 4 0 0 0 0.06673
3.0550001 -0.17200001 0.34599999 4 0 0 0 0.066739999
2.892 -0.167 0.33500001 0 0 0 0 0.066749997
5.1110001 -0.30399999 0.60799998 64 0 0 0 0.066760004
5.1009998 -0.31200001 0.62199998 64 0 0 0 0.066770002
5.085 -0.31799999 0.634 58 0 0 0 0.066780001
5.0640001 -0.32499999 0.64600003 28 0 0 0 0.06679
4.5479999 -0.29899999 0.59299999 3 0 0 0 0.066799998
4.5949998 -0.31 0.61199999 0 0 0 0 0.066809997
4.5910001 -0.317 0.625 1 0 0 0 0.066820003
4.5630002 -0.322 0.634 1 0 0 0 0.066830002
4.5339999 -0.32800001 0.64300001 1 0 0 0 0.06684
4.5149999 -0.33399999 0.653 2 0 0 0 0.066849999
4.6500001 -0.35100001 0.68599999 8 0 0 0 0.066859998
4.697 -0.36199999 0.70599997 12 0 0 0 0.066869996
4.698 -0.37 0.72000003 11 0 0 0 0.066880003
4.6560001 -0.375 0.727 3 0 0 0 0.066890001
4.6389999 -0.38100001 0.73699999 3 0 0 0 0.0669
4.645 -0.389 0.75199997 31 0 0 0 0.066909999
4.6259999 -0.39500001 0.76200002 64 0 0 0 0.066919997
4.6149998 -0.40200001 0.773 82 0 0 0 0.066930003
4.6079998 -0.40900001 0.78500003 91 0 0 0 0.066940002
4.5949998 -0.41600001 0.796 90 0 0 0 0.066950001
4.5840001 -0.42300001 0.80699998 92 0 0 0 0.06696
4.5780001 -0.43000001 0.81900001 93 0 0 0 0.066969998
4.5669999 -0.43700001 0.82999998 92 0 0 0 0.066979997
4.5609999 -0.44400001 0.84200001 95 0 0 0 0.066990003
4.5500002 -0.45100001 0.85299999 92 0 0 0 0.067000002
4.5419998 -0.458 0.86400002 95 0 0 0 0.06701
4.5289998 -0.465 0.87400001 92 0 0 0 0.067019999
4.5219998 -0.472 0.88599998 100 0 0 0 0.067029998
4.5089998 -0.479 0.89600003 94 0 0 0 0.067039996
4.4990001 -0.48500001 0.90600002 93 0 0 0 0.067050003
4.4920001 -0.493 0.91799998 91 0 0 0 0.067060001
4.4790001 -0.49900001 0.92799997 92 0 0 0 0.06707
4.4699998 -0.50599998 0.93800002 93 0 0 0 0.067079999
4.4590001 -0.51300001 0.949 94 0 0 0 0.067089997
4.4499998 -0.51999998 0.95899999 95 0 0 0 0.067100003
4.4419999 -0.52700001 0.97000003 95 0 0 0 0.067110002
4.4310002 -0.53399998 0.98000002 97 0 0 0 0.067120001
4.4229999 -0.54100001 0.99000001 95 0 0 0 0.067129999
4.4070001 -0.54699999 0.99900001 94 0 0 0 0.067139998
4.4039998 -0.55500001 1.011 94 0 0 0 0.067149997
4.395 -0.56199998 1.021 96 0 0 0 0.067160003
4.3790002 -0.56800002 1.03 96 0 0 0 0.067170002
4.3730001 -0.57599998 1.041 96 0 0 0 0.06718
4.3610001 -0.58200002 1.05 98 0 0 0 0.067189999
4.3559999 -0.58999997 1.061 99 0 0 0 0.067199998
4.3439999 -0.597 1.0700001 98 0 0 0 0.067209996
4.3330002 -0.60299999 1.079 100 0 0 0 0.067220002
4.3239999 -0.61000001 1.089 99 0 0 0 0.067230001
4.316 -0.61699998 1.099 99 0 0 0 0.06724
4.3070002 -0.625 1.109 97 0 0 0 0.067249998
4.2940001 -0.63099998 1.117 97 0 0 0 0.067259997
4.2849998 -0.63800001 1.127 99 0 0 0 0.067270003
4.2740002 -0.64499998 1.136 97 0 0 0 0.067280002
4.2659998 -0.65200001 1.145 99 0 0 0 0.067290001
4.2589998 -0.65899998 1.155 100 0 0 0 0.067299999
4.2490001 -0.66600001 1.164 97 0 0 0 0.067309998
4.2379999 -0.67299998 1.1720001 99 0 0 0 0.067319997
4.2309999 -0.68000001 1.182 99 0 0 0 0.067330003
4.217 -0.68599999 1.1900001 99 0 0 0 0.067340001
4.2119999 -0.69400001 1.2 101 0 0 0 0.06735
4.198 -0.69999999 1.207 100 0 0 0 0.067359999
4.1900001 -0.70700002 1.216 103 0 0 0 0.067369998
4.177 -0.713 1.224 102 0 0 0 0.067380004
4.1690001 -0.72100002 1.233 106 0 0 0 0.067390002
4.1609998 -0.72799999 1.242 101 0 0 0 0.067400001
4.1479998 -0.73400003 1.249 103 0 0 0 0.06741
4.138 -0.741 1.257 100 0 0 0 0.067419998
4.1279998 -0.74800003 1.265 102 0 0 0 0.067429997
4.118 -0.755 1.273 99 0 0 0 0.067440003
4.1100001 -0.76200002 1.2819999 98 0 0 0 0.067450002
4.0970001 -0.76800001 1.289 97 0 0 0 0.067460001
4.0929999 -0.77600002 1.298 101 0 0 0 0.067469999
4.0799999 -0.78200001 1.3049999 99 0 0 0 0.067479998
4.0739999 -0.79000002 1.314 100 0 0 0 0.067489997
4.1170001 -0.80699998 1.339 150 0 0 0 0.067500003
4.1919999 -0.83099997 1.375 150 0 0 0 0.067510001
4.2280002 -0.847 1.398 150 0 0 0 0.06752
4.2989998 -0.87099999 1.432 150 0 0 0 0.067529999
4.3730001 -0.89499998 1.469 78 0 0 0 0.067539997
4.3590002 -0.90200001 1.475 69 0 0 0 0.067550004
4.3319998 -0.90600002 1.477 71 0 0 0 0.067560002
4.2989998 -0.90899998 1.477 71 0 0 0 0.067570001
4.2649999 -0.91100001 1.477 71 0 0 0 0.06758
4.2389998 -0.91500002 1.479 83 0 0 0 0.067589998
4.2090001 -0.91799998 1.479 82 0 0 0 0.067599997
4.1760001 -0.92000002 1.478 83 0 0 0 0.067610003
4.1490002 -0.92299998 1.479 84 0 0 0 0.067620002
4.1240001 -0.92699999 1.4809999 82 0 0 0 0.06763
4.0910001 -0.92900002 1.479 81 0 0 0 0.067639999
4.0640001 -0.93199998 1.48 83 0 0 0 0.067649998
4.0359998 -0.935 1.48 80 0 0 0 0.067659996
4.0089998 -0.93800002 1.48 81 0 0 0 0.067670003
3.983 -0.94099998 1.4809999 82 0 0 0 0.067680001
3.9619999 -0.94499999 1.483 82 0 0 0 0.06769
3.937 -0.949 1.483 83 0 0 0 0.067699999
3.915 -0.95200002 1.485 80 0 0 0 0.067709997
3.8900001 -0.95499998 1.485 79 0 0 0 0.067720003
3.868 -0.95899999 1.4859999 80 0 0 0 0.067730002
3.8469999 -0.963 1.487 80 0 0 0 0.067740001
3.8269999 -0.96700001 1.489 81 0 0 0 0.067749999
3.7980001 -0.96799999 1.487 81 0 0 0 0.067759998
3.7780001 -0.972 1.488 83 0 0 0 0.067769997
3.7579999 -0.97600001 1.489 81 0 0 0 0.067780003
3.737 -0.98000002 1.489 80 0 0 0 0.067790002
3.7179999 -0.98299998 1.4910001 82 0 0 0 0.0678
3.6949999 -0.986 1.49 81 0 0 0 0.067809999
3.674 -0.98900002 1.49 79 0 0 0 0.067819998
3.6570001 -0.99400002 1.492 79 0 0 0 0.067829996
3.635 -0.99699998 1.4910001 78 0 0 0 0.067840002
3.6140001 -1 1.4910001 84 0 0 0 0.067850001
3.598 -1.0039999 1.493 84 0 0 0 0.06786
3.5799999 -1.008 1.493 84 0 0 0 0.067869999
3.5599999 -1.011 1.493 84 0 0 0 0.067879997
3.539 -1.0140001 1.492 86 0 0 0 0.067890003
3.526 -1.0190001 1.495 85 0 0 0 0.067900002
3.5120001 -1.023 1.4960001 86 0 0 0 0.067910001
3.493 -1.026 1.4960001 85 0 0 0 0.067919999
3.4790001 -1.031 1.497 87 0 0 0 0.067929998
3.461 -1.034 1.497 86 0 0 0 0.067939997
3.4430001 -1.0369999 1.497 86 0 0 0 0.067950003
3.427 -1.041 1.497 86 0 0 0 0.067960002
3.4059999 -1.043 1.495 85 0 0 0 0.06797
3.395 -1.048 1.497 85 0 0 0 0.067979999
3.3699999 -1.049 1.493 84 0 0 0 0.067989998
3.362 -1.0549999 1.497 85 0 0 0 0.068000004
3.342 -1.057 1.494 84 0 0 0 0.068010002
3.3310001 -1.062 1.4960001 86 0 0 0 0.068020001
3.3169999 -1.066 1.4960001 86 0 0 0 0.06803
3.3039999 -1.0700001 1.497 83 0 0 0 0.068039998
3.2920001 -1.074 1.498 88 0 0 0 0.068049997
0 0 0 0 0 0 0 0.068060003
2.039 -0.676 0.935 151 0 0 0 0.068070002
1.944 -0.64899999 0.89499998 151 0 0 0 0.068080001
1.933 -0.64999998 0.89399999 150 0 0 0 0.068089999
1.9299999 -0.65399998 0.89600003 150 0 0 0 0.068099998
1.931 -0.65899998 0.89999998 150 0 0 0 0.068109997
1.932 -0.66399997 0.90399998 110 0 0 0 0.068120003
1.938 -0.671 0.91000003 100 0 0 0 0.068130001
1.9450001 -0.67900002 0.917 98 0 0 0 0.06814
1.95 -0.685 0.92199999 102 0 0 0 0.068149999
1.9579999 -0.69300002 0.92900002 125 0 0 0 0.068159997
1.961 -0.699 0.93400002 150 0 0 0 0.068170004
1.962 -0.704 0.93800002 150 0 0 0 0.068180002
1.954 -0.70599997 0.93699998 150 0 0 0 0.068190001
1.9529999 -0.70999998 0.93900001 150 0 0 0 0.0682
1.941 -0.71100003 0.93599999 150 0 0 0 0.068209998
1.944 -0.71700001 0.94099998 150 0 0 0 0.068219997
1.939 -0.72000003 0.94099998 150 0 0 0 0.068230003
1.929 -0.72100002 0.93900001 150 0 0 0 0.068240002
1.927 -0.72500002 0.94099998 150 0 0 0 0.06825
1.92 -0.727 0.94 150 0 0 0 0.068259999
1.916 -0.73000002 0.94099998 150 0 0 0 0.068269998
1.9119999 -0.73400003 0.94199997 150 0 0 0 0.068279997
1.91 -0.73799998 0.94300002 150 0 0 0 0.068290003
1.905 -0.74000001 0.94300002 150 0 0 0 0.068300001
1.902 -0.74400002 0.94400001 150 0 0 0 0.06831
1.9 -0.74800003 0.94499999 150 0 0 0 0.068319999
1.893 -0.74900001 0.94400001 150 0 0 0 0.068329997
1.8940001 -0.75400001 0.94599998 150 0 0 0 0.068340003
1.885 -0.755 0.94400001 150 0 0 0 0.068350002
1.883 -0.759 0.94499999 150 0 0 0 0.068360001
1.881 -0.76200002 0.94599998 150 0 0 0 0.06837
1.872 -0.76300001 0.94300002 150 0 0 0 0.068379998
1.8710001 -0.76700002 0.94400001 150 0 0 0 0.068389997
1.865 -0.76899999 0.94300002 150 0 0 0 0.068400003
1.8609999 -0.77200001 0.94199997 150 0 0 0 0.068410002
1.859 -0.77499998 0.94300002 150 0 0 0 0.06842
1.852 -0.77600002 0.94099998 150 0 0 0 0.068429999
1.852 -0.77999997 0.94199997 150 0 0 0 0.068439998
1.849 -0.78299999 0.94199997 150 0 0 0 0.068449996
1.844 -0.78500003 0.94099998 150 0 0 0 0.068460003
1.837 -0.78600001 0.93800002 150 0 0 0 0.068470001
1.8380001 -0.79100001 0.94 150 0 0 0 0.06848
1.834 -0.79299998 0.93900001 150 0 0 0 0.068489999
1.832 -0.796 0.93900001 150 0 0 0 0.068499997
1.826 -0.79699999 0.93699998 150 0 0 0 0.068510003
1.825 -0.801 0.93699998 150 0 0 0 0.068520002
1.819 -0.80199999 0.93400002 150 0 0 0 0.068530001
1.817 -0.80500001 0.93400002 150 0 0 0 0.068539999
1.8150001 -0.80699998 0.93400002 150 0 0 0 0.068549998
1.814 -0.81 0.93400002 150 0 0 0 0.068559997
1.808 -0.81099999 0.93099999 150 0 0 0 0.068570003
1.804 -0.81300002 0.92900002 150 0 0 0 0.068580002
1.803 -0.81599998 0.92900002 150 0 0 0 0.06859
1.8 -0.81800002 0.92799997 150 0 0 0 0.068599999
1.7920001 -0.81800002 0.92400002 150 0 0 0 0.068609998
1.791 -0.82099998 0.92299998 150 0 0 0 0.068619996
1.79 -0.824 0.92299998 150 0 0 0 0.068630002
1.789 -0.82599998 0.92199999 150 0 0 0 0.068640001
1.785 -0.82800001 0.92000002 150 0 0 0 0.06865
1.785 -0.83099997 0.92000002 150 0 0 0 0.068659998
1.778 -0.82999998 0.91600001 150 0 0 0 0.068669997
1.777 -0.833 0.91500002 150 0 0 0 0.068680003
1.774 -0.83499998 0.91299999 150 0 0 0 0.068690002
1.771 -0.83600003 0.91100001 150 0 0 0 0.068700001
1.768 -0.83700001 0.90899998 150 0 0 0 0.068709999
1.771 -0.84100002 0.90899998 150 0 0 0 0.068719998
1.767 -0.84200001 0.90700001 150 0 0 0 0.068729997
1.766 -0.84500003 0.90499997 150 0 0 0 0.068740003
1.766 -0.847 0.90399998 150 0 0 0 0.068750001
1.7640001 -0.84799999 0.90200001 150 0 0 0 0.06876
1.763 -0.85000002 0.89999998 150 0 0 0 0.068769999
1.755 -0.84899998 0.89499998 150 0 0 0 0.068779998
1.755 -0.85100001 0.89399999 150 0 0 0 0.068790004
1.7539999 -0.85299999 0.89300001 150 0 0 0 0.068800002
1.751 -0.85299999 0.889 150 0 0 0 0.068810001
1.75 -0.85500002 0.88700002 150 0 0 0 0.06882
1.749 -0.85699999 0.88499999 150 0 0 0 0.068829998
1.751 -0.86000001 0.88499999 150 0 0 0 0.068839997
1.748 -0.86000001 0.88200003 150 0 0 0 0.068850003
1.748 -0.86199999 0.88 150 0 0 0 0.068860002
1.748 -0.86299998 0.87800002 150 0 0 0 0.068870001
1.744 -0.86299998 0.87400001 150 0 0 0 0.068879999
1.7460001 -0.866 0.87300003 150 0 0 0 0.068889998
1.742 -0.86500001 0.86900002 150 0 0 0 0.068899997
1.739 -0.866 0.866 150 0 0 0 0.068910003
1.73 -0.86199999 0.85900003 150 0 0 0 0.068920001
1.73 -0.86400002 0.85699999 150 0 0 0 0.06893
1.73 -0.86500001 0.85500002 150 0 0 0 0.068939999
1.7309999 -0.866 0.85299999 150 0 0 0 0.068949997
1.73 -0.86699998 0.85000002 150 0 0 0 0.068960004
1.728 -0.86699998 0.847 150 0 0 0 0.068970002
1.729 -0.86799997 0.84500003 150 0 0 0 0.068980001
1.729 -0.87 0.84299999 150 0 0 0 0.06899
1.732 -0.87199998 0.84100002 150 0 0 0 0.068999998
1.729 -0.87099999 0.83700001 150 0 0 0 0.069009997
1.728 -0.87099999 0.83399999 150 0 0 0 0.069020003
1.73 -0.87300003 0.83200002 150 0 0 0 0.069030002
1.729 -0.87300003 0.829 150 0 0 0 0.06904
1.7309999 -0.87400001 0.82700002 150 0 0 0 0.069049999
1.732 -0.875 0.824 150 0 0 0 0.069059998
1.733 -0.87599999 0.82200003 150 0 0 0 0.069069996
1.734 -0.87599999 0.81900001 150 0 0 0 0.069080003
1.729 -0.87400001 0.81400001 150 0 0 0 0.069090001
1.73 -0.875 0.81099999 150 0 0 0 0.0691
1.7309999 -0.875 0.80800003 150 0 0 0 0.069109999
1.732 -0.87599999 0.80500001 150 0 0 0 0.069119997
1.733 -0.87599999 0.80299997 150 0 0 0 0.069130003
1.7359999 -0.87699997 0.801 150 0 0 0 0.069140002
1.726 -0.87199998 0.79299998 150 0 0 0 0.069150001
1.711 -0.86400002 0.78200001 150 0 0 0 0.069159999
1.694 -0.85500002 0.77100003 150 0 0 0 0.069169998
1.682 -0.84799999 0.76200002 150 0 0 0 0.069179997
1.6720001 -0.84299999 0.755 150 0 0 0 0.069190003
1.673 -0.84299999 0.75099999 150 0 0 0 0.069200002
1.674 -0.84299999 0.74800003 150 0 0 0 0.06921
1.675 -0.84200001 0.745 150 0 0 0 0.069219999
1.6799999 -0.84399998 0.74400002 150 0 0 0 0.069229998
1.682 -0.84399998 0.741 114 0 0 0 0.069239996
1.691 -0.84799999 0.741 76 0 0 0 0.069250003
1.7 -0.852 0.74199998 64 0 0 0 0.069260001
1.715 -0.85799998 0.74400002 63 0 0 0 0.06927
1.7180001 -0.85799998 0.741 62 0 0 0 0.069279999
1.722 -0.85900003 0.73900002 59 0 0 0 0.069289997
1.732 -0.86199999 0.74000001 52 0 0 0 0.069300003
1.743 -0.86699998 0.741 58 0 0 0 0.069310002
1.7589999 -0.87300003 0.74299997 57 0 0 0 0.069320001
1.7640001 -0.87400001 0.741 58 0 0 0 0.069329999
1.776 -0.87900001 0.74199998 50 0 0 0 0.069339998
1.786 -0.88200003 0.74199998 51 0 0 0 0.069349997
1.796 -0.88499999 0.74199998 48 0 0 0 0.069360003
1.809 -0.889 0.74299997 45 0 0 0 0.069370002
1.817 -0.89200002 0.74199998 44 0 0 0 0.06938
1.829 -0.89499998 0.74199998 44 0 0 0 0.069389999
1.841 -0.89899999 0.74299997 46 0 0 0 0.069399998
1.852 -0.903 0.74299997 44 0 0 0 0.069410004
1.864 -0.90600002 0.74299997 45 0 0 0 0.069420002
1.875 -0.90899998 0.74299997 44 0 0 0 0.069430001
1.886 -0.912 0.74199998 43 0 0 0 0.06944
1.897 -0.91500002 0.74199998 41 0 0 0 0.069449998
1.911 -0.92000002 0.74299997 42 0 0 0 0.069459997
1.924 -0.92299998 0.74299997 41 0 0 0 0.069470003
1.934 -0.926 0.74199998 40 0 0 0 0.069480002
1.946 -0.92799997 0.74199998 40 0 0 0 0.069490001
1.965 -0.935 0.74400002 39 0 0 0 0.069499999
1.977 -0.93800002 0.74400002 39 0 0 0 0.069509998
1.9910001 -0.94099998 0.74400002 39 0 0 0 0.069519997
2 -0.94300002 0.74199998 37 0 0 0 0.069530003
2.016 -0.94700003 0.74299997 37 0 0 0 0.069540001
2.0320001 -0.95200002 0.74400002 36 0 0 0 0.06955
2.0510001 -0.95700002 0.74599999 37 0 0 0 0.069559999
2.0669999 -0.96100003 0.74599999 37 0 0 0 0.069569997
2.0829999 -0.96499997 0.74599999 37 0 0 0 0.069580004
2.122 -0.98000002 0.755 150 0 0 0 0.069590002
2.2609999 -1.04 0.79900002 151 0 0 0 0.069600001
2.3399999 -1.073 0.82099998 151 0 0 0 0.06961
2.6240001 -1.198 0.91299999 151 0 0 0 0.069619998
3.1700001 -1.442 1.096 150 0 0 0 0.069629997
3.191 -1.446 1.095 129 0 0 0 0.069640003
3.197 -1.442 1.089 132 0 0 0 0.069650002
3.201 -1.438 1.082 131 0 0 0 0.069660001
3.2049999 -1.434 1.075 134 0 0 0 0.069669999
3.2090001 -1.4299999 1.068 114 0 0 0 0.069679998
3.2130001 -1.426 1.061 115 0 0 0 0.069689997
3.2249999 -1.425 1.057 115 0 0 0 0.069700003
3.23 -1.42 1.05 121 0 0 0 0.069710001
3.2309999 -1.415 1.043 117 0 0 0 0.06972
3.2390001 -1.4119999 1.0369999 110 0 0 0 0.069729999
3.243 -1.4069999 1.03 107 0 0 0 0.069739997
3.2490001 -1.403 1.024 108 0 0 0 0.069750004
3.2550001 -1.399 1.017 107 0 0 0 0.069760002
3.2620001 -1.395 1.011 94 0 0 0 0.069770001
3.27 -1.392 1.005 99 0 0 0 0.06978
3.276 -1.387 0.99900001 110 0 0 0 0.069789998
3.279 -1.382 0.991 106 0 0 0 0.069799997
3.2850001 -1.377 0.98500001 110 0 0 0 0.069810003
3.293 -1.374 0.97899997 105 0 0 0 0.069820002
3.2980001 -1.368 0.972 109 0 0 0 0.06983
3.3080001 -1.365 0.96700001 117 0 0 0 0.069839999
3.312 -1.36 0.95999998 113 0 0 0 0.069849998
3.3169999 -1.354 0.95300001 112 0 0 0 0.069859996
3.3210001 -1.349 0.94599998 110 0 0 0 0.069870003
3.325 -1.3430001 0.93900001 109 0 0 0 0.069880001
3.3329999 -1.339 0.93300003 107 0 0 0 0.06989
3.342 -1.334 0.92699999 108 0 0 0 0.069899999
3.3469999 -1.329 0.92000002 108 0 0 0 0.069909997
3.3599999 -1.326 0.91600001 111 0 0 0 0.069920003
3.362 -1.319 0.90799999 107 0 0 0 0.069930002
3.372 -1.3150001 0.903 109 0 0 0 0.069940001
3.375 -1.309 0.89499998 109 0 0 0 0.069949999
3.3800001 -1.302 0.88800001 108 0 0 0 0.069959998
3.391 -1.299 0.88300002 108 0 0 0 0.069969997
3.3959999 -1.2920001 0.87599999 107 0 0 0 0.069980003
3.408 -1.289 0.87099999 109 0 0 0 0.069990002
3.415 -1.283 0.86500001 109 0 0 0 0.07
3.425 -1.279 0.85900003 110 0 0 0 0.070009999
3.4289999 -1.272 0.852 111 0 0 0 0.070019998
3.4400001 -1.267 0.84600002 114 0 0 0 0.070029996
3.4460001 -1.261 0.83999997 113 0 0 0 0.070040002
3.451 -1.255 0.833 107 0 0 0 0.070050001
3.4630001 -1.25 0.82700002 111 0 0 0 0.07006
3.4690001 -1.244 0.82099998 107 0 0 0 0.070069999
3.477 -1.238 0.815 112 0 0 0 0.070079997
3.4849999 -1.233 0.80900002 109 0 0 0 0.070090003
3.494 -1.227 0.80199999 106 0 0 0 0.070100002
3.5050001 -1.222 0.79699999 111 0 0 0 0.070110001
3.5120001 -1.215 0.79000002 105 0 0 0 0.070119999
3.52 -1.209 0.78399998 98 0 0 0 0.070129998
3.529 -1.204 0.778 93 0 0 0 0.070139997
3.5339999 -1.196 0.77100003 92 0 0 0 0.070150003
3.546 -1.191 0.76599997 95 0 0 0 0.070160002
3.55 -1.183 0.759 95 0 0 0 0.07017
3.5580001 -1.177 0.75199997 97 0 0 0 0.070179999
3.5710001 -1.1720001 0.74699998 78 0 0 0 0.070189998
3.645 -1.187 0.75400001 30 0 0 0 0.070200004
3.707 -1.197 0.759 19 0 0 0 0.070210002
3.743 -1.199 0.75800002 19 0 0 0 0.070220001
3.7820001 -1.202 0.75800002 18 0 0 0 0.07023
3.822 -1.205 0.75700003 18 0 0 0 0.070239998
3.858 -1.206 0.75599998 19 0 0 0 0.070249997
3.8989999 -1.2079999 0.755 19 0 0 0 0.070260003
3.941 -1.211 0.755 20 0 0 0 0.070270002
3.973 -1.21 0.75300002 18 0 0 0 0.070280001
4.026 -1.216 0.75400001 21 0 0 0 0.070289999
4.0770001 -1.221 0.755 33 0 0 0 0.070299998
4.1110001 -1.22 0.75199997 52 0 0 0 0.070309997
4.1240001 -1.2130001 0.74599999 65 0 0 0 0.070320003
4.1360002 -1.205 0.73900002 71 0 0 0 0.070330001
4.1500001 -1.198 0.73299998 69 0 0 0 0.07034
4.1599998 -1.1900001 0.72600001 67 0 0 0 0.070349999
4.1739998 -1.183 0.72000003 67 0 0 0 0.070359997
4.1810002 -1.174 0.71200001 67 0 0 0 0.070370004
4.191 -1.165 0.70499998 67 0 0 0 0.070380002
4.204 -1.158 0.699 67 0 0 0 0.070390001
4.2129998 -1.149 0.69199997 67 0 0 0 0.0704
4.23 -1.142 0.68599999 70 0 0 0 0.070409998
4.2410002 -1.133 0.67900002 68 0 0 0 0.070419997
4.2509999 -1.124 0.67199999 68 0 0 0 0.070430003
4.2649999 -1.117 0.66600001 68 0 0 0 0.070440002
4.2820001 -1.109 0.66000003 62 0 0 0 0.07045
4.2919998 -1.1 0.653 61 0 0 0 0.070459999
4.3000002 -1.091 0.64499998 62 0 0 0 0.070469998
4.3179998 -1.0829999 0.639 56 0 0 0 0.070479997
4.3260002 -1.074 0.63200003 60 0 0 0 0.070490003
4.3369999 -1.0650001 0.625 61 0 0 0 0.070500001
4.3499999 -1.056 0.61799997 60 0 0 0 0.07051
4.3610001 -1.0470001 0.611 60 0 0 0 0.070519999
4.3759999 -1.038 0.60500002 61 0 0 0 0.070529997
4.388 -1.029 0.59799999 61 0 0 0 0.070540003
4.3969998 -1.0190001 0.59100002 60 0 0 0 0.070550002
4.414 -1.011 0.58499998 60 0 0 0 0.070560001
4.4310002 -1.002 0.57800001 61 0 0 0 0.07057
4.4400001 -0.99199998 0.57099998 60 0 0 0 0.070579998
4.4569998 -0.98400003 0.565 59 0 0 0 0.070589997
4.4710002 -0.97399998 0.55800003 58 0 0 0 0.070600003
4.4790001 -0.96399999 0.551 59 0 0 0 0.070610002
4.4959998 -0.95499998 0.54400003 58 0 0 0 0.07062
4.5110002 -0.94499999 0.53799999 58 0 0 0 0.070629999
4.5240002 -0.93599999 0.53100002 58 0 0 0 0.070639998
4.54 -0.926 0.52399999 58 0 0 0 0.070649996
4.5560002 -0.917 0.51800001 58 0 0 0 0.070660003
4.5619998 -0.90499997 0.50999999 57 0 0 0 0.070670001
4.5799999 -0.89600003 0.50400001 58 0 0 0 0.07068
4.592 -0.88599998 0.49700001 51 0 0 0 0.070689999
4.6059999 -0.87599999 0.49000001 58 0 0 0 0.070699997
4.6160002 -0.86500001 0.48199999 58 0 0 0 0.070710003
4.6360002 -0.85600001 0.47600001 58 0 0 0 0.070720002
4.6469998 -0.84500003 0.46900001 56 0 0 0 0.070730001
4.6609998 -0.83399999 0.46200001 51 0 0 0 0.070739999
4.677 -0.824 0.456 52 0 0 0 0.070749998
4.6900001 -0.81300002 0.449 52 0 0 0 0.070759997
4.7059999 -0.80299997 0.442 55 0 0 0 0.070770003
4.7220001 -0.792 0.435 56 0 0 0 0.070780002
4.737 -0.78200001 0.428 57 0 0 0 0.07079
4.7480001 -0.76999998 0.421 57 0 0 0 0.070799999
4.7670002 -0.75999999 0.414 56 0 0 0 0.070809998
4.7820001 -0.74900001 0.40700001 58 0 0 0 0.070819996
4.796 -0.73699999 0.40000001 57 0 0 0 0.070830002
4.8150001 -0.727 0.39300001 57 0 0 0 0.070840001
4.8299999 -0.71499997 0.38600001 55 0 0 0 0.07085
4.8400002 -0.70300001 0.37900001 55 0 0 0 0.070859998
4.8579998 -0.69199997 0.37200001 55 0 0 0 0.070869997
4.8779998 -0.68099999 0.36500001 61 0 0 0 0.070880003
4.881 -0.66799998 0.35699999 45 0 0 0 0.070890002
4.6799998 -0.62699997 0.33500001 102 0 0 0 0.070900001
4.52 -0.59299999 0.31600001 89 0 0 0 0.070909999
4.5170002 -0.57999998 0.308 71 0 0 0 0.070919998
4.493 -0.56400001 0.29899999 63 0 0 0 0.070929997
4.4809999 -0.55000001 0.29100001 64 0 0 0 0.070940003
4.473 -0.53600001 0.28299999 62 0 0 0 0.070950001
4.4629998 -0.52200001 0.27500001 58 0 0 0 0.07096
4.454 -0.50800002 0.26699999 76 0 0 0 0.070969999
4.4460001 -0.495 0.25999999 80 0 0 0 0.070979998
4.434 -0.48100001 0.252 79 0 0 0 0.070990004
4.421 -0.46700001 0.244 80 0 0 0 0.071000002
4.4109998 -0.45300001 0.236 81 0 0 0 0.071010001
4.4060001 -0.44 0.229 81 0 0 0 0.07102
4.3889999 -0.426 0.221 80 0 0 0 0.071029998
4.3800001 -0.41299999 0.213 77 0 0 0 0.071039997
4.3649998 -0.39899999 0.206 71 0 0 0 0.071050003
4.3600001 -0.38600001 0.199 81 0 0 0 0.071060002
4.3460002 -0.373 0.191 95 0 0 0 0.071070001
4.3390002 -0.36000001 0.184 132 0 0 0 0.071079999
4.3369999 -0.347 0.177 150 0 0 0 0.071089998
4.3400002 -0.33500001 0.171 150 0 0 0 0.071099997
4.3590002 -0.324 0.16500001 100 0 0 0 0.071110003
4.4809999 -0.31999999 0.162 70 0 0 0 0.071120001
4.4949999 -0.308 0.156 96 0 0 0 0.07113
4.5050001 -0.296 0.149 112 0 0 0 0.071139999
0 0 0 0 0 0 0 0.071149997
0 0 0 0 0 0 0 0.071160004
3.0810001 -0.176 0.088 0 0 0 0 0.071170002
0 0 0 0 0 0 0 0.071180001
0 0 0 0 0 0 0 0.07119
1.522 -0.072999999 0.035999998 1 0 0 0 0.071199998
1.518 -0.068999998 0.034000002 1 0 0 0 0.071209997
1.518 -0.064999998 0.032000002 1 0 0 0 0.071220003
1.518 -0.059999999 0.028999999 1 0 0 0 0.071230002
1.517 -0.056000002 0.027000001 1 0 0 0 0.07124
1.513 -0.050999999 0.025 1 0 0 0 0.071249999
1.503 -0.046999998 0.023 1 0 0 0 0.071259998
1.505 -0.041999999 0.02 1 0 0 0 0.071269996
1.501 -0.037999999 0.017999999 1 0 0 0 0.071280003
1.499 -0.033 0.016000001 1 0 0 0 0.071290001
1.4960001 -0.028999999 0.014 1 0 0 0 0.0713
1.492 -0.025 0.012 1 0 0 0 0.071309999
1.493 -0.02 0.0089999996 1 0 0 0 0.071319997
1.4859999 -0.016000001 0.0070000002 1 0 0 0 0.071330003
1.4859999 -0.011 0.0049999999 1 0 0 0 0.071340002
1.482 -0.0070000002 0.003 1 0 0 0 0.071350001
1.479 -0.003 0.001 1 0 0 0 0.071359999
1.471 0 0 1 0 0 0 0.071369998
1.476 0.0049999999 -0.0020000001 1 0 0 0 0.071379997
1.469 0.0089999996 -0.0040000002 1 0 0 0 0.071390003
1.465 0.013 -0.0060000001 1 0 0 0 0.071400002
1.4579999 0.017999999 -0.0080000004 1 0 0 0 0.07141
1.457 0.022 -0.0099999998 1 0 0 0 0.071419999
1.4529999 0.026000001 -0.012 1 0 0 0 0.071429998
1.452 0.029999999 -0.014 1 0 0 0 0.071439996
1.448 0.034000002 -0.016000001 1 0 0 0 0.071450002
1.441 0.037999999 -0.017999999 1 0 0 0 0.071460001
1.434 0.041999999 -0.02 1 0 0 0 0.07147
1.4349999 0.046999998 -0.022 1 0 0 0 0.071479999
1.432 0.050999999 -0.024 1 0 0 0 0.071489997
1.432 0.055 -0.026000001 1 0 0 0 0.071500003
1.426 0.059 -0.028000001 1 0 0 0 0.071510002
1.424 0.063000001 -0.028999999 1 0 0 0 0.071520001
1.42 0.067000002 -0.030999999 1 0 0 0 0.071529999
1.408 0.071000002 -0.033 1 0 0 0 0.071539998
1.4069999 0.075000003 -0.035 1 0 0 0 0.071549997
1.408 0.079000004 -0.037 1 0 0 0 0.071560003
1.401 0.082999997 -0.037999999 1 0 0 0 0.071570002
1.399 0.086999997 -0.039999999 1 0 0 0 0.07158
1.395 0.090999998 -0.041999999 1 0 0 0 0.071589999
1.392 0.094999999 -0.043000001 1 0 0 0 0.071599998
1.385 0.097999997 -0.045000002 1 0 0 0 0.071610004
1.381 0.102 -0.046999998 1 0 0 0 0.071620002
1.378 0.106 -0.048 1 0 0 0 0.071630001
1.373 0.11 -0.050000001 1 0 0 0 0.07164
1.3660001 0.113 -0.050999999 1 0 0 0 0.071649998
1.365 0.117 -0.052999999 1 0 0 0 0.071659997
1.358 0.121 -0.055 1 0 0 0 0.071670003
1.3609999 0.125 -0.056000002 1 0 0 0 0.071680002
1.353 0.12899999 -0.057999998 1 0 0 0 0.071690001
1.346 0.132 -0.059 1 0 0 0 0.071699999
1.3430001 0.13600001 -0.061000001 1 0 0 0 0.071709998
1.342 0.14 -0.061999999 1 0 0 0 0.071719997
1.334 0.14300001 -0.064000003 1 0 0 0 0.071730003
1.329 0.146 -0.064999998 1 0 0 0 0.071740001
1.325 0.15000001 -0.066 1 0 0 0 0.07175
1.324 0.154 -0.068000004 1 0 0 0 0.071759999
1.318 0.15700001 -0.068999998 0 0 0 0 0.071769997
1.2920001 0.15800001 -0.068999998 0 0 0 0 0.071780004
1.2970001 0.163 -0.071000002 0 0 0 0 0.071790002
1.291 0.16599999 -0.072999999 0 0 0 0 0.071800001
1.273 0.167 -0.072999999 0 0 0 0 0.07181
1.271 0.171 -0.074000001 0 0 0 0 0.071819998
1.27 0.175 -0.075999998 0 0 0 0 0.071829997
1.2589999 0.177 -0.077 0 0 0 0 0.071840003
1.263 0.18099999 -0.078000002 0 0 0 0 0.071850002
1.226 0.18000001 -0.077 0 0 0 0 0.07186
1.115 0.167 -0.071999997 0 0 0 0 0.071869999
1.024 0.15700001 -0.067000002 0 0 0 0 0.071879998
1.006 0.15700001 -0.067000002 0 0 0 0 0.071889997
1.0190001 0.162 -0.068999998 0 0 0 0 0.071900003
1.01 0.164 -0.07 0 0 0 0 0.071910001
1.0039999 0.16599999 -0.07 0 0 0 0 0.07192
1.025 0.17299999 -0.072999999 0 0 0 0 0.071929999
1.027 0.176 -0.074000001 0 0 0 0 0.071939997
1.0319999 0.18000001 -0.075999998 0 0 0 0 0.071950004
1.035 0.184 -0.077 0 0 0 0 0.071960002
1.035 0.18700001 -0.078000002 0 0 0 0 0.071970001
1.036 0.19 -0.079000004 0 0 0 0 0.07198
1.048 0.19599999 -0.082000002 0 0 0 0 0.071989998
2.1670001 0.412 -0.171 18 0 0 0 0.071999997
2.451 0.47400001 -0.197 150 0 0 0 0.072010003
2.4449999 0.48100001 -0.199 150 0 0 0 0.072020002
2.4809999 0.49599999 -0.204 28 0 0 0 0.07203
2.5139999 0.50999999 -0.20999999 17 0 0 0 0.072039999
2.5109999 0.51700002 -0.212 19 0 0 0 0.072049998
2.5020001 0.52399999 -0.214 21 0 0 0 0.072059996
2.5 0.53100002 -0.21699999 21 0 0 0 0.072070003
2.4960001 0.53799999 -0.219 22 0 0 0 0.072080001
2.4879999 0.54400003 -0.221 20 0 0 0 0.07209
2.4860001 0.55199999 -0.223 20 0 0 0 0.072099999
2.4779999 0.55800003 -0.22499999 21 0 0 0 0.072109997
2.473 0.565 -0.227 22 0 0 0 0.072120003
2.4660001 0.57099998 -0.229 22 0 0 0 0.072130002
2.4630001 0.57800001 -0.23100001 22 0 0 0 0.072140001
2.4579999 0.58499998 -0.233 23 0 0 0 0.072149999
2.454 0.59200001 -0.235 21 0 0 0 0.072159998
2.4530001 0.59899998 -0.237 21 0 0 0 0.072169997
2.448 0.60600001 -0.23899999 19 0 0 0 0.072180003
2.448 0.61400002 -0.241 16 0 0 0 0.072190002
2.4460001 0.62099999 -0.244 15 0 0 0 0.0722
2.441 0.62800002 -0.245 12 0 0 0 0.072209999
2.4349999 0.634 -0.24699999 12 0 0 0 0.072219998
2.4389999 0.64300001 -0.25 12 0 0 0 0.072229996
2.4330001 0.64899999 -0.25099999 13 0 0 0 0.072240002
2.421 0.65399998 -0.252 13 0 0 0 0.072250001
2.4170001 0.66100001 -0.25400001 14 0 0 0 0.07226
2.4070001 0.66600001 -0.255 15 0 0 0 0.072269998
2.404 0.67299998 -0.257 17 0 0 0 0.072279997
2.3989999 0.67900002 -0.259 18 0 0 0 0.072290003
2.3900001 0.685 -0.25999999 16 0 0 0 0.072300002
2.3829999 0.69 -0.26100001 18 0 0 0 0.072310001
2.375 0.69599998 -0.26199999 20 0 0 0 0.072319999
2.369 0.70200002 -0.264 20 0 0 0 0.072329998
2.3659999 0.70899999 -0.26499999 18 0 0 0 0.072339997
2.3599999 0.71499997 -0.26699999 16 0 0 0 0.072350003
2.3540001 0.72100002 -0.26800001 17 0 0 0 0.072360002
2.352 0.72799999 -0.27000001 17 0 0 0 0.07237
2.346 0.73400003 -0.271 18 0 0 0 0.072379999
2.342 0.74000001 -0.27200001 19 0 0 0 0.072389998
2.3399999 0.74699998 -0.27399999 19 0 0 0 0.072400004
2.3340001 0.75300002 -0.27500001 17 0 0 0 0.072410002
2.3329999 0.75999999 -0.27700001 14 0 0 0 0.072420001
2.3269999 0.76599997 -0.278 15 0 0 0 0.07243
2.3199999 0.77100003 -0.27900001 17 0 0 0 0.072439998
2.3150001 0.778 -0.28 18 0 0 0 0.072449997
2.313 0.78500003 -0.28099999 17 0 0 0 0.072460003
2.3069999 0.79100001 -0.28200001 21 0 0 0 0.072470002
2.3010001 0.796 -0.28299999 25 0 0 0 0.072480001
2.2950001 0.801 -0.28400001 23 0 0 0 0.072489999
2.2950001 0.80900002 -0.28600001 22 0 0 0 0.072499998
2.29 0.815 -0.28600001 20 0 0 0 0.072509997
2.2880001 0.82200003 -0.28799999 18 0 0 0 0.072520003
2.283 0.82800001 -0.289 15 0 0 0 0.072530001
2.279 0.83399999 -0.28999999 16 0 0 0 0.07254
2.2720001 0.83899999 -0.28999999 15 0 0 0 0.072549999
2.267 0.84500003 -0.29100001 14 0 0 0 0.072559997
2.267 0.85299999 -0.292 16 0 0 0 0.072570004
2.26 0.85799998 -0.29300001 21 0 0 0 0.072580002
2.257 0.86400002 -0.294 22 0 0 0 0.072590001
2.253 0.87 -0.294 18 0 0 0 0.0726
2.2509999 0.87699997 -0.29499999 18 0 0 0 0.072609998
2.2460001 0.88300002 -0.296 18 0 0 0 0.072619997
2.24 0.88800001 -0.296 20 0 0 0 0.072630003
2.2349999 0.89300001 -0.29699999 21 0 0 0 0.072640002
2.23 0.89899999 -0.29699999 22 0 0 0 0.07265
2.22 0.90200001 -0.29699999 24 0 0 0 0.072659999
2.217 0.90799999 -0.29800001 23 0 0 0 0.072669998
2.2219999 0.91799998 -0.30000001 20 0 0 0 0.072679996
2.2149999 0.92299998 -0.30000001 17 0 0 0 0.072690003
2.21 0.92799997 -0.30000001 19 0 0 0 0.072700001
2.204 0.93300003 -0.30000001 19 0 0 0 0.07271
2.201 0.93900001 -0.301 20 0 0 0 0.072719999
2.1989999 0.94499999 -0.30199999 22 0 0 0 0.072729997
2.1889999 0.94800001 -0.301 23 0 0 0 0.072740003
2.1889999 0.95599997 -0.30199999 22 0 0 0 0.072750002
2.1860001 0.96200001 -0.30199999 22 0 0 0 0.072760001
2.1830001 0.96799999 -0.303 20 0 0 0 0.07277
2.1700001 0.97000003 -0.30199999 20 0 0 0 0.072779998
2.1719999 0.97799999 -0.303 19 0 0 0 0.072789997
2.1619999 0.98100001 -0.30199999 19 0 0 0 0.072800003
2.1619999 0.98799998 -0.303 22 0 0 0 0.072810002
2.165 0.99599999 -0.30399999 21 0 0 0 0.07282
2.188 1.0140001 -0.308 18 0 0 0 0.072829999
2.227 1.04 -0.31400001 21 0 0 0 0.072839998
2.2650001 1.0650001 -0.31999999 23 0 0 0 0.072849996
2.2920001 1.086 -0.324 23 0 0 0 0.072860003
2.323 1.108 -0.329 22 0 0 0 0.072870001
2.602 1.25 -0.36899999 150 0 0 0 0.07288
2.859 1.383 -0.40599999 150 0 0 0 0.072889999
2.8989999 1.4119999 -0.412 150 0 0 0 0.072899997
2.8929999 1.419 -0.412 150 0 0 0 0.072910003
2.888 1.426 -0.412 150 0 0 0 0.072920002
2.8829999 1.433 -0.41100001 150 0 0 0 0.072930001
2.881 1.441 -0.41100001 150 0 0 0 0.072939999
2.8859999 1.4529999 -0.412 150 0 0 0 0.072949998
2.895 1.467 -0.414 150 0 0 0 0.072959997
2.8929999 1.476 -0.414 150 0 0 0 0.072970003
2.882 1.48 -0.412 150 0 0 0 0.072980002
2.8800001 1.488 -0.412 150 0 0 0 0.07299
2.872 1.493 -0.41100001 150 0 0 0 0.072999999
2.872 1.502 -0.41100001 150 0 0 0 0.073009998
2.8699999 1.511 -0.41 150 0 0 0 0.073019996
2.938 1.556 -0.41999999 41 0 0 0 0.073030002
2.947 1.5700001 -0.421 150 0 0 0 0.073040001
2.9419999 1.577 -0.41999999 150 0 0 0 0.07305
2.9389999 1.585 -0.419 150 0 0 0 0.073059998
2.9360001 1.592 -0.419 150 0 0 0 0.073069997
2.931 1.598 -0.417 150 0 0 0 0.073080003
2.9330001 1.609 -0.417 150 0 0 0 0.073090002
2.947 1.626 -0.419 150 0 0 0 0.073100001
2.9449999 1.6339999 -0.41800001 150 0 0 0 0.073109999
2.938 1.6390001 -0.41600001 150 0 0 0 0.073119998
2.9360001 1.647 -0.41499999 150 0 0 0 0.073129997
2.964 1.6720001 -0.419 150 0 0 0 0.073140003
2.99 1.696 -0.42199999 150 0 0 0 0.073150001
2.9809999 1.7 -0.41999999 150 0 0 0 0.07316
2.9760001 1.706 -0.41800001 150 0 0 0 0.073169999
2.9719999 1.712 -0.41600001 150 0 0 0 0.073179998
2.9679999 1.719 -0.41499999 150 0 0 0 0.073190004
2.9649999 1.726 -0.41299999 150 0 0 0 0.073200002
2.954 1.728 -0.41100001 150 0 0 0 0.073210001
2.9519999 1.7359999 -0.40900001 150 0 0 0 0.07322
2.9489999 1.742 -0.40700001 150 0 0 0 0.073229998
2.948 1.75 -0.40599999 150 0 0 0 0.073239997
2.9400001 1.7539999 -0.40400001 150 0 0 0 0.073250003
2.9360001 1.76 -0.40200001 150 0 0 0 0.073260002
2.9319999 1.766 -0.40000001 150 0 0 0 0.073270001
2.9260001 1.77 -0.39700001 150 0 0 0 0.073279999
2.9219999 1.776 -0.39500001 150 0 0 0 0.073289998
2.9189999 1.7819999 -0.39300001 150 0 0 0 0.073299997
2.9159999 1.7869999 -0.391 150 0 0 0 0.073310003
2.9119999 1.793 -0.389 150 0 0 0 0.073320001
2.9089999 1.799 -0.38699999 150 0 0 0 0.07333
2.904 1.803 -0.384 150 0 0 0 0.073339999
2.9000001 1.808 -0.382 150 0 0 0 0.073349997
2.898 1.814 -0.38 150 0 0 0 0.073360004
2.8940001 1.819 -0.377 150 0 0 0 0.073370002
2.8889999 1.823 -0.37400001 150 0 0 0 0.073380001
2.8859999 1.8279999 -0.37200001 150 0 0 0 0.07339
2.885 1.835 -0.37 150 0 0 0 0.073399998
2.881 1.839 -0.36700001 150 0 0 0 0.073409997
2.8800001 1.845 -0.36399999 150 0 0 0 0.073420003
2.8740001 1.848 -0.361 150 0 0 0 0.073430002
2.872 1.853 -0.359 150 0 0 0 0.07344
2.865 1.855 -0.35499999 150 0 0 0 0.073449999
2.8670001 1.863 -0.35299999 150 0 0 0 0.073459998
2.865 1.867 -0.35100001 150 0 0 0 0.073469996
2.859 1.869 -0.347 150 0 0 0 0.073480003
2.855 1.873 -0.34400001 150 0 0 0 0.073490001
2.8510001 1.876 -0.34099999 150 0 0 0 0.0735
2.8510001 1.882 -0.338 150 0 0 0 0.073509999
2.849 1.886 -0.33500001 150 0 0 0 0.073519997
2.8469999 1.89 -0.33199999 150 0 0 0 0.073530003
2.845 1.8940001 -0.329 150 0 0 0 0.073540002
2.842 1.898 -0.32600001 150 0 0 0 0.073550001
2.835 1.898 -0.322 150 0 0 0 0.073559999
2.836 1.904 -0.31900001 150 0 0 0 0.073569998
2.8310001 1.905 -0.31600001 150 0 0 0 0.073579997
2.8299999 1.909 -0.31299999 150 0 0 0 0.073590003
2.8280001 1.913 -0.30899999 150 0 0 0 0.073600002
2.826 1.916 -0.30599999 150 0 0 0 0.07361
2.8239999 1.918 -0.303 150 0 0 0 0.073619999
2.825 1.924 -0.29899999 150 0 0 0 0.073629998
2.816 1.9220001 -0.29499999 150 0 0 0 0.073639996
2.8199999 1.928 -0.292 150 0 0 0 0.073650002
2.816 1.929 -0.28799999 150 0 0 0 0.073660001
2.8139999 1.931 -0.285 150 0 0 0 0.07367
2.8110001 1.933 -0.28099999 151 0 0 0 0.073679999
2.8069999 1.933 -0.27700001 151 0 0 0 0.073689997
2.806 1.9349999 -0.27399999 151 0 0 0 0.073700003
2.8039999 1.937 -0.27000001 151 0 0 0 0.073710002
2.8069999 1.942 -0.26699999 151 0 0 0 0.073720001
2.8099999 1.947 -0.26300001 151 0 0 0 0.073729999
2.8050001 1.946 -0.259 151 0 0 0 0.073739998
2.8039999 1.948 -0.25600001 151 0 0 0 0.073749997
2.8 1.947 -0.252 152 0 0 0 0.073760003
2.8050001 1.9529999 -0.248 152 0 0 0 0.073770002
2.8010001 1.952 -0.244 152 0 0 0 0.07378
2.7980001 1.952 -0.23999999 152 0 0 0 0.073789999
2.803 1.957 -0.237 152 0 0 0 0.073799998
2.8010001 1.957 -0.233 153 0 0 0 0.073810004
2.8 1.9579999 -0.229 153 0 0 0 0.073820002
2.8010001 1.96 -0.22499999 154 0 0 0 0.073830001
2.799 1.96 -0.221 154 0 0 0 0.07384
2.799 1.96 -0.21699999 154 0 0 0 0.073849998
2.7939999 1.9579999 -0.213 155 0 0 0 0.073859997
2.7950001 1.959 -0.20900001 155 0 0 0 0.073870003
2.79 1.956 -0.205 155 0 0 0 0.073880002
2.79 1.956 -0.20100001 156 0 0 0 0.073890001
2.7850001 1.9529999 -0.19599999 156 0 0 0 0.073899999
2.7850001 1.9529999 -0.192 156 0 0 0 0.073909998
2.786 1.9529999 -0.189 156 0 0 0 0.073919997
2.7869999 1.9529999 -0.185 156 0 0 0 0.073930003
2.7869999 1.9529999 -0.18099999 156 0 0 0 0.073940001
2.7880001 1.9529999 -0.176 156 0 0 0 0.07395
2.7880001 1.952 -0.17299999 156 0 0 0 0.073959999
2.786 1.95 -0.168 156 0 0 0 0.073969997
2.7869999 1.95 -0.164 156 0 0 0 0.073980004
2.789 1.949 -0.16 156 0 0 0 0.073990002
2.79 1.949 -0.156 156 0 0 0 0.074000001
2.7920001 1.949 -0.153 156 0 0 0 0.07401
2.793 1.948 -0.148 156 0 0 0 0.074019998
2.799 1.95 -0.145 156 0 0 0 0.074029997
2.799 1.948 -0.141 156 0 0 0 0.074040003
2.796 1.944 -0.13600001 156 0 0 0 0.074050002
2.7950001 1.941 -0.132 156 0 0 0 0.07406
2.7969999 1.9400001 -0.12800001 156 0 0 0 0.074069999
2.796 1.936 -0.124 157 0 0 0 0.074079998
2.8 1.936 -0.12 156 0 0 0 0.074089997
2.8010001 1.934 -0.116 156 0 0 0 0.074100003
2.803 1.932 -0.112 156 0 0 0 0.074110001
2.802 1.929 -0.108 157 0 0 0 0.07412
2.8039999 1.926 -0.104 157 0 0 0 0.074129999
2.8099999 1.927 -0.1 156 0 0 0 0.074139997
2.8110001 1.924 -0.096000001 156 0 0 0 0.074150003
2.8169999 1.925 -0.093000002 156 0 0 0 0.074160002
2.8239999 1.926 -0.089000002 156 0 0 0 0.074170001
2.825 1.9220001 -0.085000001 155 0 0 0 0.07418
2.8340001 1.924 -0.081 154 0 0 0 0.074189998
2.8410001 1.924 -0.078000002 154 0 0 0 0.074199997
2.8410001 1.92 -0.074000001 154 0 0 0 0.074210003
2.839 1.914 -0.07 154 0 0 0 0.074220002
2.8410001 1.911 -0.066 153 0 0 0 0.07423
2.8429999 1.9069999 -0.061999999 153 0 0 0 0.074239999
2.849 1.906 -0.057999998 153 0 0 0 0.074249998
2.8510001 1.902 -0.055 153 0 0 0 0.074259996
2.8510001 1.897 -0.050999999 152 0 0 0 0.074270003
2.8570001 1.896 -0.046999998 151 0 0 0 0.074280001
2.859 1.891 -0.043000001 151 0 0 0 0.07429
2.858 1.885 -0.039999999 151 0 0 0 0.074299999
2.8629999 1.883 -0.035999998 151 0 0 0 0.074309997
2.8640001 1.877 -0.033 151 0 0 0 0.074320003
2.8710001 1.876 -0.028999999 151 0 0 0 0.074330002
2.872 1.8710001 -0.025 151 0 0 0 0.074340001
2.8759999 1.867 -0.022 151 0 0 0 0.074349999
2.8789999 1.863 -0.017999999 150 0 0 0 0.074359998
2.885 1.86 -0.015 150 0 0 0 0.074369997
2.8840001 1.853 -0.011 150 0 0 0 0.074380003
2.8900001 1.85 -0.0080000004 150 0 0 0 0.074390002
2.8900001 1.844 -0.0040000002 150 0 0 0 0.0744
2.8959999 1.84 -0.001 150 0 0 0 0.074409999
2.8989999 1.835 0.001 150 0 0 0 0.074419998
2.904 1.831 0.0049999999 150 0 0 0 0.074429996
2.9100001 1.8279999 0.0080000004 150 0 0 0 0.074440002
2.911 1.821 0.011 150 0 0 0 0.074450001
2.914 1.816 0.015 150 0 0 0 0.07446
2.9200001 1.812 0.017999999 150 0 0 0 0.074469998
2.921 1.8049999 0.021 150 0 0 0 0.074479997
2.925 1.8 0.024 150 0 0 0 0.074490003
2.9300001 1.795 0.027000001 150 0 0 0 0.074500002
2.934 1.79 0.029999999 150 0 0 0 0.074510001
2.9400001 1.786 0.034000002 150 0 0 0 0.074519999
2.9430001 1.779 0.037 150 0 0 0 0.074529998
2.9489999 1.775 0.039999999 150 0 0 0 0.074539997
2.951 1.768 0.041999999 150 0 0 0 0.074550003
2.9560001 1.763 0.045000002 150 0 0 0 0.074560001
2.961 1.757 0.048 150 0 0 0 0.07457
2.9649999 1.751 0.050999999 150 0 0 0 0.074579999
2.9719999 1.7460001 0.054000001 150 0 0 0 0.074589998
2.9719999 1.738 0.057 150 0 0 0 0.074600004
2.9779999 1.733 0.059 150 0 0 0 0.074610002
2.983 1.727 0.061999999 150 0 0 0 0.074620001
2.9860001 1.72 0.064999998 150 0 0 0 0.07463
2.9909999 1.7130001 0.068000004 150 0 0 0 0.074639998
2.993 1.706 0.07 151 0 0 0 0.074649997
3.003 1.7029999 0.072999999 151 0 0 0 0.074660003
2.9590001 1.669 0.074000001 150 0 0 0 0.074670002
2.951 1.655 0.075999998 150 0 0 0 0.074680001
2.9530001 1.647 0.079000004 150 0 0 0 0.074689999
2.9590001 1.641 0.081 150 0 0 0 0.074699998
2.948 1.626 0.082999997 150 0 0 0 0.074709997
2.9400001 1.613 0.085000001 150 0 0 0 0.074720003
2.9460001 1.6059999 0.086999997 150 0 0 0 0.074730001
2.951 1.6 0.090000004 150 0 0 0 0.07474
2.9530001 1.592 0.092 150 0 0 0 0.074749999
2.961 1.587 0.093999997 151 0 0 0 0.074759997
2.961 1.577 0.096000001 123 0 0 0 0.074770004
2.904 1.538 0.096000001 42 0 0 0 0.074780002
2.8729999 1.512 0.097000003 150 0 0 0 0.074790001
2.882 1.508 0.098999999 150 0 0 0 0.0748
2.8870001 1.501 0.101 150 0 0 0 0.074809998
2.888 1.492 0.102 150 0 0 0 0.074819997
2.9000001 1.489 0.105 150 0 0 0 0.074830003
2.9000001 1.479 0.106 150 0 0 0 0.074840002
2.902 1.471 0.108 150 0 0 0 0.07485
2.885 1.4529999 0.109 150 0 0 0 0.074859999
2.8889999 1.4450001 0.11 150 0 0 0 0.074869998
2.8929999 1.438 0.112 150 0 0 0 0.074879996
2.9000001 1.432 0.114 150 0 0 0 0.074890003
2.905 1.424 0.115 150 0 0 0 0.074900001
2.9119999 1.418 0.117 150 0 0 0 0.07491
2.7049999 1.308 0.11 150 0 0 0 0.074919999
2.503 1.202 0.102 47 0 0 0 0.074929997
2.3239999 1.108 0.096000001 24 0 0 0 0.074940003
2.289 1.084 0.096000001 26 0 0 0 0.074950002
2.2420001 1.054 0.094999999 20 0 0 0 0.074960001
2.2 1.027 0.093000002 16 0 0 0 0.074969999
2.1819999 1.012 0.093999997 21 0 0 0 0.074979998
2.1830001 1.005 0.093999997 8 0 0 0 0.074989997
2.1830001 0.99699998 0.094999999 1 0 0 0 0.075000003
2.198 0.99699998 0.096000001 1 0 0 0 0.075010002
2.198 0.98900002 0.097000003 2 0 0 0 0.07502
2.2 0.98299998 0.097999997 1 0 0 0 0.075029999
2.2060001 0.97799999 0.098999999 1 0 0 0 0.075039998
2.2149999 0.97399998 0.1 1 0 0 0 0.075049996
2.1989999 0.95999998 0.1 0 0 0 0 0.075060003
2.2690001 0.98299998 0.103 0 0 0 0 0.075070001
2.2679999 0.97399998 0.104 0 0 0 0 0.07508
2.2590001 0.963 0.104 0 0 0 0 0.075089999
2.2620001 0.95700002 0.104 0 0 0 0 0.075099997
2.2650001 0.94999999 0.105 0 0 0 0 0.075110003
2.2679999 0.94300002 0.106 0 0 0 0 0.075120002
0 0 0 0 0 0 0 0.075130001
0 0 0 0 0 0 0 0.075139999
0 0 0 0 0 0 0 0.075149998
0 0 0 0 0 0 0 0.075159997
0 0 0 0 0 0 0 0.075170003
0 0 0 0 0 0 0 0.075180002
0 0 0 0 0 0 0 0.07519
0 0 0 0 0 0 0 0.075199999
0 0 0 0 0 0 0 0.075209998
0 0 0 0 0 0 0 0.075220004
0 0 0 0 0 0 0 0.075230002
0 0 0 0 0 0 0 0.075240001
0 0 0 0 0 0 0 0.07525
0 0 0 0 0 0 0 0.075259998
0 0 0 0 0 0 0 0.075269997
0 0 0 0 0 0 0 0.075280003
2.313 0.82800001 0.111 0 0 0 0 0.075290002
2.3169999 0.82200003 0.111 0 0 0 0 0.075300001
0 0 0 0 0 0 0 0.075309999
0 0 0 0 0 0 0 0.075319998
0 0 0 0 0 0 0 0.075329997
0 0 0 0 0 0 0 0.075340003
0 0 0 0 0 0 0 0.075350001
0 0 0 0 0 0 0 0.07536
0 0 0 0 0 0 0 0.075369999
0 0 0 0 0 0 0 0.075379997
0 0 0 0 0 0 0 0.075390004
0 0 0 0 0 0 0 0.075400002
0 0 0 0 0 0 0 0.075410001
0 0 0 0 0 0 0 0.07542
0 0 0 0 0 0 0 0.075429998
