# .PCD v0.7 - Point Cloud Data file format
VERSION 0.7
FIELDS x y z intensity normal_x normal_y normal_z curvature
SIZE 4 4 4 4 4 4 4 4
TYPE F F F F F F F F
COUNT 1 1 1 1 1 1 1 1
WIDTH 1023
HEIGHT 1
VIEWPOINT 0 0 0 1 0 0 0
POINTS 1023
DATA ascii
1.2690001 0.032000002 -0.011 69 0 0 0 0.03059
1.268 0.028000001 -0.0089999996 59 0 0 0 0.0306
1.2690001 0.024 -0.0080000004 62 0 0 0 0.030610001
1.274 0.02 -0.0070000002 34 0 0 0 0.030619999
1.274 0.016000001 -0.0049999999 19 0 0 0 0.03063
1.268 0.012 -0.0040000002 8 0 0 0 0.03064
1.253 0.0080000004 -0.0020000001 4 0 0 0 0.030649999
1.196 0.0040000002 -0.001 3 0 0 0 0.03066
1.1670001 0.001 0 3 0 0 0 0.03067
1.169 -0.0020000001 0.001 4 0 0 0 0.030680001
1.16 -0.0060000001 0.0020000001 5 0 0 0 0.030689999
1.155 -0.0089999996 0.003 7 0 0 0 0.0307
1.152 -0.013 0.0040000002 10 0 0 0 0.030710001
1.146 -0.016000001 0.0049999999 15 0 0 0 0.030719999
1.141 -0.018999999 0.0070000002 19 0 0 0 0.03073
1.141 -0.023 0.0080000004 19 0 0 0 0.03074
1.136 -0.026000001 0.0089999996 80 0 0 0 0.030750001
1.133 -0.029999999 0.0099999998 76 0 0 0 0.03076
1.1339999 -0.033 0.011 65 0 0 0 0.03077
1.133 -0.037 0.012 50 0 0 0 0.030780001
1.1390001 -0.039999999 0.014 23 0 0 0 0.030789999
1.141 -0.044 0.015 22 0 0 0 0.0308
1.145 -0.048 0.016000001 17 0 0 0 0.03081
1.145 -0.050999999 0.017000001 14 0 0 0 0.030820001
1.151 -0.055 0.017999999 10 0 0 0 0.03083
1.155 -0.059 0.02 7 0 0 0 0.03084
1.155 -0.061999999 0.021 6 0 0 0 0.030850001
1.163 -0.066 0.022 5 0 0 0 0.030859999
1.1950001 -0.071999997 0.024 5 0 0 0 0.03087
1.26 -0.079999998 0.026000001 8 0 0 0 0.03088
1.291 -0.086000003 0.028000001 16 0 0 0 0.030889999
1.301 -0.090000004 0.029999999 75 0 0 0 0.0309
1.3049999 -0.094999999 0.030999999 93 0 0 0 0.03091
1.304 -0.098999999 0.032000002 102 0 0 0 0.030920001
1.3049999 -0.103 0.034000002 101 0 0 0 0.030929999
1.302 -0.107 0.035 99 0 0 0 0.03094
1.313 -0.112 0.035999998 85 0 0 0 0.030950001
1.304 -0.115 0.037 101 0 0 0 0.030959999
1.311 -0.12 0.039000001 85 0 0 0 0.03097
1.309 -0.124 0.039999999 113 0 0 0 0.03098
1.314 -0.12800001 0.041000001 95 0 0 0 0.030990001
1.313 -0.132 0.041999999 95 0 0 0 0.030999999
1.313 -0.13600001 0.043000001 116 0 0 0 0.03101
1.318 -0.141 0.045000002 102 0 0 0 0.031020001
1.318 -0.145 0.046 91 0 0 0 0.031029999
1.318 -0.149 0.046999998 120 0 0 0 0.03104
1.3200001 -0.154 0.048 104 0 0 0 0.03105
1.319 -0.15800001 0.048999999 124 0 0 0 0.031060001
1.325 -0.163 0.050999999 132 0 0 0 0.03107
1.324 -0.167 0.052000001 107 0 0 0 0.03108
1.323 -0.171 0.052999999 125 0 0 0 0.031090001
1.326 -0.175 0.054000001 133 0 0 0 0.031099999
1.325 -0.17900001 0.055 128 0 0 0 0.03111
1.327 -0.184 0.057 141 0 0 0 0.03112
1.327 -0.18799999 0.057999998 138 0 0 0 0.031129999
1.327 -0.192 0.059 141 0 0 0 0.03114
1.332 -0.197 0.059999999 134 0 0 0 0.03115
1.332 -0.20100001 0.061000001 136 0 0 0 0.031160001
1.331 -0.206 0.061999999 124 0 0 0 0.031169999
1.331 -0.20999999 0.063000001 137 0 0 0 0.03118
1.33 -0.214 0.064000003 149 0 0 0 0.03119
1.336 -0.219 0.066 130 0 0 0 0.031199999
1.342 -0.22400001 0.067000002 120 0 0 0 0.03121
1.332 -0.227 0.068000004 150 0 0 0 0.03122
1.342 -0.233 0.068999998 137 0 0 0 0.031230001
1.344 -0.23800001 0.07 150 0 0 0 0.031239999
1.3430001 -0.242 0.071000002 140 0 0 0 0.03125
1.344 -0.24600001 0.071999997 142 0 0 0 0.031259999
1.345 -0.25099999 0.072999999 150 0 0 0 0.031270001
1.346 -0.255 0.075000003 147 0 0 0 0.03128
1.346 -0.259 0.075000003 142 0 0 0 0.031289998
1.35 -0.26499999 0.077 150 0 0 0 0.031300001
1.349 -0.26899999 0.078000002 150 0 0 0 0.03131
1.348 -0.273 0.079000004 150 0 0 0 0.031319998
1.349 -0.278 0.079999998 150 0 0 0 0.031330001
1.35 -0.28200001 0.081 150 0 0 0 0.031339999
1.35 -0.287 0.082000002 150 0 0 0 0.031350002
1.3559999 -0.292 0.082999997 150 0 0 0 0.03136
1.357 -0.29699999 0.083999999 150 0 0 0 0.031369999
1.3559999 -0.301 0.085000001 150 0 0 0 0.031380001
1.357 -0.30599999 0.086000003 150 0 0 0 0.03139
1.3609999 -0.31099999 0.086999997 150 0 0 0 0.031399999
1.36 -0.315 0.088 150 0 0 0 0.031410001
1.359 -0.31999999 0.089000002 150 0 0 0 0.03142
1.363 -0.32499999 0.090000004 150 0 0 0 0.031429999
1.362 -0.329 0.090000004 150 0 0 0 0.031440001
1.365 -0.33500001 0.090999998 150 0 0 0 0.03145
1.363 -0.33899999 0.092 150 0 0 0 0.031459998
1.3660001 -0.34400001 0.093000002 150 0 0 0 0.031470001
1.368 -0.34900001 0.093999997 150 0 0 0 0.031479999
1.37 -0.354 0.094999999 150 0 0 0 0.031490002
1.369 -0.35800001 0.096000001 150 0 0 0 0.031500001
1.3710001 -0.36300001 0.097000003 150 0 0 0 0.031509999
1.369 -0.36700001 0.097000003 47 0 0 0 0.031520002
1.357 -0.368 0.097000003 12 0 0 0 0.03153
1.336 -0.36700001 0.097000003 9 0 0 0 0.031539999
1.322 -0.368 0.096000001 9 0 0 0 0.031550001
1.3150001 -0.37 0.097000003 9 0 0 0 0.03156
1.308 -0.373 0.097000003 8 0 0 0 0.031569999
1.299 -0.37400001 0.097000003 9 0 0 0 0.031580001
1.293 -0.377 0.097000003 9 0 0 0 0.03159
1.281 -0.37799999 0.097000003 9 0 0 0 0.031599998
1.276 -0.38100001 0.097000003 9 0 0 0 0.031610001
1.266 -0.382 0.097000003 10 0 0 0 0.03162
1.2589999 -0.384 0.097000003 11 0 0 0 0.031629998
1.253 -0.38600001 0.097000003 12 0 0 0 0.031640001
1.245 -0.38800001 0.097000003 12 0 0 0 0.031649999
1.2410001 -0.391 0.097000003 16 0 0 0 0.031660002
1.232 -0.39199999 0.097000003 23 0 0 0 0.03167
1.222 -0.39300001 0.097000003 36 0 0 0 0.031679999
1.221 -0.39700001 0.097000003 36 0 0 0 0.031690001
1.224 -0.40200001 0.097999997 25 0 0 0 0.0317
1.225 -0.40599999 0.098999999 21 0 0 0 0.031709999
1.2309999 -0.41299999 0.1 13 0 0 0 0.031720001
1.232 -0.417 0.1 11 0 0 0 0.03173
1.234 -0.42199999 0.101 10 0 0 0 0.031739999
1.24 -0.428 0.102 10 0 0 0 0.031750001
1.238 -0.43200001 0.102 10 0 0 0 0.03176
1.2410001 -0.43700001 0.103 10 0 0 0 0.031769998
1.242 -0.442 0.103 9 0 0 0 0.031780001
1.2460001 -0.447 0.104 9 0 0 0 0.031789999
1.2460001 -0.45100001 0.104 9 0 0 0 0.031800002
1.247 -0.456 0.105 9 0 0 0 0.031810001
1.251 -0.46200001 0.106 9 0 0 0 0.031819999
1.255 -0.46799999 0.106 9 0 0 0 0.031830002
1.2589999 -0.47299999 0.107 8 0 0 0 0.03184
1.26 -0.47799999 0.107 9 0 0 0 0.031849999
1.262 -0.48300001 0.108 9 0 0 0 0.031860001
1.262 -0.48699999 0.108 8 0 0 0 0.03187
1.265 -0.493 0.109 9 0 0 0 0.031879999
1.265 -0.49700001 0.109 9 0 0 0 0.031890001
1.2690001 -0.50300002 0.11 9 0 0 0 0.0319
1.27 -0.50800002 0.11 9 0 0 0 0.031909999
1.27 -0.51200002 0.11 9 0 0 0 0.031920001
1.274 -0.51800001 0.111 9 0 0 0 0.03193
1.276 -0.523 0.111 8 0 0 0 0.031939998
1.278 -0.528 0.112 9 0 0 0 0.031950001
1.279 -0.53299999 0.112 8 0 0 0 0.031959999
1.28 -0.53799999 0.112 8 0 0 0 0.031970002
1.281 -0.54299998 0.112 9 0 0 0 0.03198
1.286 -0.54900002 0.113 9 0 0 0 0.031989999
1.288 -0.55500001 0.113 9 0 0 0 0.032000002
1.2869999 -0.55800003 0.113 9 0 0 0 0.03201
1.29 -0.56400001 0.114 9 0 0 0 0.032019999
1.291 -0.56900001 0.114 10 0 0 0 0.032030001
1.29 -0.57300001 0.114 10 0 0 0 0.03204
1.295 -0.579 0.114 11 0 0 0 0.032049999
1.294 -0.58399999 0.114 11 0 0 0 0.032060001
1.293 -0.58700001 0.114 11 0 0 0 0.03207
1.294 -0.59200001 0.114 11 0 0 0 0.032079998
1.3 -0.59899998 0.115 12 0 0 0 0.032090001
1.298 -0.60299999 0.114 12 0 0 0 0.032099999
1.296 -0.60600001 0.114 12 0 0 0 0.032109998
1.3 -0.61199999 0.114 12 0 0 0 0.032120001
1.299 -0.616 0.114 13 0 0 0 0.032129999
1.299 -0.62099999 0.114 13 0 0 0 0.032140002
1.298 -0.625 0.114 14 0 0 0 0.03215
1.303 -0.63099998 0.114 13 0 0 0 0.032159999
1.303 -0.63599998 0.114 14 0 0 0 0.032170001
1.299 -0.63800001 0.113 15 0 0 0 0.03218
1.265 -0.62599999 0.11 30 0 0 0 0.032189999
1.199 -0.597 0.104 51 0 0 0 0.032200001
1.123 -0.56300002 0.097000003 46 0 0 0 0.03221
1.04 -0.52499998 0.090000004 24 0 0 0 0.032219999
1.02 -0.51800001 0.088 11 0 0 0 0.032230001
1.0190001 -0.52100003 0.086999997 8 0 0 0 0.03224
1.011 -0.51999998 0.086000003 7 0 0 0 0.032249998
0.995 -0.51499999 0.085000001 7 0 0 0 0.032260001
0.99900001 -0.51999998 0.085000001 8 0 0 0 0.032269999
0.98900002 -0.51899999 0.083999999 8 0 0 0 0.032280002
0.99299997 -0.52399999 0.083999999 8 0 0 0 0.03229
0.98299998 -0.52200001 0.082999997 8 0 0 0 0.032299999
0.97600001 -0.52100003 0.082000002 8 0 0 0 0.032310002
0.97600001 -0.52399999 0.081 8 0 0 0 0.03232
0.97299999 -0.52600002 0.081 8 0 0 0 0.032329999
0.97000003 -0.52700001 0.079999998 9 0 0 0 0.032340001
0.96899998 -0.52999997 0.079000004 8 0 0 0 0.03235
0.96899998 -0.53299999 0.079000004 9 0 0 0 0.032359999
0.96499997 -0.53399998 0.078000002 8 0 0 0 0.032370001
0.96499997 -0.537 0.078000002 8 0 0 0 0.03238
0.96100003 -0.537 0.077 8 0 0 0 0.032389998
0.95899999 -0.53899997 0.075999998 8 0 0 0 0.032400001
0.95599997 -0.54000002 0.075999998 8 0 0 0 0.03241
0.954 -0.542 0.075000003 8 0 0 0 0.032419998
0.95099998 -0.54299998 0.074000001 0 0 0 0 0.032430001
0.949 -0.54500002 0.072999999 8 0 0 0 0.032439999
0.94999999 -0.54900002 0.072999999 8 0 0 0 0.032450002
0.95200002 -0.55299997 0.072999999 9 0 0 0 0.03246
0.94 -0.54799998 0.071000002 11 0 0 0 0.032469999
0.93800002 -0.55000001 0.07 10 0 0 0 0.032480001
0.94099998 -0.55400002 0.07 8 0 0 0 0.03249
0.935 -0.55400002 0.068999998 7 0 0 0 0.032499999
0.94099998 -0.56 0.068999998 7 0 0 0 0.032510001
0.93900001 -0.56199998 0.068000004 7 0 0 0 0.03252
0.93900001 -0.56400001 0.067000002 7 0 0 0 0.032529999
0.94 -0.56800002 0.066 8 0 0 0 0.032540001
0.93800002 -0.56900001 0.066 9 0 0 0 0.03255
0.93800002 -0.57099998 0.064999998 9 0 0 0 0.032559998
0.93900001 -0.574 0.064000003 9 0 0 0 0.032570001
0.93800002 -0.57599998 0.063000001 9 0 0 0 0.032579999
0.93599999 -0.57800001 0.061999999 9 0 0 0 0.032590002
0.93699998 -0.58099997 0.061999999 8 0 0 0 0.032600001
0.93900001 -0.58399999 0.061000001 7 0 0 0 0.032609999
0.93800002 -0.58700001 0.059999999 7 0 0 0 0.032620002
0.93900001 -0.58899999 0.059 7 0 0 0 0.03263
0.94 -0.59299999 0.059 7 0 0 0 0.032639999
0.93800002 -0.59299999 0.057999998 7 0 0 0 0.032650001
0.94199997 -0.59799999 0.057 6 0 0 0 0.03266
0.93699998 -0.59799999 0.056000002 6 0 0 0 0.032669999
0.94199997 -0.60299999 0.055 6 0 0 0 0.032680001
0.94300002 -0.60600001 0.054000001 6 0 0 0 0.03269
0.94599998 -0.61000001 0.052999999 5 0 0 0 0.032699998
0.94499999 -0.61199999 0.052999999 5 0 0 0 0.032710001
0.94700003 -0.61500001 0.052000001 5 0 0 0 0.03272
0.94700003 -0.61699998 0.050999999 5 0 0 0 0.032729998
0.949 -0.62099999 0.050000001 5 0 0 0 0.032740001
0.949 -0.62300003 0.048999999 5 0 0 0 0.032749999
0.94800001 -0.62400001 0.048 5 0 0 0 0.032760002
0.94999999 -0.62699997 0.046999998 5 0 0 0 0.03277
0.94999999 -0.62900001 0.046 5 0 0 0 0.032779999
0.949 -0.63 0.045000002 5 0 0 0 0.032790001
0.95300001 -0.63499999 0.044 5 0 0 0 0.0328
0.95700002 -0.639 0.043000001 5 0 0 0 0.032809999
0.95599997 -0.63999999 0.041000001 5 0 0 0 0.032820001
0.95200002 -0.639 0.039999999 5 0 0 0 0.03283
0.958 -0.64499998 0.039000001 5 0 0 0 0.032839999
0.95899999 -0.64700001 0.037999999 5 0 0 0 0.032850001
0.95700002 -0.648 0.037 5 0 0 0 0.03286
0.95700002 -0.64999998 0.035999998 5 0 0 0 0.032869998
0.95599997 -0.65100002 0.035 5 0 0 0 0.032880001
0.95700002 -0.653 0.033 5 0 0 0 0.032889999
0.958 -0.65399998 0.032000002 5 0 0 0 0.032900002
0.95899999 -0.65700001 0.030999999 5 0 0 0 0.032910001
0.95999998 -0.65899998 0.029999999 5 0 0 0 0.032919999
0.96200001 -0.662 0.028999999 5 0 0 0 0.032930002
0.96200001 -0.66299999 0.027000001 5 0 0 0 0.03294
0.96200001 -0.66399997 0.026000001 6 0 0 0 0.032949999
0.963 -0.66600001 0.025 6 0 0 0 0.032960001
0.96100003 -0.66600001 0.023 6 0 0 0 0.03297
0.96200001 -0.667 0.022 6 0 0 0 0.032979999
0.96700001 -0.67199999 0.021 6 0 0 0 0.032990001
0.95999998 -0.66799998 0.018999999 6 0 0 0 0.033
0.96499997 -0.67199999 0.017999999 6 0 0 0 0.033009999
0.96700001 -0.67500001 0.017000001 6 0 0 0 0.033020001
0.96399999 -0.67400002 0.016000001 6 0 0 0 0.03303
0.96600002 -0.676 0.014 6 0 0 0 0.033039998
0.96600002 -0.676 0.013 6 0 0 0 0.033050001
0.963 -0.67500001 0.012 6 0 0 0 0.033059999
0.96499997 -0.67699999 0.0099999998 6 0 0 0 0.033070002
0.96499997 -0.67799997 0.0089999996 6 0 0 0 0.03308
0.96700001 -0.67900002 0.0080000004 6 0 0 0 0.033089999
0.96499997 -0.67799997 0.0060000001 6 0 0 0 0.033100002
0.96499997 -0.67799997 0.0049999999 6 0 0 0 0.03311
0.963 -0.67799997 0.003 6 0 0 0 0.033119999
0.96399999 -0.67900002 0.0020000001 6 0 0 0 0.033130001
0.963 -0.67799997 0.001 6 0 0 0 0.03314
0.95999998 -0.676 0 6 0 0 0 0.033149999
0.96200001 -0.67799997 -0.001 6 0 0 0 0.033160001
0.96399999 -0.67900002 -0.0020000001 6 0 0 0 0.03317
0.96200001 -0.67799997 -0.0040000002 6 0 0 0 0.033179998
0.96200001 -0.67799997 -0.0049999999 6 0 0 0 0.033190001
0.96200001 -0.67799997 -0.0070000002 6 0 0 0 0.033199999
0.96100003 -0.67699999 -0.0080000004 7 0 0 0 0.033209998
0.95999998 -0.676 -0.0089999996 6 0 0 0 0.033220001
0.96100003 -0.67699999 -0.011 7 0 0 0 0.033229999
0.95499998 -0.67199999 -0.012 7 0 0 0 0.033240002
0.958 -0.67400002 -0.013 7 0 0 0 0.03325
0.95499998 -0.671 -0.015 7 0 0 0 0.033259999
0.958 -0.67299998 -0.016000001 7 0 0 0 0.033270001
0.95999998 -0.67400002 -0.017000001 7 0 0 0 0.03328
0.95599997 -0.671 -0.018999999 7 0 0 0 0.033289999
0.95700002 -0.671 -0.02 7 0 0 0 0.033300001
0.94999999 -0.66500002 -0.021 7 0 0 0 0.03331
0.95300001 -0.667 -0.023 7 0 0 0 0.033319999
0.94999999 -0.66399997 -0.024 7 0 0 0 0.033330001
0.95099998 -0.66299999 -0.025 7 0 0 0 0.03334
0.95099998 -0.66299999 -0.026000001 7 0 0 0 0.033349998
0.95099998 -0.66100001 -0.028000001 7 0 0 0 0.033360001
0.95300001 -0.662 -0.028999999 8 0 0 0 0.033369999
0.954 -0.662 -0.029999999 8 0 0 0 0.033380002
0.949 -0.65799999 -0.030999999 7 0 0 0 0.03339
0.95200002 -0.65799999 -0.033 7 0 0 0 0.033399999
0.94599998 -0.653 -0.034000002 7 0 0 0 0.033410002
0.94700003 -0.65200001 -0.035 7 0 0 0 0.03342
0.94700003 -0.65100002 -0.035999998 7 0 0 0 0.033429999
0.94700003 -0.64999998 -0.037999999 7 0 0 0 0.033440001
0.95300001 -0.65200001 -0.039000001 8 0 0 0 0.03345
0.94599998 -0.64600003 -0.039999999 8 0 0 0 0.033459999
0.949 -0.64700001 -0.041000001 8 0 0 0 0.033470001
0.94999999 -0.64600003 -0.041999999 8 0 0 0 0.03348
0.94999999 -0.64499998 -0.044 9 0 0 0 0.033489998
0.949 -0.64300001 -0.045000002 9 0 0 0 0.033500001
0.94300002 -0.63700002 -0.046 8 0 0 0 0.03351
0.94700003 -0.63800001 -0.046999998 9 0 0 0 0.033519998
0.95099998 -0.639 -0.048 9 0 0 0 0.033530001
0.95200002 -0.63800001 -0.048999999 9 0 0 0 0.033539999
0.94599998 -0.63200003 -0.050000001 9 0 0 0 0.033550002
0.94599998 -0.63 -0.050999999 8 0 0 0 0.03356
0.95099998 -0.63200003 -0.052000001 8 0 0 0 0.033569999
0.95200002 -0.63099998 -0.054000001 7 0 0 0 0.033580001
0.95599997 -0.63099998 -0.055 7 0 0 0 0.03359
0.95599997 -0.62900001 -0.056000002 7 0 0 0 0.033599999
0.95700002 -0.62800002 -0.057 0 0 0 0 0.033610001
0.96200001 -0.62900001 -0.057999998 9 0 0 0 0.03362
0.95700002 -0.62400001 -0.059 0 0 0 0 0.033629999
0.963 -0.625 -0.059999999 15 0 0 0 0.033640001
0.95899999 -0.62099999 -0.061000001 18 0 0 0 0.03365
0.96200001 -0.62 -0.061999999 17 0 0 0 0.033659998
0.95999998 -0.61699998 -0.063000001 10 0 0 0 0.033670001
0.95700002 -0.61299998 -0.064000003 0 0 0 0 0.033679999
0.95899999 -0.61199999 -0.064999998 8 0 0 0 0.033690002
0.95999998 -0.61000001 -0.066 8 0 0 0 0.0337
0.95599997 -0.60500002 -0.066 8 0 0 0 0.033709999
0.95499998 -0.602 -0.067000002 9 0 0 0 0.033720002
0.95499998 -0.59899998 -0.068000004 9 0 0 0 0.03373
0.95200002 -0.59500003 -0.068999998 10 0 0 0 0.033739999
0.95300001 -0.59299999 -0.068999998 9 0 0 0 0.033750001
0.95099998 -0.58999997 -0.07 8 0 0 0 0.03376
0.95599997 -0.58999997 -0.071000002 7 0 0 0 0.033769999
0.95599997 -0.58700001 -0.071999997 6 0 0 0 0.033780001
0.95999998 -0.58700001 -0.072999999 5 0 0 0 0.03379
0.95599997 -0.58200002 -0.072999999 5 0 0 0 0.033799998
0.95499998 -0.579 -0.074000001 5 0 0 0 0.033810001
0.95899999 -0.579 -0.075000003 4 0 0 0 0.03382
0.95899999 -0.57599998 -0.075999998 5 0 0 0 0.033829998
0.95999998 -0.574 -0.077 5 0 0 0 0.033840001
0.958 -0.56999999 -0.077 6 0 0 0 0.033849999
0.95999998 -0.56800002 -0.078000002 7 0 0 0 0.033860002
0.95700002 -0.56400001 -0.078000002 8 0 0 0 0.03387
0.954 -0.55900002 -0.079000004 9 0 0 0 0.033879999
0.94999999 -0.55400002 -0.079000004 17 0 0 0 0.033890001
0.95099998 -0.55199999 -0.079000004 19 0 0 0 0.0339
0.95200002 -0.55000001 -0.079999998 19 0 0 0 0.033909999
0.958 -0.551 -0.081 15 0 0 0 0.033920001
0.95700002 -0.54699999 -0.082000002 15 0 0 0 0.03393
0.95599997 -0.54299998 -0.082000002 15 0 0 0 0.033939999
0.95899999 -0.542 -0.082999997 9 0 0 0 0.033950001
0.963 -0.542 -0.083999999 8 0 0 0 0.03396
0.97299999 -0.54400003 -0.085000001 7 0 0 0 0.033969998
0.97399998 -0.542 -0.085000001 10 0 0 0 0.033980001
0.97399998 -0.53899997 -0.086000003 20 0 0 0 0.033989999
0.977 -0.537 -0.086999997 37 0 0 0 0.034000002
0.97799999 -0.53500003 -0.086999997 34 0 0 0 0.034010001
0.97600001 -0.52999997 -0.086999997 33 0 0 0 0.034019999
0.98100001 -0.52999997 -0.088 44 0 0 0 0.034030002
0.98299998 -0.528 -0.089000002 47 0 0 0 0.03404
0.98199999 -0.52499998 -0.089000002 38 0 0 0 0.034049999
0.98299998 -0.52200001 -0.089000002 32 0 0 0 0.034060001
0.98400003 -0.51899999 -0.090000004 25 0 0 0 0.03407
0.991 -0.51899999 -0.090999998 15 0 0 0 0.034079999
0.99400002 -0.51800001 -0.090999998 10 0 0 0 0.034090001
1.003 -0.51899999 -0.092 8 0 0 0 0.0341
1.01 -0.51899999 -0.093000002 8 0 0 0 0.034109998
1.015 -0.51899999 -0.093999997 10 0 0 0 0.034120001
1.0190001 -0.51700002 -0.093999997 22 0 0 0 0.03413
1.015 -0.51200002 -0.093999997 28 0 0 0 0.034139998
1.017 -0.50999999 -0.094999999 28 0 0 0 0.034150001
1.0190001 -0.50700003 -0.094999999 23 0 0 0 0.034159999
1.022 -0.50599998 -0.094999999 20 0 0 0 0.034170002
1.029 -0.505 -0.096000001 17 0 0 0 0.03418
1.035 -0.505 -0.097000003 12 0 0 0 0.034189999
1.04 -0.50400001 -0.097999997 9 0 0 0 0.034200002
1.045 -0.50300002 -0.097999997 7 0 0 0 0.03421
1.048 -0.50099999 -0.097999997 10 0 0 0 0.034219999
1.045 -0.49599999 -0.097999997 16 0 0 0 0.034230001
1.051 -0.495 -0.098999999 19 0 0 0 0.03424
1.0470001 -0.49000001 -0.098999999 13 0 0 0 0.034249999
1.051 -0.48800001 -0.098999999 10 0 0 0 0.034260001
1.051 -0.484 -0.098999999 7 0 0 0 0.03427
1.066 -0.48800001 -0.1 7 0 0 0 0.034279998
1.067 -0.48500001 -0.1 7 0 0 0 0.034290001
1.067 -0.48100001 -0.1 7 0 0 0 0.034299999
1.061 -0.47499999 -0.1 6 0 0 0 0.034309998
1.062 -0.472 -0.1 6 0 0 0 0.034320001
1.062 -0.46799999 -0.1 6 0 0 0 0.034329999
1.066 -0.46599999 -0.1 7 0 0 0 0.034340002
1.075 -0.46599999 -0.101 7 0 0 0 0.03435
1.077 -0.46399999 -0.101 7 0 0 0 0.034359999
1.075 -0.45899999 -0.1 8 0 0 0 0.034370001
1.079 -0.45699999 -0.101 9 0 0 0 0.03438
1.091 -0.45899999 -0.102 9 0 0 0 0.034389999
1.09 -0.454 -0.101 11 0 0 0 0.034400001
1.091 -0.45100001 -0.101 10 0 0 0 0.03441
1.101 -0.45100001 -0.102 9 0 0 0 0.034419999
1.1059999 -0.44999999 -0.102 10 0 0 0 0.034430001
1.11 -0.44800001 -0.102 11 0 0 0 0.03444
1.1109999 -0.44400001 -0.102 10 0 0 0 0.034449998
1.124 -0.44499999 -0.103 10 0 0 0 0.034460001
1.122 -0.44100001 -0.103 9 0 0 0 0.034469999
1.13 -0.44 -0.103 9 0 0 0 0.034480002
1.137 -0.43900001 -0.103 9 0 0 0 0.03449
1.1440001 -0.43799999 -0.104 9 0 0 0 0.034499999
1.148 -0.43599999 -0.104 8 0 0 0 0.034510002
1.153 -0.43399999 -0.104 8 0 0 0 0.03452
1.159 -0.43200001 -0.104 8 0 0 0 0.034529999
1.1619999 -0.42899999 -0.104 8 0 0 0 0.034540001
1.165 -0.426 -0.104 8 0 0 0 0.03455
1.1720001 -0.42500001 -0.104 8 0 0 0 0.034559999
1.176 -0.42199999 -0.104 8 0 0 0 0.034570001
1.181 -0.41999999 -0.104 7 0 0 0 0.03458
1.187 -0.41800001 -0.104 8 0 0 0 0.034589998
1.194 -0.417 -0.104 7 0 0 0 0.034600001
1.2029999 -0.41600001 -0.104 5 0 0 0 0.03461
1.197 -0.40900001 -0.103 1 0 0 0 0.034619998
1.193 -0.40400001 -0.103 0 0 0 0 0.034630001
1.109 -0.37200001 -0.094999999 0 0 0 0 0.034639999
1.08 -0.35800001 -0.092 0 0 0 0 0.034650002
1.082 -0.35499999 -0.092 0 0 0 0 0.03466
1.069 -0.347 -0.090000004 0 0 0 0 0.034669999
1.0700001 -0.34400001 -0.089000002 0 0 0 0 0.034680001
1.072 -0.34099999 -0.089000002 0 0 0 0 0.03469
1.0779999 -0.33899999 -0.089000002 0 0 0 0 0.034699999
1.073 -0.33399999 -0.088 0 0 0 0 0.034710001
1.166 -0.36000001 -0.094999999 0 0 0 0 0.03472
1.271 -0.38800001 -0.103 0 0 0 0 0.034729999
1.296 -0.391 -0.105 6 0 0 0 0.034740001
1.296 -0.38699999 -0.104 9 0 0 0 0.03475
1.302 -0.384 -0.104 0 0 0 0 0.034759998
1.306 -0.38100001 -0.103 12 0 0 0 0.034770001
1.317 -0.38 -0.103 11 0 0 0 0.034779999
1.325 -0.37799999 -0.103 11 0 0 0 0.034790002
1.332 -0.375 -0.103 11 0 0 0 0.0348
1.337 -0.37200001 -0.103 10 0 0 0 0.034809999
1.353 -0.37200001 -0.103 11 0 0 0 0.034820002
1.358 -0.36899999 -0.103 14 0 0 0 0.03483
1.36 -0.36500001 -0.102 23 0 0 0 0.034839999
1.363 -0.361 -0.101 22 0 0 0 0.034850001
1.364 -0.35699999 -0.101 34 0 0 0 0.03486
1.3660001 -0.35299999 -0.1 50 0 0 0 0.034869999
1.374 -0.35100001 -0.1 67 0 0 0 0.034880001
1.37 -0.345 -0.097999997 80 0 0 0 0.03489
1.37 -0.34099999 -0.097999997 130 0 0 0 0.034899998
1.368 -0.336 -0.096000001 130 0 0 0 0.034910001
1.364 -0.33000001 -0.094999999 138 0 0 0 0.03492
1.364 -0.32600001 -0.093999997 141 0 0 0 0.034929998
1.3660001 -0.322 -0.093999997 145 0 0 0 0.034940001
1.364 -0.317 -0.092 145 0 0 0 0.034949999
1.363 -0.31200001 -0.090999998 141 0 0 0 0.034960002
1.359 -0.30700001 -0.090000004 143 0 0 0 0.03497
1.358 -0.30199999 -0.089000002 123 0 0 0 0.034979999
1.355 -0.29699999 -0.088 114 0 0 0 0.034990001
1.3559999 -0.29300001 -0.086999997 116 0 0 0 0.035
1.357 -0.289 -0.086000003 123 0 0 0 0.035009999
1.3559999 -0.28400001 -0.085000001 119 0 0 0 0.035020001
1.354 -0.27900001 -0.083999999 119 0 0 0 0.03503
1.354 -0.27500001 -0.082999997 126 0 0 0 0.035039999
1.353 -0.27000001 -0.082000002 98 0 0 0 0.035050001
1.354 -0.266 -0.081 92 0 0 0 0.03506
1.352 -0.26100001 -0.079999998 99 0 0 0 0.035069998
1.348 -0.25600001 -0.078000002 111 0 0 0 0.035080001
1.349 -0.252 -0.077 104 0 0 0 0.035089999
1.347 -0.24699999 -0.075999998 102 0 0 0 0.035100002
1.347 -0.243 -0.075000003 119 0 0 0 0.035110001
1.344 -0.23800001 -0.074000001 118 0 0 0 0.035119999
1.339 -0.233 -0.071999997 109 0 0 0 0.035130002
1.34 -0.229 -0.071000002 100 0 0 0 0.03514
1.341 -0.22499999 -0.07 86 0 0 0 0.035149999
1.3380001 -0.22 -0.068999998 86 0 0 0 0.035160001
1.3380001 -0.21600001 -0.068000004 91 0 0 0 0.03517
1.342 -0.212 -0.067000002 89 0 0 0 0.035179999
1.339 -0.207 -0.066 96 0 0 0 0.035190001
1.337 -0.20299999 -0.064999998 87 0 0 0 0.0352
1.3380001 -0.199 -0.063000001 97 0 0 0 0.035209998
1.336 -0.19400001 -0.061999999 94 0 0 0 0.035220001
1.336 -0.19 -0.061000001 76 0 0 0 0.03523
1.3329999 -0.185 -0.059999999 78 0 0 0 0.035239998
1.329 -0.18099999 -0.057999998 69 0 0 0 0.035250001
1.33 -0.176 -0.057 60 0 0 0 0.035259999
1.323 -0.171 -0.056000002 75 0 0 0 0.035270002
1.324 -0.167 -0.055 63 0 0 0 0.03528
1.323 -0.163 -0.052999999 67 0 0 0 0.035289999
1.324 -0.15899999 -0.052000001 62 0 0 0 0.035300002
1.322 -0.155 -0.050999999 69 0 0 0 0.03531
1.321 -0.15000001 -0.050000001 66 0 0 0 0.035319999
1.321 -0.146 -0.048 58 0 0 0 0.035330001
1.316 -0.142 -0.046999998 59 0 0 0 0.03534
1.317 -0.138 -0.046 67 0 0 0 0.035349999
1.317 -0.133 -0.045000002 66 0 0 0 0.035360001
1.3150001 -0.12899999 -0.043000001 56 0 0 0 0.03537
1.316 -0.125 -0.041999999 56 0 0 0 0.035379998
1.312 -0.121 -0.041000001 57 0 0 0 0.035390001
1.309 -0.116 -0.039000001 57 0 0 0 0.035399999
1.311 -0.112 -0.037999999 52 0 0 0 0.035409998
1.2970001 -0.107 -0.035999998 17 0 0 0 0.035420001
1.288 -0.102 -0.035 6 0 0 0 0.035429999
1.228 -0.093999997 -0.032000002 4 0 0 0 0.035440002
1.168 -0.086000003 -0.028999999 3 0 0 0 0.03545
1.164 -0.082000002 -0.028000001 4 0 0 0 0.035459999
1.16 -0.078000002 -0.027000001 4 0 0 0 0.035470001
1.153 -0.074000001 -0.025 4 0 0 0 0.03548
1.14 -0.07 -0.024 5 0 0 0 0.035489999
1.143 -0.066 -0.023 6 0 0 0 0.035500001
1.1390001 -0.061999999 -0.022 7 0 0 0 0.03551
1.14 -0.059 -0.02 7 0 0 0 0.035519999
1.133 -0.055 -0.018999999 9 0 0 0 0.035530001
1.135 -0.052000001 -0.017999999 9 0 0 0 0.03554
1.133 -0.048 -0.017000001 9 0 0 0 0.035549998
1.136 -0.045000002 -0.016000001 8 0 0 0 0.035560001
1.137 -0.041000001 -0.015 8 0 0 0 0.035569999
1.138 -0.037999999 -0.013 8 0 0 0 0.035580002
1.137 -0.034000002 -0.012 7 0 0 0 0.03559
1.141 -0.030999999 -0.011 7 0 0 0 0.035599999
1.145 -0.028000001 -0.0099999998 6 0 0 0 0.035610002
1.147 -0.024 -0.0089999996 6 0 0 0 0.03562
1.147 -0.021 -0.0070000002 5 0 0 0 0.035629999
1.148 -0.017000001 -0.0060000001 5 0 0 0 0.035640001
1.155 -0.014 -0.0049999999 4 0 0 0 0.03565
1.1619999 -0.0099999998 -0.0040000002 4 0 0 0 0.035659999
1.164 -0.0070000002 -0.0020000001 4 0 0 0 0.035670001
1.171 -0.003 -0.001 3 0 0 0 0.03568
1.183 0 0 2 0 0 0 0.035689998
1.262 0.003 0.001 7 0 0 0 0.035700001
1.279 0.0070000002 0.0020000001 14 0 0 0 0.03571
1.277 0.011 0.0040000002 28 0 0 0 0.035719998
1.274 0.015 0.0049999999 35 0 0 0 0.035730001
1.276 0.018999999 0.0060000001 36 0 0 0 0.035739999
1.279 0.023 0.0080000004 40 0 0 0 0.035750002
1.274 0.026000001 0.0089999996 32 0 0 0 0.03576
1.274 0.029999999 0.011 34 0 0 0 0.035769999
1.274 0.034000002 0.012 35 0 0 0 0.035780001
1.274 0.037999999 0.014 34 0 0 0 0.03579
1.272 0.041999999 0.015 32 0 0 0 0.035799999
1.271 0.045000002 0.017000001 31 0 0 0 0.035810001
1.271 0.048999999 0.017999999 31 0 0 0 0.03582
1.265 0.052999999 0.02 38 0 0 0 0.035829999
1.267 0.057 0.021 29 0 0 0 0.035840001
1.265 0.061000001 0.023 35 0 0 0 0.03585
1.2640001 0.064000003 0.024 31 0 0 0 0.035859998
1.263 0.068000004 0.026000001 29 0 0 0 0.035870001
1.263 0.071999997 0.027000001 31 0 0 0 0.035879999
1.263 0.075999998 0.028999999 28 0 0 0 0.035890002
1.2640001 0.079000004 0.029999999 31 0 0 0 0.0359
1.256 0.082999997 0.032000002 36 0 0 0 0.035909999
1.257 0.086999997 0.033 34 0 0 0 0.035920002
1.255 0.090000004 0.035 33 0 0 0 0.03593
1.255 0.093999997 0.035999998 31 0 0 0 0.035939999
1.251 0.097999997 0.037999999 33 0 0 0 0.035950001
1.252 0.101 0.039000001 32 0 0 0 0.03596
1.253 0.105 0.041000001 31 0 0 0 0.035969999
1.251 0.109 0.043000001 33 0 0 0 0.035980001
1.251 0.112 0.044 30 0 0 0 0.03599
1.249 0.116 0.046 30 0 0 0 0.035999998
1.249 0.12 0.046999998 33 0 0 0 0.036010001
1.2460001 0.123 0.048999999 37 0 0 0 0.03602
1.248 0.127 0.050000001 32 0 0 0 0.036029998
1.248 0.131 0.052000001 33 0 0 0 0.036040001
1.243 0.134 0.054000001 34 0 0 0 0.036049999
1.243 0.138 0.055 37 0 0 0 0.036060002
1.2410001 0.141 0.057 36 0 0 0 0.03607
1.242 0.145 0.057999998 41 0 0 0 0.036079999
1.24 0.149 0.059999999 38 0 0 0 0.036090001
1.24 0.152 0.061999999 40 0 0 0 0.0361
1.234 0.155 0.063000001 47 0 0 0 0.036109999
1.239 0.15899999 0.064999998 38 0 0 0 0.036120001
1.233 0.162 0.066 44 0 0 0 0.03613
1.233 0.16599999 0.068000004 45 0 0 0 0.036139999
1.23 0.169 0.07 54 0 0 0 0.036150001
1.225 0.17200001 0.071000002 50 0 0 0 0.03616
1.2309999 0.177 0.072999999 51 0 0 0 0.036169998
1.228 0.18000001 0.075000003 54 0 0 0 0.036180001
1.226 0.184 0.075999998 54 0 0 0 0.036189999
1.226 0.18700001 0.078000002 62 0 0 0 0.036200002
1.225 0.191 0.079999998 56 0 0 0 0.036210001
1.221 0.19400001 0.081 55 0 0 0 0.036219999
1.224 0.198 0.082999997 57 0 0 0 0.036230002
1.223 0.20100001 0.085000001 86 0 0 0 0.03624
1.222 0.205 0.086000003 75 0 0 0 0.036249999
1.214 0.207 0.088 70 0 0 0 0.036260001
1.219 0.211 0.090000004 63 0 0 0 0.03627
1.2180001 0.215 0.090999998 70 0 0 0 0.036279999
1.212 0.21699999 0.093000002 72 0 0 0 0.036290001
1.209 0.22 0.093999997 73 0 0 0 0.0363
1.21 0.22400001 0.096000001 80 0 0 0 0.036309998
1.215 0.229 0.097999997 63 0 0 0 0.036320001
1.2079999 0.23100001 0.1 79 0 0 0 0.03633
1.214 0.236 0.102 76 0 0 0 0.036339998
1.2130001 0.23899999 0.104 60 0 0 0 0.036350001
1.204 0.241 0.105 83 0 0 0 0.036359999
1.206 0.245 0.107 81 0 0 0 0.036370002
1.205 0.248 0.109 106 0 0 0 0.03638
1.204 0.252 0.11 81 0 0 0 0.036389999
1.2029999 0.255 0.112 98 0 0 0 0.036400001
1.201 0.25799999 0.114 99 0 0 0 0.03641
1.196 0.25999999 0.115 108 0 0 0 0.036419999
1.196 0.264 0.117 80 0 0 0 0.036430001
1.197 0.26800001 0.119 96 0 0 0 0.03644
1.194 0.271 0.121 103 0 0 0 0.036449999
1.196 0.27399999 0.123 97 0 0 0 0.036460001
1.1950001 0.278 0.125 116 0 0 0 0.03647
1.191 0.28 0.126 108 0 0 0 0.036479998
1.1900001 0.28400001 0.12800001 95 0 0 0 0.036490001
1.193 0.28799999 0.13 111 0 0 0 0.036499999
1.192 0.29100001 0.132 99 0 0 0 0.036509998
1.192 0.29499999 0.134 72 0 0 0 0.036520001
1.191 0.29800001 0.13600001 89 0 0 0 0.036529999
1.191 0.301 0.138 104 0 0 0 0.036540002
1.188 0.30399999 0.14 99 0 0 0 0.03655
1.186 0.30700001 0.141 82 0 0 0 0.036559999
1.188 0.31099999 0.14399999 97 0 0 0 0.036570001
1.183 0.31299999 0.145 69 0 0 0 0.03658
1.1849999 0.317 0.147 91 0 0 0 0.036589999
1.184 0.31999999 0.149 75 0 0 0 0.036600001
1.182 0.32300001 0.15099999 84 0 0 0 0.03661
1.183 0.32699999 0.153 83 0 0 0 0.036619999
1.1849999 0.331 0.156 72 0 0 0 0.036630001
1.179 0.333 0.15700001 93 0 0 0 0.03664
1.179 0.336 0.15899999 93 0 0 0 0.036649998
1.178 0.33899999 0.161 97 0 0 0 0.036660001
1.183 0.34400001 0.164 89 0 0 0 0.036669999
1.174 0.345 0.164 76 0 0 0 0.036680002
1.173 0.34799999 0.16599999 95 0 0 0 0.03669
1.1799999 0.35299999 0.17 92 0 0 0 0.036699999
1.1720001 0.354 0.171 102 0 0 0 0.036710002
1.179 0.36000001 0.17399999 69 0 0 0 0.03672
1.176 0.36199999 0.175 73 0 0 0 0.036729999
1.169 0.36300001 0.176 92 0 0 0 0.036740001
1.1670001 0.366 0.178 90 0 0 0 0.03675
1.164 0.368 0.18000001 77 0 0 0 0.036759999
1.17 0.37400001 0.183 150 0 0 0 0.036770001
1.171 0.377 0.186 137 0 0 0 0.03678
1.168 0.38 0.18700001 128 0 0 0 0.036789998
1.169 0.38299999 0.19 144 0 0 0 0.036800001
1.166 0.38600001 0.191 140 0 0 0 0.036809999
1.166 0.389 0.19400001 139 0 0 0 0.036819998
1.165 0.39199999 0.19599999 138 0 0 0 0.036830001
1.165 0.39500001 0.198 118 0 0 0 0.036839999
1.1619999 0.39700001 0.2 104 0 0 0 0.036850002
1.163 0.40099999 0.20200001 108 0 0 0 0.03686
1.1619999 0.40400001 0.204 104 0 0 0 0.036869999
1.158 0.40599999 0.206 108 0 0 0 0.036880001
1.159 0.40900001 0.208 105 0 0 0 0.03689
1.1569999 0.412 0.20999999 93 0 0 0 0.036899999
1.154 0.414 0.212 97 0 0 0 0.036910001
1.156 0.41800001 0.215 97 0 0 0 0.03692
1.156 0.421 0.21699999 87 0 0 0 0.036929999
1.155 0.42399999 0.219 83 0 0 0 0.036940001
1.152 0.426 0.221 82 0 0 0 0.03695
1.156 0.43000001 0.22400001 75 0 0 0 0.036959998
1.15 0.43200001 0.22499999 79 0 0 0 0.036970001
1.149 0.43399999 0.228 82 0 0 0 0.036979999
1.148 0.43700001 0.23 87 0 0 0 0.036990002
1.146 0.43900001 0.23199999 86 0 0 0 0.037
1.153 0.44499999 0.236 79 0 0 0 0.037009999
1.15 0.447 0.237 94 0 0 0 0.037020002
1.148 0.449 0.23899999 91 0 0 0 0.03703
1.143 0.44999999 0.241 106 0 0 0 0.037039999
1.147 0.45500001 0.244 93 0 0 0 0.037050001
1.147 0.458 0.24699999 107 0 0 0 0.03706
1.145 0.46000001 0.249 90 0 0 0 0.037069999
1.143 0.46200001 0.25099999 102 0 0 0 0.037080001
1.137 0.463 0.252 113 0 0 0 0.03709
1.136 0.465 0.25400001 115 0 0 0 0.037099998
1.142 0.47099999 0.25799999 111 0 0 0 0.037110001
1.137 0.472 0.259 105 0 0 0 0.03712
1.136 0.47400001 0.26100001 101 0 0 0 0.037129998
1.1339999 0.47600001 0.264 104 0 0 0 0.037140001
1.133 0.479 0.266 99 0 0 0 0.037149999
1.133 0.48199999 0.26800001 113 0 0 0 0.037160002
1.136 0.486 0.27200001 125 0 0 0 0.03717
1.133 0.48699999 0.273 110 0 0 0 0.037179999
1.132 0.48899999 0.27500001 103 0 0 0 0.037190001
1.13 0.49200001 0.278 102 0 0 0 0.0372
1.13 0.49399999 0.28 98 0 0 0 0.037209999
1.1289999 0.49700001 0.28299999 119 0 0 0 0.037220001
1.127 0.49900001 0.285 105 0 0 0 0.03723
1.128 0.50199997 0.287 104 0 0 0 0.037239999
1.126 0.50400001 0.28999999 99 0 0 0 0.037250001
1.125 0.50599998 0.292 119 0 0 0 0.03726
1.126 0.509 0.29499999 96 0 0 0 0.037269998
1.122 0.50999999 0.296 109 0 0 0 0.037280001
1.12 0.51099998 0.29800001 108 0 0 0 0.037289999
1.12 0.514 0.301 114 0 0 0 0.037300002
1.118 0.51599997 0.303 111 0 0 0 0.037310001
1.117 0.51700002 0.30500001 105 0 0 0 0.037319999
1.115 0.51899999 0.30700001 120 0 0 0 0.037330002
1.117 0.52200001 0.31 113 0 0 0 0.03734
1.1160001 0.52499998 0.31299999 110 0 0 0 0.037349999
1.115 0.52600002 0.315 111 0 0 0 0.037360001
1.11 0.52600002 0.31600001 104 0 0 0 0.03737
1.112 0.52999997 0.31900001 112 0 0 0 0.037379999
1.11 0.53100002 0.322 128 0 0 0 0.037390001
1.109 0.53299999 0.324 133 0 0 0 0.0374
1.107 0.53500003 0.32600001 125 0 0 0 0.037409998
1.1059999 0.53600001 0.32800001 125 0 0 0 0.037420001
1.105 0.53799999 0.33000001 150 0 0 0 0.03743
1.103 0.53899997 0.333 126 0 0 0 0.037439998
1.102 0.54100001 0.33500001 119 0 0 0 0.037450001
1.105 0.54400003 0.338 148 0 0 0 0.037459999
1.105 0.54699999 0.34099999 119 0 0 0 0.037470002
1.104 0.54799998 0.34299999 130 0 0 0 0.03748
1.102 0.55000001 0.34599999 122 0 0 0 0.037489999
1.099 0.55000001 0.347 149 0 0 0 0.037500001
1.102 0.55400002 0.35100001 136 0 0 0 0.03751
1.103 0.55599999 0.354 132 0 0 0 0.037519999
1.102 0.55699998 0.35600001 132 0 0 0 0.037530001
1.101 0.55900002 0.35800001 136 0 0 0 0.03754
1.098 0.55900002 0.36000001 133 0 0 0 0.037549999
1.098 0.56099999 0.36199999 150 0 0 0 0.037560001
1.097 0.56199998 0.36500001 125 0 0 0 0.03757
1.096 0.56400001 0.36700001 139 0 0 0 0.037579998
1.095 0.565 0.36899999 141 0 0 0 0.037590001
1.094 0.56599998 0.37099999 132 0 0 0 0.037599999
1.096 0.56900001 0.37400001 147 0 0 0 0.037610002
1.091 0.56800002 0.375 138 0 0 0 0.037620001
1.0930001 0.57099998 0.37900001 145 0 0 0 0.037629999
1.0930001 0.57200003 0.38100001 143 0 0 0 0.037640002
1.091 0.57300001 0.38299999 150 0 0 0 0.03765
1.09 0.57300001 0.38499999 144 0 0 0 0.037659999
1.089 0.57499999 0.38699999 141 0 0 0 0.037670001
1.0880001 0.57499999 0.38999999 150 0 0 0 0.03768
1.094 0.57999998 0.39399999 150 0 0 0 0.037689999
1.092 0.57999998 0.396 139 0 0 0 0.037700001
1.086 0.57800001 0.396 150 0 0 0 0.03771
1.09 0.58200002 0.40000001 150 0 0 0 0.037719999
1.09 0.583 0.403 144 0 0 0 0.037730001
1.0880001 0.583 0.40400001 140 0 0 0 0.03774
1.091 0.58600003 0.40799999 127 0 0 0 0.037749998
1.091 0.58700001 0.41 3 0 0 0 0.037760001
1.0880001 0.58700001 0.412 124 0 0 0 0.037769999
1.089 0.588 0.414 128 0 0 0 0.037780002
1.0880001 0.588 0.41600001 132 0 0 0 0.03779
1.087 0.58899999 0.41800001 131 0 0 0 0.037799999
1.085 0.588 0.41999999 134 0 0 0 0.037810002
1.085 0.58899999 0.42199999 130 0 0 0 0.03782
1.086 0.59100002 0.42500001 141 0 0 0 0.037829999
1.085 0.59100002 0.42699999 150 0 0 0 0.037840001
1.085 0.59200001 0.42899999 141 0 0 0 0.03785
1.084 0.59200001 0.43099999 150 0 0 0 0.037859999
1.0829999 0.59200001 0.433 150 0 0 0 0.037870001
1.084 0.59299999 0.435 150 0 0 0 0.03788
1.0880001 0.59500003 0.43900001 150 0 0 0 0.037889998
1.087 0.59500003 0.44100001 150 0 0 0 0.037900001
1.0880001 0.59600002 0.44299999 150 0 0 0 0.037909999
1.085 0.59500003 0.44400001 150 0 0 0 0.037919998
1.086 0.59600002 0.447 150 0 0 0 0.037930001
1.086 0.59600002 0.44800001 150 0 0 0 0.037939999
1.085 0.59600002 0.44999999 150 0 0 0 0.037950002
1.087 0.597 0.45300001 150 0 0 0 0.03796
1.087 0.597 0.45500001 150 0 0 0 0.037969999
1.086 0.597 0.456 150 0 0 0 0.037980001
1.086 0.597 0.458 150 0 0 0 0.03799
1.082 0.59500003 0.45899999 150 0 0 0 0.037999999
1.085 0.59600002 0.46200001 150 0 0 0 0.038010001
1.084 0.59500003 0.463 150 0 0 0 0.03802
1.0829999 0.59500003 0.465 150 0 0 0 0.038029999
1.085 0.59600002 0.46700001 150 0 0 0 0.038040001
1.085 0.59500003 0.46900001 150 0 0 0 0.03805
1.085 0.59500003 0.47099999 150 0 0 0 0.038059998
1.089 0.597 0.47400001 150 0 0 0 0.038070001
1.084 0.59399998 0.47400001 150 0 0 0 0.038079999
1.087 0.59500003 0.47600001 150 0 0 0 0.038090002
1.085 0.59399998 0.477 150 0 0 0 0.0381
1.084 0.59200001 0.47799999 150 0 0 0 0.038109999
1.085 0.59299999 0.47999999 150 0 0 0 0.038120002
1.084 0.59100002 0.48100001 150 0 0 0 0.03813
1.084 0.59100002 0.48199999 150 0 0 0 0.038139999
1.084 0.58999997 0.484 150 0 0 0 0.038150001
1.087 0.59100002 0.48699999 150 0 0 0 0.03816
1.086 0.58899999 0.48699999 150 0 0 0 0.038169999
1.086 0.588 0.48899999 150 0 0 0 0.038180001
1.084 0.58700001 0.48899999 150 0 0 0 0.03819
1.087 0.58700001 0.491 150 0 0 0 0.038199998
1.085 0.58499998 0.49200001 150 0 0 0 0.038210001
1.087 0.58499998 0.49399999 150 0 0 0 0.03822
1.087 0.58399999 0.495 150 0 0 0 0.038229998
1.085 0.58200002 0.495 150 0 0 0 0.038240001
1.087 0.58200002 0.49700001 150 0 0 0 0.038249999
1.085 0.57999998 0.49700001 150 0 0 0 0.038260002
1.087 0.579 0.49900001 150 0 0 0 0.03827
1.086 0.57700002 0.49900001 150 0 0 0 0.038279999
1.0880001 0.57700002 0.50099999 150 0 0 0 0.038290001
1.0880001 0.57499999 0.50199997 150 0 0 0 0.0383
1.087 0.57300001 0.50199997 150 0 0 0 0.038309999
1.089 0.57300001 0.50400001 150 0 0 0 0.038320001
1.087 0.57099998 0.50400001 150 0 0 0 0.03833
1.091 0.57099998 0.50599998 150 0 0 0 0.038339999
1.092 0.56999999 0.50700003 150 0 0 0 0.038350001
1.0880001 0.56599998 0.50599998 150 0 0 0 0.03836
1.09 0.56599998 0.50800002 150 0 0 0 0.038369998
1.0930001 0.565 0.509 150 0 0 0 0.038380001
1.0930001 0.56300002 0.50999999 150 0 0 0 0.038389999
1.1569999 0.31999999 0.40599999 150 0 0 0 0.039360002
1.156 0.31600001 0.403 150 0 0 0 0.03937
1.156 0.31299999 0.40000001 150 0 0 0 0.039379999
1.1569999 0.31099999 0.398 150 0 0 0 0.039390001
1.158 0.308 0.39500001 150 0 0 0 0.0394
1.158 0.30500001 0.39300001 150 0 0 0 0.039409999
1.163 0.30399999 0.39199999 150 0 0 0 0.039420001
1.161 0.30000001 0.38800001 150 0 0 0 0.03943
1.166 0.29899999 0.38699999 150 0 0 0 0.039439999
1.1670001 0.296 0.38499999 150 0 0 0 0.039450001
1.165 0.29300001 0.382 150 0 0 0 0.03946
1.164 0.28999999 0.37900001 150 0 0 0 0.039469998
1.168 0.287 0.377 150 0 0 0 0.039480001
1.1670001 0.28400001 0.37400001 150 0 0 0 0.039489999
1.1670001 0.28200001 0.37099999 150 0 0 0 0.039500002
1.1720001 0.28 0.37 150 0 0 0 0.03951
1.173 0.27700001 0.368 150 0 0 0 0.039519999
1.1720001 0.27399999 0.36399999 150 0 0 0 0.039530002
1.17 0.271 0.361 150 0 0 0 0.03954
1.1720001 0.26800001 0.359 150 0 0 0 0.039549999
1.173 0.266 0.35600001 150 0 0 0 0.039560001
1.173 0.26300001 0.35299999 150 0 0 0 0.03957
1.175 0.26100001 0.35100001 150 0 0 0 0.039579999
1.176 0.25799999 0.34799999 150 0 0 0 0.039590001
1.174 0.255 0.345 150 0 0 0 0.0396
1.178 0.25299999 0.34299999 150 0 0 0 0.039609998
1.183 0.25099999 0.34200001 150 0 0 0 0.039620001
1.177 0.24699999 0.33700001 150 0 0 0 0.03963
1.179 0.245 0.33500001 150 0 0 0 0.039639998
1.186 0.244 0.33399999 150 0 0 0 0.039650001
1.184 0.23999999 0.33000001 150 0 0 0 0.039659999
1.183 0.23800001 0.32699999 150 0 0 0 0.039670002
1.188 0.236 0.32600001 150 0 0 0 0.03968
1.189 0.233 0.32300001 150 0 0 0 0.039689999
1.1849999 0.23 0.31900001 150 0 0 0 0.039700001
1.186 0.227 0.31600001 150 0 0 0 0.03971
1.188 0.22499999 0.31400001 150 0 0 0 0.039719999
1.189 0.222 0.31099999 150 0 0 0 0.039730001
1.194 0.221 0.30899999 150 0 0 0 0.03974
1.1950001 0.21799999 0.30700001 150 0 0 0 0.039749999
1.197 0.21600001 0.30399999 150 0 0 0 0.039760001
1.196 0.213 0.301 150 0 0 0 0.03977
1.191 0.20900001 0.296 150 0 0 0 0.039779998
1.196 0.208 0.29499999 150 0 0 0 0.039790001
1.199 0.205 0.292 150 0 0 0 0.039799999
1.197 0.20200001 0.28799999 150 0 0 0 0.039810002
1.198 0.2 0.28600001 150 0 0 0 0.039820001
1.201 0.198 0.28299999 150 0 0 0 0.039829999
1.201 0.19499999 0.28 150 0 0 0 0.039840002
1.204 0.193 0.278 150 0 0 0 0.03985
1.205 0.191 0.27500001 150 0 0 0 0.039859999
1.206 0.18799999 0.27200001 150 0 0 0 0.039870001
1.207 0.186 0.26899999 150 0 0 0 0.03988
1.2079999 0.183 0.266 150 0 0 0 0.039889999
1.205 0.18000001 0.26300001 150 0 0 0 0.039900001
1.206 0.178 0.25999999 150 0 0 0 0.03991
1.207 0.176 0.257 150 0 0 0 0.039919998
1.212 0.17399999 0.255 150 0 0 0 0.039930001
1.209 0.171 0.25099999 150 0 0 0 0.03994
1.214 0.169 0.249 150 0 0 0 0.039949998
1.215 0.167 0.24600001 150 0 0 0 0.039960001
1.214 0.164 0.242 150 0 0 0 0.039969999
1.2180001 0.162 0.23999999 150 0 0 0 0.039980002
1.2130001 0.15899999 0.236 150 0 0 0 0.03999
1.2180001 0.15700001 0.234 150 0 0 0 0.039999999
1.219 0.155 0.23100001 150 0 0 0 0.040010002
1.216 0.152 0.227 150 0 0 0 0.04002
1.221 0.15000001 0.22400001 150 0 0 0 0.040029999
1.221 0.147 0.221 150 0 0 0 0.040040001
1.219 0.145 0.21799999 150 0 0 0 0.04005
1.219 0.142 0.215 150 0 0 0 0.040059999
1.224 0.14 0.212 150 0 0 0 0.040070001
1.221 0.138 0.208 150 0 0 0 0.04008
1.226 0.13600001 0.206 150 0 0 0 0.040089998
1.222 0.133 0.20200001 150 0 0 0 0.040100001
1.224 0.131 0.199 150 0 0 0 0.040109999
1.222 0.12800001 0.19599999 150 0 0 0 0.040119998
1.226 0.126 0.193 150 0 0 0 0.040130001
1.222 0.123 0.189 150 0 0 0 0.040139999
1.224 0.121 0.186 150 0 0 0 0.040150002
1.228 0.119 0.183 150 0 0 0 0.04016
1.228 0.117 0.18000001 150 0 0 0 0.040169999
1.226 0.114 0.177 150 0 0 0 0.040180001
1.227 0.112 0.17299999 150 0 0 0 0.04019
1.228 0.11 0.17 150 0 0 0 0.040199999
1.23 0.107 0.167 150 0 0 0 0.040210001
1.2309999 0.105 0.164 150 0 0 0 0.04022
1.228 0.103 0.16 150 0 0 0 0.040229999
1.232 0.101 0.15800001 150 0 0 0 0.040240001
1.232 0.097999997 0.154 133 0 0 0 0.04025
1.239 0.096000001 0.152 136 0 0 0 0.040259998
1.24 0.093999997 0.149 130 0 0 0 0.040270001
1.244 0.092 0.146 119 0 0 0 0.040279999
1.242 0.090000004 0.142 120 0 0 0 0.040290002
1.242 0.086999997 0.139 122 0 0 0 0.0403
1.243 0.085000001 0.13600001 3 0 0 0 0.040309999
1.2410001 0.082999997 0.132 103 0 0 0 0.040320002
1.243 0.081 0.12899999 100 0 0 0 0.04033
1.242 0.078000002 0.125 99 0 0 0 0.040339999
1.245 0.075999998 0.122 97 0 0 0 0.040350001
1.243 0.074000001 0.119 97 0 0 0 0.04036
1.243 0.071999997 0.115 87 0 0 0 0.040369999
1.2410001 0.068999998 0.112 96 0 0 0 0.040380001
1.244 0.067000002 0.109 82 0 0 0 0.04039
1.244 0.064999998 0.105 96 0 0 0 0.040399998
1.249 0.063000001 0.102 88 0 0 0 0.040410001
1.2460001 0.061000001 0.098999999 85 0 0 0 0.04042
1.2460001 0.057999998 0.094999999 88 0 0 0 0.040429998
1.251 0.056000002 0.092 83 0 0 0 0.040440001
1.2460001 0.054000001 0.089000002 68 0 0 0 0.040449999
1.2460001 0.052000001 0.085000001 66 0 0 0 0.040460002
1.249 0.050000001 0.082000002 70 0 0 0 0.04047
1.247 0.046999998 0.078000002 77 0 0 0 0.040479999
1.25 0.045000002 0.075000003 76 0 0 0 0.040490001
1.251 0.043000001 0.071999997 71 0 0 0 0.0405
1.251 0.041000001 0.068000004 66 0 0 0 0.040509999
1.251 0.039000001 0.064999998 71 0 0 0 0.040520001
1.251 0.037 0.061000001 67 0 0 0 0.04053
1.251 0.035 0.057999998 64 0 0 0 0.040539999
1.251 0.032000002 0.054000001 63 0 0 0 0.040550001
1.249 0.029999999 0.050999999 62 0 0 0 0.04056
1.247 0.028000001 0.046999998 61 0 0 0 0.040569998
1.2539999 0.026000001 0.044 68 0 0 0 0.040580001
1.252 0.024 0.041000001 66 0 0 0 0.040589999
1.253 0.022 0.037 74 0 0 0 0.040600002
1.252 0.02 0.034000002 58 0 0 0 0.04061
1.252 0.017999999 0.029999999 62 0 0 0 0.040619999
1.252 0.016000001 0.027000001 57 0 0 0 0.040630002
1.252 0.013 0.023 56 0 0 0 0.04064
1.256 0.011 0.02 56 0 0 0 0.040649999
1.256 0.0089999996 0.016000001 56 0 0 0 0.040660001
1.258 0.0070000002 0.013 49 0 0 0 0.04067
1.256 0.0049999999 0.0089999996 41 0 0 0 0.040679999
1.261 0.003 0.0060000001 26 0 0 0 0.040690001
1.249 0.001 0.0020000001 13 0 0 0 0.0407
1.224 0 0 5 0 0 0 0.040709998
1.155 -0.0020000001 -0.003 3 0 0 0 0.040720001
1.1569999 -0.0040000002 -0.0070000002 3 0 0 0 0.04073
1.146 -0.0060000001 -0.0099999998 4 0 0 0 0.040739998
1.1339999 -0.0070000002 -0.013 5 0 0 0 0.040750001
1.131 -0.0089999996 -0.016000001 5 0 0 0 0.040759999
1.133 -0.011 -0.018999999 6 0 0 0 0.040770002
1.131 -0.013 -0.022 7 0 0 0 0.04078
1.126 -0.015 -0.025 5 0 0 0 0.040789999
1.128 -0.016000001 -0.028999999 5 0 0 0 0.040800001
1.125 -0.017999999 -0.032000002 5 0 0 0 0.04081
1.128 -0.02 -0.035 5 0 0 0 0.040819999
1.124 -0.022 -0.037999999 5 0 0 0 0.040830001
1.127 -0.023 -0.041000001 5 0 0 0 0.04084
1.123 -0.025 -0.044 5 0 0 0 0.040849999
1.127 -0.027000001 -0.048 5 0 0 0 0.040860001
1.127 -0.028999999 -0.050999999 6 0 0 0 0.04087
1.124 -0.029999999 -0.054000001 6 0 0 0 0.040879998
1.125 -0.032000002 -0.057 6 0 0 0 0.040890001
1.1289999 -0.034000002 -0.061000001 5 0 0 0 0.040899999
1.126 -0.035999998 -0.064000003 0 0 0 0 0.040910002
1.119 -0.037 -0.067000002 16 0 0 0 0.040920001
1.122 -0.039000001 -0.07 10 0 0 0 0.040929999
1.126 -0.041000001 -0.072999999 5 0 0 0 0.040940002
1.128 -0.043000001 -0.077 6 0 0 0 0.04095
1.127 -0.044 -0.079999998 6 0 0 0 0.040959999
1.124 -0.046 -0.082999997 6 0 0 0 0.040970001
1.132 -0.048 -0.086999997 6 0 0 0 0.04098
1.1289999 -0.048999999 -0.090000004 9 0 0 0 0.040989999
1.126 -0.050999999 -0.093000002 10 0 0 0 0.041000001
1.128 -0.052999999 -0.096000001 9 0 0 0 0.04101
1.136 -0.055 -0.1 4 0 0 0 0.041019998
1.1339999 -0.056000002 -0.103 5 0 0 0 0.041030001
1.132 -0.057999998 -0.106 8 0 0 0 0.04104
1.133 -0.059999999 -0.11 7 0 0 0 0.041049998
1.1390001 -0.061999999 -0.114 5 0 0 0 0.041060001
1.14 -0.063000001 -0.117 5 0 0 0 0.041069999
1.1390001 -0.064999998 -0.12 6 0 0 0 0.041080002
1.146 -0.067000002 -0.124 8 0 0 0 0.04109
1.1390001 -0.068000004 -0.127 8 0 0 0 0.041099999
1.1390001 -0.07 -0.13 7 0 0 0 0.041110002
1.1440001 -0.071999997 -0.134 7 0 0 0 0.04112
1.142 -0.074000001 -0.13699999 7 0 0 0 0.041129999
1.142 -0.075000003 -0.141 5 0 0 0 0.041140001
1.128 -0.075999998 -0.142 3 0 0 0 0.04115
1.085 -0.074000001 -0.14 2 0 0 0 0.041159999
1.062 -0.074000001 -0.14 2 0 0 0 0.041170001
0.99900001 -0.071000002 -0.13500001 0 0 0 0 0.04118
1.0140001 -0.074000001 -0.14 0 0 0 0 0.041189998
1.0089999 -0.075000003 -0.142 0 0 0 0 0.041200001
0.95999998 -0.072999999 -0.138 0 0 0 0 0.041209999
0.94300002 -0.072999999 -0.139 0 0 0 0 0.041219998
0.93000001 -0.072999999 -0.139 0 0 0 0 0.041230001
0.94499999 -0.075000003 -0.145 0 0 0 0 0.041239999
0.94 -0.075999998 -0.147 0 0 0 0 0.041250002
0.96200001 -0.079000004 -0.153 1 0 0 0 0.04126
0.96100003 -0.081 -0.156 0 0 0 0 0.041269999
0.972 -0.082999997 -0.16 2 0 0 0 0.041280001
0.96100003 -0.082999997 -0.162 2 0 0 0 0.04129
0.95700002 -0.083999999 -0.164 2 0 0 0 0.041299999
0.95300001 -0.085000001 -0.16599999 2 0 0 0 0.041310001
0.95099998 -0.086000003 -0.168 2 0 0 0 0.04132
0.95300001 -0.088 -0.17200001 2 0 0 0 0.041329999
0.94999999 -0.089000002 -0.17399999 2 0 0 0 0.041340001
0.95200002 -0.090000004 -0.177 2 0 0 0 0.04135
0.95499998 -0.092 -0.18099999 2 0 0 0 0.041359998
0.95200002 -0.093000002 -0.183 2 0 0 0 0.041370001
0.94599998 -0.093000002 -0.185 2 0 0 0 0.041379999
0.954 -0.094999999 -0.189 2 0 0 0 0.041390002
0.94700003 -0.096000001 -0.191 2 0 0 0 0.0414
0.95099998 -0.097000003 -0.19499999 2 0 0 0 0.041409999
0.94700003 -0.097999997 -0.197 2 0 0 0 0.041420002
0.94800001 -0.1 -0.2 2 0 0 0 0.04143
0.95099998 -0.101 -0.20299999 2 0 0 0 0.041439999
0.94499999 -0.102 -0.205 2 0 0 0 0.041450001
0.94599998 -0.103 -0.208 2 0 0 0 0.04146
0.94300002 -0.104 -0.20999999 1 0 0 0 0.041469999
0.94199997 -0.105 -0.213 1 0 0 0 0.041480001
0.94999999 -0.107 -0.21799999 2 0 0 0 0.04149
0.96399999 -0.11 -0.22400001 0 0 0 0 0.041499998
0.97500002 -0.112 -0.23 2 0 0 0 0.041510001
0.972 -0.113 -0.23199999 2 0 0 0 0.04152
0.96600002 -0.113 -0.234 0 0 0 0 0.041529998
0.96499997 -0.115 -0.236 0 0 0 0 0.041540001
0.94999999 -0.114 -0.236 0 0 0 0 0.041549999
0.963 -0.117 -0.242 0 0 0 0 0.041560002
0.96899998 -0.119 -0.24699999 0 0 0 0 0.04157
0.94199997 -0.116 -0.243 0 0 0 0 0.041579999
0.958 -0.119 -0.25 0 0 0 0 0.041590001
0.912 -0.115 -0.241 0 0 0 0 0.0416
0.91299999 -0.116 -0.244 0 0 0 0 0.041609999
0.90100002 -0.115 -0.243 0 0 0 0 0.041620001
0.90899998 -0.117 -0.248 0 0 0 0 0.04163
0.89499998 -0.117 -0.248 0 0 0 0 0.041639999
0.89399999 -0.117 -0.25 0 0 0 0 0.041650001
0.87699997 -0.116 -0.248 0 0 0 0 0.04166
0.88300002 -0.118 -0.25299999 0 0 0 0 0.041669998
0.86699998 -0.117 -0.25099999 0 0 0 0 0.041680001
0.86000001 -0.117 -0.252 0 0 0 0 0.041689999
0.85699999 -0.117 -0.25400001 0 0 0 0 0.041700002
0.85299999 -0.118 -0.255 0 0 0 0 0.04171
0.83700001 -0.116 -0.25299999 0 0 0 0 0.041719999
0.83600003 -0.117 -0.25600001 0 0 0 0 0.041730002
0.79500002 -0.112 -0.245 0 0 0 0 0.04174
0.79799998 -0.113 -0.249 0 0 0 0 0.041749999
0.82999998 -0.119 -0.26199999 0 0 0 0 0.041760001
0.852 -0.123 -0.271 0 0 0 0 0.04177
