# .PCD v0.7 - Point Cloud Data file format
VERSION 0.7
FIELDS x y z intensity normal_x normal_y normal_z curvature
SIZE 4 4 4 4 4 4 4 4
TYPE F F F F F F F F
COUNT 1 1 1 1 1 1 1 1
WIDTH 1032
HEIGHT 1
VIEWPOINT 0 0 0 1 0 0 0
POINTS 1032
DATA ascii
1.038 0.63499999 -0.28400001 150 0 0 0 0.031129999
1.034 0.63499999 -0.28299999 150 0 0 0 0.03114
1.034 0.63700002 -0.28200001 150 0 0 0 0.03115
1.033 0.63800001 -0.28099999 150 0 0 0 0.031160001
1.0319999 0.63999999 -0.28 150 0 0 0 0.031169999
1.03 0.63999999 -0.27900001 150 0 0 0 0.03118
1.03 0.64300001 -0.27900001 150 0 0 0 0.03119
1.03 0.64499998 -0.278 150 0 0 0 0.031199999
1.029 0.64600003 -0.27700001 150 0 0 0 0.03121
1.031 0.64899999 -0.27700001 150 0 0 0 0.03122
1.028 0.64899999 -0.27500001 150 0 0 0 0.031230001
1.027 0.64999998 -0.27399999 150 0 0 0 0.031239999
1.026 0.65200001 -0.273 150 0 0 0 0.03125
1.026 0.653 -0.27200001 150 0 0 0 0.031259999
1.024 0.65399998 -0.271 150 0 0 0 0.031270001
1.026 0.65700001 -0.271 150 0 0 0 0.03128
1.023 0.65600002 -0.26899999 150 0 0 0 0.031289998
1.023 0.65799999 -0.26800001 150 0 0 0 0.031300001
1.021 0.65799999 -0.26699999 150 0 0 0 0.03131
1.023 0.66000003 -0.266 150 0 0 0 0.031319998
1.023 0.662 -0.26499999 150 0 0 0 0.031330001
1.021 0.662 -0.264 150 0 0 0 0.031339999
1.022 0.66399997 -0.26300001 150 0 0 0 0.031350002
1.021 0.66500002 -0.26199999 150 0 0 0 0.03136
1.021 0.66600001 -0.26100001 150 0 0 0 0.031369999
1.022 0.66799998 -0.25999999 150 0 0 0 0.031380001
1.024 0.67000002 -0.259 150 0 0 0 0.03139
1.02 0.66799998 -0.257 150 0 0 0 0.031399999
1.0190001 0.66900003 -0.25600001 150 0 0 0 0.031410001
1.02 0.67000002 -0.255 150 0 0 0 0.03142
1.018 0.67000002 -0.25299999 150 0 0 0 0.031429999
1.022 0.67299998 -0.25299999 150 0 0 0 0.031440001
1.02 0.67299998 -0.25099999 150 0 0 0 0.03145
1.02 0.67299998 -0.25 150 0 0 0 0.031459998
1.017 0.67199999 -0.248 150 0 0 0 0.031470001
1.021 0.676 -0.24699999 150 0 0 0 0.031479999
1.0190001 0.67400002 -0.24600001 150 0 0 0 0.031490002
1.0190001 0.67500001 -0.244 150 0 0 0 0.031500001
1.018 0.67500001 -0.243 150 0 0 0 0.031509999
1.016 0.67400002 -0.241 150 0 0 0 0.031520002
1.0190001 0.676 -0.23999999 150 0 0 0 0.03153
1.017 0.67500001 -0.23800001 150 0 0 0 0.031539999
1.026 0.68199998 -0.23899999 150 0 0 0 0.031550001
1.018 0.67699999 -0.236 150 0 0 0 0.03156
1.0190001 0.67699999 -0.234 150 0 0 0 0.031569999
1.024 0.68099999 -0.234 150 0 0 0 0.031580001
1.0190001 0.67699999 -0.23100001 150 0 0 0 0.03159
1.0190001 0.67799997 -0.23 150 0 0 0 0.031599998
1.022 0.67900002 -0.229 145 0 0 0 0.031610001
1.026 0.68099999 -0.228 150 0 0 0 0.03162
1.023 0.67900002 -0.226 150 0 0 0 0.031629998
1.023 0.67900002 -0.22400001 142 0 0 0 0.031640001
1.018 0.67500001 -0.221 148 0 0 0 0.031649999
1.017 0.67500001 -0.22 150 0 0 0 0.031660002
1.018 0.67500001 -0.21799999 144 0 0 0 0.03167
1.025 0.67900002 -0.21799999 146 0 0 0 0.031679999
1.025 0.67900002 -0.21699999 142 0 0 0 0.031690001
1.02 0.67500001 -0.214 147 0 0 0 0.0317
1.02 0.67400002 -0.212 146 0 0 0 0.031709999
1.021 0.67400002 -0.211 149 0 0 0 0.031720001
1.027 0.67699999 -0.20999999 141 0 0 0 0.03173
1.028 0.67699999 -0.20900001 136 0 0 0 0.031739999
1.028 0.67699999 -0.207 122 0 0 0 0.031750001
1.028 0.676 -0.205 118 0 0 0 0.03176
1.029 0.67500001 -0.204 143 0 0 0 0.031769998
1.029 0.67400002 -0.20200001 117 0 0 0 0.031780001
1.031 0.67500001 -0.20100001 135 0 0 0 0.031789999
1.028 0.67199999 -0.198 104 0 0 0 0.031800002
1.031 0.67199999 -0.197 115 0 0 0 0.031810001
1.03 0.67000002 -0.19499999 107 0 0 0 0.031819999
1.031 0.67000002 -0.193 122 0 0 0 0.031830002
1.031 0.66900003 -0.192 101 0 0 0 0.03184
1.0319999 0.66799998 -0.19 115 0 0 0 0.031849999
1.033 0.667 -0.189 106 0 0 0 0.031860001
1.033 0.66600001 -0.18700001 116 0 0 0 0.03187
1.035 0.66600001 -0.185 117 0 0 0 0.031879999
1.035 0.66399997 -0.184 102 0 0 0 0.031890001
1.031 0.66000003 -0.18099999 124 0 0 0 0.0319
1.0369999 0.662 -0.18000001 119 0 0 0 0.031909999
1.0369999 0.66100001 -0.178 104 0 0 0 0.031920001
1.038 0.66000003 -0.177 110 0 0 0 0.03193
1.04 0.65899998 -0.175 114 0 0 0 0.031939998
1.04 0.65700001 -0.17399999 102 0 0 0 0.031950001
1.041 0.65600002 -0.17200001 107 0 0 0 0.031959999
1.043 0.65499997 -0.17 103 0 0 0 0.031970002
1.043 0.65399998 -0.169 100 0 0 0 0.03198
1.044 0.65200001 -0.167 106 0 0 0 0.031989999
1.046 0.65200001 -0.16599999 90 0 0 0 0.032000002
1.046 0.64999998 -0.164 99 0 0 0 0.03201
1.0470001 0.648 -0.162 109 0 0 0 0.032019999
1.048 0.64700001 -0.161 98 0 0 0 0.032030001
1.049 0.64499998 -0.15899999 100 0 0 0 0.03204
1.05 0.64300001 -0.15700001 94 0 0 0 0.032049999
1.051 0.64200002 -0.156 90 0 0 0 0.032060001
1.052 0.63999999 -0.154 100 0 0 0 0.03207
1.053 0.639 -0.152 104 0 0 0 0.032079998
1.0549999 0.63800001 -0.15099999 95 0 0 0 0.032090001
1.054 0.63499999 -0.149 93 0 0 0 0.032099999
1.0549999 0.63300002 -0.147 101 0 0 0 0.032109998
1.056 0.63099998 -0.146 99 0 0 0 0.032120001
1.059 0.63 -0.14399999 97 0 0 0 0.032129999
1.061 0.62900001 -0.14300001 96 0 0 0 0.032140002
1.062 0.62699997 -0.141 95 0 0 0 0.03215
1.062 0.62400001 -0.139 104 0 0 0 0.032159999
1.056 0.61799997 -0.13699999 102 0 0 0 0.032170001
1.066 0.62099999 -0.13699999 94 0 0 0 0.03218
1.059 0.61500001 -0.134 111 0 0 0 0.032189999
1.061 0.61299998 -0.132 105 0 0 0 0.032200001
1.069 0.61500001 -0.132 96 0 0 0 0.03221
1.063 0.60900003 -0.12899999 115 0 0 0 0.032219999
1.062 0.60600001 -0.12800001 139 0 0 0 0.032230001
1.064 0.60399997 -0.126 140 0 0 0 0.03224
1.0650001 0.60100001 -0.125 150 0 0 0 0.032249998
1.067 0.60000002 -0.123 133 0 0 0 0.032260001
1.066 0.59600002 -0.121 146 0 0 0 0.032269999
1.068 0.59500003 -0.12 150 0 0 0 0.032280002
1.071 0.59299999 -0.119 150 0 0 0 0.03229
1.073 0.59100002 -0.117 150 0 0 0 0.032299999
1.069 0.58600003 -0.115 150 0 0 0 0.032310002
1.072 0.58499998 -0.114 150 0 0 0 0.03232
1.075 0.583 -0.113 150 0 0 0 0.032329999
1.075 0.57999998 -0.111 150 0 0 0 0.032340001
1.072 0.57599998 -0.109 150 0 0 0 0.03235
1.074 0.574 -0.108 150 0 0 0 0.032359999
1.076 0.57200003 -0.107 150 0 0 0 0.032370001
1.074 0.56699997 -0.105 150 0 0 0 0.03238
1.075 0.565 -0.104 150 0 0 0 0.032389998
1.077 0.56300002 -0.102 150 0 0 0 0.032400001
1.0779999 0.56 -0.101 150 0 0 0 0.03241
1.08 0.55800003 -0.1 150 0 0 0 0.032419998
1.081 0.55500001 -0.097999997 150 0 0 0 0.032430001
1.084 0.55400002 -0.097000003 150 0 0 0 0.032439999
1.082 0.54900002 -0.094999999 150 0 0 0 0.032450002
1.081 0.54500002 -0.093999997 150 0 0 0 0.03246
1.087 0.54500002 -0.093000002 150 0 0 0 0.032469999
1.086 0.54100001 -0.090999998 150 0 0 0 0.032480001
1.091 0.54100001 -0.090000004 150 0 0 0 0.03249
1.087 0.53500003 -0.089000002 150 0 0 0 0.032499999
1.094 0.53500003 -0.088 150 0 0 0 0.032510001
1.094 0.53200001 -0.086000003 150 0 0 0 0.03252
1.089 0.52600002 -0.085000001 150 0 0 0 0.032529999
1.092 0.52399999 -0.083999999 150 0 0 0 0.032540001
1.098 0.523 -0.082999997 150 0 0 0 0.03255
1.098 0.51999998 -0.081 150 0 0 0 0.032559998
1.096 0.51599997 -0.079999998 150 0 0 0 0.032570001
1.096 0.51200002 -0.079000004 150 0 0 0 0.032579999
1.102 0.51099998 -0.078000002 150 0 0 0 0.032590002
1.102 0.50800002 -0.075999998 150 0 0 0 0.032600001
1.101 0.50400001 -0.075000003 150 0 0 0 0.032609999
1.102 0.50099999 -0.074000001 150 0 0 0 0.032620002
1.105 0.49900001 -0.072999999 150 0 0 0 0.03263
1.1 0.493 -0.071000002 150 0 0 0 0.032639999
1.108 0.493 -0.071000002 150 0 0 0 0.032650001
1.108 0.48899999 -0.068999998 150 0 0 0 0.03266
1.109 0.486 -0.068000004 150 0 0 0 0.032669999
1.112 0.484 -0.067000002 150 0 0 0 0.032680001
1.1109999 0.47999999 -0.066 150 0 0 0 0.03269
1.107 0.47499999 -0.064999998 150 0 0 0 0.032699998
1.108 0.47099999 -0.064000003 150 0 0 0 0.032710001
1.114 0.47 -0.063000001 150 0 0 0 0.03272
1.114 0.46700001 -0.061999999 150 0 0 0 0.032729998
1.115 0.46399999 -0.061000001 150 0 0 0 0.032740001
1.117 0.46000001 -0.059999999 150 0 0 0 0.032749999
1.119 0.458 -0.059 150 0 0 0 0.032760002
1.12 0.45500001 -0.057999998 150 0 0 0 0.03277
1.1210001 0.45100001 -0.057 150 0 0 0 0.032779999
1.123 0.44800001 -0.056000002 150 0 0 0 0.032790001
1.123 0.44499999 -0.055 150 0 0 0 0.0328
1.13 0.44400001 -0.054000001 150 0 0 0 0.032809999
1.13 0.44 -0.052999999 150 0 0 0 0.032820001
1.127 0.435 -0.052000001 150 0 0 0 0.03283
1.1289999 0.43200001 -0.050999999 150 0 0 0 0.032839999
1.131 0.42899999 -0.050000001 150 0 0 0 0.032850001
1.137 0.428 -0.048999999 150 0 0 0 0.03286
1.141 0.42500001 -0.048 150 0 0 0 0.032869998
1.142 0.42199999 -0.046999998 150 0 0 0 0.032880001
1.145 0.419 -0.046999998 150 0 0 0 0.032889999
1.147 0.41600001 -0.046 150 0 0 0 0.032900002
1.1440001 0.41100001 -0.045000002 150 0 0 0 0.032910001
1.151 0.41 -0.044 150 0 0 0 0.032919999
1.153 0.40700001 -0.043000001 150 0 0 0 0.032930002
1.1569999 0.405 -0.041999999 150 0 0 0 0.03294
1.154 0.40000001 -0.041000001 150 0 0 0 0.032949999
1.16 0.398 -0.041000001 150 0 0 0 0.032960001
1.159 0.39399999 -0.039999999 150 0 0 0 0.03297
1.164 0.39199999 -0.039000001 150 0 0 0 0.032979999
1.165 0.38800001 -0.037999999 150 0 0 0 0.032990001
1.166 0.38499999 -0.037999999 150 0 0 0 0.033
1.171 0.382 -0.037 150 0 0 0 0.033009999
1.169 0.37799999 -0.035999998 150 0 0 0 0.033020001
1.173 0.375 -0.035 150 0 0 0 0.03303
1.175 0.37200001 -0.035 150 0 0 0 0.033039998
1.177 0.36899999 -0.034000002 150 0 0 0 0.033050001
1.177 0.36500001 -0.033 150 0 0 0 0.033059999
1.179 0.361 -0.032000002 150 0 0 0 0.033070002
1.1799999 0.35800001 -0.032000002 150 0 0 0 0.03308
1.182 0.354 -0.030999999 141 0 0 0 0.033089999
1.186 0.352 -0.029999999 150 0 0 0 0.033100002
1.187 0.34799999 -0.029999999 150 0 0 0 0.03311
1.188 0.34400001 -0.028999999 150 0 0 0 0.033119999
1.187 0.34 -0.028000001 150 0 0 0 0.033130001
1.191 0.33700001 -0.027000001 150 0 0 0 0.03314
1.189 0.333 -0.027000001 150 0 0 0 0.033149999
1.192 0.33000001 -0.026000001 145 0 0 0 0.033160001
1.194 0.32600001 -0.026000001 119 0 0 0 0.03317
1.198 0.324 -0.025 115 0 0 0 0.033179998
1.198 0.31999999 -0.024 125 0 0 0 0.033190001
1.2 0.31600001 -0.024 129 0 0 0 0.033199999
1.2 0.31200001 -0.023 113 0 0 0 0.033209998
1.201 0.308 -0.022 3 0 0 0 0.033220001
1.21 0.30700001 -0.022 122 0 0 0 0.033229999
1.2130001 0.303 -0.021 114 0 0 0 0.033240002
1.204 0.29699999 -0.021 119 0 0 0 0.03325
1.2130001 0.29499999 -0.02 102 0 0 0 0.033259999
1.216 0.292 -0.02 110 0 0 0 0.033270001
1.217 0.28799999 -0.018999999 103 0 0 0 0.03328
1.22 0.285 -0.018999999 80 0 0 0 0.033289999
1.221 0.28099999 -0.017999999 106 0 0 0 0.033300001
1.221 0.27700001 -0.017999999 108 0 0 0 0.03331
1.227 0.27399999 -0.017000001 85 0 0 0 0.033319999
1.226 0.27000001 -0.017000001 85 0 0 0 0.033330001
1.229 0.26699999 -0.016000001 75 0 0 0 0.03334
1.226 0.26199999 -0.015 84 0 0 0 0.033349998
1.235 0.25999999 -0.015 85 0 0 0 0.033360001
1.229 0.255 -0.015 73 0 0 0 0.033369999
1.237 0.252 -0.014 81 0 0 0 0.033380002
1.243 0.249 -0.014 91 0 0 0 0.03339
1.239 0.245 -0.013 89 0 0 0 0.033399999
1.243 0.241 -0.013 75 0 0 0 0.033410002
1.243 0.237 -0.012 91 0 0 0 0.03342
1.244 0.233 -0.012 90 0 0 0 0.033429999
1.2460001 0.23 -0.011 85 0 0 0 0.033440001
1.247 0.226 -0.011 92 0 0 0 0.03345
1.251 0.222 -0.011 86 0 0 0 0.033459999
1.2539999 0.219 -0.0099999998 69 0 0 0 0.033470001
1.256 0.215 -0.0099999998 36 0 0 0 0.03348
1.255 0.211 -0.0089999996 9 0 0 0 0.033489998
1.217 0.2 -0.0089999996 4 0 0 0 0.033500001
1.16 0.18700001 -0.0080000004 2 0 0 0 0.03351
1.153 0.182 -0.0080000004 3 0 0 0 0.033519998
1.149 0.178 -0.0070000002 4 0 0 0 0.033530001
1.145 0.17299999 -0.0070000002 4 0 0 0 0.033539999
1.141 0.169 -0.0070000002 5 0 0 0 0.033550002
1.141 0.16500001 -0.0060000001 5 0 0 0 0.03356
1.136 0.161 -0.0060000001 6 0 0 0 0.033569999
1.1339999 0.15700001 -0.0060000001 7 0 0 0 0.033580001
1.142 0.154 -0.0049999999 8 0 0 0 0.03359
1.141 0.15000001 -0.0049999999 9 0 0 0 0.033599999
1.135 0.146 -0.0049999999 9 0 0 0 0.033610001
1.1390001 0.14300001 -0.0049999999 8 0 0 0 0.03362
1.132 0.138 -0.0040000002 8 0 0 0 0.033629999
1.135 0.13500001 -0.0040000002 7 0 0 0 0.033640001
1.145 0.132 -0.0040000002 8 0 0 0 0.03365
1.1390001 0.12800001 -0.0040000002 6 0 0 0 0.033659998
1.145 0.125 -0.003 6 0 0 0 0.033670001
1.149 0.121 -0.003 5 0 0 0 0.033679999
1.149 0.118 -0.003 5 0 0 0 0.033690002
1.16 0.115 -0.003 4 0 0 0 0.0337
1.163 0.112 -0.0020000001 3 0 0 0 0.033709999
1.197 0.111 -0.0020000001 4 0 0 0 0.033720002
1.258 0.113 -0.0020000001 5 0 0 0 0.03373
1.298 0.112 -0.0020000001 9 0 0 0 0.033739999
1.303 0.108 -0.0020000001 32 0 0 0 0.033750001
1.304 0.104 -0.0020000001 74 0 0 0 0.03376
1.3049999 0.1 -0.0020000001 77 0 0 0 0.033769999
1.313 0.096000001 -0.001 77 0 0 0 0.033780001
1.308 0.092 -0.001 85 0 0 0 0.03379
1.3099999 0.086999997 -0.001 102 0 0 0 0.033799998
1.316 0.083999999 -0.001 69 0 0 0 0.033810001
1.3200001 0.079999998 -0.001 78 0 0 0 0.03382
1.319 0.075000003 -0.001 83 0 0 0 0.033829998
1.322 0.071000002 -0.001 91 0 0 0 0.033840001
1.322 0.067000002 0 95 0 0 0 0.033849999
1.322 0.061999999 0 85 0 0 0 0.033860002
1.326 0.057999998 0 93 0 0 0 0.03387
1.325 0.054000001 0 92 0 0 0 0.033879999
1.329 0.050000001 0 86 0 0 0 0.033890001
1.329 0.046 0 74 0 0 0 0.0339
1.33 0.041000001 0 83 0 0 0 0.033909999
1.339 0.037 0 96 0 0 0 0.033920001
1.339 0.033 0 85 0 0 0 0.03393
1.339 0.028999999 0 87 0 0 0 0.033939999
1.342 0.024 0 84 0 0 0 0.033950001
1.342 0.02 0 87 0 0 0 0.03396
1.3430001 0.016000001 0 87 0 0 0 0.033969998
1.348 0.011 0 75 0 0 0 0.033980001
1.344 0.0070000002 0 89 0 0 0 0.033989999
1.351 0.003 0 81 0 0 0 0.034000002
1.357 -0.001 0 99 0 0 0 0.034010001
1.358 -0.0049999999 0 109 0 0 0 0.034019999
1.36 -0.0099999998 0 100 0 0 0 0.034030002
1.3609999 -0.014 0 104 0 0 0 0.03404
1.3609999 -0.017999999 0 98 0 0 0 0.034049999
1.3609999 -0.023 0 86 0 0 0 0.034060001
1.363 -0.027000001 0 89 0 0 0 0.03407
1.368 -0.032000002 0 101 0 0 0 0.034079999
1.3710001 -0.035999998 0 86 0 0 0 0.034090001
1.373 -0.041000001 0 95 0 0 0 0.0341
1.3710001 -0.045000002 0 93 0 0 0 0.034109998
1.3710001 -0.050000001 0 105 0 0 0 0.034120001
1.3789999 -0.054000001 0 98 0 0 0 0.03413
1.381 -0.059 0 96 0 0 0 0.034139998
1.381 -0.063000001 0 112 0 0 0 0.034150001
1.383 -0.068000004 0 99 0 0 0 0.034159999
1.3890001 -0.072999999 0 105 0 0 0 0.034170002
1.386 -0.077 0 109 0 0 0 0.03418
1.388 -0.082000002 0 117 0 0 0 0.034189999
1.388 -0.086000003 -0.001 113 0 0 0 0.034200002
1.393 -0.090999998 -0.001 100 0 0 0 0.03421
1.396 -0.096000001 -0.001 112 0 0 0 0.034219999
1.399 -0.101 -0.001 118 0 0 0 0.034230001
1.399 -0.105 -0.001 118 0 0 0 0.03424
1.398 -0.11 -0.001 107 0 0 0 0.034249999
1.401 -0.114 -0.0020000001 96 0 0 0 0.034260001
1.406 -0.12 -0.0020000001 113 0 0 0 0.03427
1.408 -0.124 -0.0020000001 100 0 0 0 0.034279998
1.408 -0.12899999 -0.0020000001 103 0 0 0 0.034290001
1.41 -0.134 -0.0020000001 100 0 0 0 0.034299999
1.415 -0.139 -0.003 111 0 0 0 0.034309998
1.416 -0.14300001 -0.003 115 0 0 0 0.034320001
1.418 -0.148 -0.003 119 0 0 0 0.034329999
1.423 -0.153 -0.003 60 0 0 0 0.034340002
1.413 -0.15700001 -0.0040000002 21 0 0 0 0.03435
1.386 -0.15800001 -0.0040000002 6 0 0 0 0.034359999
1.369 -0.161 -0.0040000002 6 0 0 0 0.034370001
1.36 -0.164 -0.0040000002 7 0 0 0 0.03438
1.353 -0.168 -0.0049999999 7 0 0 0 0.034389999
1.342 -0.171 -0.0049999999 8 0 0 0 0.034400001
1.337 -0.175 -0.0049999999 8 0 0 0 0.03441
1.327 -0.178 -0.0049999999 7 0 0 0 0.034419999
1.321 -0.18099999 -0.0060000001 7 0 0 0 0.034430001
1.316 -0.185 -0.0060000001 7 0 0 0 0.03444
1.309 -0.18799999 -0.0060000001 7 0 0 0 0.034449998
1.3 -0.191 -0.0060000001 7 0 0 0 0.034460001
1.2970001 -0.19499999 -0.0070000002 7 0 0 0 0.034469999
1.291 -0.198 -0.0070000002 7 0 0 0 0.034480002
1.283 -0.20100001 -0.0070000002 7 0 0 0 0.03449
1.275 -0.204 -0.0080000004 7 0 0 0 0.034499999
1.271 -0.207 -0.0080000004 8 0 0 0 0.034510002
1.26 -0.20999999 -0.0080000004 8 0 0 0 0.03452
1.255 -0.213 -0.0089999996 9 0 0 0 0.034529999
1.252 -0.21699999 -0.0089999996 9 0 0 0 0.034540001
1.247 -0.22 -0.0089999996 15 0 0 0 0.03455
1.244 -0.22400001 -0.0099999998 24 0 0 0 0.034559999
1.243 -0.227 -0.0099999998 22 0 0 0 0.034570001
1.24 -0.23100001 -0.011 16 0 0 0 0.03458
1.239 -0.235 -0.011 14 0 0 0 0.034589998
1.2410001 -0.23899999 -0.011 14 0 0 0 0.034600001
1.25 -0.245 -0.012 13 0 0 0 0.03461
1.248 -0.249 -0.012 11 0 0 0 0.034619998
1.248 -0.25299999 -0.013 11 0 0 0 0.034630001
1.249 -0.257 -0.013 10 0 0 0 0.034639999
1.249 -0.26100001 -0.014 10 0 0 0 0.034650002
1.249 -0.266 -0.014 10 0 0 0 0.03466
1.251 -0.27000001 -0.015 10 0 0 0 0.034669999
1.256 -0.27500001 -0.015 10 0 0 0 0.034680001
1.255 -0.27900001 -0.016000001 11 0 0 0 0.03469
1.258 -0.28400001 -0.017000001 11 0 0 0 0.034699999
1.26 -0.289 -0.017000001 12 0 0 0 0.034710001
1.2589999 -0.292 -0.017999999 13 0 0 0 0.03472
1.26 -0.29699999 -0.017999999 14 0 0 0 0.034729999
1.2640001 -0.30199999 -0.018999999 13 0 0 0 0.034740001
1.268 -0.30700001 -0.018999999 13 0 0 0 0.03475
1.27 -0.31200001 -0.02 13 0 0 0 0.034759998
1.2690001 -0.31600001 -0.021 12 0 0 0 0.034770001
1.271 -0.32100001 -0.021 12 0 0 0 0.034779999
1.273 -0.32499999 -0.022 13 0 0 0 0.034790002
1.276 -0.33000001 -0.023 15 0 0 0 0.0348
1.277 -0.33500001 -0.023 15 0 0 0 0.034809999
1.28 -0.34 -0.024 15 0 0 0 0.034820002
1.2819999 -0.345 -0.025 16 0 0 0 0.03483
1.2819999 -0.34900001 -0.025 16 0 0 0 0.034839999
1.2819999 -0.35299999 -0.026000001 16 0 0 0 0.034850001
1.288 -0.359 -0.027000001 16 0 0 0 0.03486
1.29 -0.36399999 -0.028000001 17 0 0 0 0.034869999
1.266 -0.361 -0.028000001 17 0 0 0 0.034880001
1.223 -0.35299999 -0.028000001 21 0 0 0 0.03489
1.166 -0.34099999 -0.027000001 14 0 0 0 0.034899998
1.114 -0.329 -0.027000001 20 0 0 0 0.034910001
1.112 -0.33199999 -0.027000001 28 0 0 0 0.03492
1.113 -0.336 -0.028000001 18 0 0 0 0.034929998
1.112 -0.34 -0.028999999 6 0 0 0 0.034940001
1.098 -0.33899999 -0.028999999 7 0 0 0 0.034949999
1.095 -0.34200001 -0.028999999 8 0 0 0 0.034960002
1.089 -0.34299999 -0.029999999 7 0 0 0 0.03497
1.085 -0.34599999 -0.030999999 6 0 0 0 0.034979999
1.0829999 -0.34900001 -0.030999999 4 0 0 0 0.034990001
1.077 -0.34999999 -0.032000002 4 0 0 0 0.035
1.066 -0.34999999 -0.032000002 5 0 0 0 0.035009999
1.0599999 -0.352 -0.033 5 0 0 0 0.035020001
1.057 -0.354 -0.034000002 5 0 0 0 0.03503
1.051 -0.35600001 -0.034000002 6 0 0 0 0.035039999
1.051 -0.359 -0.035 6 0 0 0 0.035050001
1.044 -0.361 -0.035 8 0 0 0 0.03506
1.044 -0.36399999 -0.035999998 8 0 0 0 0.035069998
1.0369999 -0.36500001 -0.037 9 0 0 0 0.035080001
1.044 -0.37099999 -0.037999999 13 0 0 0 0.035089999
1.0369999 -0.37200001 -0.037999999 15 0 0 0 0.035100002
1.034 -0.37400001 -0.039000001 18 0 0 0 0.035110001
1.033 -0.377 -0.039999999 17 0 0 0 0.035119999
1.036 -0.382 -0.041000001 8 0 0 0 0.035130002
1.034 -0.38499999 -0.041999999 6 0 0 0 0.03514
1.03 -0.38600001 -0.041999999 7 0 0 0 0.035149999
1.033 -0.391 -0.043000001 8 0 0 0 0.035160001
1.033 -0.39399999 -0.044 8 0 0 0 0.03517
1.036 -0.39899999 -0.045000002 10 0 0 0 0.035179999
1.03 -0.40000001 -0.046 9 0 0 0 0.035190001
1.031 -0.40400001 -0.046999998 8 0 0 0 0.0352
1.0319999 -0.40700001 -0.048 8 0 0 0 0.035209998
1.033 -0.41100001 -0.048999999 7 0 0 0 0.035220001
1.033 -0.41499999 -0.050000001 6 0 0 0 0.03523
1.0369999 -0.41999999 -0.050999999 6 0 0 0 0.035239998
1.036 -0.42300001 -0.052000001 6 0 0 0 0.035250001
1.036 -0.426 -0.052999999 7 0 0 0 0.035259999
1.041 -0.43200001 -0.054000001 7 0 0 0 0.035270002
1.035 -0.433 -0.055 7 0 0 0 0.03528
1.041 -0.43900001 -0.056000002 7 0 0 0 0.035289999
1.04 -0.44100001 -0.057 7 0 0 0 0.035300002
1.04 -0.44499999 -0.057999998 8 0 0 0 0.03531
1.038 -0.447 -0.059 8 0 0 0 0.035319999
1.043 -0.45300001 -0.059999999 9 0 0 0 0.035330001
1.041 -0.456 -0.061999999 8 0 0 0 0.03534
1.0420001 -0.45899999 -0.063000001 9 0 0 0 0.035349999
1.043 -0.463 -0.064000003 8 0 0 0 0.035360001
1.045 -0.46700001 -0.064999998 8 0 0 0 0.03537
1.0470001 -0.472 -0.066 8 0 0 0 0.035379998
1.049 -0.47600001 -0.068000004 8 0 0 0 0.035390001
1.049 -0.479 -0.068999998 8 0 0 0 0.035399999
1.048 -0.48199999 -0.07 8 0 0 0 0.035409998
1.051 -0.48699999 -0.071000002 7 0 0 0 0.035420001
1.0549999 -0.49200001 -0.072999999 6 0 0 0 0.035429999
1.049 -0.493 -0.074000001 5 0 0 0 0.035440002
1.039 -0.491 -0.074000001 0 0 0 0 0.03545
0.95499998 -0.454 -0.068999998 0 0 0 0 0.035459999
0.91500002 -0.43799999 -0.067000002 0 0 0 0 0.035470001
0.926 -0.44600001 -0.068999998 0 0 0 0 0.03548
0.92900002 -0.45100001 -0.071000002 0 0 0 0 0.035489999
0.917 -0.44800001 -0.071000002 0 0 0 0 0.035500001
0.92299998 -0.454 -0.072999999 0 0 0 0 0.03551
0.912 -0.45100001 -0.072999999 0 0 0 0 0.035519999
0.90100002 -0.44800001 -0.072999999 0 0 0 0 0.035530001
0.91299999 -0.45699999 -0.075000003 0 0 0 0 0.03554
0.91900003 -0.463 -0.077 0 0 0 0 0.035549998
0.89200002 -0.45199999 -0.075999998 0 0 0 0 0.035560001
0.87900001 -0.44800001 -0.075999998 0 0 0 0 0.035569999
0.87900001 -0.45100001 -0.077 0 0 0 0 0.035580002
0.86400002 -0.44600001 -0.077 0 0 0 0 0.03559
0.86299998 -0.44800001 -0.078000002 0 0 0 0 0.035599999
0.86199999 -0.44999999 -0.079000004 0 0 0 0 0.035610002
0.86500001 -0.454 -0.081 0 0 0 0 0.03562
0.86400002 -0.456 -0.082000002 0 0 0 0 0.035629999
0.866 -0.46000001 -0.082999997 0 0 0 0 0.035640001
0.86000001 -0.45899999 -0.083999999 0 0 0 0 0.03565
0.85399997 -0.458 -0.083999999 0 0 0 0 0.035659999
0.86000001 -0.463 -0.086000003 0 0 0 0 0.035670001
0.86199999 -0.46700001 -0.088 0 0 0 0 0.03568
0.87199998 -0.47499999 -0.090000004 0 0 0 0 0.035689998
0.83899999 -0.45899999 -0.088 0 0 0 0 0.035700001
0.84200001 -0.46399999 -0.089000002 0 0 0 0 0.03571
0.838 -0.46399999 -0.090000004 0 0 0 0 0.035719998
0.85600001 -0.47600001 -0.093000002 0 0 0 0 0.035730001
0.847 -0.47299999 -0.093999997 0 0 0 0 0.035739999
0.83999997 -0.472 -0.093999997 0 0 0 0 0.035750002
0.83200002 -0.47 -0.094999999 0 0 0 0 0.03576
0.829 -0.47 -0.096000001 0 0 0 0 0.035769999
0.84100002 -0.479 -0.097999997 0 0 0 0 0.035780001
0.82099998 -0.47 -0.097000003 0 0 0 0 0.03579
0.82999998 -0.477 -0.098999999 0 0 0 0 0.035799999
0.81800002 -0.472 -0.098999999 0 0 0 0 0.035810001
0.829 -0.48100001 -0.102 0 0 0 0 0.03582
0.81 -0.472 -0.101 0 0 0 0 0.035829999
0.81199998 -0.47499999 -0.102 0 0 0 0 0.035840001
0.80900002 -0.47499999 -0.103 0 0 0 0 0.03585
0.81400001 -0.47999999 -0.105 0 0 0 0 0.035859998
0.80699998 -0.47799999 -0.106 0 0 0 0 0.035870001
0.80500001 -0.479 -0.107 0 0 0 0 0.035879999
0.78299999 -0.46799999 -0.105 0 0 0 0 0.035890002
0.792 -0.47499999 -0.108 0 0 0 0 0.0359
0.764 -0.45899999 -0.105 0 0 0 0 0.035909999
0.76599997 -0.463 -0.107 0 0 0 0 0.035920002
0.75700003 -0.45899999 -0.107 0 0 0 0 0.03593
0.75 -0.456 -0.107 0 0 0 0 0.035939999
0.73199999 -0.447 -0.106 0 0 0 0 0.035950001
0.73799998 -0.45199999 -0.108 0 0 0 0 0.03596
0.73100001 -0.44999999 -0.108 0 0 0 0 0.035969999
0.70099998 -0.43200001 -0.105 0 0 0 0 0.035980001
0.72000003 -0.44499999 -0.109 0 0 0 0 0.03599
0.708 -0.44 -0.108 0 0 0 0 0.035999998
0.69499999 -0.433 -0.107 0 0 0 0 0.036010001
0.68000001 -0.42500001 -0.106 0 0 0 0 0.03602
0.68400002 -0.42899999 -0.108 0 0 0 0 0.036029998
0.662 -0.41600001 -0.106 0 0 0 0 0.036040001
0.65499997 -0.41299999 -0.106 0 0 0 0 0.036049999
0.65799999 -0.41600001 -0.107 0 0 0 0 0.036060002
0.66299999 -0.41999999 -0.109 0 0 0 0 0.03607
0.653 -0.41499999 -0.109 0 0 0 0 0.036079999
0.64399999 -0.41 -0.108 0 0 0 0 0.036090001
0.64399999 -0.412 -0.109 0 0 0 0 0.0361
0.64700001 -0.414 -0.111 0 0 0 0 0.036109999
0.64399999 -0.41299999 -0.112 0 0 0 0 0.036120001
0.63499999 -0.40900001 -0.111 0 0 0 0 0.03613
0.62900001 -0.405 -0.111 0 0 0 0 0.036139999
0.62400001 -0.403 -0.111 0 0 0 0 0.036150001
0.62300003 -0.40400001 -0.112 0 0 0 0 0.03616
0.61299998 -0.398 -0.112 0 0 0 0 0.036169998
0.61699998 -0.40099999 -0.113 0 0 0 0 0.036180001
0.60699999 -0.39500001 -0.113 0 0 0 0 0.036189999
0.616 -0.40200001 -0.115 0 0 0 0 0.036200002
0.58099997 -0.38 -0.11 0 0 0 0 0.036210001
0.574 -0.37599999 -0.109 0 0 0 0 0.036219999
0.57300001 -0.37599999 -0.11 0 0 0 0 0.036230002
0.56699997 -0.37200001 -0.11 0 0 0 0 0.03624
0.57200003 -0.37599999 -0.112 0 0 0 0 0.036249999
0.56599998 -0.37200001 -0.112 0 0 0 0 0.036260001
0.56400001 -0.37200001 -0.112 0 0 0 0 0.03627
0.565 -0.373 -0.113 0 0 0 0 0.036279999
0.56999999 -0.377 -0.115 0 0 0 0 0.036290001
0.57599998 -0.38100001 -0.117 1 0 0 0 0.0363
0.57300001 -0.37900001 -0.118 1 0 0 0 0.036309998
0.57200003 -0.37900001 -0.118 1 0 0 0 0.036320001
0.57200003 -0.38 -0.119 1 0 0 0 0.03633
0.574 -0.38100001 -0.121 1 0 0 0 0.036339998
0.574 -0.38100001 -0.122 1 0 0 0 0.036350001
0.57499999 -0.382 -0.123 2 0 0 0 0.036359999
0.57599998 -0.38299999 -0.124 2 0 0 0 0.036370002
0.57300001 -0.38100001 -0.124 2 0 0 0 0.03638
0.57099998 -0.38 -0.125 2 0 0 0 0.036389999
0.57300001 -0.382 -0.126 2 0 0 0 0.036400001
0.57300001 -0.382 -0.127 2 0 0 0 0.03641
0.56800002 -0.37799999 -0.127 1 0 0 0 0.036419999
0.56900001 -0.37900001 -0.12800001 1 0 0 0 0.036430001
0.56699997 -0.37799999 -0.12800001 1 0 0 0 0.03644
0.56900001 -0.37900001 -0.12899999 1 0 0 0 0.036449999
0.56900001 -0.37900001 -0.13 1 0 0 0 0.036460001
0.56900001 -0.37900001 -0.131 1 0 0 0 0.03647
0.56900001 -0.37900001 -0.132 1 0 0 0 0.036479998
0.56800002 -0.377 -0.132 1 0 0 0 0.036490001
0.56900001 -0.37799999 -0.133 1 0 0 0 0.036499999
0.56800002 -0.377 -0.134 1 0 0 0 0.036509998
0.56800002 -0.37599999 -0.13500001 1 0 0 0 0.036520001
0.56400001 -0.37400001 -0.13500001 1 0 0 0 0.036529999
0.56900001 -0.377 -0.13600001 1 0 0 0 0.036540002
0.56699997 -0.375 -0.13699999 1 0 0 0 0.03655
0.56800002 -0.375 -0.13699999 1 0 0 0 0.036559999
0.56699997 -0.37400001 -0.138 1 0 0 0 0.036570001
0.56699997 -0.37400001 -0.139 1 0 0 0 0.03658
0.56800002 -0.37400001 -0.14 2 0 0 0 0.036589999
0.56900001 -0.37400001 -0.141 1 0 0 0 0.036600001
0.56800002 -0.373 -0.141 1 0 0 0 0.03661
0.57099998 -0.37400001 -0.142 2 0 0 0 0.036619999
0.57200003 -0.37400001 -0.14300001 2 0 0 0 0.036630001
0.56999999 -0.373 -0.14300001 2 0 0 0 0.03664
0.56900001 -0.37099999 -0.14399999 2 0 0 0 0.036649998
0.57099998 -0.37200001 -0.145 2 0 0 0 0.036660001
0.57099998 -0.37099999 -0.145 2 0 0 0 0.036669999
0.574 -0.373 -0.147 2 0 0 0 0.036680002
0.57499999 -0.37200001 -0.147 2 0 0 0 0.03669
0.57499999 -0.37099999 -0.148 2 0 0 0 0.036699999
0.57800001 -0.37200001 -0.149 2 0 0 0 0.036710002
0.57099998 -0.36700001 -0.148 2 0 0 0 0.03672
0.57700002 -0.37 -0.15000001 2 0 0 0 0.036729999
0.57800001 -0.37 -0.15099999 2 0 0 0 0.036740001
0.57800001 -0.36899999 -0.15099999 2 0 0 0 0.03675
0.58099997 -0.37 -0.153 2 0 0 0 0.036759999
0.579 -0.368 -0.153 2 0 0 0 0.036770001
0.58399999 -0.37 -0.154 2 0 0 0 0.03678
0.579 -0.366 -0.154 2 0 0 0 0.036789998
0.58499998 -0.368 -0.155 2 0 0 0 0.036800001
0.583 -0.366 -0.155 2 0 0 0 0.036809999
0.58600003 -0.366 -0.156 2 0 0 0 0.036819998
0.58600003 -0.366 -0.15700001 2 0 0 0 0.036830001
0.58899999 -0.366 -0.15800001 2 0 0 0 0.036839999
0.58700001 -0.36399999 -0.15800001 2 0 0 0 0.036850002
0.58700001 -0.36300001 -0.15800001 2 0 0 0 0.03686
0.588 -0.36199999 -0.15899999 1 0 0 0 0.036869999
0.59100002 -0.36199999 -0.16 2 0 0 0 0.036880001
0.59100002 -0.361 -0.16 2 0 0 0 0.03689
0.59299999 -0.36199999 -0.161 2 0 0 0 0.036899999
0.59500003 -0.361 -0.162 2 0 0 0 0.036910001
0.597 -0.361 -0.162 2 0 0 0 0.03692
0.597 -0.36000001 -0.163 2 0 0 0 0.036929999
0.59600002 -0.35800001 -0.163 2 0 0 0 0.036940001
0.60299999 -0.36000001 -0.16500001 2 0 0 0 0.03695
0.59899998 -0.35699999 -0.164 2 0 0 0 0.036959998
0.60600001 -0.36000001 -0.16599999 2 0 0 0 0.036970001
0.60900003 -0.359 -0.167 2 0 0 0 0.036979999
0.60799998 -0.35699999 -0.16599999 2 0 0 0 0.036990002
0.60900003 -0.35699999 -0.167 2 0 0 0 0.037
0.60900003 -0.35499999 -0.167 2 0 0 0 0.037009999
0.60900003 -0.354 -0.167 2 0 0 0 0.037020002
0.611 -0.35299999 -0.168 2 0 0 0 0.03703
0.61199999 -0.352 -0.168 2 0 0 0 0.037039999
0.616 -0.35299999 -0.169 2 0 0 0 0.037050001
0.61699998 -0.352 -0.169 2 0 0 0 0.03706
0.61799997 -0.34999999 -0.17 2 0 0 0 0.037069999
0.61900002 -0.34900001 -0.17 2 0 0 0 0.037080001
0.62 -0.34799999 -0.17 2 0 0 0 0.03709
0.62400001 -0.34900001 -0.171 2 0 0 0 0.037099998
0.62599999 -0.34799999 -0.171 2 0 0 0 0.037110001
0.62599999 -0.347 -0.17200001 2 0 0 0 0.03712
0.63200003 -0.34799999 -0.17299999 2 0 0 0 0.037129998
0.62800002 -0.34400001 -0.17200001 2 0 0 0 0.037140001
0.62900001 -0.34200001 -0.17200001 2 0 0 0 0.037149999
0.63599998 -0.345 -0.17399999 2 0 0 0 0.037160002
0.63300002 -0.34099999 -0.17299999 2 0 0 0 0.03717
0.63099998 -0.338 -0.17200001 2 0 0 0 0.037179999
0.63800001 -0.34 -0.17399999 2 0 0 0 0.037190001
0.63999999 -0.33899999 -0.17399999 2 0 0 0 0.0372
0.64399999 -0.34 -0.175 2 0 0 0 0.037209999
0.64099997 -0.336 -0.17399999 2 0 0 0 0.037220001
0.64600003 -0.33700001 -0.175 2 0 0 0 0.03723
0.64300001 -0.333 -0.17399999 2 0 0 0 0.037239999
0.64399999 -0.33199999 -0.17399999 2 0 0 0 0.037250001
0.64899999 -0.33199999 -0.175 2 0 0 0 0.03726
0.64899999 -0.331 -0.175 2 0 0 0 0.037269998
0.65799999 -0.333 -0.177 2 0 0 0 0.037280001
0.66000003 -0.33199999 -0.177 2 0 0 0 0.037289999
0.65600002 -0.32800001 -0.175 2 0 0 0 0.037300002
0.66100001 -0.329 -0.176 2 0 0 0 0.037310001
0.662 -0.32699999 -0.176 2 0 0 0 0.037319999
0.66399997 -0.32600001 -0.176 2 0 0 0 0.037330002
0.66799998 -0.32600001 -0.177 2 0 0 0 0.03734
0.66600001 -0.322 -0.176 2 0 0 0 0.037349999
0.67000002 -0.322 -0.176 2 0 0 0 0.037360001
0.67199999 -0.32100001 -0.176 2 0 0 0 0.03737
0.67500001 -0.32100001 -0.177 2 0 0 0 0.037379999
0.68099999 -0.32100001 -0.178 2 0 0 0 0.037390001
0.68000001 -0.31799999 -0.177 2 0 0 0 0.0374
0.68000001 -0.31600001 -0.176 2 0 0 0 0.037409998
0.68300003 -0.31600001 -0.177 2 0 0 0 0.037420001
0.685 -0.315 -0.177 2 0 0 0 0.03743
0.685 -0.31200001 -0.176 2 0 0 0 0.037439998
0.69 -0.31299999 -0.177 2 0 0 0 0.037450001
0.69700003 -0.31299999 -0.178 2 0 0 0 0.037459999
0.69700003 -0.31099999 -0.177 2 0 0 0 0.037470002
0.69800001 -0.31 -0.177 2 0 0 0 0.03748
0.70099998 -0.30899999 -0.177 2 0 0 0 0.037489999
0.70099998 -0.30599999 -0.177 2 0 0 0 0.037500001
0.70499998 -0.30599999 -0.177 2 0 0 0 0.03751
0.70599997 -0.30399999 -0.176 2 0 0 0 0.037519999
0.70999998 -0.303 -0.177 2 0 0 0 0.037530001
0.70899999 -0.301 -0.176 2 0 0 0 0.03754
0.713 -0.30000001 -0.176 2 0 0 0 0.037549999
0.71799999 -0.30000001 -0.177 2 0 0 0 0.037560001
0.72100002 -0.29899999 -0.176 2 0 0 0 0.03757
0.722 -0.29699999 -0.176 2 0 0 0 0.037579998
0.727 -0.29699999 -0.176 2 0 0 0 0.037590001
0.72600001 -0.294 -0.175 2 0 0 0 0.037599999
0.72799999 -0.29300001 -0.175 2 0 0 0 0.037610002
0.73299998 -0.292 -0.175 2 0 0 0 0.037620001
0.736 -0.29100001 -0.175 2 0 0 0 0.037629999
0.73699999 -0.289 -0.17399999 2 0 0 0 0.037640002
0.741 -0.28799999 -0.175 2 0 0 0 0.03765
0.74400002 -0.287 -0.17399999 2 0 0 0 0.037659999
0.74800003 -0.28600001 -0.17399999 2 0 0 0 0.037670001
0.75199997 -0.285 -0.175 2 0 0 0 0.03768
0.75400001 -0.28400001 -0.17399999 2 0 0 0 0.037689999
0.75599998 -0.28200001 -0.17399999 2 0 0 0 0.037700001
0.75700003 -0.28 -0.17299999 2 0 0 0 0.03771
0.76099998 -0.27900001 -0.17299999 2 0 0 0 0.037719999
0.76499999 -0.278 -0.17299999 2 0 0 0 0.037730001
0.76599997 -0.27599999 -0.17200001 2 0 0 0 0.03774
0.76999998 -0.27500001 -0.17200001 2 0 0 0 0.037749998
0.773 -0.27399999 -0.171 2 0 0 0 0.037760001
0.773 -0.271 -0.171 2 0 0 0 0.037769999
0.78100002 -0.27200001 -0.171 2 0 0 0 0.037780002
0.78600001 -0.271 -0.171 2 0 0 0 0.03779
0.78500003 -0.26800001 -0.17 2 0 0 0 0.037799999
0.79000002 -0.26699999 -0.17 2 0 0 0 0.037810002
0.79100001 -0.26499999 -0.169 2 0 0 0 0.03782
0.79400003 -0.264 -0.169 2 0 0 0 0.037829999
0.796 -0.26199999 -0.168 2 0 0 0 0.037840001
0.796 -0.259 -0.167 2 0 0 0 0.03785
0.801 -0.259 -0.167 2 0 0 0 0.037859999
0.80000001 -0.25600001 -0.16500001 2 0 0 0 0.037870001
0.81099999 -0.257 -0.167 2 0 0 0 0.03788
0.81199998 -0.255 -0.16599999 2 0 0 0 0.037889998
0.81400001 -0.25299999 -0.16500001 2 0 0 0 0.037900001
0.82099998 -0.252 -0.16500001 2 0 0 0 0.037909999
0.81999999 -0.249 -0.164 2 0 0 0 0.037919998
0.82700002 -0.249 -0.164 2 0 0 0 0.037930001
0.82499999 -0.24600001 -0.162 2 0 0 0 0.037939999
0.833 -0.24600001 -0.162 2 0 0 0 0.037950002
0.838 -0.245 -0.162 2 0 0 0 0.03796
0.83899999 -0.243 -0.161 2 0 0 0 0.037969999
0.84200001 -0.241 -0.16 2 0 0 0 0.037980001
0.84299999 -0.23800001 -0.15899999 2 0 0 0 0.03799
0.84899998 -0.23800001 -0.15899999 2 0 0 0 0.037999999
0.85399997 -0.236 -0.15899999 2 0 0 0 0.038010001
0.85600001 -0.234 -0.15800001 2 0 0 0 0.03802
0.86199999 -0.233 -0.15700001 2 0 0 0 0.038029999
0.86699998 -0.23199999 -0.15700001 2 0 0 0 0.038040001
0.86699998 -0.23 -0.156 2 0 0 0 0.03805
0.87300003 -0.228 -0.155 2 0 0 0 0.038059998
0.87300003 -0.226 -0.154 2 0 0 0 0.038070001
0.87800002 -0.22499999 -0.153 2 0 0 0 0.038079999
0.88599998 -0.22400001 -0.153 2 0 0 0 0.038090002
0.88700002 -0.222 -0.152 2 0 0 0 0.0381
0.88800001 -0.219 -0.15099999 2 0 0 0 0.038109999
0.889 -0.21699999 -0.15000001 2 0 0 0 0.038120002
0.898 -0.21600001 -0.15000001 2 0 0 0 0.03813
0.89899999 -0.214 -0.148 2 0 0 0 0.038139999
0.903 -0.212 -0.147 2 0 0 0 0.038150001
0.90600002 -0.20999999 -0.146 2 0 0 0 0.03816
0.90899998 -0.20900001 -0.145 2 0 0 0 0.038169999
0.917 -0.208 -0.145 2 0 0 0 0.038180001
0.91799998 -0.205 -0.14399999 2 0 0 0 0.03819
0.92000002 -0.20299999 -0.14300001 2 0 0 0 0.038199998
0.92400002 -0.20100001 -0.142 2 0 0 0 0.038210001
0.93000001 -0.2 -0.141 2 0 0 0 0.03822
0.935 -0.198 -0.14 2 0 0 0 0.038229998
0.93800002 -0.19599999 -0.139 2 0 0 0 0.038240001
0.94 -0.19400001 -0.138 2 0 0 0 0.038249999
0.94499999 -0.192 -0.13699999 3 0 0 0 0.038260002
0.94599998 -0.19 -0.13500001 2 0 0 0 0.03827
0.95300001 -0.18799999 -0.13500001 2 0 0 0 0.038279999
0.95899999 -0.18700001 -0.134 2 0 0 0 0.038290001
0.96499997 -0.185 -0.133 2 0 0 0 0.0383
0.96700001 -0.183 -0.131 2 0 0 0 0.038309999
0.97500002 -0.18099999 -0.131 3 0 0 0 0.038320001
0.97799999 -0.17900001 -0.13 3 0 0 0 0.03833
0.98199999 -0.177 -0.12800001 3 0 0 0 0.038339999
0.98299998 -0.175 -0.127 3 0 0 0 0.038350001
0.98900002 -0.17299999 -0.126 3 0 0 0 0.03836
1.0089999 -0.17399999 -0.127 3 0 0 0 0.038369998
1.011 -0.171 -0.125 3 0 0 0 0.038380001
1.007 -0.168 -0.123 2 0 0 0 0.038389999
1.161 0.094999999 0.082999997 0 0 0 0 0.039360002
1.164 0.097999997 0.085000001 0 0 0 0 0.03937
1.171 0.101 0.089000002 0 0 0 0 0.039379999
1.159 0.103 0.090000004 0 0 0 0 0.039390001
1.1569999 0.106 0.093000002 0 0 0 0 0.0394
1.147 0.107 0.093999997 0 0 0 0 0.039409999
1.158 0.111 0.097999997 0 0 0 0 0.039420001
1.1569999 0.114 0.101 0 0 0 0 0.03943
1.164 0.117 0.104 0 0 0 0 0.039439999
1.1569999 0.119 0.106 0 0 0 0 0.039450001
1.159 0.122 0.109 0 0 0 0 0.03946
1.158 0.125 0.111 0 0 0 0 0.039469998
1.154 0.127 0.113 0 0 0 0 0.039480001
1.165 0.131 0.117 0 0 0 0 0.039489999
1.169 0.134 0.12 0 0 0 0 0.039500002
1.1720001 0.138 0.123 0 0 0 0 0.03951
1.146 0.13699999 0.123 0 0 0 0 0.039519999
1.17 0.14300001 0.12800001 0 0 0 0 0.039530002
1.1569999 0.14399999 0.13 0 0 0 0 0.03954
1.169 0.148 0.134 0 0 0 0 0.039549999
1.16 0.15000001 0.13500001 0 0 0 0 0.039560001
1.178 0.155 0.14 0 0 0 0 0.03957
1.173 0.15700001 0.142 0 0 0 0 0.039579999
1.174 0.16 0.145 0 0 0 0 0.039590001
1.176 0.163 0.148 0 0 0 0 0.0396
1.168 0.164 0.15000001 0 0 0 0 0.039609998
1.165 0.167 0.152 0 0 0 0 0.039620001
1.153 0.168 0.154 0 0 0 0 0.03963
1.17 0.17299999 0.15899999 0 0 0 0 0.039639998
1.169 0.175 0.161 0 0 0 0 0.039650001
1.1670001 0.178 0.164 0 0 0 0 0.039659999
1.171 0.18099999 0.167 0 0 0 0 0.039670002
1.16 0.182 0.168 0 0 0 0 0.03968
1.165 0.185 0.17200001 0 0 0 0 0.039689999
1.173 0.189 0.176 0 0 0 0 0.039700001
1.173 0.192 0.17900001 0 0 0 0 0.03971
1.17 0.19400001 0.18099999 4 0 0 0 0.039719999
1.228 0.207 0.193 8 0 0 0 0.039730001
1.242 0.212 0.198 7 0 0 0 0.03974
1.261 0.21799999 0.205 5 0 0 0 0.039749999
1.274 0.223 0.20999999 1 0 0 0 0.039760001
1.239 0.22 0.207 0 0 0 0 0.03977
1.176 0.211 0.199 0 0 0 0 0.039779998
1.166 0.212 0.20100001 0 0 0 0 0.039790001
1.158 0.213 0.20200001 0 0 0 0 0.039799999
1.15 0.214 0.204 0 0 0 0 0.039810002
1.147 0.21600001 0.206 0 0 0 0 0.039820001
1.151 0.219 0.20999999 0 0 0 0 0.039829999
1.151 0.222 0.212 0 0 0 0 0.039840002
1.153 0.22499999 0.21600001 0 0 0 0 0.03985
1.156 0.228 0.219 0 0 0 0 0.039859999
1.154 0.23 0.222 0 0 0 0 0.039870001
1.153 0.233 0.22400001 0 0 0 0 0.03988
1.156 0.236 0.228 0 0 0 0 0.039889999
1.163 0.23999999 0.23199999 0 0 0 0 0.039900001
1.163 0.242 0.235 0 0 0 0 0.03991
1.169 0.24600001 0.23999999 0 0 0 0 0.039919998
1.164 0.248 0.242 0 0 0 0 0.039930001
1.164 0.25 0.245 0 0 0 0 0.03994
1.235 0.26800001 0.26300001 5 0 0 0 0.039949998
1.235 0.271 0.266 14 0 0 0 0.039960001
1.234 0.273 0.26899999 52 0 0 0 0.039969999
1.23 0.27500001 0.271 67 0 0 0 0.039980002
1.229 0.27700001 0.27399999 74 0 0 0 0.03999
1.228 0.28 0.27700001 83 0 0 0 0.039999999
1.228 0.28200001 0.28099999 77 0 0 0 0.040010002
1.225 0.28400001 0.28299999 82 0 0 0 0.04002
1.222 0.28600001 0.28600001 98 0 0 0 0.040029999
1.225 0.289 0.28999999 80 0 0 0 0.040040001
1.22 0.29100001 0.292 87 0 0 0 0.04005
1.221 0.294 0.29499999 99 0 0 0 0.040059999
1.221 0.296 0.29800001 72 0 0 0 0.040070001
1.22 0.29800001 0.301 91 0 0 0 0.04008
1.22 0.301 0.30500001 75 0 0 0 0.040089998
1.217 0.303 0.30700001 107 0 0 0 0.040100001
1.216 0.30500001 0.31 88 0 0 0 0.040109999
1.215 0.30700001 0.31400001 106 0 0 0 0.040119998
1.2130001 0.30899999 0.31600001 108 0 0 0 0.040130001
1.212 0.31099999 0.31900001 150 0 0 0 0.040139999
1.21 0.31299999 0.322 150 0 0 0 0.040150002
1.21 0.31600001 0.32499999 150 0 0 0 0.04016
1.209 0.31799999 0.32800001 150 0 0 0 0.040169999
1.207 0.31999999 0.331 150 0 0 0 0.040180001
1.209 0.32300001 0.33500001 150 0 0 0 0.04019
1.202 0.32300001 0.33700001 150 0 0 0 0.040199999
1.206 0.32699999 0.34099999 150 0 0 0 0.040210001
1.205 0.329 0.34400001 139 0 0 0 0.04022
1.2029999 0.331 0.347 150 0 0 0 0.040229999
1.202 0.333 0.34999999 150 0 0 0 0.040240001
1.201 0.33500001 0.35299999 150 0 0 0 0.04025
1.1950001 0.336 0.35499999 150 0 0 0 0.040259998
1.194 0.338 0.35800001 150 0 0 0 0.040270001
1.197 0.34099999 0.36199999 150 0 0 0 0.040279999
1.196 0.34299999 0.36500001 150 0 0 0 0.040290002
1.194 0.345 0.368 145 0 0 0 0.0403
1.193 0.34599999 0.37099999 150 0 0 0 0.040309999
1.1950001 0.34900001 0.375 150 0 0 0 0.040320002
1.1900001 0.34999999 0.377 150 0 0 0 0.04033
1.192 0.35299999 0.38100001 150 0 0 0 0.040339999
1.191 0.35499999 0.384 150 0 0 0 0.040350001
1.187 0.35600001 0.38600001 150 0 0 0 0.04036
1.189 0.35800001 0.38999999 150 0 0 0 0.040369999
1.187 0.36000001 0.39300001 150 0 0 0 0.040380001
1.186 0.36199999 0.396 150 0 0 0 0.04039
1.182 0.36300001 0.398 150 0 0 0 0.040399998
1.181 0.36399999 0.40099999 150 0 0 0 0.040410001
1.182 0.36700001 0.405 150 0 0 0 0.04042
1.1799999 0.368 0.40799999 150 0 0 0 0.040429998
1.176 0.36899999 0.41 150 0 0 0 0.040440001
1.177 0.37099999 0.41299999 150 0 0 0 0.040449999
1.179 0.37400001 0.41800001 150 0 0 0 0.040460002
1.177 0.375 0.421 150 0 0 0 0.04047
1.1720001 0.37599999 0.42199999 150 0 0 0 0.040479999
1.176 0.37900001 0.42699999 150 0 0 0 0.040490001
1.1720001 0.37900001 0.42899999 150 0 0 0 0.0405
1.168 0.38 0.43099999 150 0 0 0 0.040509999
1.17 0.382 0.435 150 0 0 0 0.040520001
1.17 0.384 0.43900001 150 0 0 0 0.04053
1.169 0.38600001 0.442 150 0 0 0 0.040539999
1.1670001 0.38699999 0.44400001 150 0 0 0 0.040550001
1.165 0.38800001 0.447 150 0 0 0 0.04056
1.165 0.38999999 0.44999999 150 0 0 0 0.040569998
1.163 0.391 0.45300001 150 0 0 0 0.040580001
1.1619999 0.39199999 0.456 150 0 0 0 0.040589999
1.16 0.39399999 0.45899999 150 0 0 0 0.040600002
1.163 0.396 0.463 150 0 0 0 0.04061
1.1619999 0.39700001 0.46599999 150 0 0 0 0.040619999
1.16 0.39899999 0.46900001 150 0 0 0 0.040630002
1.159 0.40000001 0.472 150 0 0 0 0.04064
1.158 0.40099999 0.47499999 150 0 0 0 0.040649999
1.153 0.40099999 0.47600001 150 0 0 0 0.040660001
1.155 0.403 0.48100001 150 0 0 0 0.04067
1.152 0.403 0.48300001 150 0 0 0 0.040679999
1.154 0.40599999 0.48699999 150 0 0 0 0.040690001
1.153 0.40700001 0.49000001 150 0 0 0 0.0407
1.152 0.40799999 0.493 150 0 0 0 0.040709998
1.15 0.40900001 0.495 150 0 0 0 0.040720001
1.152 0.41100001 0.5 150 0 0 0 0.04073
1.147 0.41 0.50099999 150 0 0 0 0.040739998
1.146 0.41100001 0.50400001 150 0 0 0 0.040750001
1.148 0.414 0.50800002 150 0 0 0 0.040759999
1.1440001 0.41299999 0.50999999 150 0 0 0 0.040770002
1.1440001 0.414 0.51300001 150 0 0 0 0.04078
1.1440001 0.41600001 0.51599997 150 0 0 0 0.040789999
1.1440001 0.417 0.51999998 150 0 0 0 0.040800001
1.141 0.417 0.52100003 150 0 0 0 0.04081
1.14 0.41800001 0.52399999 150 0 0 0 0.040819999
1.137 0.41800001 0.52600002 150 0 0 0 0.040830001
1.1390001 0.419 0.52999997 150 0 0 0 0.04084
1.14 0.421 0.53399998 150 0 0 0 0.040849999
1.138 0.42199999 0.53600001 150 0 0 0 0.040860001
1.138 0.42199999 0.53899997 150 0 0 0 0.04087
1.137 0.42300001 0.542 150 0 0 0 0.040879998
1.135 0.42300001 0.54400003 150 0 0 0 0.040890001
1.137 0.42500001 0.54900002 150 0 0 0 0.040899999
1.137 0.426 0.551 150 0 0 0 0.040910002
1.135 0.426 0.55400002 150 0 0 0 0.040920001
1.1339999 0.426 0.55599999 150 0 0 0 0.040929999
1.133 0.426 0.55900002 150 0 0 0 0.040940002
1.132 0.42699999 0.56199998 150 0 0 0 0.04095
1.131 0.42699999 0.56400001 150 0 0 0 0.040959999
1.13 0.42699999 0.56699997 150 0 0 0 0.040970001
1.1289999 0.428 0.56900001 150 0 0 0 0.04098
1.13 0.42899999 0.57300001 150 0 0 0 0.040989999
1.133 0.43000001 0.57700002 150 0 0 0 0.041000001
1.127 0.42899999 0.57700002 150 0 0 0 0.04101
1.132 0.43099999 0.583 150 0 0 0 0.041019998
1.133 0.43200001 0.58600003 150 0 0 0 0.041030001
1.131 0.43200001 0.588 150 0 0 0 0.04104
1.133 0.433 0.59200001 150 0 0 0 0.041049998
1.133 0.433 0.59500003 150 0 0 0 0.041060001
1.131 0.433 0.59600002 150 0 0 0 0.041069999
1.13 0.433 0.59899998 150 0 0 0 0.041080002
1.13 0.433 0.60100001 150 0 0 0 0.04109
1.131 0.433 0.60399997 150 0 0 0 0.041099999
1.13 0.433 0.60600001 150 0 0 0 0.041110002
1.13 0.433 0.60900003 150 0 0 0 0.04112
1.126 0.43200001 0.61000001 150 0 0 0 0.041129999
1.125 0.43200001 0.61199999 150 0 0 0 0.041140001
1.1289999 0.433 0.616 150 0 0 0 0.04115
1.128 0.433 0.61799997 150 0 0 0 0.041159999
1.125 0.43200001 0.61900002 150 0 0 0 0.041170001
1.128 0.433 0.62300003 150 0 0 0 0.04118
1.125 0.43200001 0.62400001 150 0 0 0 0.041189998
1.1289999 0.433 0.62900001 150 0 0 0 0.041200001
1.127 0.43200001 0.63 150 0 0 0 0.041209999
1.128 0.43200001 0.63300002 150 0 0 0 0.041219998
1.124 0.43000001 0.63300002 150 0 0 0 0.041230001
1.127 0.43099999 0.63700002 150 0 0 0 0.041239999
1.1289999 0.43099999 0.63999999 150 0 0 0 0.041250002
1.128 0.43099999 0.64200002 150 0 0 0 0.04126
1.127 0.43000001 0.64300001 150 0 0 0 0.041269999
1.132 0.43200001 0.648 150 0 0 0 0.041280001
1.131 0.43099999 0.64999998 150 0 0 0 0.04129
1.133 0.43099999 0.653 150 0 0 0 0.041299999
1.133 0.43000001 0.65499997 150 0 0 0 0.041310001
1.132 0.42899999 0.65600002 150 0 0 0 0.04132
1.133 0.42899999 0.65899998 8 0 0 0 0.041329999
1.133 0.42899999 0.66100001 150 0 0 0 0.041340001
1.133 0.428 0.662 150 0 0 0 0.04135
1.136 0.428 0.66600001 150 0 0 0 0.041359998
1.1339999 0.426 0.66600001 150 0 0 0 0.041370001
1.136 0.42699999 0.66900003 150 0 0 0 0.041379999
1.133 0.42399999 0.66900003 150 0 0 0 0.041390002
1.136 0.42399999 0.67199999 150 0 0 0 0.0414
1.136 0.42399999 0.67400002 150 0 0 0 0.041409999
1.137 0.42300001 0.676 150 0 0 0 0.041420002
1.138 0.42199999 0.67799997 150 0 0 0 0.04143
1.1390001 0.42199999 0.68000001 150 0 0 0 0.041439999
1.1390001 0.421 0.68099999 150 0 0 0 0.041450001
1.14 0.41999999 0.68300003 150 0 0 0 0.04146
1.1390001 0.41800001 0.68300003 150 0 0 0 0.041469999
1.138 0.417 0.68400002 150 0 0 0 0.041480001
1.138 0.41600001 0.685 150 0 0 0 0.04149
1.146 0.417 0.69099998 150 0 0 0 0.041499998
1.142 0.414 0.69 150 0 0 0 0.041510001
1.1440001 0.414 0.69199997 150 0 0 0 0.04152
1.145 0.41299999 0.69300002 150 0 0 0 0.041529998
1.145 0.41100001 0.69400001 150 0 0 0 0.041540001
1.145 0.41 0.69499999 150 0 0 0 0.041549999
1.146 0.40900001 0.69599998 150 0 0 0 0.041560002
1.147 0.40799999 0.69700003 150 0 0 0 0.04157
1.147 0.40599999 0.69800001 150 0 0 0 0.041579999
1.148 0.405 0.699 150 0 0 0 0.041590001
1.148 0.403 0.699 150 0 0 0 0.0416
1.15 0.40200001 0.70099998 150 0 0 0 0.041609999
1.152 0.40200001 0.70300001 150 0 0 0 0.041620001
1.148 0.398 0.70099998 150 0 0 0 0.04163
1.153 0.398 0.704 150 0 0 0 0.041639999
1.153 0.39700001 0.704 150 0 0 0 0.041650001
1.153 0.39500001 0.70499998 150 0 0 0 0.04166
1.154 0.39300001 0.70499998 150 0 0 0 0.041669998
1.156 0.39199999 0.70599997 150 0 0 0 0.041680001
1.156 0.38999999 0.70700002 150 0 0 0 0.041689999
1.1569999 0.389 0.70700002 150 0 0 0 0.041700002
1.158 0.38699999 0.70700002 150 0 0 0 0.04171
1.159 0.38499999 0.708 150 0 0 0 0.041719999
1.159 0.384 0.708 150 0 0 0 0.041730002
1.16 0.382 0.708 150 0 0 0 0.04174
1.16 0.38 0.708 150 0 0 0 0.041749999
1.161 0.37799999 0.708 150 0 0 0 0.041760001
1.1619999 0.37599999 0.708 150 0 0 0 0.04177
1.165 0.375 0.70899999 150 0 0 0 0.041779999
1.165 0.373 0.70899999 150 0 0 0 0.041790001
1.166 0.37099999 0.70899999 150 0 0 0 0.0418
1.164 0.36899999 0.70599997 150 0 0 0 0.041809998
1.168 0.368 0.708 150 0 0 0 0.041820001
1.168 0.366 0.708 150 0 0 0 0.04183
1.169 0.36399999 0.70700002 150 0 0 0 0.041839998
1.17 0.36199999 0.70700002 150 0 0 0 0.041850001
1.171 0.36000001 0.70700002 150 0 0 0 0.041859999
1.1720001 0.35800001 0.70599997 150 0 0 0 0.041870002
1.17 0.35499999 0.704 150 0 0 0 0.04188
1.174 0.354 0.70499998 150 0 0 0 0.041889999
1.176 0.352 0.70499998 150 0 0 0 0.041900001
1.173 0.34900001 0.70200002 150 0 0 0 0.04191
1.174 0.347 0.70200002 150 0 0 0 0.041919999
1.175 0.345 0.70099998 150 0 0 0 0.041930001
1.176 0.34299999 0.69999999 150 0 0 0 0.04194
1.1799999 0.34200001 0.70099998 150 0 0 0 0.041949999
1.182 0.34 0.69999999 150 0 0 0 0.041960001
1.1799999 0.33700001 0.69800001 150 0 0 0 0.04197
1.183 0.336 0.69800001 150 0 0 0 0.041979998
1.163 0.32699999 0.68400002 150 0 0 0 0.041990001
1.166 0.32600001 0.685 150 0 0 0 0.041999999
1.188 0.33000001 0.69599998 150 0 0 0 0.042010002
1.169 0.322 0.68300003 150 0 0 0 0.042020001
1.1670001 0.31900001 0.68000001 150 0 0 0 0.042029999
1.168 0.317 0.67900002 150 0 0 0 0.042040002
1.1720001 0.31600001 0.67900002 150 0 0 0 0.04205
1.188 0.31799999 0.68699998 150 0 0 0 0.042059999
1.191 0.31600001 0.68599999 150 0 0 0 0.042070001
1.174 0.30899999 0.67400002 150 0 0 0 0.04208
1.1720001 0.30599999 0.67199999 150 0 0 0 0.042089999
1.174 0.30399999 0.67000002 150 0 0 0 0.042100001
1.177 0.303 0.67000002 150 0 0 0 0.04211
1.176 0.30000001 0.667 150 0 0 0 0.042119998
1.178 0.29800001 0.66600001 150 0 0 0 0.042130001
1.179 0.296 0.66399997 150 0 0 0 0.04214
1.1799999 0.29300001 0.66299999 150 0 0 0 0.042149998
1.182 0.29100001 0.66100001 150 0 0 0 0.042160001
1.173 0.287 0.65399998 150 0 0 0 0.042169999
1.1849999 0.287 0.65799999 150 0 0 0 0.042180002
1.186 0.285 0.65600002 150 0 0 0 0.04219
1.187 0.28299999 0.65499997 150 0 0 0 0.042199999
1.189 0.28099999 0.653 150 0 0 0 0.042210001
1.1900001 0.27900001 0.65100002 150 0 0 0 0.04222
1.206 0.28 0.65700001 150 0 0 0 0.042229999
1.207 0.278 0.65499997 150 0 0 0 0.042240001
1.1849999 0.27000001 0.64099997 150 0 0 0 0.04225
1.207 0.273 0.64999998 150 0 0 0 0.042259999
1.187 0.266 0.63599998 150 0 0 0 0.042270001
1.21 0.26899999 0.64600003 150 0 0 0 0.04228
1.21 0.266 0.64300001 150 0 0 0 0.042289998
1.21 0.264 0.63999999 150 0 0 0 0.042300001
1.214 0.26199999 0.63999999 150 0 0 0 0.042309999
1.216 0.25999999 0.63700002 150 0 0 0 0.042319998
1.215 0.257 0.634 150 0 0 0 0.042330001
1.217 0.25600001 0.63200003 150 0 0 0 0.042339999
1.216 0.25299999 0.62900001 150 0 0 0 0.042350002
1.2180001 0.25099999 0.62599999 150 0 0 0 0.04236
1.219 0.249 0.62400001 150 0 0 0 0.042369999
1.221 0.24699999 0.62199998 150 0 0 0 0.042380001
1.221 0.244 0.61900002 150 0 0 0 0.04239
1.222 0.242 0.616 150 0 0 0 0.042399999
