# .PCD v0.7 - Point Cloud Data file format
VERSION 0.7
FIELDS x y z intensity normal_x normal_y normal_z curvature
SIZE 4 4 4 4 4 4 4 4
TYPE F F F F F F F F
COUNT 1 1 1 1 1 1 1 1
WIDTH 1019
HEIGHT 1
VIEWPOINT 0 0 0 1 0 0 0
POINTS 1019
DATA ascii
2.5339999 0.0070000002 -0.421 15 0 0 0 0.06233
2.5350001 0.0080000004 -0.42899999 15 0 0 0 0.062339999
2.54 0.0080000004 -0.43900001 15 0 0 0 0.062350001
2.5339999 0.0089999996 -0.44600001 15 0 0 0 0.06236
2.5380001 0.0089999996 -0.45500001 16 0 0 0 0.062369999
2.5339999 0.0099999998 -0.46200001 16 0 0 0 0.062380001
2.5320001 0.011 -0.47 16 0 0 0 0.06239
2.5339999 0.011 -0.479 17 0 0 0 0.062399998
2.533 0.012 -0.48699999 17 0 0 0 0.062410001
2.5320001 0.013 -0.49599999 17 0 0 0 0.062419999
2.533 0.013 -0.50400001 18 0 0 0 0.062430002
2.5320001 0.014 -0.51200002 19 0 0 0 0.06244
2.53 0.015 -0.51999998 19 0 0 0 0.062449999
2.5369999 0.016000001 -0.52999997 15 0 0 0 0.062460002
2.55 0.016000001 -0.54100001 10 0 0 0 0.06247
2.536 0.017000001 -0.546 14 0 0 0 0.062479999
2.526 0.017999999 -0.55299997 18 0 0 0 0.062490001
2.526 0.018999999 -0.56099999 18 0 0 0 0.0625
2.527 0.02 -0.56999999 17 0 0 0 0.062509999
2.523 0.02 -0.57700002 18 0 0 0 0.062519997
2.5280001 0.021 -0.58700001 18 0 0 0 0.062530003
2.5250001 0.022 -0.59399998 19 0 0 0 0.062540002
2.5280001 0.023 -0.60399997 19 0 0 0 0.062550001
2.5239999 0.024 -0.611 19 0 0 0 0.06256
2.5239999 0.025 -0.61900002 19 0 0 0 0.062569998
2.523 0.026000001 -0.62800002 20 0 0 0 0.062579997
2.523 0.027000001 -0.63599998 21 0 0 0 0.062590003
2.5209999 0.028000001 -0.64399999 22 0 0 0 0.062600002
2.517 0.028999999 -0.65100002 21 0 0 0 0.06261
2.52 0.029999999 -0.66000003 21 0 0 0 0.062619999
2.5190001 0.032000002 -0.66799998 21 0 0 0 0.062629998
2.5179999 0.033 -0.676 20 0 0 0 0.062639996
2.517 0.034000002 -0.685 20 0 0 0 0.062650003
2.5179999 0.035 -0.69300002 21 0 0 0 0.062660001
2.517 0.035999998 -0.70099998 22 0 0 0 0.06267
2.5190001 0.037 -0.70999998 22 0 0 0 0.062679999
2.5150001 0.039000001 -0.71700001 21 0 0 0 0.062689997
2.5120001 0.039999999 -0.72500002 21 0 0 0 0.062700003
2.513 0.041000001 -0.73400003 20 0 0 0 0.062710002
2.516 0.041999999 -0.74299997 20 0 0 0 0.062720001
2.5090001 0.044 -0.74900001 21 0 0 0 0.062729999
2.51 0.045000002 -0.75800002 21 0 0 0 0.062739998
2.5079999 0.046 -0.76599997 20 0 0 0 0.062749997
2.506 0.048 -0.77399999 21 0 0 0 0.062760003
2.507 0.048999999 -0.78200001 20 0 0 0 0.062770002
2.5039999 0.050000001 -0.79000002 19 0 0 0 0.06278
2.5039999 0.052000001 -0.79799998 18 0 0 0 0.062789999
2.506 0.052999999 -0.80699998 18 0 0 0 0.062799998
2.5039999 0.055 -0.81400001 17 0 0 0 0.062809996
2.503 0.056000002 -0.82300001 16 0 0 0 0.062820002
2.503 0.057999998 -0.83099997 16 0 0 0 0.062830001
2.5020001 0.059 -0.83899999 17 0 0 0 0.06284
2.4990001 0.061000001 -0.84600002 22 0 0 0 0.062849998
2.4890001 0.061999999 -0.85100001 26 0 0 0 0.062859997
2.467 0.063000001 -0.852 23 0 0 0 0.062870003
2.4430001 0.064000003 -0.852 24 0 0 0 0.062880002
2.4189999 0.064999998 -0.852 24 0 0 0 0.062890001
2.395 0.066 -0.85100001 24 0 0 0 0.062899999
2.3710001 0.067000002 -0.85000002 24 0 0 0 0.062909998
2.3510001 0.068999998 -0.85100001 25 0 0 0 0.062919997
2.329 0.07 -0.85100001 24 0 0 0 0.062930003
2.3069999 0.071000002 -0.85000002 24 0 0 0 0.062940001
2.2909999 0.071999997 -0.852 23 0 0 0 0.06295
2.2679999 0.072999999 -0.85100001 23 0 0 0 0.062959999
2.247 0.074000001 -0.85100001 24 0 0 0 0.062969998
2.227 0.075000003 -0.85100001 24 0 0 0 0.062980004
2.2049999 0.075999998 -0.85000002 24 0 0 0 0.062990002
2.1789999 0.077 -0.847 28 0 0 0 0.063000001
2.1659999 0.078000002 -0.84899998 28 0 0 0 0.06301
2.1440001 0.079000004 -0.847 29 0 0 0 0.063019998
2.1240001 0.079999998 -0.847 28 0 0 0 0.063029997
2.1070001 0.081 -0.847 29 0 0 0 0.063040003
2.0869999 0.082000002 -0.84600002 30 0 0 0 0.063050002
2.066 0.082999997 -0.84399998 29 0 0 0 0.063060001
2.053 0.083999999 -0.84600002 31 0 0 0 0.063069999
2.0409999 0.086000003 -0.847 30 0 0 0 0.063079998
2.0239999 0.086999997 -0.847 30 0 0 0 0.063089997
2.0050001 0.088 -0.84500003 30 0 0 0 0.063100003
1.9910001 0.089000002 -0.84600002 30 0 0 0 0.063110001
1.975 0.090000004 -0.84600002 29 0 0 0 0.06312
1.9579999 0.090999998 -0.84500003 30 0 0 0 0.063129999
1.946 0.092 -0.84600002 30 0 0 0 0.063139997
1.928 0.093999997 -0.84500003 30 0 0 0 0.063150004
1.913 0.094999999 -0.84399998 29 0 0 0 0.063160002
1.903 0.096000001 -0.84600002 28 0 0 0 0.063170001
1.886 0.097000003 -0.84399998 26 0 0 0 0.06318
1.873 0.097999997 -0.84500003 21 0 0 0 0.063189998
1.8559999 0.098999999 -0.84299999 26 0 0 0 0.063199997
1.849 0.101 -0.84600002 33 0 0 0 0.063210003
1.831 0.102 -0.84399998 34 0 0 0 0.063220002
1.817 0.103 -0.84299999 33 0 0 0 0.06323
1.8049999 0.104 -0.84299999 35 0 0 0 0.063239999
1.794 0.106 -0.84399998 37 0 0 0 0.063249998
1.781 0.107 -0.84299999 35 0 0 0 0.063259996
1.772 0.108 -0.84500003 39 0 0 0 0.063270003
1.7589999 0.109 -0.84399998 39 0 0 0 0.063280001
1.7460001 0.11 -0.84399998 13 0 0 0 0.06329
1.742 0.112 -0.847 13 0 0 0 0.063299999
1.727 0.113 -0.84500003 12 0 0 0 0.063309997
1.714 0.114 -0.84399998 12 0 0 0 0.063320003
1.7079999 0.116 -0.84600002 12 0 0 0 0.063330002
1.697 0.117 -0.847 12 0 0 0 0.063340001
1.684 0.118 -0.84500003 12 0 0 0 0.063349999
1.674 0.12 -0.84500003 12 0 0 0 0.063359998
1.665 0.121 -0.84600002 12 0 0 0 0.063369997
1.648 0.122 -0.84299999 12 0 0 0 0.063380003
1.643 0.124 -0.84500003 12 0 0 0 0.063390002
1.6339999 0.125 -0.84500003 13 0 0 0 0.0634
1.625 0.126 -0.84500003 12 0 0 0 0.063409999
1.613 0.12800001 -0.84399998 12 0 0 0 0.063419998
1.609 0.12899999 -0.84600002 12 0 0 0 0.063429996
1.605 0.131 -0.84899998 12 0 0 0 0.063440003
1.589 0.132 -0.84600002 12 0 0 0 0.063450001
1.576 0.133 -0.84299999 12 0 0 0 0.06346
1.571 0.13500001 -0.84500003 12 0 0 0 0.063469999
1.563 0.13600001 -0.84500003 13 0 0 0 0.063479997
1.5549999 0.138 -0.84600002 13 0 0 0 0.063490003
1.538 0.138 -0.84100002 13 0 0 0 0.063500002
1.53 0.14 -0.84100002 13 0 0 0 0.063510001
1.518 0.141 -0.83899999 12 0 0 0 0.063519999
1.521 0.14300001 -0.84399998 11 0 0 0 0.063529998
1.507 0.14399999 -0.84100002 11 0 0 0 0.063539997
1.503 0.146 -0.84299999 11 0 0 0 0.063550003
1.4910001 0.147 -0.84100002 13 0 0 0 0.063560002
1.485 0.148 -0.84100002 13 0 0 0 0.06357
1.48 0.15000001 -0.84200001 13 0 0 0 0.063579999
1.474 0.152 -0.84299999 13 0 0 0 0.063589998
1.4630001 0.153 -0.83999997 13 0 0 0 0.063600004
1.46 0.155 -0.84299999 14 0 0 0 0.063610002
1.447 0.155 -0.83899999 13 0 0 0 0.063620001
1.441 0.15700001 -0.83899999 13 0 0 0 0.06363
1.439 0.15899999 -0.84100002 13 0 0 0 0.063639998
1.431 0.16 -0.84100002 13 0 0 0 0.063649997
1.428 0.162 -0.84200001 13 0 0 0 0.063660003
1.4170001 0.163 -0.83999997 13 0 0 0 0.063670002
1.415 0.16500001 -0.84200001 14 0 0 0 0.063680001
1.408 0.16599999 -0.84100002 13 0 0 0 0.063689999
1.406 0.168 -0.84299999 13 0 0 0 0.063699998
1.399 0.17 -0.84200001 13 0 0 0 0.063709997
1.393 0.171 -0.84200001 13 0 0 0 0.063720003
1.383 0.17200001 -0.83899999 13 0 0 0 0.063730001
1.381 0.17399999 -0.84100002 13 0 0 0 0.06374
1.373 0.176 -0.83999997 13 0 0 0 0.063749999
1.367 0.177 -0.83899999 14 0 0 0 0.063759997
1.365 0.17900001 -0.84100002 14 0 0 0 0.063770004
1.358 0.18000001 -0.83899999 13 0 0 0 0.063780002
1.351 0.182 -0.838 13 0 0 0 0.063790001
1.35 0.184 -0.83999997 13 0 0 0 0.0638
1.346 0.185 -0.83999997 13 0 0 0 0.063809998
1.344 0.18700001 -0.84100002 13 0 0 0 0.063819997
1.339 0.189 -0.84100002 13 0 0 0 0.063830003
1.332 0.19 -0.83899999 13 0 0 0 0.063840002
1.329 0.192 -0.83999997 13 0 0 0 0.063850001
1.3279999 0.19400001 -0.84200001 13 0 0 0 0.063859999
1.321 0.19499999 -0.83999997 13 0 0 0 0.063869998
1.317 0.197 -0.83999997 14 0 0 0 0.063879997
1.3150001 0.199 -0.83999997 14 0 0 0 0.063890003
1.308 0.2 -0.838 14 0 0 0 0.063900001
1.307 0.20200001 -0.83999997 13 0 0 0 0.06391
1.302 0.20299999 -0.83899999 14 0 0 0 0.063919999
1.3 0.205 -0.83999997 14 0 0 0 0.063929997
1.293 0.206 -0.83700001 14 0 0 0 0.063940004
1.2920001 0.208 -0.838 14 0 0 0 0.063950002
1.291 0.20999999 -0.83899999 14 0 0 0 0.063960001
1.2920001 0.213 -0.84200001 12 0 0 0 0.06397
1.291 0.214 -0.84299999 10 0 0 0 0.063979998
1.2869999 0.21600001 -0.84200001 8 0 0 0 0.063989997
1.288 0.21799999 -0.84399998 9 0 0 0 0.064000003
1.284 0.22 -0.84299999 10 0 0 0 0.064010002
1.278 0.221 -0.84100002 12 0 0 0 0.06402
1.272 0.222 -0.838 13 0 0 0 0.064029999
1.273 0.22400001 -0.84100002 14 0 0 0 0.064039998
1.272 0.226 -0.84100002 14 0 0 0 0.064049996
1.2690001 0.228 -0.83999997 13 0 0 0 0.064060003
1.268 0.23 -0.84100002 14 0 0 0 0.064070001
1.2640001 0.23100001 -0.83999997 13 0 0 0 0.06408
1.263 0.233 -0.83999997 14 0 0 0 0.064089999
1.262 0.235 -0.83999997 63 0 0 0 0.064099997
1.258 0.236 -0.838 63 0 0 0 0.064110003
1.258 0.23800001 -0.83899999 66 0 0 0 0.064120002
1.2589999 0.241 -0.83999997 45 0 0 0 0.064130001
1.256 0.242 -0.83899999 45 0 0 0 0.064139999
1.261 0.245 -0.84399998 43 0 0 0 0.064149998
1.257 0.24600001 -0.84100002 42 0 0 0 0.064159997
1.253 0.24699999 -0.83899999 42 0 0 0 0.064170003
1.253 0.249 -0.83899999 42 0 0 0 0.064180002
1.2539999 0.252 -0.83999997 36 0 0 0 0.06419
1.252 0.25299999 -0.83899999 45 0 0 0 0.064199999
1.253 0.255 -0.83999997 44 0 0 0 0.064209998
1.251 0.257 -0.83899999 45 0 0 0 0.064219996
1.238 0.25600001 -0.82999998 83 0 0 0 0.064230002
1.25 0.25999999 -0.83899999 33 0 0 0 0.064240001
1.255 0.26300001 -0.84200001 33 0 0 0 0.06425
1.2410001 0.26199999 -0.833 82 0 0 0 0.064259999
1.25 0.266 -0.838 41 0 0 0 0.064269997
1.2539999 0.26899999 -0.84100002 31 0 0 0 0.064280003
1.2539999 0.27000001 -0.84100002 34 0 0 0 0.064290002
1.2410001 0.26899999 -0.83200002 93 0 0 0 0.064300001
1.24 0.271 -0.83099997 95 0 0 0 0.064309999
1.256 0.27599999 -0.84100002 31 0 0 0 0.064319998
1.256 0.278 -0.83999997 28 0 0 0 0.064329997
1.255 0.27900001 -0.83899999 35 0 0 0 0.064340003
1.261 0.28200001 -0.84200001 37 0 0 0 0.064350002
1.258 0.28299999 -0.83999997 35 0 0 0 0.06436
1.261 0.285 -0.84100002 36 0 0 0 0.064369999
1.2460001 0.28299999 -0.82999998 86 0 0 0 0.064379998
1.263 0.289 -0.83999997 34 0 0 0 0.064390004
1.261 0.28999999 -0.838 36 0 0 0 0.064400002
1.266 0.29300001 -0.83999997 41 0 0 0 0.064410001
1.258 0.292 -0.83399999 89 0 0 0 0.06442
1.262 0.29499999 -0.83499998 91 0 0 0 0.064429998
1.272 0.29899999 -0.84100002 32 0 0 0 0.064439997
1.277 0.301 -0.84299999 29 0 0 0 0.064450003
1.28 0.303 -0.84299999 32 0 0 0 0.064460002
1.28 0.30500001 -0.84200001 31 0 0 0 0.064470001
1.281 0.30599999 -0.84100002 32 0 0 0 0.064479999
1.288 0.30899999 -0.84399998 37 0 0 0 0.064489998
1.2869999 0.31 -0.84100002 39 0 0 0 0.064499997
1.289 0.31200001 -0.84100002 38 0 0 0 0.064510003
1.2920001 0.31400001 -0.84100002 40 0 0 0 0.064520001
1.2970001 0.31600001 -0.84200001 38 0 0 0 0.06453
1.299 0.31799999 -0.84200001 37 0 0 0 0.064539999
1.306 0.32100001 -0.84500003 42 0 0 0 0.064549997
1.309 0.32300001 -0.84399998 15 0 0 0 0.064560004
1.309 0.324 -0.84200001 15 0 0 0 0.064570002
1.3150001 0.32699999 -0.84399998 15 0 0 0 0.064580001
1.318 0.32800001 -0.84399998 15 0 0 0 0.06459
1.3200001 0.33000001 -0.84200001 15 0 0 0 0.064599998
1.327 0.333 -0.84500003 15 0 0 0 0.064609997
1.33 0.33399999 -0.84399998 15 0 0 0 0.064620003
1.334 0.336 -0.84399998 14 0 0 0 0.064630002
1.3380001 0.338 -0.84399998 15 0 0 0 0.06464
1.3430001 0.34 -0.84399998 15 0 0 0 0.064649999
1.347 0.34200001 -0.84399998 15 0 0 0 0.064659998
1.352 0.34400001 -0.84500003 15 0 0 0 0.064669997
1.355 0.34599999 -0.84399998 15 0 0 0 0.064680003
1.363 0.34799999 -0.84600002 15 0 0 0 0.064690001
1.367 0.34999999 -0.84600002 15 0 0 0 0.0647
1.3710001 0.352 -0.84500003 15 0 0 0 0.064709999
1.377 0.354 -0.84600002 15 0 0 0 0.064719997
1.382 0.35600001 -0.84500003 15 0 0 0 0.064730003
1.3890001 0.35800001 -0.84600002 15 0 0 0 0.064740002
1.392 0.36000001 -0.84600002 15 0 0 0 0.064750001
1.399 0.36199999 -0.84600002 15 0 0 0 0.06476
1.4069999 0.36399999 -0.84799999 13 0 0 0 0.064769998
1.413 0.36700001 -0.84799999 13 0 0 0 0.064779997
1.42 0.36899999 -0.84899998 13 0 0 0 0.064790003
1.423 0.37 -0.847 14 0 0 0 0.064800002
1.4299999 0.37200001 -0.847 14 0 0 0 0.06481
1.4349999 0.373 -0.847 14 0 0 0 0.064819999
1.4450001 0.37599999 -0.84899998 14 0 0 0 0.064829998
1.45 0.37799999 -0.84799999 14 0 0 0 0.064839996
1.455 0.37900001 -0.847 14 0 0 0 0.064850003
1.464 0.382 -0.84799999 13 0 0 0 0.064860001
1.469 0.38299999 -0.847 13 0 0 0 0.06487
1.471 0.384 -0.84500003 14 0 0 0 0.064879999
1.492 0.389 -0.85299999 14 0 0 0 0.064889997
1.495 0.38999999 -0.85100001 14 0 0 0 0.064900003
1.506 0.39300001 -0.852 14 0 0 0 0.064910002
1.512 0.39399999 -0.852 13 0 0 0 0.064920001
1.521 0.39700001 -0.85299999 14 0 0 0 0.064929999
1.528 0.39899999 -0.852 14 0 0 0 0.064939998
1.538 0.40099999 -0.85299999 14 0 0 0 0.064949997
1.545 0.403 -0.85299999 14 0 0 0 0.064960003
1.557 0.405 -0.85500002 14 0 0 0 0.064970002
1.553 0.40400001 -0.84799999 57 0 0 0 0.06498
1.5599999 0.40599999 -0.84799999 53 0 0 0 0.064989999
1.573 0.40900001 -0.85000002 54 0 0 0 0.064999998
1.5829999 0.41100001 -0.85100001 56 0 0 0 0.065009996
1.589 0.412 -0.84899998 50 0 0 0 0.065020002
1.598 0.414 -0.84899998 51 0 0 0 0.065030001
1.609 0.41600001 -0.85000002 46 0 0 0 0.06504
1.626 0.41999999 -0.85399997 14 0 0 0 0.065049998
1.638 0.42199999 -0.85500002 14 0 0 0 0.065059997
1.647 0.42399999 -0.85600001 14 0 0 0 0.065070003
1.653 0.42500001 -0.85299999 14 0 0 0 0.065080002
1.668 0.428 -0.85600001 15 0 0 0 0.065090001
1.674 0.42899999 -0.85399997 15 0 0 0 0.065099999
1.689 0.43200001 -0.85600001 15 0 0 0 0.065109998
1.696 0.433 -0.85500002 14 0 0 0 0.065119997
1.705 0.43399999 -0.85399997 44 0 0 0 0.065130003
1.715 0.435 -0.85299999 44 0 0 0 0.065140001
1.727 0.43799999 -0.85399997 43 0 0 0 0.06515
1.739 0.44 -0.85500002 36 0 0 0 0.065159999
1.749 0.44100001 -0.85399997 36 0 0 0 0.065169998
1.763 0.44400001 -0.85500002 38 0 0 0 0.065180004
1.777 0.44600001 -0.85699999 39 0 0 0 0.065190002
1.788 0.447 -0.85600001 37 0 0 0 0.065200001
1.8 0.449 -0.85600001 33 0 0 0 0.06521
1.8150001 0.45199999 -0.85699999 28 0 0 0 0.065219998
1.829 0.454 -0.85799998 27 0 0 0 0.065229997
1.8430001 0.456 -0.85900003 31 0 0 0 0.065240003
1.849 0.456 -0.85600001 36 0 0 0 0.065250002
1.862 0.458 -0.85600001 37 0 0 0 0.065260001
1.878 0.46000001 -0.85799998 37 0 0 0 0.065269999
1.89 0.46200001 -0.85699999 38 0 0 0 0.065279998
1.903 0.463 -0.85699999 34 0 0 0 0.065289997
1.924 0.46700001 -0.86000001 34 0 0 0 0.065300003
1.932 0.46700001 -0.85799998 33 0 0 0 0.065310001
1.948 0.46900001 -0.85799998 33 0 0 0 0.06532
1.962 0.47099999 -0.85799998 34 0 0 0 0.065329999
1.977 0.472 -0.85799998 33 0 0 0 0.065339997
1.9910001 0.47400001 -0.85799998 34 0 0 0 0.065350004
2.0109999 0.477 -0.86000001 33 0 0 0 0.065360002
2.026 0.47799999 -0.86000001 34 0 0 0 0.065370001
2.04 0.47999999 -0.86000001 34 0 0 0 0.06538
2.0569999 0.48199999 -0.86000001 33 0 0 0 0.065389998
2.0739999 0.484 -0.861 33 0 0 0 0.065399997
2.0929999 0.486 -0.86199999 32 0 0 0 0.065410003
2.109 0.48800001 -0.86199999 34 0 0 0 0.065420002
2.1270001 0.48899999 -0.86199999 34 0 0 0 0.06543
2.1489999 0.49200001 -0.86400002 33 0 0 0 0.065439999
2.164 0.493 -0.86299998 33 0 0 0 0.065449998
2.184 0.495 -0.86400002 34 0 0 0 0.065459996
2.2 0.49700001 -0.86299998 32 0 0 0 0.065470003
2.223 0.49900001 -0.86500001 32 0 0 0 0.065480001
2.2360001 0.5 -0.86299998 32 0 0 0 0.06549
2.2620001 0.50300002 -0.866 32 0 0 0 0.065499999
2.2809999 0.505 -0.866 33 0 0 0 0.065509997
2.296 0.505 -0.86400002 32 0 0 0 0.065520003
2.319 0.50800002 -0.866 33 0 0 0 0.065530002
2.3340001 0.50800002 -0.86400002 33 0 0 0 0.065540001
2.358 0.50999999 -0.86500001 24 0 0 0 0.065549999
2.365 0.509 -0.86000001 15 0 0 0 0.065559998
2.3469999 0.50199997 -0.84600002 15 0 0 0 0.065569997
2.322 0.49399999 -0.829 18 0 0 0 0.065580003
2.3169999 0.49000001 -0.81999999 22 0 0 0 0.065590002
2.3199999 0.48800001 -0.81400001 25 0 0 0 0.0656
2.3210001 0.48500001 -0.80699998 23 0 0 0 0.065609999
2.3199999 0.48199999 -0.79900002 23 0 0 0 0.065619998
2.3239999 0.47999999 -0.79299998 21 0 0 0 0.065629996
2.319 0.47600001 -0.78399998 20 0 0 0 0.065640002
2.3269999 0.47400001 -0.77999997 22 0 0 0 0.065650001
2.3269999 0.47099999 -0.77200001 23 0 0 0 0.06566
2.3269999 0.46799999 -0.76499999 24 0 0 0 0.065669999
2.3299999 0.465 -0.759 23 0 0 0 0.065679997
2.335 0.463 -0.75300002 24 0 0 0 0.065690003
2.332 0.45899999 -0.745 24 0 0 0 0.065700002
2.332 0.456 -0.73799998 25 0 0 0 0.065710001
2.3380001 0.454 -0.73199999 28 0 0 0 0.065719999
2.3369999 0.45100001 -0.72500002 27 0 0 0 0.065729998
2.3369999 0.447 -0.71700001 22 0 0 0 0.065739997
2.3380001 0.44400001 -0.70999998 23 0 0 0 0.065750003
2.3399999 0.44100001 -0.704 28 0 0 0 0.065760002
2.3440001 0.43799999 -0.69800001 29 0 0 0 0.06577
2.3429999 0.435 -0.69 30 0 0 0 0.065779999
2.345 0.43200001 -0.68400002 30 0 0 0 0.065789998
2.348 0.42899999 -0.67699999 30 0 0 0 0.065800004
2.346 0.42500001 -0.66900003 29 0 0 0 0.065810002
2.3540001 0.42300001 -0.66500002 28 0 0 0 0.065820001
2.3540001 0.41999999 -0.65700001 26 0 0 0 0.06583
2.3570001 0.417 -0.65100002 25 0 0 0 0.065839998
2.3540001 0.41299999 -0.64300001 25 0 0 0 0.065849997
2.3570001 0.41 -0.63700002 25 0 0 0 0.065860003
2.3599999 0.40700001 -0.63 28 0 0 0 0.065870002
2.3610001 0.403 -0.62400001 28 0 0 0 0.065880001
2.3629999 0.40000001 -0.61699998 26 0 0 0 0.065889999
2.3659999 0.39700001 -0.61000001 25 0 0 0 0.065899998
2.3640001 0.39300001 -0.60299999 27 0 0 0 0.065909997
2.365 0.389 -0.59600002 28 0 0 0 0.065920003
2.369 0.38600001 -0.58999997 28 0 0 0 0.065930001
2.3710001 0.38299999 -0.583 25 0 0 0 0.06594
2.3740001 0.37900001 -0.57700002 25 0 0 0 0.065949999
2.378 0.37599999 -0.57099998 26 0 0 0 0.065959997
2.3740001 0.37200001 -0.56300002 22 0 0 0 0.065970004
2.381 0.36899999 -0.55800003 18 0 0 0 0.065980002
2.391 0.36700001 -0.55299997 16 0 0 0 0.065990001
2.3989999 0.36399999 -0.54699999 17 0 0 0 0.066
2.392 0.359 -0.53899997 20 0 0 0 0.066009998
2.391 0.35499999 -0.53200001 22 0 0 0 0.066019997
2.388 0.35100001 -0.52399999 24 0 0 0 0.066030003
2.3889999 0.347 -0.51700002 23 0 0 0 0.066040002
2.392 0.34400001 -0.51099998 24 0 0 0 0.06605
2.3940001 0.34 -0.50400001 24 0 0 0 0.066059999
2.3970001 0.33700001 -0.498 25 0 0 0 0.066069998
2.3929999 0.33199999 -0.49000001 22 0 0 0 0.066079997
2.398 0.329 -0.484 21 0 0 0 0.066090003
2.404 0.32600001 -0.47799999 22 0 0 0 0.066100001
2.405 0.322 -0.47099999 20 0 0 0 0.06611
2.4030001 0.31799999 -0.46399999 19 0 0 0 0.066119999
2.4059999 0.31400001 -0.458 19 0 0 0 0.066129997
2.4070001 0.31 -0.45100001 21 0 0 0 0.066140004
2.4089999 0.30599999 -0.44499999 22 0 0 0 0.066150002
2.4119999 0.30199999 -0.43799999 23 0 0 0 0.066160001
2.415 0.29899999 -0.43200001 27 0 0 0 0.06617
2.4119999 0.294 -0.42500001 32 0 0 0 0.066179998
2.4170001 0.29100001 -0.419 34 0 0 0 0.066189997
2.4200001 0.287 -0.412 33 0 0 0 0.066200003
2.4189999 0.28299999 -0.405 34 0 0 0 0.066210002
2.421 0.27900001 -0.39899999 34 0 0 0 0.06622
2.425 0.27500001 -0.39300001 32 0 0 0 0.066229999
2.4260001 0.271 -0.38600001 29 0 0 0 0.066239998
2.424 0.266 -0.37900001 26 0 0 0 0.066249996
2.4289999 0.26300001 -0.373 27 0 0 0 0.066260003
2.4300001 0.25799999 -0.366 29 0 0 0 0.066270001
2.4319999 0.25400001 -0.36000001 29 0 0 0 0.06628
2.4330001 0.25 -0.35299999 26 0 0 0 0.066289999
2.437 0.24600001 -0.347 22 0 0 0 0.066299997
2.4360001 0.242 -0.34 19 0 0 0 0.066310003
2.4389999 0.23800001 -0.33399999 17 0 0 0 0.066320002
2.444 0.234 -0.32699999 20 0 0 0 0.066330001
2.4489999 0.23 -0.32100001 22 0 0 0 0.066339999
2.4460001 0.22499999 -0.31400001 23 0 0 0 0.066349998
2.4519999 0.222 -0.308 24 0 0 0 0.066359997
2.451 0.21699999 -0.301 25 0 0 0 0.066370003
2.45 0.212 -0.294 26 0 0 0 0.066380002
2.454 0.208 -0.28799999 26 0 0 0 0.06639
2.457 0.204 -0.28200001 25 0 0 0 0.066399999
2.4530001 0.199 -0.27500001 24 0 0 0 0.066409998
2.464 0.19599999 -0.26899999 21 0 0 0 0.066419996
2.4649999 0.191 -0.26300001 20 0 0 0 0.066430002
2.4660001 0.18700001 -0.25600001 21 0 0 0 0.066440001
2.4690001 0.183 -0.25 21 0 0 0 0.06645
2.467 0.178 -0.243 22 0 0 0 0.066459998
2.4690001 0.17399999 -0.236 24 0 0 0 0.066469997
2.477 0.17 -0.23 22 0 0 0 0.066480003
2.4890001 0.16599999 -0.22499999 17 0 0 0 0.066490002
2.4879999 0.161 -0.21799999 15 0 0 0 0.066500001
2.4849999 0.156 -0.211 22 0 0 0 0.066509999
2.483 0.152 -0.204 26 0 0 0 0.066519998
2.4809999 0.147 -0.198 25 0 0 0 0.066529997
2.48 0.142 -0.191 23 0 0 0 0.066540003
2.4849999 0.138 -0.185 20 0 0 0 0.066550002
2.4909999 0.133 -0.17900001 19 0 0 0 0.06656
2.493 0.12899999 -0.17200001 18 0 0 0 0.066569999
2.493 0.124 -0.16500001 19 0 0 0 0.066579998
2.493 0.119 -0.15899999 20 0 0 0 0.066590004
2.494 0.115 -0.152 19 0 0 0 0.066600002
2.4979999 0.11 -0.146 18 0 0 0 0.066610001
2.5020001 0.106 -0.14 18 0 0 0 0.06662
2.5020001 0.101 -0.133 19 0 0 0 0.066629998
2.506 0.096000001 -0.127 20 0 0 0 0.066639997
2.5139999 0.092 -0.12 20 0 0 0 0.066650003
2.5090001 0.086999997 -0.114 20 0 0 0 0.066660002
2.5120001 0.082000002 -0.107 22 0 0 0 0.066670001
2.516 0.077 -0.101 22 0 0 0 0.066679999
2.5179999 0.071999997 -0.093999997 25 0 0 0 0.066689998
2.516 0.067000002 -0.088 26 0 0 0 0.066699997
2.5179999 0.063000001 -0.081 23 0 0 0 0.066710003
2.5239999 0.057999998 -0.075000003 21 0 0 0 0.066720001
2.527 0.052999999 -0.068000004 21 0 0 0 0.06673
2.526 0.048 -0.061999999 23 0 0 0 0.066739999
2.5309999 0.043000001 -0.056000002 23 0 0 0 0.066749997
2.5320001 0.037999999 -0.048999999 24 0 0 0 0.066760004
2.536 0.033 -0.043000001 22 0 0 0 0.066770002
2.536 0.028000001 -0.035999998 21 0 0 0 0.066780001
2.5409999 0.023 -0.029999999 22 0 0 0 0.06679
2.5439999 0.017999999 -0.023 21 0 0 0 0.066799998
2.5409999 0.013 -0.017000001 19 0 0 0 0.066809997
2.546 0.0080000004 -0.0099999998 19 0 0 0 0.066820003
2.55 0.003 -0.0040000002 18 0 0 0 0.066830002
2.553 -0.001 0.0020000001 18 0 0 0 0.06684
2.5550001 -0.0060000001 0.0080000004 21 0 0 0 0.066849999
2.552 -0.011 0.015 24 0 0 0 0.066859998
2.552 -0.016000001 0.021 24 0 0 0 0.066869996
2.5610001 -0.021 0.028000001 24 0 0 0 0.066880003
2.5669999 -0.027000001 0.034000002 21 0 0 0 0.066890001
2.569 -0.032000002 0.041000001 20 0 0 0 0.0669
2.569 -0.037 0.046999998 19 0 0 0 0.066909999
2.575 -0.041999999 0.054000001 18 0 0 0 0.066919997
2.576 -0.048 0.061000001 18 0 0 0 0.066930003
2.5799999 -0.052999999 0.067000002 17 0 0 0 0.066940002
2.5810001 -0.057999998 0.074000001 17 0 0 0 0.066950001
2.585 -0.064000003 0.079999998 19 0 0 0 0.06696
2.585 -0.068999998 0.086999997 20 0 0 0 0.066969998
2.592 -0.075000003 0.093999997 12 0 0 0 0.066979997
2.5999999 -0.079999998 0.1 29 0 0 0 0.066990003
3.96 -0.13 0.163 11 0 0 0 0.067000002
3.9530001 -0.138 0.17200001 20 0 0 0 0.06701
3.971 -0.147 0.183 10 0 0 0 0.067019999
4.0780001 -0.16 0.198 7 0 0 0 0.067029998
4.1069999 -0.17 0.20999999 9 0 0 0 0.067039996
4.191 -0.182 0.22499999 42 0 0 0 0.067050003
5.0149999 -0.228 0.28099999 60 0 0 0 0.067060001
5.02 -0.23899999 0.294 64 0 0 0 0.06707
2.6459999 -0.131 0.161 0 0 0 0 0.067079999
2.6429999 -0.13699999 0.168 0 0 0 0 0.067089997
2.6459999 -0.14300001 0.17399999 0 0 0 0 0.067100003
2.698 -0.15099999 0.185 0 0 0 0 0.067110002
2.6059999 -0.15099999 0.185 0 0 0 0 0.067120001
0 0 0 0 0 0 0 0.067129999
2.665 -0.16599999 0.20200001 0 0 0 0 0.067139998
2.5810001 -0.167 0.20200001 0 0 0 0 0.067149997
2.6559999 -0.177 0.214 0 0 0 0 0.067160003
2.677 -0.184 0.223 0 0 0 0 0.067170002
0 0 0 0 0 0 0 0.06718
0 0 0 0 0 0 0 0.067189999
2.6110001 -0.197 0.236 0 0 0 0 0.067199998
2.6300001 -0.204 0.244 0 0 0 0 0.067209996
2.701 -0.215 0.257 0 0 0 0 0.067220002
2.714 -0.222 0.26499999 0 0 0 0 0.067230001
2.7290001 -0.229 0.273 0 0 0 0 0.06724
2.721 -0.235 0.27900001 0 0 0 0 0.067249998
2.707 -0.23999999 0.28400001 0 0 0 0 0.067259997
2.7060001 -0.245 0.29100001 0 0 0 0 0.067270003
2.651 -0.24600001 0.29100001 0 0 0 0 0.067280002
2.674 -0.25400001 0.30000001 0 0 0 0 0.067290001
0 0 0 0 0 0 0 0.067299999
2.6860001 -0.26699999 0.31400001 0 0 0 0 0.067309998
0 0 0 0 0 0 0 0.067319997
2.6830001 -0.27900001 0.32699999 0 0 0 0 0.067330003
2.6300001 -0.28 0.32699999 0 0 0 0 0.067340001
2.6440001 -0.287 0.33500001 0 0 0 0 0.06735
2.668 -0.296 0.34400001 0 0 0 0 0.067359999
2.694 -0.30500001 0.354 0 0 0 0 0.067369998
2.763 -0.31900001 0.37 0 0 0 0 0.067380004
2.8110001 -0.331 0.38299999 0 0 0 0 0.067390002
2.7520001 -0.33000001 0.38100001 0 0 0 0 0.067400001
2.6989999 -0.33000001 0.38 0 0 0 0 0.06741
2.799 -0.34900001 0.40099999 0 0 0 0 0.067419998
2.7880001 -0.354 0.40599999 0 0 0 0 0.067429997
2.803 -0.36199999 0.41499999 0 0 0 0 0.067440003
2.7839999 -0.366 0.419 0 0 0 0 0.067450002
2.6860001 -0.359 0.41 0 0 0 0 0.067460001
2.7409999 -0.373 0.42500001 0 0 0 0 0.067469999
2.7060001 -0.375 0.426 0 0 0 0 0.067479998
2.7460001 -0.38699999 0.43900001 0 0 0 0 0.067489997
2.8280001 -0.405 0.45899999 0 0 0 0 0.067500003
2.776 -0.40400001 0.45699999 0 0 0 0 0.067510001
2.7609999 -0.40900001 0.461 0 0 0 0 0.06752
2.8080001 -0.42199999 0.47499999 0 0 0 0 0.067529999
2.6960001 -0.412 0.46200001 0 0 0 0 0.067539997
2.7850001 -0.43200001 0.484 0 0 0 0 0.067550004
2.8829999 -0.454 0.50800002 0 0 0 0 0.067560002
2.846 -0.45500001 0.50800002 0 0 0 0 0.067570001
2.839 -0.461 0.51300001 0 0 0 0 0.06758
2.737 -0.45100001 0.50099999 0 0 0 0 0.067589998
3.277 -0.54799998 0.60799998 0 0 0 0 0.067599997
2.819 -0.47799999 0.52899998 0 0 0 0 0.067610003
2.8659999 -0.493 0.54500002 0 0 0 0 0.067620002
2.733 -0.477 0.52600002 0 0 0 0 0.06763
2.8110001 -0.49700001 0.54699999 0 0 0 0 0.067639999
2.9130001 -0.52200001 0.57300001 0 0 0 0 0.067649998
2.766 -0.50300002 0.551 0 0 0 0 0.067659996
2.79 -0.514 0.56199998 0 0 0 0 0.067670003
2.8380001 -0.52999997 0.57800001 0 0 0 0 0.067680001
3.3659999 -0.63700002 0.69300002 0 0 0 0 0.06769
2.6800001 -0.514 0.55800003 0 0 0 0 0.067699999
2.8380001 -0.551 0.597 0 0 0 0 0.067709997
2.928 -0.57599998 0.62300003 0 0 0 0 0.067720003
2.868 -0.57200003 0.61699998 0 0 0 0 0.067730002
2.8340001 -0.57200003 0.616 0 0 0 0 0.067740001
5.151 -1.053 1.131 6 0 0 0 0.067749999
5.2160001 -1.08 1.1569999 26 0 0 0 0.067759998
5.1960001 -1.089 1.164 29 0 0 0 0.067769997
5.171 -1.097 1.17 29 0 0 0 0.067780003
5.1469998 -1.105 1.176 29 0 0 0 0.067790002
2.882 -0.62599999 0.66500002 0 0 0 0 0.0678
5.1090002 -1.123 1.1900001 28 0 0 0 0.067809999
5.086 -1.131 1.1950001 28 0 0 0 0.067819998
5.0689998 -1.141 1.2029999 30 0 0 0 0.067829996
5.0500002 -1.149 1.209 31 0 0 0 0.067840002
5.0310001 -1.158 1.215 30 0 0 0 0.067850001
2.8929999 -0.67299998 0.70499998 0 0 0 0 0.06786
2.888 -0.68000001 0.70999998 0 0 0 0 0.067869999
2.891 -0.68800002 0.71700001 0 0 0 0 0.067879997
2.8610001 -0.68900001 0.71600002 0 0 0 0 0.067890003
3.4460001 -0.838 0.87 0 0 0 0 0.067900002
3.464 -0.852 0.88200003 0 0 0 0 0.067910001
3.4170001 -0.85000002 0.87699997 0 0 0 0 0.067919999
3.4760001 -0.87400001 0.89899999 0 0 0 0 0.067929998
2.8440001 -0.722 0.74199998 0 0 0 0 0.067939997
3.427 -0.88 0.90100002 0 0 0 0 0.067950003
2.9100001 -0.755 0.77100003 0 0 0 0 0.067960002
4.802 -1.2589999 1.283 40 0 0 0 0.06797
4.79 -1.268 1.29 37 0 0 0 0.067979999
4.7670002 -1.275 1.294 37 0 0 0 0.067989998
4.7490001 -1.283 1.299 39 0 0 0 0.068000004
4.7340002 -1.2920001 1.304 37 0 0 0 0.068010002
4.7280002 -1.304 1.312 20 0 0 0 0.068020001
2.931 -0.81599998 0.81900001 3 0 0 0 0.06803
3.2149999 -0.90399998 0.90499997 42 0 0 0 0.068039998
3.2409999 -0.92000002 0.91900003 44 0 0 0 0.068049997
3.224 -0.92400002 0.921 43 0 0 0 0.068060003
3.197 -0.92500001 0.91900003 44 0 0 0 0.068070002
3.177 -0.92799997 0.92000002 44 0 0 0 0.068080001
3.1589999 -0.93199998 0.921 44 0 0 0 0.068089999
3.1389999 -0.93400002 0.921 44 0 0 0 0.068099998
3.1240001 -0.93900001 0.92299998 45 0 0 0 0.068109997
3.102 -0.94099998 0.92299998 43 0 0 0 0.068120003
3.0829999 -0.94400001 0.92299998 44 0 0 0 0.068130001
3.063 -0.94599998 0.92299998 43 0 0 0 0.06814
3.0480001 -0.94999999 0.92400002 45 0 0 0 0.068149999
3.03 -0.95300001 0.92500001 62 0 0 0 0.068159997
3.0250001 -0.95999998 0.92900002 91 0 0 0 0.068170004
3.026 -0.96899998 0.935 150 0 0 0 0.068180002
3.0309999 -0.97899997 0.94199997 150 0 0 0 0.068190001
3.0369999 -0.99000001 0.94999999 150 0 0 0 0.0682
3.0420001 -1 0.95700002 150 0 0 0 0.068209998
3.0409999 -1.0089999 0.96200001 148 0 0 0 0.068219997
3.0469999 -1.0190001 0.97000003 150 0 0 0 0.068230003
3.0550001 -1.031 0.97799999 143 0 0 0 0.068240002
3.0550001 -1.039 0.98299998 134 0 0 0 0.06825
3.059 -1.05 0.99000001 128 0 0 0 0.068259999
3.0710001 -1.063 0.99900001 123 0 0 0 0.068269998
3.073 -1.072 1.005 125 0 0 0 0.068279997
3.082 -1.084 1.013 131 0 0 0 0.068290003
3.0829999 -1.0930001 1.0190001 115 0 0 0 0.068300001
3.0799999 -1.101 1.023 62 0 0 0 0.06831
3.0799999 -1.11 1.029 5 0 0 0 0.068319999
4.4720001 -1.625 1.501 76 0 0 0 0.068329997
4.454 -1.631 1.502 77 0 0 0 0.068340003
4.4289999 -1.635 1.501 75 0 0 0 0.068350002
4.4130001 -1.642 1.503 74 0 0 0 0.068360001
4.3930001 -1.647 1.503 75 0 0 0 0.06837
4.375 -1.653 1.5039999 75 0 0 0 0.068379998
4.349 -1.656 1.502 73 0 0 0 0.068389997
4.336 -1.664 1.505 73 0 0 0 0.068400003
4.3169999 -1.669 1.505 73 0 0 0 0.068410002
4.2969999 -1.674 1.5039999 72 0 0 0 0.06842
4.2820001 -1.6799999 1.505 72 0 0 0 0.068429999
4.2690001 -1.688 1.507 72 0 0 0 0.068439998
4.2519999 -1.694 1.508 71 0 0 0 0.068449996
4.2360001 -1.699 1.508 71 0 0 0 0.068460003
4.2189999 -1.705 1.508 70 0 0 0 0.068470001
4.2030001 -1.71 1.508 70 0 0 0 0.06848
4.1830001 -1.714 1.507 74 0 0 0 0.068489999
4.1700001 -1.721 1.508 74 0 0 0 0.068499997
4.1560001 -1.728 1.508 73 0 0 0 0.068510003
4.1420002 -1.734 1.5089999 73 0 0 0 0.068520002
4.1350002 -1.743 1.512 74 0 0 0 0.068530001
4.1149998 -1.7460001 1.51 74 0 0 0 0.068539999
4.0999999 -1.752 1.5089999 73 0 0 0 0.068549998
4.0929999 -1.761 1.512 81 0 0 0 0.068559997
4.0809999 -1.767 1.512 81 0 0 0 0.068570003
4.0650001 -1.772 1.511 80 0 0 0 0.068580002
4.059 -1.781 1.5140001 81 0 0 0 0.06859
4.046 -1.7869999 1.5140001 80 0 0 0 0.068599999
4.033 -1.793 1.513 80 0 0 0 0.068609998
4.026 -1.801 1.515 79 0 0 0 0.068619996
4.013 -1.807 1.5140001 79 0 0 0 0.068630002
4.0029998 -1.813 1.515 80 0 0 0 0.068640001
3.994 -1.821 1.516 80 0 0 0 0.06865
3.983 -1.827 1.515 79 0 0 0 0.068659998
3.967 -1.831 1.513 78 0 0 0 0.068669997
3.9619999 -1.84 1.515 78 0 0 0 0.068680003
3.9530001 -1.846 1.515 78 0 0 0 0.068690002
3.9460001 -1.854 1.516 78 0 0 0 0.068700001
3.941 -1.863 1.518 78 0 0 0 0.068709999
3.931 -1.869 1.517 77 0 0 0 0.068719998
3.9260001 -1.877 1.518 78 0 0 0 0.068729997
3.9170001 -1.8839999 1.518 77 0 0 0 0.068740003
3.9089999 -1.89 1.518 77 0 0 0 0.068750001
3.9030001 -1.898 1.518 77 0 0 0 0.06876
3.8959999 -1.905 1.518 76 0 0 0 0.068769999
3.891 -1.913 1.5190001 76 0 0 0 0.068779998
3.888 -1.921 1.52 78 0 0 0 0.068790004
3.8710001 -1.923 1.516 79 0 0 0 0.068800002
3.8540001 -1.925 1.511 91 0 0 0 0.068810001
3.823 -1.92 1.501 109 0 0 0 0.06882
3.783 -1.909 1.488 143 0 0 0 0.068829998
3.74 -1.897 1.472 150 0 0 0 0.068839997
3.7060001 -1.8890001 1.461 150 0 0 0 0.068850003
3.681 -1.886 1.452 150 0 0 0 0.068860002
3.655 -1.881 1.444 150 0 0 0 0.068870001
3.632 -1.8789999 1.436 150 0 0 0 0.068879999
3.6040001 -1.873 1.426 150 0 0 0 0.068889998
3.5780001 -1.868 1.4170001 150 0 0 0 0.068899997
3.533 -1.853 1.4 150 0 0 0 0.068910003
3.4619999 -1.824 1.373 133 0 0 0 0.068920001
3.437 -1.819 1.363 106 0 0 0 0.06893
3.4330001 -1.825 1.362 113 0 0 0 0.068939999
3.4230001 -1.827 1.359 107 0 0 0 0.068949997
3.4089999 -1.8279999 1.354 111 0 0 0 0.068960004
3.404 -1.8329999 1.352 109 0 0 0 0.068970002
3.3959999 -1.836 1.349 105 0 0 0 0.068980001
3.391 -1.841 1.347 102 0 0 0 0.06899
3.381 -1.8430001 1.3430001 103 0 0 0 0.068999998
3.375 -1.847 1.34 105 0 0 0 0.069009997
3.3640001 -1.848 1.335 103 0 0 0 0.069020003
3.358 -1.851 1.332 105 0 0 0 0.069030002
3.3540001 -1.8559999 1.33 103 0 0 0 0.06904
3.3429999 -1.857 1.325 103 0 0 0 0.069049999
3.3410001 -1.862 1.323 107 0 0 0 0.069059998
3.336 -1.8660001 1.321 103 0 0 0 0.069069996
3.322 -1.864 1.314 104 0 0 0 0.069080003
3.323 -1.8710001 1.313 104 0 0 0 0.069090001
3.316 -1.873 1.309 104 0 0 0 0.0691
3.306 -1.873 1.304 102 0 0 0 0.069109999
3.3080001 -1.88 1.303 105 0 0 0 0.069119997
3.3010001 -1.882 1.299 101 0 0 0 0.069130003
3.2939999 -1.883 1.294 104 0 0 0 0.069140002
3.2880001 -1.885 1.29 100 0 0 0 0.069150001
3.2880001 -1.89 1.288 102 0 0 0 0.069159999
3.2780001 -1.89 1.2819999 102 0 0 0 0.069169998
3.277 -1.8940001 1.28 102 0 0 0 0.069179997
3.2709999 -1.896 1.275 100 0 0 0 0.069190003
3.266 -1.897 1.271 102 0 0 0 0.069200002
3.2590001 -1.898 1.266 101 0 0 0 0.06921
3.257 -1.901 1.262 98 0 0 0 0.069219999
3.2509999 -1.902 1.257 97 0 0 0 0.069229998
3.2460001 -1.903 1.253 95 0 0 0 0.069239996
3.2420001 -1.904 1.248 96 0 0 0 0.069250003
3.2379999 -1.906 1.244 98 0 0 0 0.069260001
3.234 -1.908 1.239 109 0 0 0 0.06927
3.2349999 -1.911 1.2359999 108 0 0 0 0.069279999
3.2320001 -1.913 1.232 107 0 0 0 0.069289997
3.2249999 -1.9119999 1.226 108 0 0 0 0.069300003
3.224 -1.915 1.222 108 0 0 0 0.069310002
3.221 -1.916 1.217 106 0 0 0 0.069320001
3.214 -1.914 1.211 105 0 0 0 0.069329999
3.2160001 -1.918 1.2079999 107 0 0 0 0.069339998
3.214 -1.919 1.2029999 102 0 0 0 0.069349997
3.2090001 -1.918 1.197 107 0 0 0 0.069360003
3.2090001 -1.92 1.193 106 0 0 0 0.069370002
3.2019999 -1.919 1.187 107 0 0 0 0.06938
3.207 -1.923 1.184 105 0 0 0 0.069389999
3.2090001 -1.926 1.1799999 109 0 0 0 0.069399998
3.2019999 -1.924 1.173 108 0 0 0 0.069410004
3.2019999 -1.925 1.169 109 0 0 0 0.069420002
3.201 -1.926 1.164 105 0 0 0 0.069430001
3.2 -1.926 1.159 105 0 0 0 0.06944
3.201 -1.927 1.154 107 0 0 0 0.069449998
3.204 -1.9299999 1.151 110 0 0 0 0.069459997
3.1989999 -1.928 1.1440001 107 0 0 0 0.069470003
3.1989999 -1.928 1.1390001 108 0 0 0 0.069480002
3.2 -1.929 1.135 107 0 0 0 0.069490001
3.1949999 -1.926 1.127 109 0 0 0 0.069499999
3.1960001 -1.927 1.123 109 0 0 0 0.069509998
3.1949999 -1.926 1.117 107 0 0 0 0.069519997
3.1960001 -1.926 1.112 109 0 0 0 0.069530003
3.197 -1.926 1.107 108 0 0 0 0.069540001
3.207 -1.931 1.105 110 0 0 0 0.06955
3.2 -1.927 1.097 108 0 0 0 0.069559999
3.2019999 -1.927 1.092 108 0 0 0 0.069569997
3.204 -1.926 1.087 110 0 0 0 0.069580004
3.2060001 -1.926 1.082 108 0 0 0 0.069590002
3.207 -1.926 1.077 110 0 0 0 0.069600001
3.2079999 -1.925 1.071 107 0 0 0 0.06961
3.211 -1.925 1.066 108 0 0 0 0.069619998
3.214 -1.925 1.061 110 0 0 0 0.069629997
3.2160001 -1.924 1.056 109 0 0 0 0.069640003
3.2179999 -1.923 1.05 110 0 0 0 0.069650002
3.22 -1.9220001 1.045 108 0 0 0 0.069660001
3.223 -1.921 1.04 108 0 0 0 0.069669999
3.2249999 -1.92 1.034 111 0 0 0 0.069679998
3.2279999 -1.919 1.029 110 0 0 0 0.069689997
3.23 -1.9170001 1.023 108 0 0 0 0.069700003
3.233 -1.916 1.017 110 0 0 0 0.069710001
3.2360001 -1.915 1.012 104 0 0 0 0.06972
3.243 -1.915 1.008 100 0 0 0 0.069729999
3.2479999 -1.915 1.003 99 0 0 0 0.069739997
3.2479999 -1.911 0.99599999 99 0 0 0 0.069750004
3.257 -1.913 0.99199998 107 0 0 0 0.069760002
3.2539999 -1.9069999 0.98500001 104 0 0 0 0.069770001
3.2609999 -1.9069999 0.98100001 106 0 0 0 0.06978
3.266 -1.906 0.97500002 105 0 0 0 0.069789998
3.2690001 -1.903 0.96899998 107 0 0 0 0.069799997
3.276 -1.903 0.96499997 107 0 0 0 0.069810003
3.28 -1.9 0.95899999 106 0 0 0 0.069820002
3.283 -1.898 0.95300001 106 0 0 0 0.06983
3.289 -1.896 0.94800001 107 0 0 0 0.069839999
3.2939999 -1.8940001 0.94199997 108 0 0 0 0.069849998
3.2950001 -1.89 0.93599999 96 0 0 0 0.069859996
3.3010001 -1.888 0.93099999 97 0 0 0 0.069870003
3.313 -1.8890001 0.92699999 95 0 0 0 0.069880001
3.3169999 -1.886 0.921 97 0 0 0 0.06989
3.322 -1.883 0.91600001 97 0 0 0 0.069899999
3.326 -1.88 0.91000003 94 0 0 0 0.069909997
3.3280001 -1.875 0.903 95 0 0 0 0.069920003
3.3380001 -1.875 0.89899999 95 0 0 0 0.069930002
3.3429999 -1.872 0.89300001 96 0 0 0 0.069940001
3.3510001 -1.87 0.88800001 96 0 0 0 0.069949999
3.3559999 -1.8660001 0.88200003 94 0 0 0 0.069959998
3.3640001 -1.864 0.87800002 97 0 0 0 0.069969997
3.372 -1.862 0.87199998 94 0 0 0 0.069980003
3.3759999 -1.857 0.866 90 0 0 0 0.069990002
3.3870001 -1.857 0.86199999 93 0 0 0 0.07
3.3929999 -1.853 0.85699999 93 0 0 0 0.070009999
3.3970001 -1.849 0.85000002 90 0 0 0 0.070019998
3.408 -1.848 0.84600002 91 0 0 0 0.070029996
3.415 -1.844 0.84100002 89 0 0 0 0.070040002
3.4230001 -1.841 0.83499998 68 0 0 0 0.070050001
3.4330001 -1.839 0.82999998 50 0 0 0 0.07006
3.444 -1.837 0.82599998 22 0 0 0 0.070069999
3.4460001 -1.831 0.81900001 8 0 0 0 0.070079997
3.4630001 -1.832 0.81599998 4 0 0 0 0.070090003
3.477 -1.832 0.81199998 6 0 0 0 0.070100002
3.4820001 -1.826 0.80599999 8 0 0 0 0.070110001
3.4860001 -1.8200001 0.80000001 8 0 0 0 0.070119999
3.4909999 -1.814 0.79299998 8 0 0 0 0.070129998
3.517 -1.819 0.792 14 0 0 0 0.070139997
3.5380001 -1.822 0.79000002 18 0 0 0 0.070150003
3.553 -1.821 0.78600001 21 0 0 0 0.070160002
3.5799999 -1.826 0.78399998 25 0 0 0 0.07017
3.6170001 -1.836 0.78500003 21 0 0 0 0.070179999
3.6470001 -1.842 0.78399998 20 0 0 0 0.070189998
3.678 -1.849 0.78299999 20 0 0 0 0.070200004
3.7160001 -1.859 0.78399998 20 0 0 0 0.070210002
3.7520001 -1.867 0.78399998 19 0 0 0 0.070220001
3.789 -1.876 0.78399998 19 0 0 0 0.07023
3.8310001 -1.887 0.78500003 20 0 0 0 0.070239998
3.868 -1.895 0.78500003 19 0 0 0 0.070249997
3.901 -1.901 0.78399998 20 0 0 0 0.070260003
3.944 -1.911 0.78500003 20 0 0 0 0.070270002
3.9760001 -1.9170001 0.78399998 21 0 0 0 0.070280001
4.0240002 -1.929 0.78500003 26 0 0 0 0.070289999
4.0599999 -1.9349999 0.78399998 45 0 0 0 0.070299998
4.0840001 -1.936 0.78100002 60 0 0 0 0.070309997
4.105 -1.9349999 0.77700001 63 0 0 0 0.070320003
4.119 -1.9299999 0.77200001 70 0 0 0 0.070330001
4.1279998 -1.923 0.76599997 69 0 0 0 0.07034
4.1430001 -1.919 0.76099998 66 0 0 0 0.070349999
4.1599998 -1.915 0.75599998 63 0 0 0 0.070359997
4.1659999 -1.906 0.74900001 63 0 0 0 0.070370004
4.1869998 -1.904 0.745 64 0 0 0 0.070380002
4.1960001 -1.897 0.73900002 63 0 0 0 0.070390001
4.21 -1.891 0.73400003 64 0 0 0 0.0704
4.224 -1.886 0.72799999 64 0 0 0 0.070409998
4.2379999 -1.88 0.72299999 65 0 0 0 0.070419997
4.2519999 -1.874 0.71799999 65 0 0 0 0.070430003
4.2610002 -1.8660001 0.71200001 65 0 0 0 0.070440002
4.2820001 -1.863 0.70700002 65 0 0 0 0.07045
4.2940001 -1.8559999 0.70200002 65 0 0 0 0.070459999
4.3060002 -1.848 0.69599998 66 0 0 0 0.070469998
4.322 -1.8430001 0.69099998 65 0 0 0 0.070479997
4.3330002 -1.835 0.685 65 0 0 0 0.070490003
4.3499999 -1.83 0.68000001 66 0 0 0 0.070500001
4.3699999 -1.825 0.67500001 66 0 0 0 0.07051
4.3829999 -1.818 0.67000002 67 0 0 0 0.070519999
4.3979998 -1.811 0.66399997 66 0 0 0 0.070529997
4.4159999 -1.8049999 0.66000003 67 0 0 0 0.070540003
4.4289999 -1.798 0.65399998 67 0 0 0 0.070550002
4.4450002 -1.791 0.64899999 68 0 0 0 0.070560001
4.461 -1.784 0.64300001 67 0 0 0 0.07057
4.4759998 -1.777 0.63800001 69 0 0 0 0.070579998
4.4899998 -1.7690001 0.63300002 69 0 0 0 0.070589997
4.506 -1.762 0.62699997 68 0 0 0 0.070600003
4.5279999 -1.757 0.62300003 70 0 0 0 0.070610002
4.5450001 -1.75 0.61799997 70 0 0 0 0.07062
4.5650001 -1.744 0.61299998 70 0 0 0 0.070629999
4.5809999 -1.7359999 0.60799998 70 0 0 0 0.070639998
4.5910001 -1.726 0.602 69 0 0 0 0.070649996
4.6100001 -1.72 0.597 71 0 0 0 0.070660003
4.625 -1.711 0.59200001 71 0 0 0 0.070670001
4.645 -1.705 0.58700001 71 0 0 0 0.07068
4.6630001 -1.697 0.58200002 71 0 0 0 0.070689999
4.6810002 -1.689 0.57700002 67 0 0 0 0.070699997
4.7020001 -1.682 0.57200003 67 0 0 0 0.070710003
4.7220001 -1.675 0.56800002 68 0 0 0 0.070720002
4.7340002 -1.665 0.56199998 67 0 0 0 0.070730001
4.5700002 -1.5930001 0.53600001 1 0 0 0 0.070739999
4.3099999 -1.49 0.498 0 0 0 0 0.070749998
4.302 -1.474 0.491 0 0 0 0 0.070759997
4.3210001 -1.467 0.48699999 0 0 0 0 0.070770003
4.3239999 -1.455 0.48100001 0 0 0 0 0.070780002
4.2979999 -1.433 0.472 0 0 0 0 0.07079
4.2659998 -1.409 0.46200001 3 0 0 0 0.070799999
4.2649999 -1.395 0.456 7 0 0 0 0.070809998
4.2659998 -1.383 0.44999999 13 0 0 0 0.070819996
4.2589998 -1.367 0.44299999 15 0 0 0 0.070830002
4.2649999 -1.3559999 0.43799999 8 0 0 0 0.070840001
4.2529998 -1.339 0.43000001 7 0 0 0 0.07085
4.2550001 -1.326 0.42500001 5 0 0 0 0.070859998
4.2319999 -1.306 0.41600001 4 0 0 0 0.070869997
4.2459998 -1.2970001 0.412 2 0 0 0 0.070880003
4.25 -1.285 0.40700001 1 0 0 0 0.070890002
4.2600002 -1.275 0.40200001 1 0 0 0 0.070900001
4.2620001 -1.262 0.396 1 0 0 0 0.070909999
4.2719998 -1.252 0.391 1 0 0 0 0.070919998
2.9030001 -0.84200001 0.26199999 1 0 0 0 0.070929997
2.9349999 -0.84200001 0.26100001 5 0 0 0 0.070940003
2.918 -0.82800001 0.255 0 0 0 0 0.070950001
3.4660001 -0.97299999 0.29899999 0 0 0 0 0.07096
4.2379999 -1.176 0.36000001 4 0 0 0 0.070969999
4.2270002 -1.16 0.354 4 0 0 0 0.070979998
3.47 -0.94099998 0.28600001 0 0 0 0 0.070990004
4.3140001 -1.1569999 0.34999999 4 0 0 0 0.071000002
4.4689999 -1.184 0.35699999 5 0 0 0 0.071010001
3.5610001 -0.93199998 0.28 0 0 0 0 0.07102
3.444 -0.89099997 0.26699999 0 0 0 0 0.071029998
4.5190001 -1.155 0.345 5 0 0 0 0.071039997
4.4250002 -1.117 0.33199999 5 0 0 0 0.071050003
4.586 -1.1440001 0.338 5 0 0 0 0.071060002
4.573 -1.126 0.33199999 5 0 0 0 0.071070001
4.6300001 -1.126 0.331 5 0 0 0 0.071079999
4.6440001 -1.115 0.32600001 6 0 0 0 0.071089998
4.645 -1.1 0.32100001 6 0 0 0 0.071099997
4.6069999 -1.077 0.31299999 5 0 0 0 0.071110003
4.552 -1.05 0.303 5 0 0 0 0.071120001
4.5450001 -1.034 0.29800001 5 0 0 0 0.07113
4.355 -0.977 0.28 5 0 0 0 0.071139999
3.5840001 -0.79299998 0.226 0 0 0 0 0.071149997
4.5999999 -1.003 0.28600001 7 0 0 0 0.071160004
3.313 -0.71200001 0.20200001 0 0 0 0 0.071170002
4.5900002 -0.972 0.27500001 15 0 0 0 0.071180001
4.5970001 -0.95899999 0.27000001 8 0 0 0 0.07119
4.6100001 -0.94800001 0.266 7 0 0 0 0.071199998
4.454 -0.90200001 0.252 5 0 0 0 0.071209997
4.4089999 -0.87900001 0.244 4 0 0 0 0.071220003
3.4519999 -0.67699999 0.18799999 0 0 0 0 0.071230002
3.2709999 -0.63099998 0.17399999 0 0 0 0 0.07124
3.326 -0.63099998 0.17299999 0 0 0 0 0.071249999
4.7529998 -0.88800001 0.243 14 0 0 0 0.071259998
3.424 -0.62900001 0.171 0 0 0 0 0.071269996
3.4159999 -0.61699998 0.167 0 0 0 0 0.071280003
3.375 -0.59899998 0.162 0 0 0 0 0.071290001
2.7880001 -0.486 0.131 0 0 0 0 0.0713
2.73 -0.46700001 0.125 0 0 0 0 0.071309999
3.369 -0.56599998 0.15099999 0 0 0 0 0.071319997
2.7720001 -0.45699999 0.122 0 0 0 0 0.071330003
2.7409999 -0.44299999 0.117 0 0 0 0 0.071340002
4.9790001 -0.78899997 0.20900001 1 0 0 0 0.071350001
5.0110002 -0.77899998 0.205 1 0 0 0 0.071359999
0 0 0 0 0 0 0 0.071369998
0 0 0 0 0 0 0 0.071379997
2.665 -0.389 0.101 3 0 0 0 0.071390003
2.5940001 -0.37 0.096000001 19 0 0 0 0.071400002
2.6129999 -0.36500001 0.093999997 26 0 0 0 0.07141
0 0 0 0 0 0 0 0.071419999
0 0 0 0 0 0 0 0.071429998
1.527 -0.199 0.050000001 1 0 0 0 0.071439996
1.3940001 -0.177 0.045000002 0 0 0 0 0.071450002
1.388 -0.17200001 0.043000001 0 0 0 0 0.071460001
1.385 -0.167 0.041999999 0 0 0 0 0.07147
1.387 -0.163 0.041000001 0 0 0 0 0.071479999
1.378 -0.15800001 0.039000001 0 0 0 0 0.071489997
1.378 -0.153 0.037999999 1 0 0 0 0.071500003
1.376 -0.149 0.037 0 0 0 0 0.071510002
1.3660001 -0.14300001 0.035 0 0 0 0 0.071520001
1.368 -0.139 0.034000002 0 0 0 0 0.071529999
1.332 -0.131 0.032000002 0 0 0 0 0.071539998
1.337 -0.12800001 0.030999999 0 0 0 0 0.071549997
1.323 -0.122 0.028999999 0 0 0 0 0.071560003
1.324 -0.118 0.028000001 0 0 0 0 0.071570002
1.321 -0.114 0.027000001 0 0 0 0 0.07158
1.329 -0.11 0.026000001 0 0 0 0 0.071589999
1.329 -0.106 0.025 0 0 0 0 0.071599998
1.3049999 -0.1 0.024 0 0 0 0 0.071610004
1.312 -0.096000001 0.023 0 0 0 0 0.071620002
1.307 -0.092 0.021 0 0 0 0 0.071630001
1.3049999 -0.088 0.02 0 0 0 0 0.07164
1.301 -0.082999997 0.018999999 0 0 0 0 0.071649998
1.318 -0.079999998 0.017999999 0 0 0 0 0.071659997
2.4419999 -0.142 0.033 37 0 0 0 0.071670003
2.615 -0.14300001 0.033 150 0 0 0 0.071680002
2.5650001 -0.132 0.029999999 36 0 0 0 0.071690001
2.6040001 -0.126 0.028999999 19 0 0 0 0.071699999
2.6040001 -0.118 0.027000001 17 0 0 0 0.071709998
2.5999999 -0.11 0.025 19 0 0 0 0.071719997
2.595 -0.101 0.023 18 0 0 0 0.071730003
2.5910001 -0.093000002 0.021 16 0 0 0 0.071740001
2.589 -0.085000001 0.018999999 16 0 0 0 0.07175
2.5810001 -0.075999998 0.017000001 16 0 0 0 0.071759999
2.5829999 -0.068000004 0.015 15 0 0 0 0.071769997
2.573 -0.059999999 0.013 15 0 0 0 0.071780004
2.5710001 -0.052000001 0.011 16 0 0 0 0.071790002
2.5669999 -0.044 0.0089999996 17 0 0 0 0.071800001
2.5599999 -0.035 0.0070000002 18 0 0 0 0.07181
2.562 -0.027000001 0.0049999999 20 0 0 0 0.071819998
2.5550001 -0.018999999 0.003 19 0 0 0 0.071829997
2.5510001 -0.011 0.0020000001 14 0 0 0 0.071840003
2.5510001 -0.003 0 14 0 0 0 0.071850002
2.55 0.0040000002 -0.001 14 0 0 0 0.07186
2.5380001 0.012 -0.003 16 0 0 0 0.071869999
2.5380001 0.02 -0.0040000002 17 0 0 0 0.071879998
2.533 0.028000001 -0.0060000001 17 0 0 0 0.071889997
2.53 0.035999998 -0.0080000004 19 0 0 0 0.071900003
2.5280001 0.044 -0.0089999996 17 0 0 0 0.071910001
2.5280001 0.052000001 -0.011 18 0 0 0 0.07192
2.5239999 0.059999999 -0.013 18 0 0 0 0.071929999
2.5190001 0.068000004 -0.014 19 0 0 0 0.071939997
2.51 0.075000003 -0.016000001 17 0 0 0 0.071950004
2.5120001 0.082999997 -0.017000001 16 0 0 0 0.071960002
2.5050001 0.090999998 -0.018999999 14 0 0 0 0.071970001
2.5 0.098999999 -0.021 14 0 0 0 0.07198
2.5020001 0.107 -0.022 14 0 0 0 0.071989998
2.497 0.115 -0.024 16 0 0 0 0.071999997
2.493 0.123 -0.025 16 0 0 0 0.072010003
2.49 0.13 -0.027000001 17 0 0 0 0.072020002
2.483 0.138 -0.028000001 17 0 0 0 0.07203
2.484 0.146 -0.028999999 20 0 0 0 0.072039999
2.4790001 0.154 -0.030999999 19 0 0 0 0.072049998
2.477 0.161 -0.032000002 18 0 0 0 0.072059996
2.473 0.169 -0.034000002 18 0 0 0 0.072070003
2.47 0.177 -0.035 15 0 0 0 0.072080001
2.4679999 0.184 -0.035999998 14 0 0 0 0.07209
2.4660001 0.192 -0.037999999 14 0 0 0 0.072099999
2.461 0.2 -0.039000001 17 0 0 0 0.072109997
2.4590001 0.207 -0.039999999 18 0 0 0 0.072120003
2.4530001 0.215 -0.041999999 19 0 0 0 0.072130002
2.451 0.222 -0.043000001 18 0 0 0 0.072140001
2.4449999 0.23 -0.044 16 0 0 0 0.072149999
2.4449999 0.23800001 -0.045000002 16 0 0 0 0.072159998
2.4430001 0.245 -0.046999998 15 0 0 0 0.072169997
2.4360001 0.252 -0.048 16 0 0 0 0.072180003
2.437 0.25999999 -0.048999999 13 0 0 0 0.072190002
2.4319999 0.26800001 -0.050000001 13 0 0 0 0.0722
2.425 0.27500001 -0.050999999 17 0 0 0 0.072209999
2.4289999 0.28299999 -0.052999999 20 0 0 0 0.072219998
2.4189999 0.28999999 -0.052999999 18 0 0 0 0.072229996
2.424 0.29800001 -0.055 16 0 0 0 0.072240002
2.4200001 0.30500001 -0.056000002 14 0 0 0 0.072250001
2.4189999 0.31299999 -0.057 13 0 0 0 0.07226
2.4059999 0.31900001 -0.057999998 17 0 0 0 0.072269998
2.4089999 0.32699999 -0.059 20 0 0 0 0.072279997
2.404 0.33500001 -0.059999999 21 0 0 0 0.072290003
2.4000001 0.34200001 -0.061000001 20 0 0 0 0.072300002
2.398 0.34900001 -0.061999999 16 0 0 0 0.072310001
2.395 0.35699999 -0.063000001 14 0 0 0 0.072319999
2.3959999 0.36500001 -0.064000003 13 0 0 0 0.072329998
2.3889999 0.37099999 -0.064999998 12 0 0 0 0.072339997
2.3870001 0.37900001 -0.066 13 0 0 0 0.072350003
2.385 0.38600001 -0.067000002 17 0 0 0 0.072360002
2.3789999 0.39300001 -0.067000002 17 0 0 0 0.07237
2.378 0.40099999 -0.068000004 17 0 0 0 0.072379999
2.368 0.40700001 -0.068999998 22 0 0 0 0.072389998
2.368 0.41499999 -0.07 23 0 0 0 0.072400004
2.369 0.42199999 -0.071000002 20 0 0 0 0.072410002
2.3610001 0.42899999 -0.071000002 20 0 0 0 0.072420001
2.359 0.43599999 -0.071999997 21 0 0 0 0.07243
2.3499999 0.442 -0.072999999 17 0 0 0 0.072439998
2.3529999 0.44999999 -0.074000001 13 0 0 0 0.072449997
2.3510001 0.458 -0.075000003 13 0 0 0 0.072460003
2.3469999 0.465 -0.075000003 14 0 0 0 0.072470002
2.339 0.47099999 -0.075999998 17 0 0 0 0.072480001
2.342 0.479 -0.077 17 0 0 0 0.072489999
2.3380001 0.486 -0.077 17 0 0 0 0.072499998
2.335 0.493 -0.078000002 19 0 0 0 0.072509997
