# .PCD v0.7 - Point Cloud Data file format
VERSION 0.7
FIELDS x y z intensity normal_x normal_y normal_z curvature
SIZE 4 4 4 4 4 4 4 4
TYPE F F F F F F F F
COUNT 1 1 1 1 1 1 1 1
WIDTH 1034
HEIGHT 1
VIEWPOINT 0 0 0 1 0 0 0
POINTS 1034
DATA ascii
2.3499999 0.017000001 1.413 117 0 0 0 0.052200001
2.3640001 0.014 1.415 118 0 0 0 0.052209999
2.372 0.012 1.413 114 0 0 0 0.052220002
2.3840001 0.0089999996 1.413 122 0 0 0 0.05223
2.395 0.0070000002 1.413 124 0 0 0 0.052239999
2.4100001 0.0049999999 1.415 117 0 0 0 0.052250002
2.425 0.0020000001 1.4170001 117 0 0 0 0.05226
2.428 0 1.411 110 0 0 0 0.052269999
2.434 -0.0020000001 1.408 108 0 0 0 0.052280001
2.448 -0.0040000002 1.409 109 0 0 0 0.05229
2.4660001 -0.0070000002 1.4119999 112 0 0 0 0.052299999
2.477 -0.0089999996 1.411 107 0 0 0 0.052310001
2.5369999 -0.012 1.438 150 0 0 0 0.05232
2.595 -0.014 1.4630001 150 0 0 0 0.052329998
2.648 -0.017000001 1.484 120 0 0 0 0.052340001
2.6630001 -0.018999999 1.485 123 0 0 0 0.05235
2.6730001 -0.022 1.482 117 0 0 0 0.052359998
2.6889999 -0.024 1.483 112 0 0 0 0.052370001
2.7049999 -0.027000001 1.483 108 0 0 0 0.052379999
2.7160001 -0.028999999 1.4809999 111 0 0 0 0.052390002
2.7360001 -0.030999999 1.483 92 0 0 0 0.0524
2.7490001 -0.034000002 1.482 101 0 0 0 0.052409999
2.766 -0.035999998 1.482 94 0 0 0 0.052420001
2.776 -0.037999999 1.479 91 0 0 0 0.05243
2.7950001 -0.041000001 1.48 93 0 0 0 0.052439999
2.8169999 -0.043000001 1.482 95 0 0 0 0.052450001
2.8280001 -0.045000002 1.479 88 0 0 0 0.05246
2.849 -0.048 1.4809999 84 0 0 0 0.052469999
2.868 -0.050000001 1.482 88 0 0 0 0.052480001
2.885 -0.052000001 1.4809999 87 0 0 0 0.05249
2.9000001 -0.054000001 1.48 86 0 0 0 0.052499998
2.924 -0.057 1.482 89 0 0 0 0.052510001
2.934 -0.059 1.478 90 0 0 0 0.052519999
2.951 -0.061000001 1.477 97 0 0 0 0.052530002
2.9719999 -0.063000001 1.477 91 0 0 0 0.052540001
2.9860001 -0.064999998 1.475 92 0 0 0 0.052549999
3.0109999 -0.068000004 1.477 90 0 0 0 0.052560002
3.0309999 -0.07 1.477 92 0 0 0 0.05257
3.0539999 -0.071999997 1.478 90 0 0 0 0.052579999
3.072 -0.074000001 1.476 92 0 0 0 0.052590001
3.089 -0.075999998 1.474 89 0 0 0 0.0526
3.1110001 -0.078000002 1.474 88 0 0 0 0.052609999
3.1329999 -0.081 1.474 90 0 0 0 0.052620001
3.1530001 -0.082999997 1.473 86 0 0 0 0.05263
3.1730001 -0.085000001 1.472 82 0 0 0 0.052639998
3.198 -0.086999997 1.472 113 0 0 0 0.052650001
3.2190001 -0.089000002 1.471 117 0 0 0 0.05266
3.2219999 -0.090000004 1.462 53 0 0 0 0.052669998
3.2409999 -0.092 1.46 10 0 0 0 0.052680001
3.286 -0.094999999 1.469 2 0 0 0 0.052689999
3.309 -0.097000003 1.4680001 2 0 0 0 0.052700002
3.342 -0.098999999 1.472 2 0 0 0 0.05271
3.3640001 -0.101 1.47 2 0 0 0 0.052719999
3.382 -0.103 1.466 3 0 0 0 0.052730002
3.4159999 -0.105 1.469 22 0 0 0 0.05274
3.4360001 -0.107 1.466 53 0 0 0 0.052749999
3.4619999 -0.109 1.466 67 0 0 0 0.052760001
3.487 -0.111 1.464 68 0 0 0 0.05277
3.5220001 -0.113 1.467 68 0 0 0 0.052779999
3.5450001 -0.115 1.465 68 0 0 0 0.052790001
3.5829999 -0.117 1.4680001 68 0 0 0 0.0528
3.6140001 -0.119 1.4680001 67 0 0 0 0.052809998
3.6400001 -0.121 1.467 66 0 0 0 0.052820001
3.6689999 -0.123 1.465 66 0 0 0 0.052829999
3.7049999 -0.125 1.4680001 66 0 0 0 0.052839998
3.73 -0.126 1.465 66 0 0 0 0.052850001
3.7639999 -0.12800001 1.465 67 0 0 0 0.052859999
3.796 -0.13 1.465 65 0 0 0 0.052870002
3.8269999 -0.132 1.464 66 0 0 0 0.05288
3.8629999 -0.134 1.464 66 0 0 0 0.052889999
3.895 -0.13500001 1.4630001 69 0 0 0 0.052900001
3.927 -0.13699999 1.462 68 0 0 0 0.05291
3.967 -0.139 1.4630001 68 0 0 0 0.052919999
4.0009999 -0.141 1.462 69 0 0 0 0.052930001
4.033 -0.142 1.46 69 0 0 0 0.05294
4.0669999 -0.14399999 1.459 68 0 0 0 0.052949999
4.105 -0.146 1.4579999 68 0 0 0 0.052960001
4.1409998 -0.148 1.457 68 0 0 0 0.05297
4.1810002 -0.149 1.457 68 0 0 0 0.052979998
4.1230001 -0.147 1.4220001 150 0 0 0 0.052990001
3.9890001 -0.14300001 1.362 150 0 0 0 0.052999999
3.8510001 -0.138 1.302 112 0 0 0 0.053010002
3.8499999 -0.138 1.289 106 0 0 0 0.05302
3.848 -0.138 1.275 106 0 0 0 0.053029999
3.849 -0.138 1.262 103 0 0 0 0.053040002
3.8469999 -0.138 1.249 104 0 0 0 0.05305
3.848 -0.138 1.2359999 103 0 0 0 0.053059999
3.8510001 -0.138 1.224 102 0 0 0 0.053070001
3.855 -0.139 1.212 104 0 0 0 0.05308
3.849 -0.138 1.197 88 0 0 0 0.053089999
3.849 -0.138 1.184 89 0 0 0 0.053100001
3.8529999 -0.138 1.1720001 91 0 0 0 0.05311
3.8510001 -0.138 1.159 92 0 0 0 0.053119998
3.8469999 -0.13699999 1.1440001 86 0 0 0 0.053130001
3.8510001 -0.13699999 1.133 93 0 0 0 0.05314
3.8510001 -0.13699999 1.119 87 0 0 0 0.053149998
3.8529999 -0.13699999 1.107 91 0 0 0 0.053160001
3.8570001 -0.13600001 1.095 91 0 0 0 0.053169999
3.8529999 -0.13600001 1.081 91 0 0 0 0.053180002
3.855 -0.13500001 1.069 93 0 0 0 0.05319
3.8570001 -0.13500001 1.056 94 0 0 0 0.053199999
3.8529999 -0.134 1.0420001 94 0 0 0 0.053210001
3.8559999 -0.134 1.03 93 0 0 0 0.05322
3.858 -0.133 1.018 95 0 0 0 0.053229999
3.8559999 -0.133 1.0039999 95 0 0 0 0.053240001
3.858 -0.132 0.99199998 95 0 0 0 0.05325
3.862 -0.132 0.98000002 94 0 0 0 0.053259999
3.8610001 -0.131 0.96700001 94 0 0 0 0.053270001
3.8610001 -0.13 0.954 97 0 0 0 0.05328
3.8640001 -0.12899999 0.94199997 96 0 0 0 0.053289998
3.8640001 -0.12899999 0.92900002 101 0 0 0 0.053300001
3.8659999 -0.12800001 0.917 102 0 0 0 0.053309999
3.8659999 -0.127 0.90399998 99 0 0 0 0.053320002
3.8640001 -0.126 0.88999999 103 0 0 0 0.05333
3.8659999 -0.125 0.87800002 99 0 0 0 0.053339999
3.8699999 -0.124 0.866 104 0 0 0 0.053350002
3.872 -0.123 0.85299999 101 0 0 0 0.05336
3.8640001 -0.122 0.83899999 110 0 0 0 0.053369999
3.8670001 -0.121 0.82700002 107 0 0 0 0.053380001
3.8699999 -0.12 0.815 109 0 0 0 0.05339
3.8699999 -0.119 0.80199999 107 0 0 0 0.053399999
3.869 -0.118 0.78899997 104 0 0 0 0.053410001
3.8710001 -0.117 0.77600002 105 0 0 0 0.05342
3.872 -0.116 0.764 62 0 0 0 0.053429998
3.8740001 -0.115 0.75099999 12 0 0 0 0.053440001
3.892 -0.114 0.74199998 5 0 0 0 0.05345
3.8859999 -0.113 0.72799999 6 0 0 0 0.053459998
3.914 -0.112 0.72100002 17 0 0 0 0.053470001
3.9530001 -0.112 0.71499997 23 0 0 0 0.053479999
4.027 -0.113 0.71499997 19 0 0 0 0.053490002
4.0970001 -0.113 0.71399999 22 0 0 0 0.0535
4.1630001 -0.114 0.71200001 21 0 0 0 0.053509999
4.2389998 -0.114 0.71100003 21 0 0 0 0.053520001
4.3210001 -0.115 0.71100003 41 0 0 0 0.05353
4.336 -0.114 0.699 68 0 0 0 0.053539999
4.336 -0.112 0.685 59 0 0 0 0.053550001
4.3379998 -0.11 0.671 60 0 0 0 0.05356
4.3379998 -0.109 0.65700001 58 0 0 0 0.053569999
4.3429999 -0.107 0.64300001 60 0 0 0 0.053580001
4.348 -0.105 0.63 59 0 0 0 0.05359
4.3499999 -0.104 0.616 60 0 0 0 0.053599998
4.3460002 -0.102 0.60100001 60 0 0 0 0.053610001
4.3569999 -0.1 0.58899999 61 0 0 0 0.053619999
4.3499999 -0.097999997 0.574 60 0 0 0 0.053630002
4.3540001 -0.096000001 0.56 60 0 0 0 0.053640001
4.3520002 -0.093999997 0.546 60 0 0 0 0.053649999
4.3540001 -0.093000002 0.53200001 61 0 0 0 0.053660002
4.3590002 -0.090999998 0.51800001 61 0 0 0 0.05367
4.3629999 -0.089000002 0.505 62 0 0 0 0.053679999
4.3629999 -0.086999997 0.491 61 0 0 0 0.053690001
4.3639998 -0.085000001 0.477 63 0 0 0 0.0537
4.3660002 -0.082999997 0.463 63 0 0 0 0.053709999
4.3670001 -0.081 0.449 62 0 0 0 0.053720001
4.3709998 -0.079000004 0.435 56 0 0 0 0.05373
4.3740001 -0.075999998 0.421 59 0 0 0 0.053739998
4.3740001 -0.074000001 0.40700001 62 0 0 0 0.053750001
4.3730001 -0.071999997 0.39300001 63 0 0 0 0.05376
4.3800001 -0.07 0.38 61 0 0 0 0.053769998
4.3800001 -0.068000004 0.366 62 0 0 0 0.053780001
4.3829999 -0.064999998 0.352 62 0 0 0 0.053789999
4.381 -0.063000001 0.33700001 63 0 0 0 0.053800002
4.382 -0.061000001 0.32300001 62 0 0 0 0.05381
4.3870001 -0.059 0.31 62 0 0 0 0.053819999
4.3940001 -0.056000002 0.296 64 0 0 0 0.053830002
4.3889999 -0.054000001 0.28200001 64 0 0 0 0.05384
4.3959999 -0.050999999 0.26800001 64 0 0 0 0.053849999
4.3969998 -0.048999999 0.25400001 65 0 0 0 0.053860001
4.4000001 -0.046999998 0.241 64 0 0 0 0.05387
4.4000001 -0.044 0.226 62 0 0 0 0.053879999
4.3920002 -0.041000001 0.212 36 0 0 0 0.053890001
4.1570001 -0.037 0.18700001 2 0 0 0 0.0539
4.1290002 -0.034000002 0.17299999 2 0 0 0 0.053909998
4.1079998 -0.032000002 0.15899999 7 0 0 0 0.053920001
4.0840001 -0.028999999 0.145 8 0 0 0 0.053929999
4.059 -0.026000001 0.131 4 0 0 0 0.053939998
4.02 -0.024 0.117 0 0 0 0 0.053950001
4.0289998 -0.021 0.105 0 0 0 0 0.053959999
4.0489998 -0.018999999 0.092 2 0 0 0 0.053970002
4.0419998 -0.016000001 0.079000004 1 0 0 0 0.05398
0 0 0 0 0 0 0 0.053989999
1.8049999 -0.0049999999 0.024 3 0 0 0 0.054000001
1.812 -0.0040000002 0.017999999 3 0 0 0 0.05401
1.802 -0.0020000001 0.012 6 0 0 0 0.054019999
1.812 -0.001 0.0070000002 8 0 0 0 0.054030001
1.728 0 0.001 10 0 0 0 0.05404
1.766 0 -0.0040000002 10 0 0 0 0.054049999
1.781 0.001 -0.0099999998 8 0 0 0 0.054060001
1.7920001 0.003 -0.015 7 0 0 0 0.05407
1.791 0.0040000002 -0.021 7 0 0 0 0.054079998
1.785 0.0049999999 -0.027000001 7 0 0 0 0.054090001
1.779 0.0060000001 -0.032000002 7 0 0 0 0.054099999
1.778 0.0070000002 -0.037999999 7 0 0 0 0.054110002
1.771 0.0089999996 -0.043000001 7 0 0 0 0.05412
1.762 0.0099999998 -0.048999999 7 0 0 0 0.054129999
1.76 0.011 -0.054000001 7 0 0 0 0.054140002
1.7589999 0.012 -0.059999999 7 0 0 0 0.05415
1.747 0.014 -0.064999998 7 0 0 0 0.054159999
1.705 0.014 -0.068000004 9 0 0 0 0.054170001
1.577 0.014 -0.068000004 23 0 0 0 0.05418
1.473 0.015 -0.068000004 16 0 0 0 0.054189999
1.456 0.015 -0.071999997 4 0 0 0 0.054200001
1.594 0.017999999 -0.083999999 5 0 0 0 0.05421
1.693 0.021 -0.094999999 7 0 0 0 0.054219998
1.715 0.022 -0.101 1 0 0 0 0.054230001
0 0 0 0 0 0 0 0.05424
0 0 0 0 0 0 0 0.054249998
0.676 0.0099999998 -0.046 0 0 0 0 0.054260001
0.67500001 0.011 -0.048 0 0 0 0 0.054269999
0.66399997 0.011 -0.048999999 0 0 0 0 0.054280002
0.65700001 0.011 -0.050999999 0 0 0 0 0.05429
0.62099999 0.011 -0.050000001 0 0 0 0 0.054299999
0.62 0.012 -0.052000001 0 0 0 0 0.054310001
0.62 0.012 -0.054000001 0 0 0 0 0.05432
0.60799998 0.012 -0.055 0 0 0 0 0.054329999
0.60900003 0.013 -0.057 0 0 0 0 0.054340001
0.61400002 0.014 -0.059 0 0 0 0 0.05435
0.61299998 0.014 -0.061000001 0 0 0 0 0.054359999
0.602 0.014 -0.061999999 0 0 0 0 0.054370001
0.60799998 0.015 -0.064000003 0 0 0 0 0.05438
0.61299998 0.016000001 -0.067000002 0 0 0 0 0.054389998
0.61799997 0.016000001 -0.068999998 0 0 0 0 0.054400001
0.62099999 0.017000001 -0.071999997 0 0 0 0 0.054409999
0.62599999 0.017999999 -0.074000001 0 0 0 0 0.054420002
0.63599998 0.017999999 -0.077 0 0 0 0 0.05443
0.64200002 0.018999999 -0.079999998 0 0 0 0 0.054439999
0.63200003 0.018999999 -0.081 0 0 0 0 0.054450002
0.63599998 0.02 -0.082999997 0 0 0 0 0.05446
0.63099998 0.021 -0.085000001 0 0 0 0 0.054469999
0.64399999 0.022 -0.089000002 0 0 0 0 0.054480001
0.84799999 0.028999999 -0.119 0 0 0 0 0.05449
1.613 0.057999998 -0.23199999 23 0 0 0 0.054499999
1.582 0.057999998 -0.233 24 0 0 0 0.054510001
1.577 0.059 -0.237 11 0 0 0 0.05452
1.574 0.061000001 -0.242 9 0 0 0 0.054529998
1.584 0.063000001 -0.248 0 0 0 0 0.054540001
3.773 0.153 -0.60399997 1 0 0 0 0.05455
3.7509999 0.156 -0.61199999 5 0 0 0 0.054559998
3.7620001 0.16 -0.62599999 9 0 0 0 0.054570001
3.7750001 0.164 -0.63999999 10 0 0 0 0.054579999
3.7880001 0.169 -0.65399998 10 0 0 0 0.054590002
3.7980001 0.17299999 -0.66799998 10 0 0 0 0.0546
3.796 0.177 -0.67900002 11 0 0 0 0.054609999
3.796 0.18000001 -0.69099998 10 0 0 0 0.054620001
3.803 0.185 -0.70499998 11 0 0 0 0.05463
3.8050001 0.189 -0.71700001 11 0 0 0 0.054639999
3.8069999 0.193 -0.72899997 11 0 0 0 0.054650001
3.809 0.197 -0.741 10 0 0 0 0.05466
3.8239999 0.20200001 -0.75599998 10 0 0 0 0.054669999
3.822 0.205 -0.76800001 10 0 0 0 0.054680001
3.822 0.20900001 -0.77999997 10 0 0 0 0.05469
3.832 0.214 -0.79400003 10 0 0 0 0.054699998
3.8329999 0.21799999 -0.80599999 10 0 0 0 0.054710001
3.8429999 0.223 -0.82099998 9 0 0 0 0.054719999
3.8440001 0.227 -0.833 8 0 0 0 0.054730002
3.839 0.23100001 -0.84399998 5 0 0 0 0.054740001
3.852 0.236 -0.85900003 5 0 0 0 0.054749999
3.8499999 0.23999999 -0.87 5 0 0 0 0.054760002
3.8510001 0.245 -0.88300002 5 0 0 0 0.05477
3.8499999 0.249 -0.89499998 4 0 0 0 0.054779999
3.8529999 0.25400001 -0.90700001 5 0 0 0 0.054790001
3.8429999 0.257 -0.917 9 0 0 0 0.0548
3.8139999 0.25999999 -0.92199999 12 0 0 0 0.054809999
3.7490001 0.25999999 -0.91799998 11 0 0 0 0.054820001
3.704 0.26100001 -0.91900003 12 0 0 0 0.05483
3.6559999 0.26199999 -0.91799998 16 0 0 0 0.054839998
3.612 0.26300001 -0.91900003 26 0 0 0 0.054850001
3.5610001 0.264 -0.917 32 0 0 0 0.05486
3.517 0.26499999 -0.917 31 0 0 0 0.054869998
3.4719999 0.26499999 -0.91600001 32 0 0 0 0.054880001
3.4119999 0.26499999 -0.91100001 30 0 0 0 0.054889999
3.3670001 0.266 -0.90899998 29 0 0 0 0.054900002
3.332 0.26699999 -0.91000003 30 0 0 0 0.05491
3.2939999 0.26800001 -0.91000003 33 0 0 0 0.054919999
3.2460001 0.26800001 -0.90700001 32 0 0 0 0.054930001
3.2079999 0.26899999 -0.90600002 32 0 0 0 0.05494
3.1719999 0.27000001 -0.90600002 30 0 0 0 0.054949999
3.141 0.271 -0.90700001 30 0 0 0 0.054960001
3.0969999 0.27200001 -0.90399998 28 0 0 0 0.05497
3.046 0.271 -0.89899999 26 0 0 0 0.054979999
2.9979999 0.271 -0.89399999 150 0 0 0 0.054990001
1.274 0.116 -0.384 0 0 0 0 0.055
1.253 0.116 -0.38100001 0 0 0 0 0.055009998
1.2539999 0.118 -0.38499999 0 0 0 0 0.055020001
1.261 0.12 -0.39199999 0 0 0 0 0.055029999
1.239 0.12 -0.389 0 0 0 0 0.055039998
1.22 0.12 -0.38600001 0 0 0 0 0.055050001
1.199 0.119 -0.38299999 0 0 0 0 0.055059999
1.2 0.121 -0.38699999 0 0 0 0 0.055070002
1.179 0.121 -0.384 0 0 0 0 0.05508
1.1720001 0.122 -0.38600001 0 0 0 0 0.055089999
1.149 0.121 -0.382 0 0 0 0 0.055100001
1.158 0.123 -0.38800001 0 0 0 0 0.05511
1.14 0.123 -0.38600001 0 0 0 0 0.055119999
1.132 0.124 -0.38600001 0 0 0 0 0.055130001
1.118 0.124 -0.38499999 0 0 0 0 0.05514
1.1 0.124 -0.382 0 0 0 0 0.055149999
1.095 0.125 -0.384 0 0 0 0 0.055160001
1.075 0.124 -0.38 0 0 0 0 0.05517
1.069 0.125 -0.38100001 0 0 0 0 0.055179998
1.064 0.126 -0.38299999 0 0 0 0 0.055190001
1.057 0.127 -0.38299999 0 0 0 0 0.055199999
1.059 0.12899999 -0.38800001 0 0 0 0 0.055210002
1.03 0.127 -0.38 0 0 0 0 0.05522
1.024 0.127 -0.38100001 0 0 0 0 0.055229999
1.0140001 0.12800001 -0.38 0 0 0 0 0.055240002
1.0140001 0.12899999 -0.38299999 0 0 0 0 0.05525
1.01 0.13 -0.38499999 0 0 0 0 0.055259999
0.995 0.13 -0.382 0 0 0 0 0.055270001
0.97600001 0.12899999 -0.37799999 0 0 0 0 0.05528
0.991 0.133 -0.38699999 0 0 0 0 0.055289999
0.97299999 0.132 -0.38299999 0 0 0 0 0.055300001
0.96600002 0.132 -0.38299999 0 0 0 0 0.05531
0.95599997 0.133 -0.382 0 0 0 0 0.055319998
0.949 0.133 -0.382 0 0 0 0 0.055330001
0.93800002 0.133 -0.38 0 0 0 0 0.055339999
0.94099998 0.13500001 -0.384 0 0 0 0 0.055349998
0.92699999 0.13500001 -0.38100001 0 0 0 0 0.055360001
0.93000001 0.13699999 -0.38499999 0 0 0 0 0.055369999
0.93599999 0.139 -0.38999999 0 0 0 0 0.055380002
0.91299999 0.138 -0.384 0 0 0 0 0.05539
0.91799998 0.14 -0.38800001 0 0 0 0 0.055399999
0.91399997 0.141 -0.389 0 0 0 0 0.055410001
0.90600002 0.141 -0.389 0 0 0 0 0.05542
0.903 0.142 -0.38999999 0 0 0 0 0.055429999
0.88099998 0.14 -0.38299999 0 0 0 0 0.055440001
0.88200003 0.142 -0.38600001 1 0 0 0 0.05545
0.87599999 0.14300001 -0.38600001 2 0 0 0 0.055459999
0.87699997 0.14399999 -0.389 2 0 0 0 0.055470001
0.87900001 0.146 -0.39199999 1 0 0 0 0.05548
0.875 0.147 -0.39300001 1 0 0 0 0.055489998
0.87099999 0.148 -0.39399999 1 0 0 0 0.055500001
0.87599999 0.15099999 -0.398 1 0 0 0 0.055509999
0.87300003 0.152 -0.39899999 1 0 0 0 0.055520002
0.875 0.154 -0.403 1 0 0 0 0.05553
0.87599999 0.155 -0.405 0 0 0 0 0.055539999
0.87699997 0.15700001 -0.40900001 0 0 0 0 0.055550002
0.88 0.15899999 -0.412 0 0 0 0 0.05556
0.87800002 0.161 -0.414 0 0 0 0 0.055569999
1.008 0.186 -0.47799999 0 0 0 0 0.055580001
1.795 0.336 -0.85600001 63 0 0 0 0.05559
1.7869999 0.338 -0.85699999 86 0 0 0 0.055599999
1.707 0.32600001 -0.82300001 127 0 0 0 0.055610001
1.763 0.34 -0.85500002 23 0 0 0 0.05562
1.76 0.34299999 -0.85799998 36 0 0 0 0.055629998
1.756 0.345 -0.86000001 38 0 0 0 0.055640001
1.743 0.34599999 -0.85900003 37 0 0 0 0.05565
1.735 0.34799999 -0.85900003 42 0 0 0 0.055659998
1.727 0.34999999 -0.86000001 41 0 0 0 0.055670001
1.717 0.35100001 -0.85900003 40 0 0 0 0.055679999
1.706 0.352 -0.85799998 44 0 0 0 0.055690002
1.7 0.354 -0.85900003 42 0 0 0 0.0557
1.692 0.35600001 -0.86000001 44 0 0 0 0.055709999
1.683 0.35800001 -0.85900003 44 0 0 0 0.055720001
1.675 0.359 -0.85900003 44 0 0 0 0.05573
1.666 0.361 -0.85900003 43 0 0 0 0.055739999
1.659 0.36300001 -0.85900003 45 0 0 0 0.055750001
1.652 0.36399999 -0.85900003 42 0 0 0 0.05576
1.638 0.36500001 -0.85600001 42 0 0 0 0.055769999
1.6339999 0.36700001 -0.85799998 44 0 0 0 0.055780001
1.636 0.37099999 -0.86299998 13 0 0 0 0.05579
1.6210001 0.37099999 -0.85900003 51 0 0 0 0.055799998
1.62 0.37400001 -0.86199999 13 0 0 0 0.055810001
1.614 0.37599999 -0.86199999 13 0 0 0 0.055819999
1.607 0.37799999 -0.86199999 11 0 0 0 0.055830002
1.601 0.38 -0.86299998 11 0 0 0 0.055840001
1.5930001 0.38100001 -0.861 11 0 0 0 0.055849999
1.589 0.38299999 -0.86299998 13 0 0 0 0.055860002
1.584 0.38499999 -0.86400002 13 0 0 0 0.05587
1.575 0.38600001 -0.86199999 13 0 0 0 0.055879999
1.5650001 0.38699999 -0.86000001 13 0 0 0 0.055890001
1.563 0.38999999 -0.86199999 13 0 0 0 0.0559
1.5599999 0.39300001 -0.86299998 13 0 0 0 0.055909999
1.553 0.39399999 -0.86299998 13 0 0 0 0.055920001
1.55 0.39700001 -0.86400002 13 0 0 0 0.05593
1.541 0.398 -0.86199999 12 0 0 0 0.055939998
1.536 0.39899999 -0.86199999 13 0 0 0 0.055950001
1.5319999 0.40200001 -0.86299998 13 0 0 0 0.05596
1.522 0.40200001 -0.86000001 12 0 0 0 0.055969998
1.52 0.405 -0.861 13 0 0 0 0.055980001
1.518 0.40799999 -0.86299998 13 0 0 0 0.055989999
1.5140001 0.40900001 -0.86299998 13 0 0 0 0.056000002
1.51 0.412 -0.86299998 13 0 0 0 0.05601
1.502 0.41299999 -0.86199999 13 0 0 0 0.056019999
1.502 0.41600001 -0.86400002 13 0 0 0 0.056030001
1.492 0.41600001 -0.861 13 0 0 0 0.05604
1.488 0.41800001 -0.861 13 0 0 0 0.056049999
1.492 0.42199999 -0.86500001 13 0 0 0 0.056060001
1.483 0.42300001 -0.86199999 13 0 0 0 0.05607
1.474 0.42300001 -0.85900003 13 0 0 0 0.056079999
1.469 0.42500001 -0.85799998 13 0 0 0 0.056090001
1.466 0.42699999 -0.85900003 13 0 0 0 0.0561
1.465 0.43000001 -0.86000001 26 0 0 0 0.056109998
1.4630001 0.43200001 -0.86000001 26 0 0 0 0.056120001
1.46 0.43399999 -0.86000001 27 0 0 0 0.056129999
1.45 0.43399999 -0.85600001 23 0 0 0 0.056139998
1.447 0.43599999 -0.85600001 22 0 0 0 0.056150001
1.447 0.43900001 -0.85799998 22 0 0 0 0.056159999
1.4450001 0.44100001 -0.85799998 22 0 0 0 0.056170002
1.442 0.44299999 -0.85799998 21 0 0 0 0.05618
1.4400001 0.44499999 -0.85799998 21 0 0 0 0.056189999
1.434 0.447 -0.85600001 58 0 0 0 0.056200001
1.4299999 0.44800001 -0.85500002 58 0 0 0 0.05621
1.426 0.44999999 -0.85399997 60 0 0 0 0.056219999
1.4299999 0.454 -0.85699999 63 0 0 0 0.056230001
1.426 0.45500001 -0.85600001 60 0 0 0 0.05624
1.421 0.456 -0.85399997 60 0 0 0 0.056249999
1.419 0.458 -0.85399997 60 0 0 0 0.056260001
1.418 0.46000001 -0.85399997 61 0 0 0 0.05627
1.418 0.463 -0.85500002 61 0 0 0 0.056279998
1.416 0.465 -0.85500002 63 0 0 0 0.056290001
1.416 0.46799999 -0.85500002 64 0 0 0 0.056299999
1.4119999 0.46900001 -0.85299999 65 0 0 0 0.056310002
1.414 0.472 -0.85500002 64 0 0 0 0.05632
1.414 0.47400001 -0.85500002 66 0 0 0 0.056329999
1.411 0.47600001 -0.85399997 68 0 0 0 0.056340002
1.4119999 0.47799999 -0.85500002 65 0 0 0 0.05635
1.409 0.47999999 -0.85399997 63 0 0 0 0.056359999
1.411 0.48300001 -0.85500002 67 0 0 0 0.056370001
1.41 0.48500001 -0.85500002 63 0 0 0 0.05638
1.413 0.48800001 -0.85699999 65 0 0 0 0.056389999
1.409 0.48899999 -0.85399997 65 0 0 0 0.056400001
1.4119999 0.493 -0.85600001 63 0 0 0 0.05641
1.4119999 0.495 -0.85600001 65 0 0 0 0.056419998
1.415 0.498 -0.85799998 65 0 0 0 0.056430001
1.416 0.5 -0.85799998 68 0 0 0 0.056439999
1.415 0.50199997 -0.85699999 64 0 0 0 0.056449998
1.415 0.50400001 -0.85600001 63 0 0 0 0.056460001
1.419 0.50800002 -0.85799998 62 0 0 0 0.056469999
1.419 0.50999999 -0.85799998 61 0 0 0 0.056480002
1.419 0.51200002 -0.85699999 61 0 0 0 0.05649
1.421 0.51499999 -0.85799998 59 0 0 0 0.056499999
1.423 0.51700002 -0.85799998 62 0 0 0 0.056510001
1.423 0.51899999 -0.85699999 60 0 0 0 0.05652
1.426 0.52200001 -0.85799998 63 0 0 0 0.056529999
1.426 0.52399999 -0.85699999 67 0 0 0 0.056540001
1.433 0.528 -0.861 63 0 0 0 0.05655
1.427 0.528 -0.85600001 58 0 0 0 0.056559999
1.429 0.52999997 -0.85600001 54 0 0 0 0.056570001
1.4349999 0.53399998 -0.85799998 56 0 0 0 0.05658
1.437 0.537 -0.85799998 54 0 0 0 0.056589998
1.438 0.53799999 -0.85699999 54 0 0 0 0.056600001
1.444 0.542 -0.86000001 56 0 0 0 0.056609999
1.443 0.54299998 -0.85699999 55 0 0 0 0.056620002
1.451 0.54799998 -0.86000001 56 0 0 0 0.05663
1.452 0.54900002 -0.85900003 58 0 0 0 0.056639999
1.455 0.55199999 -0.85900003 59 0 0 0 0.056650002
1.457 0.55400002 -0.85900003 56 0 0 0 0.05666
1.46 0.55599999 -0.85900003 58 0 0 0 0.056669999
1.466 0.56 -0.86000001 52 0 0 0 0.056680001
1.469 0.56199998 -0.861 53 0 0 0 0.05669
1.474 0.565 -0.861 54 0 0 0 0.056699999
1.475 0.56599998 -0.85900003 53 0 0 0 0.056710001
1.478 0.56900001 -0.85900003 60 0 0 0 0.05672
1.483 0.57200003 -0.86000001 53 0 0 0 0.056729998
1.49 0.57499999 -0.861 55 0 0 0 0.056740001
1.493 0.57700002 -0.861 49 0 0 0 0.05675
1.497 0.57999998 -0.861 46 0 0 0 0.056759998
1.5 0.58200002 -0.86000001 47 0 0 0 0.056770001
1.495 0.58099997 -0.85399997 54 0 0 0 0.056779999
1.48 0.57499999 -0.84299999 76 0 0 0 0.056790002
1.4529999 0.56599998 -0.82499999 99 0 0 0 0.0568
1.475 0.57499999 -0.83499998 135 0 0 0 0.056809999
1.4630001 0.56999999 -0.82599998 147 0 0 0 0.056820001
1.448 0.565 -0.81400001 150 0 0 0 0.05683
1.4299999 0.55800003 -0.801 150 0 0 0 0.056839999
1.413 0.55199999 -0.78899997 148 0 0 0 0.056850001
1.399 0.54699999 -0.77899998 128 0 0 0 0.05686
1.3789999 0.53899997 -0.764 115 0 0 0 0.056869999
1.352 0.52899998 -0.74699998 113 0 0 0 0.056880001
1.326 0.51899999 -0.73000002 100 0 0 0 0.05689
1.3049999 0.51099998 -0.71499997 102 0 0 0 0.056899998
1.283 0.50199997 -0.69999999 90 0 0 0 0.056910001
1.2589999 0.493 -0.68400002 81 0 0 0 0.056919999
1.239 0.48500001 -0.671 80 0 0 0 0.056930002
1.2180001 0.477 -0.65700001 66 0 0 0 0.056940001
1.209 0.47299999 -0.64899999 58 0 0 0 0.056949999
1.196 0.46799999 -0.639 50 0 0 0 0.056960002
1.194 0.46700001 -0.63599998 64 0 0 0 0.05697
1.184 0.463 -0.62699997 52 0 0 0 0.056979999
1.181 0.461 -0.62300003 59 0 0 0 0.056990001
1.182 0.461 -0.62 47 0 0 0 0.057
1.183 0.46200001 -0.61799997 36 0 0 0 0.057009999
1.183 0.461 -0.61500001 37 0 0 0 0.057020001
1.1849999 0.46200001 -0.61400002 42 0 0 0 0.05703
1.188 0.46200001 -0.61199999 57 0 0 0 0.057039998
1.1950001 0.465 -0.61299998 60 0 0 0 0.057050001
1.202 0.46700001 -0.61299998 60 0 0 0 0.05706
1.21 0.46900001 -0.61400002 61 0 0 0 0.057069998
1.223 0.47400001 -0.61799997 63 0 0 0 0.057080001
1.238 0.479 -0.62199998 75 0 0 0 0.057089999
1.2690001 0.49000001 -0.634 85 0 0 0 0.057100002
1.298 0.50099999 -0.64499998 33 0 0 0 0.05711
1.349 0.51999998 -0.667 42 0 0 0 0.057119999
1.408 0.54100001 -0.69300002 51 0 0 0 0.057130001
1.4960001 0.574 -0.73100001 62 0 0 0 0.05714
1.576 0.60399997 -0.76599997 87 0 0 0 0.057149999
1.626 0.62199998 -0.78600001 95 0 0 0 0.057160001
1.674 0.639 -0.80500001 102 0 0 0 0.05717
1.711 0.65100002 -0.81800002 98 0 0 0 0.057179999
1.745 0.66299999 -0.829 75 0 0 0 0.057190001
1.7869999 0.67699999 -0.84500003 40 0 0 0 0.0572
1.8279999 0.69199997 -0.85900003 28 0 0 0 0.057209998
1.8660001 0.704 -0.87099999 18 0 0 0 0.057220001
1.878 0.70700002 -0.87199998 31 0 0 0 0.057229999
1.9 0.71399999 -0.87699997 30 0 0 0 0.057240002
1.911 0.71600002 -0.87599999 30 0 0 0 0.057250001
1.924 0.71899998 -0.87699997 31 0 0 0 0.057259999
1.9349999 0.72100002 -0.87599999 31 0 0 0 0.057270002
1.948 0.72299999 -0.87699997 29 0 0 0 0.05728
1.9630001 0.727 -0.87800002 29 0 0 0 0.057289999
1.974 0.72899997 -0.87699997 29 0 0 0 0.057300001
1.988 0.73199999 -0.87800002 29 0 0 0 0.05731
2.006 0.736 -0.87900001 29 0 0 0 0.057319999
2.0190001 0.73799998 -0.87900001 29 0 0 0 0.057330001
2.036 0.74199998 -0.88099998 29 0 0 0 0.05734
2.0439999 0.74299997 -0.87900001 28 0 0 0 0.057349999
2.0650001 0.74800003 -0.88099998 29 0 0 0 0.057360001
2.0810001 0.75099999 -0.88300002 29 0 0 0 0.05737
2.098 0.75400001 -0.884 29 0 0 0 0.057379998
2.1099999 0.75599998 -0.88300002 30 0 0 0 0.057390001
2.128 0.75999999 -0.884 29 0 0 0 0.057399999
2.1459999 0.76300001 -0.88499999 29 0 0 0 0.057410002
2.145 0.75999999 -0.87800002 28 0 0 0 0.05742
2.165 0.764 -0.88 150 0 0 0 0.057429999
2.188 0.76899999 -0.88300002 150 0 0 0 0.057440002
1.135 0.39700001 -0.45500001 1 0 0 0 0.05745
1.1339999 0.39500001 -0.45100001 1 0 0 0 0.057459999
1.107 0.384 -0.43700001 0 0 0 0 0.057470001
1.108 0.38299999 -0.43399999 0 0 0 0 0.05748
1.092 0.375 -0.42500001 0 0 0 0 0.057489999
1.102 0.377 -0.42500001 0 0 0 0 0.057500001
1.112 0.37900001 -0.426 0 0 0 0 0.05751
1.097 0.37200001 -0.417 0 0 0 0 0.057519998
1.087 0.36700001 -0.41 0 0 0 0 0.057530001
1.1 0.37 -0.412 0 0 0 0 0.057539999
1.1059999 0.37 -0.41100001 0 0 0 0 0.057549998
1.112 0.37 -0.41 0 0 0 0 0.057560001
1.094 0.36300001 -0.40000001 0 0 0 0 0.057569999
1.12 0.36899999 -0.40599999 0 0 0 0 0.057580002
1.14 0.37400001 -0.41 0 0 0 0 0.05759
1.14 0.37200001 -0.40700001 0 0 0 0 0.057599999
1.15 0.373 -0.40700001 0 0 0 0 0.057610001
1.178 0.38 -0.41299999 0 0 0 0 0.05762
1.174 0.377 -0.40900001 0 0 0 0 0.057629999
1.196 0.382 -0.41299999 1 0 0 0 0.057640001
1.204 0.38299999 -0.412 1 0 0 0 0.05765
1.21 0.382 -0.41100001 1 0 0 0 0.057659999
1.215 0.382 -0.40900001 1 0 0 0 0.057670001
1.224 0.382 -0.40799999 1 0 0 0 0.05768
1.228 0.38100001 -0.40599999 1 0 0 0 0.057689998
1.233 0.38100001 -0.40400001 2 0 0 0 0.057700001
1.2359999 0.37900001 -0.40200001 2 0 0 0 0.057709999
1.2460001 0.38 -0.40099999 3 0 0 0 0.057720002
1.2460001 0.37799999 -0.398 2 0 0 0 0.05773
1.249 0.37599999 -0.39500001 2 0 0 0 0.057739999
1.252 0.375 -0.39300001 2 0 0 0 0.057750002
1.256 0.37400001 -0.38999999 2 0 0 0 0.05776
1.258 0.37200001 -0.38800001 2 0 0 0 0.057769999
1.261 0.37 -0.38499999 2 0 0 0 0.057780001
1.2640001 0.36899999 -0.382 2 0 0 0 0.05779
1.27 0.368 -0.38 2 0 0 0 0.057799999
1.275 0.36700001 -0.37799999 2 0 0 0 0.057810001
1.276 0.36500001 -0.375 2 0 0 0 0.05782
1.28 0.36300001 -0.37200001 2 0 0 0 0.057829998
1.285 0.36199999 -0.37 2 0 0 0 0.057840001
1.281 0.35800001 -0.366 2 0 0 0 0.05785
1.288 0.35800001 -0.36399999 2 0 0 0 0.057859998
1.29 0.35600001 -0.361 2 0 0 0 0.057870001
1.2920001 0.354 -0.35800001 2 0 0 0 0.057879999
1.296 0.352 -0.35600001 2 0 0 0 0.057890002
1.303 0.352 -0.354 2 0 0 0 0.0579
1.298 0.34799999 -0.34900001 2 0 0 0 0.057909999
1.3049999 0.347 -0.347 2 0 0 0 0.057920001
1.306 0.34400001 -0.34400001 2 0 0 0 0.05793
1.312 0.34299999 -0.34200001 2 0 0 0 0.057939999
1.317 0.34200001 -0.34 2 0 0 0 0.057950001
1.314 0.338 -0.336 2 0 0 0 0.05796
1.323 0.338 -0.33399999 2 0 0 0 0.057969999
1.327 0.336 -0.33199999 2 0 0 0 0.057980001
1.325 0.333 -0.32800001 2 0 0 0 0.05799
1.33 0.331 -0.32499999 1 0 0 0 0.057999998
1.331 0.329 -0.322 2 0 0 0 0.058010001
1.334 0.32699999 -0.31900001 2 0 0 0 0.058019999
1.3380001 0.32499999 -0.317 2 0 0 0 0.058030002
1.344 0.32300001 -0.315 2 0 0 0 0.05804
1.35 0.322 -0.31200001 2 0 0 0 0.058049999
1.351 0.31900001 -0.30899999 2 0 0 0 0.058060002
1.353 0.317 -0.30599999 2 0 0 0 0.05807
1.354 0.31400001 -0.303 2 0 0 0 0.058079999
1.353 0.31099999 -0.29899999 2 0 0 0 0.058090001
1.368 0.31099999 -0.29899999 2 0 0 0 0.0581
1.369 0.30899999 -0.29499999 2 0 0 0 0.058109999
1.367 0.30500001 -0.29100001 1 0 0 0 0.058120001
1.375 0.30399999 -0.28999999 2 0 0 0 0.05813
1.377 0.301 -0.287 1 0 0 0 0.058139998
1.378 0.29800001 -0.28299999 1 0 0 0 0.058150001
1.387 0.29699999 -0.28200001 2 0 0 0 0.05816
1.387 0.294 -0.278 1 0 0 0 0.058169998
1.388 0.29100001 -0.27500001 1 0 0 0 0.058180001
1.393 0.289 -0.27200001 1 0 0 0 0.058189999
1.398 0.287 -0.27000001 1 0 0 0 0.058200002
1.4 0.28400001 -0.266 2 0 0 0 0.05821
1.4069999 0.28299999 -0.264 1 0 0 0 0.058219999
1.402 0.27900001 -0.25999999 2 0 0 0 0.058230001
1.4119999 0.27700001 -0.25799999 1 0 0 0 0.05824
1.409 0.27399999 -0.25400001 2 0 0 0 0.058249999
1.416 0.27200001 -0.252 2 0 0 0 0.058260001
1.421 0.26899999 -0.249 2 0 0 0 0.05827
1.4220001 0.266 -0.24600001 2 0 0 0 0.058279999
1.426 0.264 -0.243 2 0 0 0 0.058290001
1.4299999 0.26100001 -0.23999999 4 0 0 0 0.0583
1.4349999 0.259 -0.23800001 5 0 0 0 0.058309998
1.431 0.255 -0.233 6 0 0 0 0.058320001
1.429 0.252 -0.23 5 0 0 0 0.058329999
1.436 0.249 -0.227 3 0 0 0 0.058340002
1.438 0.24600001 -0.22400001 2 0 0 0 0.058350001
1.443 0.244 -0.221 1 0 0 0 0.058359999
4.0970001 0.68400002 -0.62 0 0 0 0 0.058370002
4.0159998 0.66100001 -0.59799999 4 0 0 0 0.05838
4.0489998 0.65700001 -0.59299999 6 0 0 0 0.058389999
4.0819998 0.653 -0.588 1 0 0 0 0.058400001
4.0359998 0.63700002 -0.57200003 1 0 0 0 0.05841
4 0.62199998 -0.55699998 0 0 0 0 0.058419999
4.0240002 0.616 -0.551 0 0 0 0 0.058430001
3.842 0.579 -0.51700002 0 0 0 0 0.05844
0.69700003 0.103 -0.092 0 0 0 0 0.058449998
0.70300001 0.102 -0.090999998 0 0 0 0 0.058460001
0.70700002 0.101 -0.090000004 0 0 0 0 0.05847
0.69599998 0.097999997 -0.086999997 0 0 0 0 0.058479998
0.69700003 0.096000001 -0.085000001 0 0 0 0 0.058490001
0.70899999 0.097000003 -0.085000001 0 0 0 0 0.058499999
0.67699999 0.090999998 -0.079999998 0 0 0 0 0.058510002
0.68599999 0.090000004 -0.079000004 0 0 0 0 0.05852
0.68300003 0.088 -0.077 0 0 0 0 0.058529999
0.68000001 0.086000003 -0.075000003 0 0 0 0 0.058540002
0.68000001 0.085000001 -0.074000001 0 0 0 0 0.05855
0.67799997 0.082999997 -0.071999997 0 0 0 0 0.058559999
0.66399997 0.079000004 -0.068999998 0 0 0 0 0.058570001
0.66000003 0.077 -0.067000002 0 0 0 0 0.05858
0.66500002 0.075999998 -0.066 0 0 0 0 0.058589999
0.66000003 0.074000001 -0.064000003 0 0 0 0 0.058600001
0.66000003 0.072999999 -0.063000001 0 0 0 0 0.05861
0.65700001 0.071000002 -0.061000001 0 0 0 0 0.058619998
0.65700001 0.068999998 -0.059 0 0 0 0 0.058630001
0.66100001 0.068000004 -0.057999998 0 0 0 0 0.058639999
0.65499997 0.066 -0.056000002 0 0 0 0 0.058649998
0.65499997 0.064000003 -0.055 0 0 0 0 0.058660001
0.66000003 0.063000001 -0.054000001 0 0 0 0 0.058669999
0.66500002 0.061999999 -0.052999999 0 0 0 0 0.058680002
0.68000001 0.061999999 -0.052000001 0 0 0 0 0.05869
0.67699999 0.059999999 -0.050999999 0 0 0 0 0.058699999
4.1960001 0.36300001 -0.308 0 0 0 0 0.058710001
4.1469998 0.34900001 -0.29499999 0 0 0 0 0.05872
4.2020001 0.34299999 -0.28999999 2 0 0 0 0.058729999
4.1999998 0.333 -0.28099999 2 0 0 0 0.058740001
4.2059999 0.32300001 -0.27200001 1 0 0 0 0.05875
0 0 0 0 0 0 0 0.058759999
0 0 0 0 0 0 0 0.058770001
1.561 0.108 -0.090000004 0 0 0 0 0.05878
1.524 0.102 -0.085000001 0 0 0 0 0.058789998
1.544 0.098999999 -0.082999997 0 0 0 0 0.058800001
1.2589999 0.078000002 -0.064999998 0 0 0 0 0.058809999
1.334 0.079000004 -0.066 0 0 0 0 0.058820002
1.5880001 0.090999998 -0.075000003 1 0 0 0 0.05883
1.631 0.089000002 -0.074000001 1 0 0 0 0.058839999
1.642 0.086000003 -0.071000002 1 0 0 0 0.058850002
1.663 0.082999997 -0.068000004 1 0 0 0 0.05886
1.675 0.079000004 -0.064999998 1 0 0 0 0.058869999
1.666 0.075000003 -0.061000001 1 0 0 0 0.058880001
1.691 0.071999997 -0.059 1 0 0 0 0.05889
1.7 0.068000004 -0.055 1 0 0 0 0.058899999
1.709 0.064000003 -0.052000001 1 0 0 0 0.058910001
1.714 0.059999999 -0.048999999 1 0 0 0 0.05892
1.725 0.056000002 -0.045000002 1 0 0 0 0.058929998
1.726 0.052000001 -0.041999999 1 0 0 0 0.058940001
1.733 0.048 -0.037999999 1 0 0 0 0.05895
1.743 0.043000001 -0.035 1 0 0 0 0.058959998
1.752 0.039000001 -0.032000002 1 0 0 0 0.058970001
1.755 0.035 -0.028000001 1 0 0 0 0.058979999
1.7640001 0.030999999 -0.024 1 0 0 0 0.058990002
1.775 0.026000001 -0.021 1 0 0 0 0.059
1.778 0.022 -0.017000001 9 0 0 0 0.059009999
1.789 0.017999999 -0.014 1 0 0 0 0.059020001
1.802 0.013 -0.0099999998 1 0 0 0 0.05903
1.806 0.0089999996 -0.0070000002 1 0 0 0 0.059039999
1.802 0.0040000002 -0.003 2 0 0 0 0.059050001
1.702 0 0 7 0 0 0 0.05906
1.472 -0.003 0.003 6 0 0 0 0.059069999
1.3660001 -0.0060000001 0.0049999999 1 0 0 0 0.059080001
1.71 -0.012 0.0099999998 2 0 0 0 0.05909
1.7920001 -0.017999999 0.014 1 0 0 0 0.059099998
1.839 -0.023 0.017999999 1 0 0 0 0.059110001
1.428 -0.021 0.017000001 6 0 0 0 0.059119999
1.415 -0.025 0.02 0 0 0 0 0.059130002
1.41 -0.028000001 0.022 0 0 0 0 0.05914
1.369 -0.030999999 0.024 0 0 0 0 0.059149999
1.357 -0.034000002 0.027000001 1 0 0 0 0.059160002
1.3430001 -0.037 0.028999999 0 0 0 0 0.05917
3.7520001 -0.114 0.090000004 5 0 0 0 0.059179999
3.727 -0.123 0.097000003 79 0 0 0 0.059190001
3.7320001 -0.133 0.104 6 0 0 0 0.0592
4.0430002 -0.154 0.121 6 0 0 0 0.059209999
3.8329999 -0.156 0.122 4 0 0 0 0.059220001
4.2119999 -0.183 0.142 4 0 0 0 0.05923
4.277 -0.197 0.153 33 0 0 0 0.059239998
4.2779999 -0.208 0.161 88 0 0 0 0.059250001
4.2729998 -0.219 0.169 90 0 0 0 0.05926
4.2690001 -0.23 0.177 92 0 0 0 0.059269998
4.2589998 -0.23999999 0.185 92 0 0 0 0.059280001
4.25 -0.25099999 0.193 102 0 0 0 0.059289999
4.2280002 -0.25999999 0.2 138 0 0 0 0.059300002
4.2189999 -0.271 0.208 144 0 0 0 0.05931
4.2140002 -0.28200001 0.21600001 119 0 0 0 0.059319999
4.2069998 -0.292 0.223 105 0 0 0 0.059330001
4.204 -0.303 0.23100001 96 0 0 0 0.05934
4.1960001 -0.31299999 0.23800001 98 0 0 0 0.059349999
4.1810002 -0.32300001 0.24600001 95 0 0 0 0.059360001
4.1750002 -0.33399999 0.25299999 97 0 0 0 0.05937
4.164 -0.34400001 0.25999999 95 0 0 0 0.059379999
4.1630001 -0.35499999 0.26800001 94 0 0 0 0.059390001
4.1479998 -0.36500001 0.27500001 94 0 0 0 0.0594
4.1399999 -0.375 0.28200001 93 0 0 0 0.059409998
1.997 -0.186 0.14 1 0 0 0 0.059420001
2.0079999 -0.193 0.14399999 47 0 0 0 0.059429999
0 0 0 0 0 0 0 0.059440002
2.0020001 -0.20299999 0.15099999 150 0 0 0 0.059450001
1.998 -0.208 0.155 150 0 0 0 0.059459999
1.994 -0.213 0.15800001 150 0 0 0 0.059470002
1.9910001 -0.21799999 0.161 150 0 0 0 0.05948
1.985 -0.222 0.16500001 150 0 0 0 0.059489999
1.982 -0.228 0.168 150 0 0 0 0.059500001
1.976 -0.23199999 0.171 150 0 0 0 0.05951
1.974 -0.237 0.175 150 0 0 0 0.059519999
1.97 -0.242 0.178 150 0 0 0 0.059530001
1.961 -0.24600001 0.18099999 150 0 0 0 0.05954
1.959 -0.252 0.184 150 0 0 0 0.059549998
1.9579999 -0.257 0.18700001 150 0 0 0 0.059560001
1.946 -0.26100001 0.19 151 0 0 0 0.05957
1.9450001 -0.266 0.193 150 0 0 0 0.059579998
1.946 -0.271 0.197 150 0 0 0 0.059590001
1.9349999 -0.27500001 0.199 150 0 0 0 0.059599999
1.919 -0.278 0.20100001 47 0 0 0 0.059610002
1.904 -0.28099999 0.20299999 19 0 0 0 0.05962
1.895 -0.285 0.205 15 0 0 0 0.059629999
1.8890001 -0.28999999 0.208 14 0 0 0 0.059640002
1.883 -0.294 0.211 16 0 0 0 0.05965
1.882 -0.29899999 0.214 15 0 0 0 0.059659999
1.882 -0.30399999 0.21699999 11 0 0 0 0.059670001
1.9069999 -0.31400001 0.223 9 0 0 0 0.05968
1.933 -0.32300001 0.23 10 0 0 0 0.059689999
1.9579999 -0.333 0.236 9 0 0 0 0.059700001
1.961 -0.33899999 0.23999999 5 0 0 0 0.05971
1.96 -0.34400001 0.243 4 0 0 0 0.059719998
1.937 -0.34599999 0.244 10 0 0 0 0.059730001
1.925 -0.34900001 0.24600001 21 0 0 0 0.059739999
1.916 -0.35299999 0.248 39 0 0 0 0.059749998
1.927 -0.36000001 0.25299999 12 0 0 0 0.059760001
1.916 -0.36399999 0.25400001 48 0 0 0 0.059769999
1.919 -0.37 0.25799999 49 0 0 0 0.059780002
1.92 -0.37599999 0.26199999 41 0 0 0 0.05979
1.916 -0.38 0.264 25 0 0 0 0.059799999
1.9119999 -0.38499999 0.26699999 21 0 0 0 0.059810001
1.92 -0.39199999 0.271 8 0 0 0 0.05982
1.91 -0.396 0.273 21 0 0 0 0.059829999
1.913 -0.40200001 0.27700001 29 0 0 0 0.059840001
1.915 -0.40799999 0.28 150 0 0 0 0.05985
0 0 0 0 0 0 0 0.059859999
0 0 0 0 0 0 0 0.059870001
0 0 0 0 0 0 0 0.05988
0 0 0 0 0 0 0 0.059889998
1.946 -0.44299999 0.301 6 0 0 0 0.059900001
1.9450001 -0.449 0.30399999 7 0 0 0 0.059909999
1.932 -0.45100001 0.30500001 5 0 0 0 0.059920002
1.911 -0.45199999 0.30500001 4 0 0 0 0.05993
1.904 -0.456 0.30700001 6 0 0 0 0.059939999
1.898 -0.46000001 0.30899999 7 0 0 0 0.059950002
1.892 -0.46399999 0.31099999 4 0 0 0 0.05996
1.897 -0.47099999 0.315 6 0 0 0 0.059969999
1.898 -0.477 0.31799999 11 0 0 0 0.059980001
1.904 -0.484 0.322 10 0 0 0 0.05999
1.902 -0.49000001 0.32499999 8 0 0 0 0.059999999
1.908 -0.49700001 0.32800001 7 0 0 0 0.060010001
1.911 -0.50300002 0.33199999 4 0 0 0 0.06002
1.921 -0.51200002 0.33700001 0 0 0 0 0.060029998
1.899 -0.51200002 0.336 0 0 0 0 0.060040001
0 0 0 0 0 0 0 0.06005
3.6159999 -0.99699998 0.65100002 150 0 0 0 0.060059998
3.6099999 -1.006 0.65499997 150 0 0 0 0.060070001
3.6059999 -1.016 0.66000003 150 0 0 0 0.060079999
3.5940001 -1.023 0.66299999 150 0 0 0 0.060090002
3.5880001 -1.0319999 0.66799998 87 0 0 0 0.0601
3.5810001 -1.041 0.67199999 141 0 0 0 0.060109999
3.575 -1.051 0.676 150 0 0 0 0.060120001
3.566 -1.059 0.67900002 150 0 0 0 0.06013
3.556 -1.067 0.68300003 150 0 0 0 0.060139999
3.55 -1.076 0.68699998 146 0 0 0 0.060150001
3.5350001 -1.082 0.68900001 89 0 0 0 0.06016
3.5209999 -1.089 0.69099998 66 0 0 0 0.060169999
1.7589999 -0.54900002 0.34799999 0 0 0 0 0.060180001
1.766 -0.55699998 0.352 1 0 0 0 0.06019
1.755 -0.55900002 0.352 2 0 0 0 0.060199998
1.745 -0.56099999 0.352 4 0 0 0 0.060210001
1.745 -0.56699997 0.35499999 2 0 0 0 0.060219999
1.75 -0.574 0.35800001 2 0 0 0 0.060230002
1.753 -0.57999998 0.361 1 0 0 0 0.06024
3.372 -1.127 0.69999999 0 0 0 0 0.060249999
1.7869999 -0.60299999 0.373 0 0 0 0 0.060260002
3.2709999 -1.114 0.68699998 7 0 0 0 0.06027
3.2720001 -1.124 0.69199997 12 0 0 0 0.060279999
3.2739999 -1.135 0.69700003 25 0 0 0 0.060290001
3.2709999 -1.145 0.69999999 33 0 0 0 0.0603
3.2550001 -1.149 0.70099998 34 0 0 0 0.060309999
3.2360001 -1.153 0.70099998 33 0 0 0 0.060320001
3.2249999 -1.159 0.70300001 34 0 0 0 0.06033
3.2030001 -1.161 0.70200002 33 0 0 0 0.060339998
3.184 -1.165 0.70200002 33 0 0 0 0.060350001
3.1689999 -1.169 0.70300001 33 0 0 0 0.06036
3.158 -1.175 0.704 33 0 0 0 0.060369998
3.1459999 -1.181 0.70499998 33 0 0 0 0.060380001
3.1240001 -1.182 0.704 32 0 0 0 0.060389999
3.102 -1.184 0.70300001 35 0 0 0 0.060400002
3.086 -1.188 0.70300001 35 0 0 0 0.06041
3.0439999 -1.182 0.69700003 36 0 0 0 0.060419999
2.717 -1.063 0.625 4 0 0 0 0.060430001
2.6389999 -1.041 0.61000001 3 0 0 0 0.06044
2.6259999 -1.044 0.61000001 3 0 0 0 0.060449999
2.6199999 -1.05 0.611 3 0 0 0 0.060460001
2.612 -1.056 0.61199999 3 0 0 0 0.06047
2.6029999 -1.0599999 0.61299998 3 0 0 0 0.060479999
2.596 -1.066 0.61400002 4 0 0 0 0.060490001
2.589 -1.071 0.61500001 4 0 0 0 0.0605
2.5810001 -1.076 0.616 4 0 0 0 0.060509998
2.582 -1.085 0.61900002 4 0 0 0 0.060520001
2.576 -1.091 0.62 4 0 0 0 0.060529999
2.5680001 -1.095 0.62099999 4 0 0 0 0.060540002
2.562 -1.101 0.62199998 4 0 0 0 0.060550001
2.5369999 -1.098 0.61799997 4 0 0 0 0.060559999
2.5050001 -1.092 0.61199999 8 0 0 0 0.060570002
1.5700001 -0.69 0.38499999 0 0 0 0 0.06058
1.562 -0.69099998 0.38499999 0 0 0 0 0.060589999
1.566 -0.69800001 0.38699999 1 0 0 0 0.060600001
1.556 -0.69800001 0.38600001 1 0 0 0 0.06061
1.5549999 -0.70300001 0.38699999 1 0 0 0 0.060619999
1.556 -0.708 0.389 1 0 0 0 0.060630001
1.5650001 -0.71700001 0.39199999 1 0 0 0 0.06064
1.8279999 -0.84399998 0.45899999 1 0 0 0 0.060649998
2.451 -1.1390001 0.61799997 7 0 0 0 0.060660001
2.4990001 -1.17 0.63200003 4 0 0 0 0.06067
2.4949999 -1.176 0.63300002 5 0 0 0 0.060679998
2.4879999 -1.1799999 0.63300002 14 0 0 0 0.060690001
2.4860001 -1.187 0.634 18 0 0 0 0.060699999
2.477 -1.191 0.634 18 0 0 0 0.060710002
2.471 -1.196 0.634 20 0 0 0 0.06072
2.4649999 -1.201 0.634 24 0 0 0 0.060729999
2.188 -1.073 0.56400001 150 0 0 0 0.060740001
2.45 -1.209 0.63300002 66 0 0 0 0.06075
1.595 -0.792 0.41299999 6 0 0 0 0.060759999
1.584 -0.79100001 0.41100001 5 0 0 0 0.060770001
1.587 -0.79799998 0.41299999 9 0 0 0 0.06078
1.5779999 -0.79799998 0.41100001 10 0 0 0 0.060789999
1.575 -0.801 0.41100001 11 0 0 0 0.060800001
1.569 -0.80299997 0.41 11 0 0 0 0.06081
1.561 -0.80299997 0.40900001 12 0 0 0 0.060819998
1.552 -0.80400002 0.40700001 12 0 0 0 0.060830001
1.551 -0.80800003 0.40799999 13 0 0 0 0.060839999
1.544 -0.80900002 0.40700001 13 0 0 0 0.060849998
1.544 -0.81400001 0.40700001 15 0 0 0 0.060860001
1.54 -0.81599998 0.40700001 13 0 0 0 0.060869999
1.5420001 -0.82200003 0.40799999 11 0 0 0 0.060880002
1.543 -0.82700002 0.40799999 6 0 0 0 0.06089
1.546 -0.833 0.41 2 0 0 0 0.060899999
1.563 -0.847 0.41499999 1 0 0 0 0.060910001
1.571 -0.85600001 0.417 2 0 0 0 0.06092
1.601 -0.87699997 0.42500001 3 0 0 0 0.060929999
1.603 -0.88200003 0.426 5 0 0 0 0.060940001
1.617 -0.89499998 0.43000001 1 0 0 0 0.06095
1.6109999 -0.89600003 0.42899999 6 0 0 0 0.060959999
1.6210001 -0.90600002 0.43200001 5 0 0 0 0.060970001
1.6210001 -0.91000003 0.43200001 3 0 0 0 0.06098
1.63 -0.92000002 0.43399999 2 0 0 0 0.060989998
1.65 -0.93599999 0.44 3 0 0 0 0.061000001
1.679 -0.95700002 0.447 12 0 0 0 0.061009999
1.673 -0.958 0.44600001 7 0 0 0 0.061020002
1.652 -0.95099998 0.44 3 0 0 0 0.06103
1.637 -0.94599998 0.43599999 2 0 0 0 0.061039999
1.8099999 -1.051 0.48199999 1 0 0 0 0.061050002
1.691 -0.98699999 0.44999999 1 0 0 0 0.06106
1.59 -0.93199998 0.42300001 1 0 0 0 0.061069999
1.918 -1.1289999 0.50999999 2 0 0 0 0.061080001
2.273 -1.344 0.60399997 5 0 0 0 0.06109
2.293 -1.3609999 0.60900003 4 0 0 0 0.061099999
2.3169999 -1.381 0.61500001 5 0 0 0 0.061110001
2.322 -1.39 0.616 5 0 0 0 0.06112
2.3210001 -1.3940001 0.61500001 6 0 0 0 0.061129998
2.3180001 -1.398 0.61299998 6 0 0 0 0.061140001
2.3150001 -1.402 0.61199999 6 0 0 0 0.061149999
2.3099999 -1.404 0.61000001 6 0 0 0 0.061159998
2.3099999 -1.41 0.60900003 6 0 0 0 0.061170001
2.309 -1.414 0.60699999 6 0 0 0 0.061179999
2.312 -1.421 0.60699999 6 0 0 0 0.061190002
2.302 -1.42 0.60299999 6 0 0 0 0.0612
2.3039999 -1.426 0.60299999 6 0 0 0 0.061209999
2.28 -1.416 0.59500003 8 0 0 0 0.061220001
2.2290001 -1.3890001 0.58099997 23 0 0 0 0.06123
2.184 -1.365 0.56800002 24 0 0 0 0.061239999
2.1760001 -1.364 0.56400001 23 0 0 0 0.061250001
2.2219999 -1.398 0.57499999 21 0 0 0 0.06126
2.273 -1.434 0.58700001 8 0 0 0 0.061269999
2.2909999 -1.45 0.58999997 6 0 0 0 0.061280001
2.296 -1.457 0.58899999 6 0 0 0 0.06129
2.2969999 -1.462 0.588 5 0 0 0 0.061299998
2.2950001 -1.465 0.58600003 5 0 0 0 0.061310001
2.2939999 -1.4680001 0.583 5 0 0 0 0.061319999
2.293 -1.471 0.58200002 6 0 0 0 0.061330002
2.29 -1.473 0.579 5 0 0 0 0.06134
2.286 -1.474 0.57599998 6 0 0 0 0.061349999
2.263 -1.462 0.56800002 13 0 0 0 0.061360002
2.277 -1.475 0.56999999 62 0 0 0 0.06137
2.2820001 -1.4809999 0.56900001 132 0 0 0 0.061379999
1.4299999 -0.93000001 0.35499999 96 0 0 0 0.061390001
1.428 -0.93099999 0.35299999 113 0 0 0 0.0614
1.418 -0.926 0.34900001 86 0 0 0 0.061409999
1.411 -0.92299998 0.34599999 67 0 0 0 0.061420001
1.408 -0.92299998 0.34400001 32 0 0 0 0.06143
1.404 -0.92199999 0.34099999 47 0 0 0 0.061439998
1.398 -0.92000002 0.338 84 0 0 0 0.061450001
1.398 -0.921 0.336 137 0 0 0 0.06146
1.397 -0.92199999 0.33500001 150 0 0 0 0.061469998
1.391 -0.91900003 0.33199999 150 0 0 0 0.061480001
1.388 -0.91900003 0.329 150 0 0 0 0.061489999
1.388 -0.92000002 0.32800001 150 0 0 0 0.061500002
1.386 -0.92000002 0.32499999 150 0 0 0 0.06151
1.388 -0.92199999 0.324 150 0 0 0 0.061519999
1.3839999 -0.92000002 0.32100001 150 0 0 0 0.061530001
1.3839999 -0.921 0.31999999 150 0 0 0 0.06154
1.386 -0.92299998 0.31799999 150 0 0 0 0.061549999
1.3839999 -0.92299998 0.31600001 150 0 0 0 0.061560001
1.386 -0.92400002 0.315 150 0 0 0 0.06157
1.3839999 -0.92400002 0.31200001 150 0 0 0 0.061579999
1.383 -0.92299998 0.31 150 0 0 0 0.061590001
1.383 -0.92400002 0.308 150 0 0 0 0.0616
1.38 -0.92299998 0.30599999 150 0 0 0 0.061609998
1.381 -0.92400002 0.30399999 150 0 0 0 0.061620001
1.381 -0.92400002 0.30199999 150 0 0 0 0.061629999
1.376 -0.92000002 0.29899999 150 0 0 0 0.061640002
1.376 -0.921 0.29699999 150 0 0 0 0.061650001
1.382 -0.92500001 0.296 150 0 0 0 0.061659999
1.386 -0.92699999 0.29499999 150 0 0 0 0.061670002
1.383 -0.92500001 0.292 150 0 0 0 0.06168
1.383 -0.92500001 0.28999999 150 0 0 0 0.061689999
1.378 -0.921 0.287 150 0 0 0 0.061700001
1.382 -0.92299998 0.28600001 150 0 0 0 0.06171
1.382 -0.92299998 0.28299999 150 0 0 0 0.061719999
1.383 -0.92299998 0.28099999 150 0 0 0 0.061730001
1.38 -0.921 0.27900001 150 0 0 0 0.06174
1.381 -0.92000002 0.27599999 150 0 0 0 0.061749998
1.386 -0.92299998 0.27500001 150 0 0 0 0.061760001
1.3839999 -0.921 0.273 150 0 0 0 0.06177
1.388 -0.92299998 0.271 150 0 0 0 0.061779998
1.388 -0.92199999 0.26899999 150 0 0 0 0.061790001
1.392 -0.92299998 0.26699999 120 0 0 0 0.061799999
1.395 -0.92400002 0.266 136 0 0 0 0.061810002
1.387 -0.91799998 0.26199999 115 0 0 0 0.06182
1.3890001 -0.91799998 0.25999999 115 0 0 0 0.061829999
1.386 -0.91500002 0.257 130 0 0 0 0.061840001
1.38 -0.91000003 0.25400001 129 0 0 0 0.06185
1.3660001 -0.89899999 0.249 63 0 0 0 0.061859999
1.413 -0.92900002 0.255 16 0 0 0 0.061870001
1.413 -0.92699999 0.25299999 12 0 0 0 0.06188
1.4119999 -0.92400002 0.25 10 0 0 0 0.061889999
1.409 -0.921 0.24699999 13 0 0 0 0.061900001
1.402 -0.91399997 0.243 14 0 0 0 0.06191
1.392 -0.90600002 0.23899999 15 0 0 0 0.061919998
1.387 -0.90100002 0.236 15 0 0 0 0.061930001
1.4 -0.90799999 0.236 17 0 0 0 0.061939999
1.425 -0.921 0.23800001 20 0 0 0 0.061949998
1.3839999 -0.89300001 0.229 48 0 0 0 0.061960001
1.382 -0.88999999 0.226 96 0 0 0 0.061969999
1.378 -0.88499999 0.223 150 0 0 0 0.061980002
1.377 -0.88200003 0.22 150 0 0 0 0.06199
1.3789999 -0.88099998 0.21799999 150 0 0 0 0.061999999
1.392 -0.88700002 0.21799999 150 0 0 0 0.062010001
1.392 -0.884 0.21600001 150 0 0 0 0.06202
1.399 -0.88700002 0.214 150 0 0 0 0.062029999
1.4069999 -0.889 0.213 150 0 0 0 0.062040001
1.4119999 -0.889 0.211 150 0 0 0 0.06205
1.4170001 -0.88999999 0.20999999 150 0 0 0 0.062059999
1.416 -0.88599998 0.207 150 0 0 0 0.062070001
1.4170001 -0.88499999 0.205 150 0 0 0 0.06208
1.419 -0.88300002 0.20299999 150 0 0 0 0.062089998
1.4220001 -0.88200003 0.20100001 150 0 0 0 0.062100001
1.42 -0.87800002 0.198 150 0 0 0 0.062109999
1.425 -0.87800002 0.197 150 0 0 0 0.062120002
1.423 -0.87300003 0.19400001 150 0 0 0 0.06213
1.428 -0.87300003 0.192 150 0 0 0 0.062139999
1.431 -0.87199998 0.19 150 0 0 0 0.062150002
1.432 -0.86900002 0.18799999 150 0 0 0 0.06216
1.436 -0.86799997 0.186 150 0 0 0 0.062169999
1.438 -0.866 0.184 150 0 0 0 0.062180001
1.437 -0.86199999 0.182 150 0 0 0 0.06219
1.437 -0.85900003 0.17900001 150 0 0 0 0.062199999
1.437 -0.85500002 0.177 150 0 0 0 0.062210001
1.438 -0.85299999 0.175 150 0 0 0 0.06222
1.447 -0.85399997 0.17399999 150 0 0 0 0.062229998
1.448 -0.85100001 0.17200001 150 0 0 0 0.062240001
1.448 -0.84799999 0.169 150 0 0 0 0.062249999
1.45 -0.84500003 0.167 150 0 0 0 0.062259998
1.455 -0.84399998 0.16599999 150 0 0 0 0.062270001
1.455 -0.84100002 0.163 150 0 0 0 0.062279999
1.457 -0.838 0.161 150 0 0 0 0.062290002
1.46 -0.83600003 0.16 150 0 0 0 0.0623
1.461 -0.83200002 0.15700001 150 0 0 0 0.062309999
1.461 -0.829 0.155 150 0 0 0 0.062320001
1.469 -0.829 0.154 150 0 0 0 0.06233
1.466 -0.82300001 0.15099999 150 0 0 0 0.062339999
1.471 -0.82200003 0.15000001 150 0 0 0 0.062350001
1.472 -0.81900001 0.148 150 0 0 0 0.06236
1.474 -0.81599998 0.146 150 0 0 0 0.062369999
1.476 -0.81300002 0.14399999 150 0 0 0 0.062380001
1.48 -0.81 0.142 150 0 0 0 0.06239
1.482 -0.80699998 0.14 150 0 0 0 0.062399998
1.484 -0.80400002 0.138 150 0 0 0 0.062410001
1.4859999 -0.801 0.13600001 150 0 0 0 0.062419999
1.488 -0.79799998 0.13500001 150 0 0 0 0.062430002
1.49 -0.79400003 0.133 150 0 0 0 0.06244
1.492 -0.79100001 0.131 150 0 0 0 0.062449999
1.495 -0.78799999 0.12899999 150 0 0 0 0.062460002
1.502 -0.78799999 0.12800001 150 0 0 0 0.06247
1.499 -0.78200001 0.125 150 0 0 0 0.062479999
1.5039999 -0.77899998 0.124 150 0 0 0 0.062490001
1.508 -0.77700001 0.122 150 0 0 0 0.0625
1.51 -0.77399999 0.12 150 0 0 0 0.062509999
1.512 -0.76999998 0.119 150 0 0 0 0.062519997
1.5140001 -0.76700002 0.117 150 0 0 0 0.062530003
