# .PCD v0.7 - Point Cloud Data file format
VERSION 0.7
FIELDS x y z intensity normal_x normal_y normal_z curvature
SIZE 4 4 4 4 4 4 4 4
TYPE F F F F F F F F
COUNT 1 1 1 1 1 1 1 1
WIDTH 1026
HEIGHT 1
VIEWPOINT 0 0 0 1 0 0 0
POINTS 1026
DATA ascii
1.216 0.175 0.082999997 134 0 0 0 0.0019
1.215 0.17900001 0.085000001 132 0 0 0 0.00191
1.214 0.182 0.086999997 119 0 0 0 0.00192
1.211 0.185 0.089000002 101 0 0 0 0.00193
1.212 0.189 0.090999998 120 0 0 0 0.00194
1.2130001 0.193 0.093000002 132 0 0 0 0.0019499999
1.211 0.19599999 0.093999997 123 0 0 0 0.00196
1.21 0.199 0.096000001 104 0 0 0 0.0019700001
1.212 0.20299999 0.097999997 119 0 0 0 0.0019799999
1.205 0.205 0.1 134 0 0 0 0.00199
1.209 0.20900001 0.102 114 0 0 0 0.0020000001
1.214 0.214 0.104 125 0 0 0 0.0020099999
1.206 0.21600001 0.106 145 0 0 0 0.00202
1.2079999 0.22 0.108 126 0 0 0 0.0020300001
1.206 0.223 0.11 122 0 0 0 0.0020399999
1.196 0.22400001 0.111 117 0 0 0 0.00205
1.2 0.229 0.113 137 0 0 0 0.0020600001
1.204 0.233 0.115 112 0 0 0 0.0020699999
1.2029999 0.236 0.117 112 0 0 0 0.00208
1.204 0.23999999 0.12 103 0 0 0 0.0020900001
1.2029999 0.243 0.121 107 0 0 0 0.0020999999
1.202 0.24600001 0.123 98 0 0 0 0.00211
1.201 0.25 0.125 111 0 0 0 0.0021200001
1.198 0.252 0.127 123 0 0 0 0.0021299999
1.199 0.25600001 0.12899999 102 0 0 0 0.00214
1.198 0.259 0.131 90 0 0 0 0.0021500001
1.1950001 0.26199999 0.133 81 0 0 0 0.0021599999
1.194 0.26499999 0.13500001 83 0 0 0 0.00217
1.196 0.26899999 0.13699999 83 0 0 0 0.0021800001
1.194 0.27200001 0.139 94 0 0 0 0.0021899999
1.193 0.27500001 0.141 84 0 0 0 0.0022
1.1950001 0.27900001 0.14300001 90 0 0 0 0.0022100001
1.188 0.28099999 0.145 94 0 0 0 0.0022199999
1.193 0.285 0.147 96 0 0 0 0.00223
1.192 0.28799999 0.149 78 0 0 0 0.0022400001
1.191 0.292 0.152 78 0 0 0 0.0022499999
1.1900001 0.29499999 0.154 104 0 0 0 0.00226
1.189 0.29800001 0.156 86 0 0 0 0.0022700001
1.193 0.30199999 0.15800001 81 0 0 0 0.0022799999
1.186 0.30399999 0.16 101 0 0 0 0.00229
1.1849999 0.30700001 0.162 84 0 0 0 0.0023000001
1.1849999 0.31 0.164 85 0 0 0 0.0023099999
1.188 0.31400001 0.16599999 69 0 0 0 0.00232
1.189 0.31799999 0.169 69 0 0 0 0.00233
1.189 0.32100001 0.171 68 0 0 0 0.0023399999
1.188 0.324 0.17299999 70 0 0 0 0.00235
1.187 0.32699999 0.175 74 0 0 0 0.00236
1.1849999 0.33000001 0.177 53 0 0 0 0.0023699999
1.184 0.333 0.17900001 60 0 0 0 0.00238
1.183 0.336 0.18099999 61 0 0 0 0.00239
1.182 0.33899999 0.184 86 0 0 0 0.0024000001
1.181 0.34200001 0.186 56 0 0 0 0.00241
1.182 0.34599999 0.18799999 80 0 0 0 0.00242
1.177 0.34799999 0.19 57 0 0 0 0.0024300001
1.1799999 0.352 0.193 66 0 0 0 0.00244
1.178 0.354 0.19499999 65 0 0 0 0.00245
1.176 0.35699999 0.197 65 0 0 0 0.0024600001
1.176 0.36000001 0.199 58 0 0 0 0.0024699999
1.177 0.36399999 0.20100001 57 0 0 0 0.00248
1.174 0.366 0.20299999 130 0 0 0 0.0024900001
1.174 0.37 0.206 135 0 0 0 0.0024999999
1.174 0.373 0.208 121 0 0 0 0.00251
1.178 0.377 0.211 112 0 0 0 0.0025200001
1.1720001 0.37799999 0.212 116 0 0 0 0.0025299999
1.176 0.38299999 0.21600001 120 0 0 0 0.00254
1.1720001 0.38499999 0.21699999 125 0 0 0 0.0025500001
1.174 0.389 0.22 106 0 0 0 0.0025599999
1.171 0.391 0.222 113 0 0 0 0.00257
1.171 0.39399999 0.22400001 105 0 0 0 0.0025800001
1.17 0.39700001 0.227 114 0 0 0 0.0025899999
1.171 0.40000001 0.229 99 0 0 0 0.0026
1.169 0.403 0.23199999 98 0 0 0 0.0026100001
1.166 0.405 0.233 90 0 0 0 0.0026199999
1.168 0.40799999 0.236 99 0 0 0 0.00263
1.165 0.41100001 0.23800001 97 0 0 0 0.0026400001
1.165 0.414 0.241 96 0 0 0 0.0026499999
1.163 0.41600001 0.243 106 0 0 0 0.00266
1.163 0.419 0.245 96 0 0 0 0.0026700001
1.166 0.42300001 0.249 82 0 0 0 0.0026799999
1.159 0.42399999 0.25 95 0 0 0 0.00269
1.158 0.426 0.252 93 0 0 0 0.0027000001
1.156 0.42899999 0.25400001 92 0 0 0 0.0027099999
1.159 0.433 0.257 126 0 0 0 0.00272
1.156 0.435 0.259 119 0 0 0 0.0027300001
1.155 0.43700001 0.26199999 109 0 0 0 0.0027399999
1.159 0.442 0.26499999 128 0 0 0 0.00275
1.1569999 0.44400001 0.26699999 97 0 0 0 0.0027600001
1.156 0.44600001 0.27000001 121 0 0 0 0.0027699999
1.155 0.449 0.27200001 113 0 0 0 0.00278
1.152 0.45100001 0.27399999 117 0 0 0 0.0027900001
1.153 0.454 0.27700001 109 0 0 0 0.0027999999
1.151 0.456 0.27900001 103 0 0 0 0.00281
1.151 0.45899999 0.28200001 119 0 0 0 0.0028200001
1.151 0.46200001 0.28400001 119 0 0 0 0.0028299999
1.149 0.46399999 0.287 135 0 0 0 0.00284
1.149 0.46599999 0.289 133 0 0 0 0.00285
1.147 0.46900001 0.292 119 0 0 0 0.0028599999
1.146 0.47099999 0.294 124 0 0 0 0.00287
1.148 0.47400001 0.29699999 134 0 0 0 0.00288
1.143 0.47499999 0.29800001 118 0 0 0 0.0028899999
1.1440001 0.47799999 0.301 137 0 0 0 0.0029
1.143 0.47999999 0.30399999 141 0 0 0 0.00291
1.142 0.48300001 0.30599999 144 0 0 0 0.0029200001
1.141 0.48500001 0.30899999 144 0 0 0 0.00293
1.1390001 0.48699999 0.31099999 128 0 0 0 0.00294
1.138 0.48899999 0.31299999 132 0 0 0 0.0029500001
1.136 0.491 0.31600001 120 0 0 0 0.00296
1.135 0.493 0.31799999 123 0 0 0 0.00297
1.133 0.495 0.31999999 117 0 0 0 0.0029800001
1.135 0.498 0.324 127 0 0 0 0.0029899999
1.131 0.49900001 0.32499999 136 0 0 0 0.003
1.132 0.50199997 0.32800001 112 0 0 0 0.0030100001
1.131 0.50400001 0.331 130 0 0 0 0.0030199999
1.13 0.50599998 0.333 142 0 0 0 0.00303
1.131 0.509 0.336 130 0 0 0 0.0030400001
1.128 0.50999999 0.338 128 0 0 0 0.0030499999
1.128 0.51200002 0.34099999 136 0 0 0 0.00306
1.124 0.51300001 0.34200001 134 0 0 0 0.0030700001
1.126 0.51499999 0.345 134 0 0 0 0.0030799999
1.131 0.51999998 0.34999999 147 0 0 0 0.00309
1.128 0.52100003 0.352 119 0 0 0 0.0031000001
1.122 0.52100003 0.35299999 130 0 0 0 0.0031099999
1.124 0.52399999 0.35600001 150 0 0 0 0.00312
1.119 0.52399999 0.35699999 146 0 0 0 0.0031300001
1.124 0.528 0.36199999 150 0 0 0 0.0031399999
1.1210001 0.52899998 0.36300001 150 0 0 0 0.00315
1.124 0.53200001 0.36700001 150 0 0 0 0.0031600001
1.122 0.53399998 0.36899999 150 0 0 0 0.0031699999
1.1210001 0.53500003 0.37200001 150 0 0 0 0.00318
1.124 0.53799999 0.375 150 0 0 0 0.0031900001
1.12 0.53799999 0.377 150 0 0 0 0.0031999999
1.122 0.54100001 0.38 150 0 0 0 0.00321
1.123 0.54400003 0.38299999 150 0 0 0 0.0032200001
1.119 0.54400003 0.38499999 150 0 0 0 0.0032299999
1.12 0.546 0.38800001 150 0 0 0 0.00324
1.119 0.54799998 0.38999999 150 0 0 0 0.0032500001
1.1160001 0.54799998 0.39199999 150 0 0 0 0.0032599999
1.117 0.55000001 0.39500001 150 0 0 0 0.00327
1.115 0.551 0.39700001 150 0 0 0 0.0032800001
1.113 0.55199999 0.39899999 150 0 0 0 0.0032899999
1.114 0.55400002 0.40200001 150 0 0 0 0.0033
1.115 0.55599999 0.405 150 0 0 0 0.0033100001
1.112 0.55599999 0.40700001 150 0 0 0 0.0033199999
1.11 0.55699998 0.40900001 150 0 0 0 0.00333
1.109 0.55800003 0.41100001 150 0 0 0 0.0033400001
1.114 0.56199998 0.41600001 150 0 0 0 0.0033499999
1.113 0.56300002 0.41800001 150 0 0 0 0.00336
1.109 0.56199998 0.419 150 0 0 0 0.00337
1.108 0.56300002 0.421 150 0 0 0 0.0033799999
1.1109999 0.56599998 0.42500001 150 0 0 0 0.00339
1.1059999 0.56400001 0.426 150 0 0 0 0.0034
1.109 0.56699997 0.42899999 150 0 0 0 0.0034099999
1.107 0.56800002 0.43200001 150 0 0 0 0.00342
1.11 0.56999999 0.435 150 0 0 0 0.00343
1.109 0.57099998 0.43700001 150 0 0 0 0.0034399999
1.105 0.56999999 0.43799999 150 0 0 0 0.00345
1.107 0.57200003 0.442 150 0 0 0 0.00346
1.104 0.57099998 0.44299999 150 0 0 0 0.0034700001
1.105 0.57300001 0.44600001 150 0 0 0 0.00348
1.104 0.57300001 0.44800001 150 0 0 0 0.00349
1.105 0.57499999 0.45100001 150 0 0 0 0.0035000001
1.104 0.57499999 0.45300001 150 0 0 0 0.00351
1.104 0.57599998 0.45500001 150 0 0 0 0.00352
1.1 0.57499999 0.456 150 0 0 0 0.0035300001
1.097 0.574 0.45699999 150 0 0 0 0.0035399999
1.102 0.57700002 0.461 150 0 0 0 0.00355
1.103 0.57800001 0.46399999 150 0 0 0 0.0035600001
1.102 0.57800001 0.46599999 150 0 0 0 0.0035699999
1.101 0.57800001 0.46799999 150 0 0 0 0.00358
1.101 0.57800001 0.47 150 0 0 0 0.0035900001
1.101 0.579 0.47299999 150 0 0 0 0.0035999999
1.103 0.58099997 0.47600001 150 0 0 0 0.00361
1.102 0.57999998 0.47799999 150 0 0 0 0.0036200001
1.1059999 0.583 0.48100001 150 0 0 0 0.0036299999
1.102 0.58099997 0.48199999 150 0 0 0 0.00364
1.102 0.58099997 0.484 150 0 0 0 0.0036500001
1.099 0.57999998 0.48500001 150 0 0 0 0.0036599999
1.1059999 0.58399999 0.49000001 150 0 0 0 0.00367
1.1059999 0.583 0.49200001 150 0 0 0 0.0036800001
1.1059999 0.583 0.49399999 150 0 0 0 0.0036899999
1.104 0.58200002 0.495 150 0 0 0 0.0037
1.105 0.583 0.49700001 150 0 0 0 0.0037100001
1.104 0.58200002 0.49900001 150 0 0 0 0.0037199999
1.105 0.583 0.50099999 150 0 0 0 0.00373
1.105 0.58200002 0.50300002 150 0 0 0 0.0037400001
1.104 0.58200002 0.50400001 150 0 0 0 0.0037499999
1.105 0.58200002 0.50700003 150 0 0 0 0.00376
1.105 0.58200002 0.50800002 150 0 0 0 0.0037700001
1.105 0.58099997 0.50999999 150 0 0 0 0.0037799999
1.1059999 0.58099997 0.51200002 150 0 0 0 0.00379
1.1059999 0.58099997 0.51300001 150 0 0 0 0.0038000001
1.105 0.57999998 0.51499999 150 0 0 0 0.0038099999
1.105 0.579 0.51599997 150 0 0 0 0.00382
1.104 0.57800001 0.51700002 150 0 0 0 0.0038300001
1.1059999 0.57800001 0.51999998 150 0 0 0 0.0038399999
1.105 0.57700002 0.52100003 150 0 0 0 0.00385
1.105 0.57599998 0.52200001 150 0 0 0 0.0038600001
1.1059999 0.57599998 0.52399999 150 0 0 0 0.0038699999
1.105 0.574 0.52499998 150 0 0 0 0.00388
1.108 0.57499999 0.52700001 150 0 0 0 0.0038900001
1.105 0.57200003 0.52700001 150 0 0 0 0.0038999999
1.105 0.57099998 0.528 150 0 0 0 0.00391
1.105 0.56999999 0.52999997 150 0 0 0 0.00392
1.105 0.56900001 0.53100002 150 0 0 0 0.0039300001
1.105 0.56800002 0.53200001 150 0 0 0 0.0039400002
1.105 0.56699997 0.53299999 150 0 0 0 0.0039499998
1.105 0.56599998 0.53399998 150 0 0 0 0.0039599999
1.105 0.56400001 0.53500003 150 0 0 0 0.00397
1.108 0.565 0.537 150 0 0 0 0.00398
1.109 0.56400001 0.53799999 150 0 0 0 0.0039900001
1.104 0.56 0.537 150 0 0 0 0.0040000002
1.104 0.55900002 0.53799999 150 0 0 0 0.0040099998
1.108 0.55900002 0.54000002 150 0 0 0 0.0040199999
1.108 0.55699998 0.54100001 150 0 0 0 0.00403
1.108 0.55599999 0.542 150 0 0 0 0.00404
1.109 0.55500001 0.54299998 150 0 0 0 0.0040500001
1.1109999 0.55400002 0.54400003 150 0 0 0 0.0040600002
1.108 0.551 0.54299998 150 0 0 0 0.0040699998
1.112 0.551 0.546 150 0 0 0 0.0040799999
1.112 0.54900002 0.546 150 0 0 0 0.0040899999
1.1109999 0.54699999 0.546 150 0 0 0 0.0041
1.1109999 0.54500002 0.54699999 150 0 0 0 0.0041100001
1.1109999 0.54299998 0.54699999 150 0 0 0 0.0041200002
1.109 0.54000002 0.546 150 0 0 0 0.0041299998
1.115 0.54100001 0.54900002 150 0 0 0 0.0041399999
1.114 0.53899997 0.54900002 150 0 0 0 0.0041499999
1.1160001 0.53799999 0.55000001 150 0 0 0 0.00416
1.114 0.53500003 0.54900002 150 0 0 0 0.0041700001
1.1160001 0.53299999 0.55000001 150 0 0 0 0.0041800002
1.114 0.52999997 0.54900002 150 0 0 0 0.0041899998
1.113 0.528 0.54799998 150 0 0 0 0.0041999999
1.115 0.52700001 0.54900002 150 0 0 0 0.0042099999
1.119 0.52600002 0.551 150 0 0 0 0.00422
1.115 0.52200001 0.54900002 150 0 0 0 0.0042300001
1.118 0.52100003 0.55000001 150 0 0 0 0.0042400002
1.119 0.51899999 0.55000001 150 0 0 0 0.0042500002
1.119 0.51700002 0.55000001 150 0 0 0 0.0042599998
1.115 0.51300001 0.54799998 150 0 0 0 0.0042699999
1.1160001 0.51099998 0.54799998 150 0 0 0 0.00428
1.119 0.50999999 0.54799998 150 0 0 0 0.0042900001
1.123 0.509 0.55000001 150 0 0 0 0.0043000001
1.1210001 0.50599998 0.54799998 150 0 0 0 0.0043100002
1.122 0.50400001 0.54799998 150 0 0 0 0.0043199998
1.123 0.50099999 0.54799998 150 0 0 0 0.0043299999
1.1160001 0.49599999 0.54400003 150 0 0 0 0.00434
1.117 0.49399999 0.54400003 150 0 0 0 0.0043500001
1.118 0.49200001 0.54400003 150 0 0 0 0.0043600001
1.119 0.49000001 0.54299998 150 0 0 0 0.0043700002
1.119 0.48699999 0.542 150 0 0 0 0.0043799998
1.122 0.48500001 0.54299998 150 0 0 0 0.0043899999
1.1210001 0.48199999 0.54100001 150 0 0 0 0.0044
1.122 0.47999999 0.54100001 150 0 0 0 0.0044100001
1.123 0.47799999 0.54000002 150 0 0 0 0.0044200001
1.125 0.47600001 0.54000002 150 0 0 0 0.0044300002
1.126 0.47400001 0.53899997 150 0 0 0 0.0044399998
1.127 0.47099999 0.53899997 150 0 0 0 0.0044499999
1.128 0.46900001 0.53799999 150 0 0 0 0.00446
1.126 0.465 0.53600001 150 0 0 0 0.00447
1.127 0.463 0.53500003 150 0 0 0 0.0044800001
1.1289999 0.461 0.53500003 150 0 0 0 0.0044900002
1.127 0.45699999 0.53299999 150 0 0 0 0.0044999998
1.128 0.45500001 0.53200001 150 0 0 0 0.0045099999
1.13 0.45300001 0.53100002 150 0 0 0 0.00452
1.131 0.45100001 0.52999997 150 0 0 0 0.00453
1.132 0.44800001 0.52899998 150 0 0 0 0.0045400001
1.132 0.44499999 0.528 150 0 0 0 0.0045500002
1.1339999 0.44299999 0.52700001 150 0 0 0 0.0045599998
1.132 0.43900001 0.52499998 150 0 0 0 0.0045699999
1.135 0.43700001 0.52399999 150 0 0 0 0.0045799999
1.136 0.435 0.523 150 0 0 0 0.00459
1.135 0.43200001 0.52100003 150 0 0 0 0.0046000001
1.1289999 0.42699999 0.51700002 150 0 0 0 0.0046100002
1.132 0.42500001 0.51599997 150 0 0 0 0.0046199998
1.132 0.42199999 0.51499999 150 0 0 0 0.0046299999
1.1339999 0.419 0.51300001 150 0 0 0 0.0046399999
1.135 0.417 0.51200002 150 0 0 0 0.00465
1.136 0.41499999 0.51099998 150 0 0 0 0.0046600001
1.136 0.41100001 0.509 150 0 0 0 0.0046700002
1.137 0.40900001 0.50700003 150 0 0 0 0.0046799998
1.141 0.40700001 0.50700003 150 0 0 0 0.0046899999
1.14 0.40400001 0.505 150 0 0 0 0.0046999999
1.141 0.40099999 0.50300002 150 0 0 0 0.00471
1.143 0.39899999 0.50199997 150 0 0 0 0.0047200001
1.141 0.396 0.49900001 150 0 0 0 0.0047300002
1.143 0.39300001 0.498 150 0 0 0 0.0047399998
1.141 0.389 0.495 150 0 0 0 0.0047499998
1.142 0.38699999 0.49399999 150 0 0 0 0.0047599999
1.1440001 0.384 0.49200001 150 0 0 0 0.00477
1.145 0.382 0.491 150 0 0 0 0.0047800001
1.147 0.37900001 0.48899999 150 0 0 0 0.0047900002
1.147 0.377 0.48699999 150 0 0 0 0.0048000002
1.1440001 0.373 0.48300001 150 0 0 0 0.0048099998
1.15 0.37200001 0.484 150 0 0 0 0.0048199999
1.15 0.36899999 0.48100001 150 0 0 0 0.00483
1.147 0.36500001 0.47799999 150 0 0 0 0.0048400001
1.149 0.36199999 0.47600001 150 0 0 0 0.0048500001
1.147 0.359 0.47299999 150 0 0 0 0.0048600002
1.152 0.35699999 0.47299999 150 0 0 0 0.0048699998
1.15 0.354 0.46900001 150 0 0 0 0.0048799999
1.149 0.35100001 0.46700001 150 0 0 0 0.00489
1.15 0.34799999 0.465 150 0 0 0 0.0049000001
1.152 0.34599999 0.463 150 0 0 0 0.0049100001
1.154 0.34299999 0.461 150 0 0 0 0.0049200002
1.155 0.34 0.45899999 150 0 0 0 0.0049299998
1.156 0.338 0.45699999 150 0 0 0 0.0049399999
1.158 0.336 0.45500001 150 0 0 0 0.00495
1.159 0.333 0.45300001 150 0 0 0 0.00496
1.16 0.33000001 0.45100001 150 0 0 0 0.0049700001
1.158 0.32699999 0.44800001 150 0 0 0 0.0049800002
1.155 0.32300001 0.44299999 150 0 0 0 0.0049899998
1.155 0.31999999 0.44100001 150 0 0 0 0.0049999999
1.1569999 0.31799999 0.43900001 150 0 0 0 0.00501
1.158 0.315 0.43700001 150 0 0 0 0.00502
1.16 0.31299999 0.435 150 0 0 0 0.0050300001
1.161 0.31 0.433 150 0 0 0 0.0050400002
1.1619999 0.308 0.43000001 150 0 0 0 0.0050499998
1.164 0.30500001 0.428 150 0 0 0 0.0050599999
1.161 0.30199999 0.42399999 150 0 0 0 0.00507
1.16 0.29899999 0.421 150 0 0 0 0.00508
1.163 0.29699999 0.41999999 150 0 0 0 0.0050900001
1.161 0.29300001 0.41600001 150 0 0 0 0.0051000002
1.164 0.29100001 0.414 150 0 0 0 0.0051099998
1.165 0.289 0.412 150 0 0 0 0.0051199999
1.164 0.28600001 0.40900001 150 0 0 0 0.0051299999
1.164 0.28299999 0.40599999 150 0 0 0 0.00514
1.169 0.28099999 0.405 150 0 0 0 0.0051500001
1.164 0.27700001 0.40099999 150 0 0 0 0.0051600002
1.166 0.27500001 0.398 150 0 0 0 0.0051699998
1.1670001 0.273 0.396 150 0 0 0 0.0051799999
1.169 0.27000001 0.39300001 150 0 0 0 0.0051899999
1.169 0.26699999 0.391 150 0 0 0 0.0052
1.171 0.26499999 0.38800001 150 0 0 0 0.0052100001
1.175 0.26300001 0.38699999 150 0 0 0 0.0052200002
1.173 0.25999999 0.38299999 150 0 0 0 0.0052299998
1.173 0.257 0.38 150 0 0 0 0.0052399999
1.1720001 0.255 0.377 150 0 0 0 0.0052499999
1.174 0.252 0.375 150 0 0 0 0.00526
1.178 0.25 0.373 150 0 0 0 0.0052700001
1.177 0.248 0.37 150 0 0 0 0.0052800002
1.178 0.245 0.36700001 150 0 0 0 0.0052899998
1.1799999 0.243 0.36399999 150 0 0 0 0.0052999998
1.176 0.23899999 0.36000001 150 0 0 0 0.0053099999
1.178 0.237 0.35800001 150 0 0 0 0.00532
1.179 0.235 0.35499999 150 0 0 0 0.0053300001
1.1799999 0.23199999 0.352 150 0 0 0 0.0053400001
1.181 0.23 0.34999999 150 0 0 0 0.0053500002
1.1799999 0.227 0.34599999 150 0 0 0 0.0053599998
1.186 0.226 0.345 150 0 0 0 0.0053699999
1.181 0.222 0.34 150 0 0 0 0.00538
1.1849999 0.22 0.33899999 150 0 0 0 0.0053900001
1.187 0.21799999 0.336 150 0 0 0 0.0054000001
1.183 0.215 0.33199999 150 0 0 0 0.0054100002
1.184 0.212 0.329 150 0 0 0 0.0054199998
1.187 0.20999999 0.32699999 150 0 0 0 0.0054299999
1.184 0.207 0.32300001 150 0 0 0 0.00544
1.187 0.205 0.31999999 150 0 0 0 0.0054500001
1.1900001 0.20299999 0.31799999 150 0 0 0 0.0054600001
1.189 0.20100001 0.315 150 0 0 0 0.0054700002
1.1900001 0.198 0.31200001 150 0 0 0 0.0054799998
1.191 0.19599999 0.30899999 150 0 0 0 0.0054899999
1.191 0.193 0.30500001 150 0 0 0 0.0055
1.192 0.191 0.303 150 0 0 0 0.00551
1.194 0.189 0.30000001 150 0 0 0 0.0055200001
1.197 0.18700001 0.29699999 150 0 0 0 0.0055300002
1.201 0.185 0.29499999 150 0 0 0 0.0055399998
1.196 0.182 0.29100001 150 0 0 0 0.0055499999
1.197 0.17900001 0.28799999 150 0 0 0 0.00556
1.1950001 0.177 0.28400001 150 0 0 0 0.00557
1.204 0.176 0.28299999 150 0 0 0 0.0055800001
1.202 0.17299999 0.27900001 150 0 0 0 0.0055900002
1.201 0.17 0.27599999 150 0 0 0 0.0055999998
1.204 0.168 0.273 150 0 0 0 0.0056099999
1.205 0.16599999 0.27000001 150 0 0 0 0.00562
1.206 0.164 0.26699999 150 0 0 0 0.00563
1.205 0.161 0.264 150 0 0 0 0.0056400001
1.205 0.15899999 0.26100001 150 0 0 0 0.0056500002
1.204 0.15700001 0.257 150 0 0 0 0.0056599998
1.205 0.154 0.25400001 150 0 0 0 0.0056699999
1.205 0.152 0.25099999 150 0 0 0 0.0056799999
1.209 0.15000001 0.248 150 0 0 0 0.00569
1.209 0.148 0.245 150 0 0 0 0.0057000001
1.211 0.146 0.242 150 0 0 0 0.0057100002
1.212 0.14300001 0.23899999 150 0 0 0 0.0057199998
1.212 0.141 0.236 150 0 0 0 0.0057299999
1.211 0.139 0.23199999 150 0 0 0 0.0057399999
1.214 0.13699999 0.229 150 0 0 0 0.00575
1.212 0.134 0.226 150 0 0 0 0.0057600001
1.212 0.132 0.222 150 0 0 0 0.0057700002
1.21 0.12899999 0.219 150 0 0 0 0.0057799998
1.215 0.12800001 0.21600001 150 0 0 0 0.0057899999
1.214 0.125 0.213 150 0 0 0 0.0057999999
1.209 0.123 0.20900001 150 0 0 0 0.00581
1.21 0.12 0.205 150 0 0 0 0.0058200001
1.207 0.118 0.20200001 150 0 0 0 0.0058300002
1.209 0.116 0.199 150 0 0 0 0.0058400002
1.206 0.113 0.19499999 150 0 0 0 0.0058499998
1.206 0.111 0.191 150 0 0 0 0.0058599999
1.215 0.11 0.189 150 0 0 0 0.00587
1.215 0.108 0.186 150 0 0 0 0.0058800001
1.215 0.106 0.183 150 0 0 0 0.0058900001
1.215 0.103 0.17900001 150 0 0 0 0.0059000002
1.217 0.101 0.176 150 0 0 0 0.0059099998
1.221 0.1 0.17399999 145 0 0 0 0.0059199999
1.219 0.097000003 0.17 150 0 0 0 0.00593
1.219 0.094999999 0.167 141 0 0 0 0.0059400001
1.22 0.093000002 0.163 134 0 0 0 0.0059500001
1.22 0.090999998 0.16 134 0 0 0 0.0059600002
1.223 0.089000002 0.15700001 139 0 0 0 0.0059699998
1.223 0.086999997 0.153 125 0 0 0 0.0059799999
1.221 0.085000001 0.15000001 139 0 0 0 0.00599
1.223 0.082999997 0.147 133 0 0 0 0.0060000001
1.22 0.079999998 0.14300001 130 0 0 0 0.0060100001
1.227 0.079000004 0.14 125 0 0 0 0.0060200002
1.221 0.075999998 0.13600001 120 0 0 0 0.0060299998
1.222 0.074000001 0.133 133 0 0 0 0.0060399999
1.228 0.071999997 0.13 111 0 0 0 0.00605
1.226 0.07 0.127 105 0 0 0 0.00606
1.228 0.068000004 0.123 88 0 0 0 0.0060700001
1.23 0.066 0.12 103 0 0 0 0.0060800002
1.229 0.064000003 0.116 97 0 0 0 0.0060899998
1.228 0.061999999 0.113 104 0 0 0 0.0060999999
1.228 0.059999999 0.11 91 0 0 0 0.00611
1.23 0.057999998 0.106 94 0 0 0 0.00612
1.227 0.056000002 0.103 107 0 0 0 0.0061300001
1.229 0.054000001 0.098999999 95 0 0 0 0.0061400002
1.229 0.052000001 0.096000001 86 0 0 0 0.0061499998
1.229 0.050000001 0.092 83 0 0 0 0.0061599999
1.2309999 0.048 0.089000002 82 0 0 0 0.0061699999
1.2309999 0.046 0.085000001 75 0 0 0 0.00618
1.229 0.044 0.082000002 76 0 0 0 0.0061900001
1.232 0.041999999 0.079000004 78 0 0 0 0.0062000002
1.234 0.039999999 0.075000003 75 0 0 0 0.0062099998
1.233 0.037999999 0.071999997 75 0 0 0 0.0062199999
1.2309999 0.035999998 0.068000004 72 0 0 0 0.0062299999
1.2309999 0.034000002 0.064999998 71 0 0 0 0.00624
1.233 0.032000002 0.061000001 65 0 0 0 0.0062500001
1.232 0.029999999 0.057999998 71 0 0 0 0.0062600002
1.234 0.028999999 0.054000001 63 0 0 0 0.0062699998
1.243 0.027000001 0.050999999 67 0 0 0 0.0062799999
1.2309999 0.025 0.046999998 58 0 0 0 0.0062899999
1.234 0.023 0.044 62 0 0 0 0.0063
1.234 0.021 0.039999999 64 0 0 0 0.0063100001
1.232 0.018999999 0.037 56 0 0 0 0.0063200002
1.234 0.017000001 0.033 55 0 0 0 0.0063299998
1.232 0.015 0.029999999 65 0 0 0 0.0063399998
1.234 0.013 0.026000001 57 0 0 0 0.0063499999
1.24 0.011 0.023 51 0 0 0 0.00636
1.234 0.0099999998 0.018999999 52 0 0 0 0.0063700001
1.242 0.0080000004 0.016000001 48 0 0 0 0.0063800002
1.234 0.0060000001 0.012 52 0 0 0 0.0063900002
1.24 0.0040000002 0.0089999996 53 0 0 0 0.0063999998
1.24 0.0020000001 0.0049999999 48 0 0 0 0.0064099999
1.242 0 0.001 47 0 0 0 0.00642
1.242 -0.001 -0.001 50 0 0 0 0.0064300001
1.242 -0.0020000001 -0.0049999999 49 0 0 0 0.0064400001
1.2410001 -0.0040000002 -0.0080000004 50 0 0 0 0.0064500002
1.242 -0.0060000001 -0.012 47 0 0 0 0.0064599998
1.242 -0.0080000004 -0.015 49 0 0 0 0.0064699999
1.245 -0.0099999998 -0.018999999 44 0 0 0 0.00648
1.245 -0.012 -0.023 46 0 0 0 0.0064900001
1.245 -0.013 -0.026000001 43 0 0 0 0.0065000001
1.2460001 -0.015 -0.029999999 51 0 0 0 0.0065100002
1.245 -0.017000001 -0.034000002 48 0 0 0 0.0065199998
1.253 -0.018999999 -0.037 43 0 0 0 0.0065299999
1.251 -0.021 -0.041000001 41 0 0 0 0.00654
1.25 -0.022 -0.045000002 41 0 0 0 0.00655
1.2539999 -0.024 -0.048 46 0 0 0 0.0065600001
1.256 -0.026000001 -0.052000001 40 0 0 0 0.0065700002
1.2589999 -0.028000001 -0.056000002 38 0 0 0 0.0065799998
1.2589999 -0.029999999 -0.059999999 42 0 0 0 0.0065899999
1.257 -0.030999999 -0.063000001 43 0 0 0 0.0066
1.257 -0.033 -0.067000002 45 0 0 0 0.00661
1.257 -0.035 -0.071000002 42 0 0 0 0.0066200001
1.258 -0.037 -0.074000001 44 0 0 0 0.0066300002
1.256 -0.037999999 -0.078000002 46 0 0 0 0.0066399998
1.267 -0.041000001 -0.082000002 44 0 0 0 0.0066499999
1.267 -0.041999999 -0.086000003 44 0 0 0 0.00666
1.268 -0.044 -0.090000004 41 0 0 0 0.00667
1.268 -0.046 -0.093999997 43 0 0 0 0.0066800001
1.268 -0.048 -0.097000003 47 0 0 0 0.0066900002
1.267 -0.048999999 -0.101 46 0 0 0 0.0066999998
1.268 -0.050999999 -0.105 0 0 0 0 0.0067099999
1.27 -0.052999999 -0.109 39 0 0 0 0.0067199999
1.2690001 -0.054000001 -0.112 40 0 0 0 0.00673
1.273 -0.056000002 -0.117 43 0 0 0 0.0067400001
1.2690001 -0.057999998 -0.12 38 0 0 0 0.0067500002
1.272 -0.059999999 -0.124 25 0 0 0 0.0067599998
1.27 -0.061000001 -0.12800001 20 0 0 0 0.0067699999
1.266 -0.063000001 -0.131 8 0 0 0 0.0067799999
1.251 -0.064000003 -0.133 6 0 0 0 0.00679
1.238 -0.064999998 -0.13500001 5 0 0 0 0.0068000001
1.199 -0.064000003 -0.13500001 4 0 0 0 0.0068100002
1.1849999 -0.064999998 -0.13699999 3 0 0 0 0.0068199998
1.163 -0.064999998 -0.138 3 0 0 0 0.0068299999
1.158 -0.066 -0.141 3 0 0 0 0.0068399999
1.146 -0.067000002 -0.14300001 2 0 0 0 0.00685
1.119 -0.067000002 -0.14300001 1 0 0 0 0.0068600001
1.068 -0.064999998 -0.139 1 0 0 0 0.0068700002
1.062 -0.066 -0.142 0 0 0 0 0.0068799998
1.089 -0.068999998 -0.149 0 0 0 0 0.0068899998
1.1289999 -0.072999999 -0.15800001 0 0 0 0 0.0068999999
1.141 -0.075999998 -0.163 0 0 0 0 0.00691
1.146 -0.077 -0.167 1 0 0 0 0.0069200001
1.148 -0.079000004 -0.171 3 0 0 0 0.0069300001
1.143 -0.079999998 -0.17299999 4 0 0 0 0.0069400002
1.147 -0.082000002 -0.178 4 0 0 0 0.0069499998
1.147 -0.082999997 -0.18099999 4 0 0 0 0.0069599999
1.149 -0.085000001 -0.185 4 0 0 0 0.00697
1.147 -0.086000003 -0.18799999 4 0 0 0 0.0069800001
1.146 -0.086999997 -0.191 4 0 0 0 0.0069900001
1.1440001 -0.088 -0.19499999 4 0 0 0 0.0070000002
1.143 -0.090000004 -0.198 4 0 0 0 0.0070099998
1.145 -0.090999998 -0.20200001 5 0 0 0 0.0070199999
1.142 -0.092 -0.205 5 0 0 0 0.00703
1.137 -0.093000002 -0.207 5 0 0 0 0.0070400001
1.142 -0.094999999 -0.212 5 0 0 0 0.0070500001
1.1390001 -0.096000001 -0.215 5 0 0 0 0.0070600002
1.1390001 -0.097000003 -0.21799999 4 0 0 0 0.0070699998
1.133 -0.097999997 -0.221 4 0 0 0 0.0070799999
1.137 -0.1 -0.22499999 4 0 0 0 0.00709
1.135 -0.101 -0.228 4 0 0 0 0.0071
1.13 -0.102 -0.23100001 4 0 0 0 0.0071100001
1.124 -0.103 -0.233 3 0 0 0 0.0071200002
1.1059999 -0.102 -0.233 2 0 0 0 0.0071299998
1.0650001 -0.1 -0.227 0 0 0 0 0.0071399999
0.91799998 -0.086999997 -0.199 0 0 0 0 0.00715
0.92400002 -0.088 -0.20299999 0 0 0 0 0.00716
0.90100002 -0.086999997 -0.20100001 0 0 0 0 0.0071700001
0.898 -0.088 -0.20299999 0 0 0 0 0.0071800002
0.90700001 -0.090000004 -0.208 0 0 0 0 0.0071899998
0.903 -0.090000004 -0.20999999 0 0 0 0 0.0071999999
0.89200002 -0.090000004 -0.20999999 0 0 0 0 0.00721
0.90100002 -0.092 -0.215 0 0 0 0 0.00722
0.90700001 -0.093999997 -0.22 0 0 0 0 0.0072300001
0.88999999 -0.093000002 -0.21799999 0 0 0 0 0.0072400002
0.87900001 -0.093000002 -0.21799999 0 0 0 0 0.0072499998
0.87699997 -0.093000002 -0.221 0 0 0 0 0.0072599999
0.87699997 -0.093999997 -0.22400001 0 0 0 0 0.0072699999
0.87199998 -0.094999999 -0.22499999 0 0 0 0 0.00728
0.86199999 -0.093999997 -0.22499999 0 0 0 0 0.0072900001
0.85699999 -0.094999999 -0.227 0 0 0 0 0.0073000002
0.83899999 -0.093000002 -0.22400001 0 0 0 0 0.0073099998
0.833 -0.093999997 -0.226 0 0 0 0 0.0073199999
0.90499997 -0.103 -0.248 0 0 0 0 0.0073299999
0.91500002 -0.105 -0.25400001 0 0 0 0 0.00734
0.87900001 -0.101 -0.24699999 0 0 0 0 0.0073500001
0.91600001 -0.107 -0.25999999 0 0 0 0 0.0073600002
0.89600003 -0.105 -0.257 0 0 0 0 0.0073699998
0.86000001 -0.102 -0.25 0 0 0 0 0.0073799998
0.87099999 -0.104 -0.25600001 0 0 0 0 0.0073899999
0.86199999 -0.104 -0.25600001 0 0 0 0 0.0074
0.85500002 -0.103 -0.257 0 0 0 0 0.0074100001
0.833 -0.102 -0.25299999 0 0 0 0 0.0074200002
0.82200003 -0.101 -0.252 0 0 0 0 0.0074300002
0.81699997 -0.101 -0.25299999 0 0 0 0 0.0074399998
0.78799999 -0.097999997 -0.24699999 0 0 0 0 0.0074499999
0.78600001 -0.098999999 -0.249 0 0 0 0 0.00746
0.77700001 -0.097999997 -0.248 0 0 0 0 0.0074700001
0.79900002 -0.102 -0.25799999 0 0 0 0 0.0074800001
0.81599998 -0.104 -0.266 0 0 0 0 0.0074900002
0.85399997 -0.11 -0.28200001 0 0 0 0 0.0074999998
0.903 -0.117 -0.301 0 0 0 0 0.0075099999
0.89099997 -0.116 -0.30000001 1 0 0 0 0.00752
0.92400002 -0.121 -0.31400001 3 0 0 0 0.0075300001
0.92299998 -0.122 -0.317 3 0 0 0 0.0075400001
0.92799997 -0.123 -0.32100001 3 0 0 0 0.0075500002
0.92299998 -0.123 -0.32300001 3 0 0 0 0.0075599998
0.91900003 -0.124 -0.324 3 0 0 0 0.0075699999
0.921 -0.125 -0.32800001 3 0 0 0 0.00758
0.92000002 -0.125 -0.331 3 0 0 0 0.0075900001
0.917 -0.125 -0.333 3 0 0 0 0.0076000001
0.91799998 -0.126 -0.336 3 0 0 0 0.0076100002
0.91900003 -0.127 -0.34 3 0 0 0 0.0076199998
0.91799998 -0.12800001 -0.34200001 3 0 0 0 0.0076299999
0.917 -0.12800001 -0.345 3 0 0 0 0.00764
0.91600001 -0.12899999 -0.34799999 3 0 0 0 0.00765
0.91500002 -0.12899999 -0.34999999 3 0 0 0 0.0076600001
0.91600001 -0.13 -0.354 3 0 0 0 0.0076700002
0.91500002 -0.13 -0.35600001 3 0 0 0 0.0076799998
0.91000003 -0.13 -0.35800001 3 0 0 0 0.0076899999
0.91000003 -0.131 -0.361 3 0 0 0 0.0077
0.90700001 -0.131 -0.36300001 3 0 0 0 0.00771
0.92000002 -0.133 -0.37099999 4 0 0 0 0.0077200001
0.917 -0.133 -0.373 4 0 0 0 0.0077300002
0.91799998 -0.134 -0.37599999 0 0 0 0 0.0077399998
0.921 -0.13500001 -0.38 5 0 0 0 0.0077499999
0.912 -0.134 -0.38 5 0 0 0 0.0077599999
0.91799998 -0.13600001 -0.38600001 5 0 0 0 0.00777
0.91900003 -0.13600001 -0.389 5 0 0 0 0.0077800001
0.91900003 -0.13699999 -0.39199999 5 0 0 0 0.0077900002
0.91100001 -0.13600001 -0.39199999 5 0 0 0 0.0077999998
0.91399997 -0.13699999 -0.396 5 0 0 0 0.0078099999
0.91500002 -0.13699999 -0.40000001 5 0 0 0 0.0078199999
0.91100001 -0.13699999 -0.40099999 5 0 0 0 0.0078299996
0.90899998 -0.13699999 -0.403 6 0 0 0 0.0078400001
0.91299999 -0.138 -0.40799999 6 0 0 0 0.0078499997
0.912 -0.138 -0.41 6 0 0 0 0.0078600002
0.91000003 -0.138 -0.41299999 6 0 0 0 0.0078699999
0.91600001 -0.14 -0.419 7 0 0 0 0.0078800004
0.91000003 -0.139 -0.419 7 0 0 0 0.00789
0.90399998 -0.139 -0.419 6 0 0 0 0.0078999996
0.91000003 -0.14 -0.42500001 7 0 0 0 0.0079100002
0.90600002 -0.14 -0.426 7 0 0 0 0.0079199998
0.90600002 -0.14 -0.42899999 7 0 0 0 0.0079300003
0.90499997 -0.14 -0.43200001 7 0 0 0 0.0079399999
0.90399998 -0.14 -0.43399999 9 0 0 0 0.0079500005
0.90200001 -0.14 -0.43599999 9 0 0 0 0.0079600001
0.90100002 -0.14 -0.43900001 9 0 0 0 0.0079699997
0.89899999 -0.14 -0.44100001 9 0 0 0 0.0079800002
0.89700001 -0.14 -0.44299999 9 0 0 0 0.0079899998
0.89600003 -0.14 -0.44499999 11 0 0 0 0.0080000004
0.89300001 -0.139 -0.447 10 0 0 0 0.00801
0.89399999 -0.14 -0.44999999 10 0 0 0 0.0080199996
0.89600003 -0.14 -0.454 12 0 0 0 0.0080300001
0.89399999 -0.14 -0.456 13 0 0 0 0.0080399998
0.89399999 -0.14 -0.45899999 14 0 0 0 0.0080500003
0.89600003 -0.141 -0.463 15 0 0 0 0.0080599999
0.89099997 -0.14 -0.463 14 0 0 0 0.0080700004
0.88700002 -0.139 -0.46399999 15 0 0 0 0.0080800001
0.89300001 -0.14 -0.47 16 0 0 0 0.0080899997
0.88599998 -0.139 -0.46900001 17 0 0 0 0.0081000002
0.88700002 -0.139 -0.472 17 0 0 0 0.0081099998
0.88599998 -0.139 -0.47400001 17 0 0 0 0.0081200004
0.88499999 -0.139 -0.477 17 0 0 0 0.00813
0.88599998 -0.139 -0.47999999 18 0 0 0 0.0081399996
0.88200003 -0.138 -0.48100001 17 0 0 0 0.0081500001
0.884 -0.139 -0.484 20 0 0 0 0.0081599997
0.88300002 -0.138 -0.48699999 19 0 0 0 0.0081700003
0.87900001 -0.138 -0.48699999 17 0 0 0 0.0081799999
0.88 -0.138 -0.491 20 0 0 0 0.0081900004
0.88 -0.13699999 -0.493 21 0 0 0 0.0082
0.87900001 -0.13699999 -0.495 21 0 0 0 0.0082099997
0.88200003 -0.13699999 -0.5 19 0 0 0 0.0082200002
0.88099998 -0.13699999 -0.50199997 17 0 0 0 0.0082299998
0.88099998 -0.13699999 -0.50400001 17 0 0 0 0.0082400003
0.88200003 -0.13699999 -0.50700003 12 0 0 0 0.00825
0.88099998 -0.13600001 -0.50999999 10 0 0 0 0.0082599996
0.88300002 -0.13600001 -0.51300001 8 0 0 0 0.0082700001
0.88300002 -0.13600001 -0.51599997 7 0 0 0 0.0082799997
0.88200003 -0.13600001 -0.51800001 7 0 0 0 0.0082900003
0.884 -0.13600001 -0.52200001 7 0 0 0 0.0082999999
0.88300002 -0.13500001 -0.52399999 6 0 0 0 0.0083100004
0.88300002 -0.13500001 -0.52600002 5 0 0 0 0.00832
0.87900001 -0.134 -0.52600002 5 0 0 0 0.0083299996
0.875 -0.133 -0.52600002 4 0 0 0 0.0083400002
0.87699997 -0.133 -0.52999997 4 0 0 0 0.0083499998
0.88099998 -0.133 -0.53500003 3 0 0 0 0.0083600003
0.884 -0.133 -0.53899997 3 0 0 0 0.0083699999
0.889 -0.133 -0.54400003 1 0 0 0 0.0083799995
1.048 -0.15700001 -0.64399999 1 0 0 0 0.0083900001
1.075 -0.16 -0.66399997 1 0 0 0 0.0083999997
1.1 -0.163 -0.68199998 1 0 0 0 0.0084100002
1.227 -0.18099999 -0.764 3 0 0 0 0.0084199999
1.245 -0.183 -0.778 7 0 0 0 0.0084300004
1.061 -0.155 -0.66600001 6 0 0 0 0.00844
1.12 -0.163 -0.70599997 8 0 0 0 0.0084499996
1.154 -0.167 -0.73000002 11 0 0 0 0.0084600002
1.1720001 -0.169 -0.74400002 13 0 0 0 0.0084699998
1.178 -0.169 -0.75099999 15 0 0 0 0.0084800003
1.183 -0.169 -0.75700003 16 0 0 0 0.0084899999
1.197 -0.17 -0.76800001 18 0 0 0 0.0085000005
1.201 -0.17 -0.773 18 0 0 0 0.0085100001
1.2029999 -0.169 -0.778 18 0 0 0 0.0085199997
1.209 -0.169 -0.78399998 16 0 0 0 0.0085300002
1.214 -0.169 -0.79000002 15 0 0 0 0.0085399998
1.214 -0.168 -0.792 13 0 0 0 0.0085500004
1.214 -0.16599999 -0.79500002 11 0 0 0 0.00856
1.214 -0.16500001 -0.79799998 10 0 0 0 0.0085699996
1.212 -0.164 -0.79900002 9 0 0 0 0.0085800001
1.206 -0.162 -0.79699999 9 0 0 0 0.0085899998
1.2029999 -0.16 -0.79699999 9 0 0 0 0.0086000003
1.202 -0.15899999 -0.79900002 10 0 0 0 0.0086099999
1.196 -0.15700001 -0.79699999 12 0 0 0 0.0086200004
1.191 -0.155 -0.796 14 0 0 0 0.0086300001
1.189 -0.154 -0.79699999 15 0 0 0 0.0086399997
1.182 -0.152 -0.79400003 14 0 0 0 0.0086500002
1.181 -0.15000001 -0.796 15 0 0 0 0.0086599998
1.1799999 -0.149 -0.796 15 0 0 0 0.0086700004
1.175 -0.147 -0.79500002 16 0 0 0 0.00868
1.174 -0.146 -0.796 16 0 0 0 0.0086899996
1.1720001 -0.14399999 -0.796 17 0 0 0 0.0087000001
1.165 -0.142 -0.79299998 17 0 0 0 0.0087099997
1.1670001 -0.141 -0.796 17 0 0 0 0.0087200003
1.166 -0.139 -0.79699999 17 0 0 0 0.0087299999
1.163 -0.138 -0.796 17 0 0 0 0.0087400004
1.159 -0.13600001 -0.79500002 17 0 0 0 0.00875
1.1569999 -0.134 -0.79500002 17 0 0 0 0.0087599996
1.1569999 -0.133 -0.796 16 0 0 0 0.0087700002
1.155 -0.131 -0.796 17 0 0 0 0.0087799998
1.155 -0.12899999 -0.79699999 17 0 0 0 0.0087900003
1.155 -0.12800001 -0.79799998 17 0 0 0 0.0088
1.153 -0.126 -0.79799998 16 0 0 0 0.0088099996
1.149 -0.124 -0.796 18 0 0 0 0.0088200001
1.146 -0.123 -0.79500002 18 0 0 0 0.0088299997
1.148 -0.121 -0.79699999 18 0 0 0 0.0088400003
1.148 -0.12 -0.79799998 18 0 0 0 0.0088499999
1.147 -0.118 -0.79799998 18 0 0 0 0.0088600004
1.1440001 -0.116 -0.79699999 18 0 0 0 0.00887
1.145 -0.115 -0.79799998 18 0 0 0 0.0088799996
1.145 -0.113 -0.79799998 18 0 0 0 0.0088900002
1.142 -0.111 -0.79699999 19 0 0 0 0.0088999998
1.142 -0.11 -0.79699999 19 0 0 0 0.0089100003
1.142 -0.108 -0.79799998 18 0 0 0 0.0089199999
1.142 -0.107 -0.79799998 19 0 0 0 0.0089299995
1.142 -0.105 -0.79799998 19 0 0 0 0.0089400001
1.142 -0.103 -0.79799998 19 0 0 0 0.0089499997
1.142 -0.102 -0.79799998 19 0 0 0 0.0089600002
1.137 -0.1 -0.79500002 17 0 0 0 0.0089699998
1.142 -0.097999997 -0.79799998 18 0 0 0 0.0089800004
1.143 -0.097000003 -0.79799998 19 0 0 0 0.00899
1.143 -0.094999999 -0.79799998 19 0 0 0 0.0089999996
1.143 -0.093999997 -0.79799998 18 0 0 0 0.0090100002
1.143 -0.092 -0.79799998 18 0 0 0 0.0090199998
1.143 -0.090000004 -0.79799998 19 0 0 0 0.0090300003
1.1440001 -0.089000002 -0.79799998 19 0 0 0 0.0090399999
1.146 -0.086999997 -0.79900002 19 0 0 0 0.0090500005
1.146 -0.085000001 -0.79799998 20 0 0 0 0.0090600001
1.149 -0.083999999 -0.80000001 19 0 0 0 0.0090699997
1.152 -0.082000002 -0.801 18 0 0 0 0.0090800002
1.151 -0.081 -0.79900002 17 0 0 0 0.0090899998
1.15 -0.079000004 -0.79799998 19 0 0 0 0.0091000004
1.153 -0.077 -0.79900002 18 0 0 0 0.00911
1.154 -0.075999998 -0.79900002 19 0 0 0 0.0091199996
1.155 -0.074000001 -0.79900002 19 0 0 0 0.0091300001
1.156 -0.072999999 -0.79799998 18 0 0 0 0.0091399997
1.159 -0.071000002 -0.79900002 18 0 0 0 0.0091500003
1.163 -0.07 -0.801 18 0 0 0 0.0091599999
1.165 -0.068000004 -0.801 19 0 0 0 0.0091700004
1.165 -0.066 -0.80000001 18 0 0 0 0.0091800001
1.166 -0.064999998 -0.79900002 19 0 0 0 0.0091899997
1.168 -0.063000001 -0.79900002 18 0 0 0 0.0092000002
1.168 -0.061000001 -0.79799998 19 0 0 0 0.0092099998
1.173 -0.059999999 -0.80000001 18 0 0 0 0.0092200004
1.177 -0.057999998 -0.801 19 0 0 0 0.00923
1.178 -0.057 -0.80000001 19 0 0 0 0.0092399996
1.183 -0.055 -0.80199999 18 0 0 0 0.0092500001
1.187 -0.054000001 -0.80299997 18 0 0 0 0.0092599997
1.187 -0.052000001 -0.80000001 17 0 0 0 0.0092700003
1.1900001 -0.050999999 -0.801 18 0 0 0 0.0092799999
1.196 -0.048999999 -0.80299997 18 0 0 0 0.0092900004
1.196 -0.046999998 -0.801 17 0 0 0 0.0093
1.2 -0.046 -0.801 18 0 0 0 0.0093099996
1.202 -0.044 -0.801 17 0 0 0 0.0093200002
1.2079999 -0.043000001 -0.80199999 17 0 0 0 0.0093299998
1.209 -0.041000001 -0.801 18 0 0 0 0.0093400003
1.215 -0.039999999 -0.80199999 17 0 0 0 0.0093499999
1.217 -0.037999999 -0.801 17 0 0 0 0.0093599996
1.22 -0.037 -0.801 16 0 0 0 0.0093700001
1.225 -0.035 -0.80199999 17 0 0 0 0.0093799997
1.228 -0.034000002 -0.801 17 0 0 0 0.0093900003
1.23 -0.032000002 -0.80000001 17 0 0 0 0.0093999999
1.235 -0.030999999 -0.801 17 0 0 0 0.0094100004
1.237 -0.028999999 -0.79900002 17 0 0 0 0.00942
1.2460001 -0.028000001 -0.80199999 16 0 0 0 0.0094299996
1.252 -0.026000001 -0.80299997 16 0 0 0 0.0094400002
1.252 -0.025 -0.80000001 16 0 0 0 0.0094499998
1.261 -0.023 -0.80299997 17 0 0 0 0.0094600003
1.263 -0.022 -0.80199999 16 0 0 0 0.0094699999
1.2690001 -0.02 -0.80199999 19 0 0 0 0.0094799995
1.268 -0.018999999 -0.79799998 21 0 0 0 0.0094900001
1.274 -0.017000001 -0.79900002 21 0 0 0 0.0094999997
1.276 -0.016000001 -0.79699999 21 0 0 0 0.0095100002
1.277 -0.014 -0.79500002 19 0 0 0 0.0095199998
1.2819999 -0.013 -0.79500002 14 0 0 0 0.0095300004
1.289 -0.011 -0.796 10 0 0 0 0.00954
1.289 -0.0099999998 -0.792 9 0 0 0 0.0095499996
1.2920001 -0.0089999996 -0.79100001 9 0 0 0 0.0095600002
1.288 -0.0070000002 -0.78500003 10 0 0 0 0.0095699998
1.279 -0.0060000001 -0.77600002 13 0 0 0 0.0095800003
1.268 -0.0040000002 -0.76599997 40 0 0 0 0.0095899999
1.251 -0.003 -0.75300002 150 0 0 0 0.0096000005
1.251 -0.0020000001 -0.74900001 150 0 0 0 0.0096100001
1.249 0 -0.74400002 150 0 0 0 0.0096199997
1.23 0 -0.72899997 150 0 0 0 0.0096300002
1.175 0.001 -0.69300002 150 0 0 0 0.0096399998
1.15 0.0020000001 -0.67500001 150 0 0 0 0.0096500004
1.12 0.003 -0.65499997 150 0 0 0 0.00966
1.105 0.0040000002 -0.64300001 150 0 0 0 0.0096699996
1.0829999 0.0049999999 -0.62699997 150 0 0 0 0.0096800001
1.043 0.0060000001 -0.60000002 93 0 0 0 0.0096899997
1.013 0.0070000002 -0.57999998 61 0 0 0 0.0097000003
1 0.0080000004 -0.56900001 49 0 0 0 0.0097099999
1 0.0089999996 -0.56699997 47 0 0 0 0.0097200004
1.001 0.0099999998 -0.56400001 49 0 0 0 0.00973
1.001 0.0099999998 -0.56099999 46 0 0 0 0.0097399997
1.003 0.011 -0.55900002 47 0 0 0 0.0097500002
1.002 0.012 -0.55599999 48 0 0 0 0.0097599998
1.0039999 0.013 -0.55299997 47 0 0 0 0.0097700004
1.0039999 0.014 -0.551 44 0 0 0 0.00978
1.006 0.015 -0.54799998 43 0 0 0 0.0097899996
1.007 0.015 -0.546 45 0 0 0 0.0098000001
0.99699998 0.016000001 -0.537 44 0 0 0 0.0098099997
0.99900001 0.017000001 -0.53500003 1 0 0 0 0.0098200003
1 0.017999999 -0.53299999 41 0 0 0 0.0098299999
0.99800003 0.017999999 -0.528 40 0 0 0 0.0098400004
1 0.018999999 -0.52600002 43 0 0 0 0.00985
1.001 0.02 -0.52399999 40 0 0 0 0.0098599996
1.001 0.02 -0.51999998 35 0 0 0 0.0098700002
1.001 0.021 -0.51700002 39 0 0 0 0.0098799998
1.005 0.022 -0.51599997 38 0 0 0 0.0098900003
0.99800003 0.022 -0.509 41 0 0 0 0.0098999999
1 0.023 -0.50700003 42 0 0 0 0.0099099996
0.99900001 0.024 -0.50300002 38 0 0 0 0.0099200001
0.99900001 0.024 -0.5 34 0 0 0 0.0099299997
0.99699998 0.025 -0.495 32 0 0 0 0.0099400003
0.99800003 0.025 -0.493 31 0 0 0 0.0099499999
0.99800003 0.026000001 -0.49000001 36 0 0 0 0.0099600004
1 0.027000001 -0.48699999 30 0 0 0 0.00997
0.99900001 0.027000001 -0.48300001 32 0 0 0 0.0099799996
0.99800003 0.027000001 -0.479 25 0 0 0 0.0099900002
0.99900001 0.028000001 -0.477 23 0 0 0 0.0099999998
1.002 0.028999999 -0.47499999 27 0 0 0 0.01001
0.99699998 0.028999999 -0.46900001 23 0 0 0 0.01002
0.99800003 0.028999999 -0.46599999 18 0 0 0 0.01003
1.003 0.029999999 -0.465 10 0 0 0 0.01004
1.003 0.030999999 -0.46200001 9 0 0 0 0.01005
1.011 0.030999999 -0.46200001 7 0 0 0 0.01006
1.017 0.032000002 -0.461 7 0 0 0 0.01007
1.058 0.034000002 -0.47600001 11 0 0 0 0.01008
1.1160001 0.035999998 -0.49900001 26 0 0 0 0.01009
1.143 0.037 -0.50700003 37 0 0 0 0.0101
1.161 0.037999999 -0.51099998 53 0 0 0 0.01011
1.182 0.039000001 -0.51599997 64 0 0 0 0.01012
1.194 0.039999999 -0.51800001 89 0 0 0 0.01013
1.2079999 0.041000001 -0.51899999 147 0 0 0 0.01014
1.2180001 0.041999999 -0.51899999 150 0 0 0 0.01015
1.226 0.041999999 -0.51899999 150 0 0 0 0.01016
1.228 0.043000001 -0.51499999 150 0 0 0 0.01017
1.233 0.043000001 -0.51300001 150 0 0 0 0.01018
1.235 0.044 -0.50999999 150 0 0 0 0.01019
1.235 0.044 -0.50599998 150 0 0 0 0.0102
1.237 0.044 -0.50300002 150 0 0 0 0.01021
1.24 0.045000002 -0.49900001 150 0 0 0 0.01022
1.238 0.045000002 -0.49399999 150 0 0 0 0.01023
1.238 0.045000002 -0.49000001 150 0 0 0 0.01024
1.239 0.045000002 -0.48699999 150 0 0 0 0.01025
1.24 0.046 -0.48199999 150 0 0 0 0.01026
1.2410001 0.046 -0.479 150 0 0 0 0.01027
1.243 0.046 -0.47499999 150 0 0 0 0.01028
1.238 0.046 -0.46900001 150 0 0 0 0.01029
1.239 0.046 -0.465 150 0 0 0 0.0103
1.24 0.046999998 -0.46200001 150 0 0 0 0.01031
1.24 0.046999998 -0.45699999 150 0 0 0 0.01032
1.238 0.046999998 -0.45199999 150 0 0 0 0.01033
1.2410001 0.046999998 -0.449 150 0 0 0 0.01034
1.239 0.046999998 -0.44400001 150 0 0 0 0.01035
1.243 0.046999998 -0.44100001 150 0 0 0 0.01036
1.242 0.046999998 -0.43700001 150 0 0 0 0.01037
1.242 0.046999998 -0.433 150 0 0 0 0.01038
1.243 0.046999998 -0.428 150 0 0 0 0.01039
1.242 0.046999998 -0.42399999 150 0 0 0 0.0104
1.243 0.048 -0.41999999 150 0 0 0 0.01041
1.24 0.046999998 -0.41499999 150 0 0 0 0.01042
1.2079999 0.046 -0.40000001 46 0 0 0 0.01043
1.17 0.045000002 -0.384 23 0 0 0 0.01044
1.227 0.046999998 -0.398 1 0 0 0 0.01045
0.949 0.035999998 -0.30500001 0 0 0 0 0.01046
0.84799999 0.032000002 -0.26899999 0 0 0 0 0.01047
0.82999998 0.030999999 -0.26100001 0 0 0 0 0.01048
0.82999998 0.030999999 -0.25799999 0 0 0 0 0.01049
0.90399998 0.034000002 -0.278 0 0 0 0 0.0105
1.0089999 0.037999999 -0.30700001 0 0 0 0 0.01051
1.0880001 0.041000001 -0.32699999 0 0 0 0 0.01052
1.132 0.043000001 -0.336 0 0 0 0 0.01053
1.164 0.044 -0.34200001 1 0 0 0 0.01054
1.1849999 0.044 -0.34400001 1 0 0 0 0.01055
1.183 0.044 -0.34 1 0 0 0 0.01056
1.21 0.045000002 -0.34299999 1 0 0 0 0.01057
1.22 0.045000002 -0.34200001 1 0 0 0 0.01058
1.223 0.045000002 -0.33899999 1 0 0 0 0.01059
1.223 0.045000002 -0.33500001 1 0 0 0 0.0106
1.232 0.045000002 -0.333 1 0 0 0 0.01061
1.229 0.045000002 -0.32800001 1 0 0 0 0.01062
1.225 0.045000002 -0.32300001 1 0 0 0 0.01063
1.2359999 0.045000002 -0.322 1 0 0 0 0.01064
1.227 0.044 -0.315 1 0 0 0 0.01065
1.23 0.044 -0.31200001 1 0 0 0 0.01066
1.2180001 0.043000001 -0.30500001 1 0 0 0 0.01067
1.202 0.041999999 -0.29699999 0 0 0 0 0.01068
1.204 0.041999999 -0.29300001 0 0 0 0 0.01069
1.2 0.041999999 -0.28799999 0 0 0 0 0.0107
1.2 0.041999999 -0.28400001 0 0 0 0 0.01071
1.186 0.041000001 -0.27700001 0 0 0 0 0.01072
1.196 0.041000001 -0.27500001 0 0 0 0 0.01073
1.212 0.041000001 -0.27500001 0 0 0 0 0.01074
1.2130001 0.041000001 -0.271 0 0 0 0 0.01075
1.217 0.041000001 -0.26800001 0 0 0 0 0.01076
1.2130001 0.039999999 -0.26300001 0 0 0 0 0.01077
1.188 0.039000001 -0.25400001 0 0 0 0 0.01078
1.214 0.039000001 -0.255 0 0 0 0 0.01079
1.233 0.039999999 -0.255 0 0 0 0 0.0108
1.2460001 0.039999999 -0.25400001 0 0 0 0 0.01081
1.2640001 0.039999999 -0.25299999 4 0 0 0 0.01082
1.251 0.039000001 -0.24600001 41 0 0 0 0.01083
1.249 0.039000001 -0.242 100 0 0 0 0.01084
1.249 0.037999999 -0.23800001 128 0 0 0 0.01085
1.25 0.037999999 -0.234 76 0 0 0 0.01086
1.251 0.037 -0.23 85 0 0 0 0.01087
1.249 0.037 -0.226 73 0 0 0 0.01088
1.249 0.035999998 -0.222 70 0 0 0 0.01089
1.249 0.035999998 -0.21699999 67 0 0 0 0.0109
1.251 0.035 -0.214 62 0 0 0 0.01091
1.251 0.035 -0.20999999 70 0 0 0 0.01092
1.251 0.035 -0.205 64 0 0 0 0.01093
1.252 0.034000002 -0.20200001 48 0 0 0 0.01094
1.251 0.034000002 -0.197 54 0 0 0 0.01095
1.252 0.033 -0.193 55 0 0 0 0.01096
1.253 0.033 -0.189 47 0 0 0 0.01097
1.25 0.032000002 -0.185 50 0 0 0 0.01098
1.251 0.030999999 -0.18099999 49 0 0 0 0.01099
1.252 0.030999999 -0.177 45 0 0 0 0.011
1.252 0.029999999 -0.17299999 44 0 0 0 0.01101
1.253 0.029999999 -0.169 43 0 0 0 0.01102
1.253 0.028999999 -0.16500001 45 0 0 0 0.01103
1.253 0.028999999 -0.161 49 0 0 0 0.01104
1.253 0.028000001 -0.15700001 45 0 0 0 0.01105
1.255 0.028000001 -0.153 44 0 0 0 0.01106
1.2539999 0.027000001 -0.149 40 0 0 0 0.01107
1.252 0.026000001 -0.145 37 0 0 0 0.01108
1.255 0.026000001 -0.141 44 0 0 0 0.01109
1.256 0.025 -0.13699999 46 0 0 0 0.0111
1.253 0.024 -0.133 35 0 0 0 0.01111
1.257 0.024 -0.12899999 39 0 0 0 0.01112
1.253 0.023 -0.125 37 0 0 0 0.01113
1.257 0.023 -0.121 42 0 0 0 0.01114
1.258 0.022 -0.117 38 0 0 0 0.01115
1.258 0.021 -0.113 40 0 0 0 0.01116
1.2589999 0.021 -0.109 41 0 0 0 0.01117
1.256 0.02 -0.105 39 0 0 0 0.01118
1.256 0.018999999 -0.101 38 0 0 0 0.01119
1.257 0.018999999 -0.097000003 40 0 0 0 0.0112
1.257 0.017999999 -0.093000002 40 0 0 0 0.01121
1.256 0.017000001 -0.089000002 41 0 0 0 0.01122
1.261 0.016000001 -0.085000001 50 0 0 0 0.01123
1.257 0.016000001 -0.081 47 0 0 0 0.01124
1.258 0.015 -0.077 39 0 0 0 0.01125
1.257 0.014 -0.072999999 36 0 0 0 0.01126
1.2589999 0.014 -0.068999998 37 0 0 0 0.01127
1.2589999 0.013 -0.064999998 42 0 0 0 0.01128
1.2589999 0.012 -0.061000001 37 0 0 0 0.01129
1.258 0.011 -0.057 40 0 0 0 0.0113
1.2589999 0.011 -0.052999999 35 0 0 0 0.01131
1.2589999 0.0099999998 -0.048999999 33 0 0 0 0.01132
1.263 0.0089999996 -0.045000002 42 0 0 0 0.01133
1.261 0.0080000004 -0.041000001 48 0 0 0 0.01134
1.261 0.0070000002 -0.037 47 0 0 0 0.01135
1.263 0.0070000002 -0.033 48 0 0 0 0.01136
1.26 0.0060000001 -0.028999999 38 0 0 0 0.01137
1.26 0.0049999999 -0.025 34 0 0 0 0.01138
1.26 0.0040000002 -0.021 41 0 0 0 0.01139
1.26 0.003 -0.017000001 38 0 0 0 0.0114
1.2589999 0.0020000001 -0.013 43 0 0 0 0.01141
1.263 0.0020000001 -0.0089999996 41 0 0 0 0.01142
1.2589999 0.001 -0.0049999999 39 0 0 0 0.01143
1.263 0 -0.001 42 0 0 0 0.01144
1.2589999 0 0.0020000001 32 0 0 0 0.01145
1.263 -0.001 0.0060000001 40 0 0 0 0.01146
1.2589999 -0.0020000001 0.0099999998 36 0 0 0 0.01147
1.263 -0.003 0.014 38 0 0 0 0.01148
1.2640001 -0.003 0.017999999 41 0 0 0 0.01149
1.261 -0.0040000002 0.022 44 0 0 0 0.0115
1.2640001 -0.0049999999 0.026000001 46 0 0 0 0.01151
1.258 -0.0060000001 0.029999999 47 0 0 0 0.01152
1.261 -0.0070000002 0.034000002 46 0 0 0 0.01153
1.267 -0.0080000004 0.037999999 44 0 0 0 0.01154
1.261 -0.0089999996 0.041999999 42 0 0 0 0.01155
1.263 -0.0099999998 0.046 48 0 0 0 0.01156
1.26 -0.011 0.050000001 1 0 0 0 0.01157
1.262 -0.012 0.054000001 53 0 0 0 0.01158
1.263 -0.013 0.057999998 47 0 0 0 0.01159
1.266 -0.014 0.061999999 47 0 0 0 0.0116
1.262 -0.015 0.066 53 0 0 0 0.01161
1.2589999 -0.016000001 0.07 53 0 0 0 0.01162
1.263 -0.017000001 0.074000001 54 0 0 0 0.01163
1.261 -0.017999999 0.078000002 44 0 0 0 0.01164
1.261 -0.018999999 0.082000002 48 0 0 0 0.01165
1.262 -0.02 0.086000003 50 0 0 0 0.01166
1.262 -0.021 0.090000004 42 0 0 0 0.01167
1.261 -0.022 0.093999997 54 0 0 0 0.01168
1.263 -0.023 0.097999997 52 0 0 0 0.01169
1.263 -0.024 0.102 54 0 0 0 0.0117
1.2640001 -0.025 0.106 65 0 0 0 0.01171
1.262 -0.026000001 0.11 50 0 0 0 0.01172
1.2640001 -0.027000001 0.114 53 0 0 0 0.01173
1.263 -0.028000001 0.118 53 0 0 0 0.01174
1.261 -0.028999999 0.122 74 0 0 0 0.01175
1.2589999 -0.029999999 0.125 66 0 0 0 0.01176
1.258 -0.030999999 0.12899999 72 0 0 0 0.01177
1.26 -0.032000002 0.133 72 0 0 0 0.01178
1.258 -0.033 0.13699999 53 0 0 0 0.01179
1.252 -0.034000002 0.14 25 0 0 0 0.0118
1.257 -0.035999998 0.145 7 0 0 0 0.01181
1.227 -0.035999998 0.145 3 0 0 0 0.01182
1.182 -0.035999998 0.14399999 0 0 0 0 0.01183
1.176 -0.035999998 0.147 0 0 0 0 0.01184
1.168 -0.037 0.149 0 0 0 0 0.01185
1.176 -0.039000001 0.154 0 0 0 0 0.01186
1.164 -0.039000001 0.156 0 0 0 0 0.01187
1.166 -0.039999999 0.16 4 0 0 0 0.01188
1.164 -0.041999999 0.163 4 0 0 0 0.01189
1.168 -0.043000001 0.168 4 0 0 0 0.0119
1.1720001 -0.044 0.17200001 4 0 0 0 0.01191
1.166 -0.045000002 0.175 2 0 0 0 0.01192
1.171 -0.046 0.17900001 1 0 0 0 0.01193
1.156 -0.046999998 0.18099999 4 0 0 0 0.01194
1.147 -0.048 0.183 4 0 0 0 0.01195
1.156 -0.048999999 0.18799999 5 0 0 0 0.01196
1.219 -0.052999999 0.20200001 28 0 0 0 0.01197
1.249 -0.056000002 0.211 15 0 0 0 0.01198
1.275 -0.057999998 0.219 4 0 0 0 0.01199
1.191 -0.055 0.208 0 0 0 0 0.012
1.151 -0.055 0.205 0 0 0 0 0.01201
1.161 -0.056000002 0.20999999 0 0 0 0 0.01202
1.164 -0.057999998 0.215 0 0 0 0 0.01203
1.1670001 -0.059 0.219 4 0 0 0 0.01204
1.1569999 -0.059999999 0.221 8 0 0 0 0.01205
1.158 -0.061000001 0.22400001 15 0 0 0 0.01206
1.189 -0.064000003 0.234 6 0 0 0 0.01207
1.206 -0.066 0.241 3 0 0 0 0.01208
1.183 -0.066 0.23999999 0 0 0 0 0.01209
1.176 -0.067000002 0.243 0 0 0 0 0.0121
1.179 -0.068999998 0.24699999 0 0 0 0 0.01211
1.174 -0.07 0.25 0 0 0 0 0.01212
1.182 -0.071000002 0.255 0 0 0 0 0.01213
1.176 -0.071999997 0.257 0 0 0 0 0.01214
1.175 -0.074000001 0.26100001 0 0 0 0 0.01215
