# .PCD v0.7 - Point Cloud Data file format
VERSION 0.7
FIELDS x y z intensity normal_x normal_y normal_z curvature
SIZE 4 4 4 4 4 4 4 4
TYPE F F F F F F F F
COUNT 1 1 1 1 1 1 1 1
WIDTH 1022
HEIGHT 1
VIEWPOINT 0 0 0 1 0 0 0
POINTS 1022
DATA ascii
1.599 0.046 0.41100001 150 0 0 0 0.034710001
1.602 0.046 0.417 150 0 0 0 0.03472
1.603 0.046999998 0.42300001 150 0 0 0 0.034729999
1.602 0.046999998 0.428 150 0 0 0 0.034740001
1.6 0.046999998 0.433 150 0 0 0 0.03475
1.6 0.046999998 0.43799999 150 0 0 0 0.034759998
1.598 0.046999998 0.44299999 150 0 0 0 0.034770001
1.599 0.046999998 0.449 150 0 0 0 0.034779999
1.598 0.046999998 0.454 150 0 0 0 0.034790002
1.598 0.046999998 0.45899999 150 0 0 0 0.0348
1.601 0.046999998 0.465 150 0 0 0 0.034809999
1.6 0.046999998 0.47 150 0 0 0 0.034820002
1.598 0.046999998 0.47499999 150 0 0 0 0.03483
1.595 0.046999998 0.47999999 150 0 0 0 0.034839999
1.6 0.046999998 0.48699999 150 0 0 0 0.034850001
1.597 0.046999998 0.491 150 0 0 0 0.03486
1.598 0.046999998 0.49700001 150 0 0 0 0.034869999
1.601 0.046999998 0.50300002 150 0 0 0 0.034880001
1.603 0.046999998 0.509 150 0 0 0 0.03489
1.597 0.046999998 0.51300001 150 0 0 0 0.034899998
1.6 0.046999998 0.51899999 150 0 0 0 0.034910001
1.598 0.046999998 0.52399999 150 0 0 0 0.03492
1.599 0.046 0.52999997 150 0 0 0 0.034929998
1.596 0.046 0.53399998 150 0 0 0 0.034940001
1.596 0.046 0.54000002 150 0 0 0 0.034949999
1.598 0.046 0.546 150 0 0 0 0.034960002
1.599 0.046 0.55199999 150 0 0 0 0.03497
1.599 0.046 0.55699998 150 0 0 0 0.034979999
1.594 0.045000002 0.56099999 150 0 0 0 0.034990001
1.598 0.045000002 0.56699997 150 0 0 0 0.035
1.5930001 0.045000002 0.57099998 150 0 0 0 0.035009999
1.596 0.044 0.57800001 150 0 0 0 0.035020001
1.598 0.044 0.58399999 150 0 0 0 0.03503
1.598 0.044 0.58899999 150 0 0 0 0.035039999
1.598 0.044 0.59500003 150 0 0 0 0.035050001
1.596 0.043000001 0.59899998 150 0 0 0 0.03506
1.594 0.043000001 0.60399997 150 0 0 0 0.035069998
1.592 0.041999999 0.60900003 150 0 0 0 0.035080001
1.596 0.041999999 0.616 150 0 0 0 0.035089999
1.597 0.041999999 0.62199998 150 0 0 0 0.035100002
1.595 0.041000001 0.62599999 150 0 0 0 0.035110001
1.5930001 0.041000001 0.63099998 150 0 0 0 0.035119999
1.592 0.039999999 0.63599998 150 0 0 0 0.035130002
1.594 0.039999999 0.64200002 150 0 0 0 0.03514
1.5930001 0.039000001 0.64700001 150 0 0 0 0.035149999
1.5930001 0.039000001 0.65200001 150 0 0 0 0.035160001
1.5930001 0.037999999 0.65799999 150 0 0 0 0.03517
1.598 0.037999999 0.66500002 150 0 0 0 0.035179999
1.59 0.037 0.667 150 0 0 0 0.035190001
1.594 0.035999998 0.67500001 150 0 0 0 0.0352
1.5930001 0.035999998 0.68000001 150 0 0 0 0.035209998
1.591 0.035 0.68400002 150 0 0 0 0.035220001
1.589 0.034000002 0.68900001 150 0 0 0 0.03523
1.598 0.034000002 0.69800001 150 0 0 0 0.035239998
1.5930001 0.033 0.70099998 150 0 0 0 0.035250001
1.592 0.032000002 0.70599997 150 0 0 0 0.035259999
1.5930001 0.032000002 0.71200001 150 0 0 0 0.035270002
1.591 0.030999999 0.71600002 150 0 0 0 0.03528
1.589 0.029999999 0.72100002 150 0 0 0 0.035289999
1.5930001 0.028999999 0.72799999 150 0 0 0 0.035300002
1.591 0.028000001 0.73199999 150 0 0 0 0.03531
1.59 0.028000001 0.73699999 150 0 0 0 0.035319999
1.587 0.027000001 0.741 150 0 0 0 0.035330001
1.586 0.026000001 0.74599999 150 0 0 0 0.03534
1.586 0.025 0.75099999 150 0 0 0 0.035349999
1.584 0.024 0.75599998 150 0 0 0 0.035360001
1.584 0.023 0.76099998 150 0 0 0 0.03537
1.586 0.022 0.76700002 150 0 0 0 0.035379998
1.585 0.021 0.77200001 150 0 0 0 0.035390001
1.597 0.02 0.78299999 150 0 0 0 0.035399999
1.58 0.018999999 0.77999997 150 0 0 0 0.035409998
1.595 0.017999999 0.79299998 151 0 0 0 0.035420001
1.5930001 0.017000001 0.79699999 150 0 0 0 0.035429999
1.591 0.016000001 0.801 151 0 0 0 0.035440002
1.59 0.015 0.80500001 150 0 0 0 0.03545
1.595 0.013 0.81300002 151 0 0 0 0.035459999
1.5930001 0.012 0.81699997 150 0 0 0 0.035470001
1.591 0.011 0.82099998 150 0 0 0 0.03548
1.589 0.0099999998 0.82499999 150 0 0 0 0.035489999
1.587 0.0089999996 0.829 150 0 0 0 0.035500001
1.592 0.0070000002 0.838 150 0 0 0 0.03551
1.589 0.0060000001 0.84100002 150 0 0 0 0.035519999
1.591 0.0049999999 0.847 150 0 0 0 0.035530001
1.589 0.0040000002 0.85100001 150 0 0 0 0.03554
1.5880001 0.0020000001 0.85500002 150 0 0 0 0.035549998
1.587 0.001 0.86000001 150 0 0 0 0.035560001
1.584 0 0.86299998 150 0 0 0 0.035569999
1.584 -0.001 0.86799997 150 0 0 0 0.035580002
1.582 -0.0020000001 0.87199998 150 0 0 0 0.03559
1.5880001 -0.0040000002 0.88 150 0 0 0 0.035599999
1.586 -0.0049999999 0.88300002 150 0 0 0 0.035610002
1.582 -0.0070000002 0.88599998 150 0 0 0 0.03562
1.584 -0.0080000004 0.89200002 150 0 0 0 0.035629999
1.582 -0.0099999998 0.89600003 150 0 0 0 0.035640001
1.581 -0.011 0.89999998 150 0 0 0 0.03565
1.579 -0.013 0.903 150 0 0 0 0.035659999
1.5779999 -0.015 0.90700001 150 0 0 0 0.035670001
1.572 -0.016000001 0.90799999 150 0 0 0 0.03568
1.577 -0.017999999 0.91600001 150 0 0 0 0.035689998
1.576 -0.018999999 0.91900003 150 0 0 0 0.035700001
1.576 -0.021 0.92400002 150 0 0 0 0.03571
1.572 -0.023 0.926 150 0 0 0 0.035719998
1.5700001 -0.024 0.92900002 150 0 0 0 0.035730001
1.573 -0.026000001 0.93599999 150 0 0 0 0.035739999
1.573 -0.028000001 0.94 150 0 0 0 0.035750002
1.571 -0.029999999 0.94300002 150 0 0 0 0.03576
1.571 -0.032000002 0.94700003 150 0 0 0 0.035769999
1.5700001 -0.033 0.95099998 150 0 0 0 0.035780001
1.568 -0.035 0.954 150 0 0 0 0.03579
1.5650001 -0.037 0.95599997 150 0 0 0 0.035799999
1.5650001 -0.039000001 0.95999998 150 0 0 0 0.035810001
1.564 -0.041000001 0.96399999 150 0 0 0 0.03582
1.5650001 -0.043000001 0.96899998 150 0 0 0 0.035829999
1.564 -0.045000002 0.97100002 150 0 0 0 0.035840001
1.561 -0.046 0.97399998 150 0 0 0 0.03585
1.562 -0.048 0.97799999 150 0 0 0 0.035859998
1.557 -0.050000001 0.97899997 150 0 0 0 0.035870001
1.559 -0.052000001 0.98400003 150 0 0 0 0.035879999
1.554 -0.054000001 0.98400003 150 0 0 0 0.035890002
1.558 -0.056000002 0.991 150 0 0 0 0.0359
1.557 -0.057999998 0.99400002 150 0 0 0 0.035909999
1.552 -0.059999999 0.99400002 150 0 0 0 0.035920002
1.5549999 -0.061999999 0.99900001 150 0 0 0 0.03593
1.552 -0.064000003 1 150 0 0 0 0.035939999
1.553 -0.066 1.005 150 0 0 0 0.035950001
1.552 -0.068000004 1.007 150 0 0 0 0.03596
1.55 -0.07 1.0089999 150 0 0 0 0.035969999
1.549 -0.072999999 1.011 150 0 0 0 0.035980001
1.5470001 -0.075000003 1.013 150 0 0 0 0.03599
1.546 -0.077 1.016 150 0 0 0 0.035999998
1.545 -0.079000004 1.018 150 0 0 0 0.036010001
1.545 -0.081 1.021 150 0 0 0 0.03602
1.5420001 -0.082999997 1.021 150 0 0 0 0.036029998
1.54 -0.085000001 1.023 150 0 0 0 0.036040001
1.5470001 -0.088 1.03 150 0 0 0 0.036049999
1.538 -0.089000002 1.027 150 0 0 0 0.036060002
1.541 -0.092 1.031 150 0 0 0 0.03607
1.539 -0.093999997 1.033 150 0 0 0 0.036079999
1.538 -0.096000001 1.035 150 0 0 0 0.036090001
1.5369999 -0.097999997 1.036 150 0 0 0 0.0361
1.536 -0.101 1.038 150 0 0 0 0.036109999
1.535 -0.103 1.039 150 0 0 0 0.036120001
1.53 -0.105 1.038 150 0 0 0 0.03613
1.533 -0.107 1.0420001 150 0 0 0 0.036139999
1.5319999 -0.109 1.043 150 0 0 0 0.036150001
1.531 -0.112 1.044 150 0 0 0 0.03616
1.53 -0.114 1.045 150 0 0 0 0.036169998
1.529 -0.116 1.0470001 150 0 0 0 0.036180001
1.528 -0.118 1.048 150 0 0 0 0.036189999
1.527 -0.121 1.049 150 0 0 0 0.036200002
1.526 -0.123 1.049 150 0 0 0 0.036210001
1.525 -0.125 1.05 150 0 0 0 0.036219999
1.525 -0.127 1.051 150 0 0 0 0.036230002
1.52 -0.12899999 1.049 150 0 0 0 0.03624
1.5190001 -0.131 1.05 150 0 0 0 0.036249999
1.5190001 -0.133 1.05 150 0 0 0 0.036260001
1.521 -0.13600001 1.053 150 0 0 0 0.03627
1.517 -0.138 1.051 150 0 0 0 0.036279999
1.5140001 -0.14 1.05 150 0 0 0 0.036290001
1.516 -0.142 1.052 150 0 0 0 0.0363
1.513 -0.14399999 1.051 150 0 0 0 0.036309998
1.512 -0.146 1.051 150 0 0 0 0.036320001
1.5089999 -0.148 1.049 150 0 0 0 0.03633
1.511 -0.15099999 1.051 150 0 0 0 0.036339998
1.511 -0.153 1.051 150 0 0 0 0.036350001
1.511 -0.155 1.051 150 0 0 0 0.036359999
1.508 -0.15700001 1.05 150 0 0 0 0.036370002
1.506 -0.15899999 1.049 150 0 0 0 0.03638
1.506 -0.161 1.049 150 0 0 0 0.036389999
1.503 -0.163 1.046 150 0 0 0 0.036400001
1.503 -0.16500001 1.046 150 0 0 0 0.03641
1.502 -0.167 1.045 150 0 0 0 0.036419999
1.502 -0.169 1.045 150 0 0 0 0.036430001
1.499 -0.171 1.043 150 0 0 0 0.03644
1.502 -0.17299999 1.044 150 0 0 0 0.036449999
1.498 -0.175 1.041 150 0 0 0 0.036460001
1.5 -0.177 1.041 150 0 0 0 0.03647
1.494 -0.17900001 1.0369999 150 0 0 0 0.036479998
1.494 -0.18099999 1.036 150 0 0 0 0.036490001
1.493 -0.183 1.034 150 0 0 0 0.036499999
1.492 -0.185 1.033 150 0 0 0 0.036509998
1.493 -0.18700001 1.0319999 150 0 0 0 0.036520001
1.489 -0.18799999 1.028 150 0 0 0 0.036529999
1.489 -0.19 1.027 150 0 0 0 0.036540002
1.49 -0.192 1.026 150 0 0 0 0.03655
1.49 -0.19400001 1.025 150 0 0 0 0.036559999
1.488 -0.19499999 1.022 150 0 0 0 0.036570001
1.49 -0.198 1.022 150 0 0 0 0.03658
1.487 -0.199 1.018 150 0 0 0 0.036589999
1.484 -0.2 1.015 150 0 0 0 0.036600001
1.483 -0.20200001 1.013 150 0 0 0 0.03661
1.4859999 -0.204 1.012 150 0 0 0 0.036619999
1.4859999 -0.206 1.011 150 0 0 0 0.036630001
1.485 -0.207 1.008 150 0 0 0 0.03664
1.48 -0.208 1.003 150 0 0 0 0.036649998
1.48 -0.20999999 1 150 0 0 0 0.036660001
1.479 -0.211 0.99800003 150 0 0 0 0.036669999
1.476 -0.212 0.99299997 150 0 0 0 0.036680002
1.476 -0.214 0.991 150 0 0 0 0.03669
1.476 -0.21600001 0.98900002 150 0 0 0 0.036699999
1.475 -0.21699999 0.986 150 0 0 0 0.036710002
1.472 -0.21799999 0.98100001 150 0 0 0 0.03672
1.47 -0.219 0.977 150 0 0 0 0.036729999
1.473 -0.221 0.977 150 0 0 0 0.036740001
1.47 -0.222 0.972 150 0 0 0 0.03675
1.471 -0.223 0.97000003 150 0 0 0 0.036759999
1.472 -0.22499999 0.96700001 150 0 0 0 0.036770001
1.47 -0.226 0.96399999 150 0 0 0 0.03678
1.469 -0.227 0.95999998 150 0 0 0 0.036789998
1.471 -0.229 0.958 150 0 0 0 0.036800001
1.471 -0.23 0.95499998 150 0 0 0 0.036809999
1.469 -0.23100001 0.95099998 150 0 0 0 0.036819998
1.467 -0.23100001 0.94599998 150 0 0 0 0.036830001
1.469 -0.233 0.94400001 150 0 0 0 0.036839999
1.467 -0.234 0.94 150 0 0 0 0.036850002
1.465 -0.234 0.935 150 0 0 0 0.03686
1.466 -0.236 0.93199998 150 0 0 0 0.036869999
1.466 -0.237 0.92900002 150 0 0 0 0.036880001
1.467 -0.23800001 0.926 150 0 0 0 0.03689
1.4630001 -0.23800001 0.92000002 150 0 0 0 0.036899999
1.464 -0.23899999 0.917 150 0 0 0 0.036910001
1.46 -0.23899999 0.91100001 150 0 0 0 0.03692
1.461 -0.23999999 0.90799999 150 0 0 0 0.036929999
1.4630001 -0.242 0.90499997 150 0 0 0 0.036940001
1.464 -0.243 0.903 150 0 0 0 0.03695
1.466 -0.244 0.89999998 150 0 0 0 0.036959998
1.46 -0.243 0.89200002 150 0 0 0 0.036970001
1.462 -0.244 0.889 150 0 0 0 0.036979999
1.4630001 -0.245 0.88599998 150 0 0 0 0.036990002
1.462 -0.24600001 0.88200003 150 0 0 0 0.037
1.46 -0.24600001 0.87599999 150 0 0 0 0.037009999
1.456 -0.24600001 0.87 150 0 0 0 0.037020002
1.461 -0.24699999 0.86900002 150 0 0 0 0.03703
1.457 -0.24699999 0.86299998 150 0 0 0 0.037039999
1.454 -0.24699999 0.85600001 150 0 0 0 0.037050001
1.461 -0.249 0.85600001 150 0 0 0 0.03706
1.455 -0.248 0.84899998 150 0 0 0 0.037069999
1.456 -0.249 0.84500003 150 0 0 0 0.037080001
1.4579999 -0.249 0.84200001 150 0 0 0 0.03709
1.46 -0.25 0.83899999 150 0 0 0 0.037099998
1.457 -0.25 0.833 150 0 0 0 0.037110001
1.4579999 -0.25 0.829 150 0 0 0 0.03712
1.46 -0.25099999 0.82599998 150 0 0 0 0.037129998
1.462 -0.25099999 0.82300001 150 0 0 0 0.037140001
1.454 -0.25 0.81400001 150 0 0 0 0.037149999
1.454 -0.25 0.80900002 150 0 0 0 0.037160002
1.4579999 -0.25099999 0.80699998 150 0 0 0 0.03717
1.455 -0.25099999 0.801 150 0 0 0 0.037179999
1.456 -0.25099999 0.79699999 150 0 0 0 0.037190001
1.4529999 -0.25 0.79100001 150 0 0 0 0.0372
1.455 -0.25099999 0.787 150 0 0 0 0.037209999
1.457 -0.25099999 0.78399998 150 0 0 0 0.037220001
1.459 -0.25099999 0.77999997 150 0 0 0 0.03723
1.455 -0.25099999 0.77399999 150 0 0 0 0.037239999
1.455 -0.25 0.76899999 150 0 0 0 0.037250001
1.454 -0.25 0.764 150 0 0 0 0.03726
1.456 -0.25 0.75999999 150 0 0 0 0.037269998
1.4579999 -0.25 0.75599998 150 0 0 0 0.037280001
1.4529999 -0.249 0.74900001 150 0 0 0 0.037289999
1.454 -0.249 0.745 150 0 0 0 0.037300002
1.456 -0.25 0.74199998 150 0 0 0 0.037310001
1.4579999 -0.25 0.73799998 150 0 0 0 0.037319999
1.457 -0.249 0.73299998 150 0 0 0 0.037330002
1.457 -0.249 0.72799999 150 0 0 0 0.03734
1.456 -0.248 0.722 150 0 0 0 0.037349999
1.4579999 -0.248 0.71899998 150 0 0 0 0.037360001
1.46 -0.248 0.71499997 150 0 0 0 0.03737
1.459 -0.24699999 0.70999998 150 0 0 0 0.037379999
1.464 -0.248 0.70700002 150 0 0 0 0.037390001
1.455 -0.24600001 0.69800001 150 0 0 0 0.0374
1.457 -0.24600001 0.69400001 150 0 0 0 0.037409998
1.459 -0.245 0.69 150 0 0 0 0.037420001
1.461 -0.245 0.68599999 150 0 0 0 0.03743
1.46 -0.244 0.68099999 150 0 0 0 0.037439998
1.4630001 -0.244 0.67699999 150 0 0 0 0.037450001
1.464 -0.244 0.67299998 150 0 0 0 0.037459999
1.4579999 -0.242 0.66600001 150 0 0 0 0.037470002
1.46 -0.242 0.662 150 0 0 0 0.03748
1.459 -0.241 0.65700001 150 0 0 0 0.037489999
1.456 -0.23999999 0.64999998 150 0 0 0 0.037500001
1.4579999 -0.23899999 0.64600003 150 0 0 0 0.03751
1.455 -0.23800001 0.63999999 150 0 0 0 0.037519999
1.456 -0.23800001 0.63599998 150 0 0 0 0.037530001
1.4630001 -0.23800001 0.634 150 0 0 0 0.03754
1.46 -0.237 0.62699997 150 0 0 0 0.037549999
1.461 -0.236 0.62300003 150 0 0 0 0.037560001
1.46 -0.235 0.61799997 150 0 0 0 0.03757
1.461 -0.234 0.61400002 150 0 0 0 0.037579998
1.462 -0.234 0.60900003 150 0 0 0 0.037590001
1.465 -0.233 0.60500002 150 0 0 0 0.037599999
1.464 -0.23199999 0.60000002 150 0 0 0 0.037610002
1.4630001 -0.23100001 0.59500003 150 0 0 0 0.037620001
1.465 -0.23 0.59100002 150 0 0 0 0.037629999
1.465 -0.229 0.58600003 150 0 0 0 0.037640002
1.466 -0.228 0.58099997 150 0 0 0 0.03765
1.465 -0.227 0.57599998 150 0 0 0 0.037659999
1.469 -0.227 0.57300001 150 0 0 0 0.037670001
1.466 -0.22499999 0.56599998 150 0 0 0 0.03768
1.469 -0.22499999 0.56300002 150 0 0 0 0.037689999
1.469 -0.22400001 0.55800003 150 0 0 0 0.037700001
1.47 -0.223 0.55299997 150 0 0 0 0.03771
1.4680001 -0.221 0.54799998 150 0 0 0 0.037719999
1.471 -0.22 0.54400003 150 0 0 0 0.037730001
1.469 -0.219 0.53899997 150 0 0 0 0.03774
1.47 -0.21799999 0.53399998 150 0 0 0 0.037749998
1.472 -0.21699999 0.52999997 150 0 0 0 0.037760001
1.472 -0.21600001 0.52499998 150 0 0 0 0.037769999
1.475 -0.215 0.52100003 150 0 0 0 0.037780002
1.472 -0.213 0.51499999 150 0 0 0 0.03779
1.474 -0.212 0.51099998 150 0 0 0 0.037799999
1.475 -0.211 0.50599998 150 0 0 0 0.037810002
1.479 -0.20999999 0.50300002 150 0 0 0 0.03782
1.478 -0.20900001 0.49700001 150 0 0 0 0.037829999
1.479 -0.208 0.493 150 0 0 0 0.037840001
1.478 -0.206 0.48800001 150 0 0 0 0.03785
1.475 -0.205 0.48199999 150 0 0 0 0.037859999
1.477 -0.20299999 0.47799999 150 0 0 0 0.037870001
1.4809999 -0.20299999 0.47400001 150 0 0 0 0.03788
1.4809999 -0.20100001 0.46900001 150 0 0 0 0.037889998
1.4809999 -0.2 0.465 150 0 0 0 0.037900001
1.4859999 -0.199 0.461 150 0 0 0 0.037909999
1.482 -0.197 0.45500001 150 0 0 0 0.037919998
1.483 -0.19599999 0.45100001 150 0 0 0 0.037930001
1.479 -0.19400001 0.44499999 150 0 0 0 0.037939999
1.48 -0.192 0.44 150 0 0 0 0.037950002
1.482 -0.191 0.43599999 150 0 0 0 0.03796
1.489 -0.19 0.433 150 0 0 0 0.037969999
1.485 -0.18799999 0.42699999 150 0 0 0 0.037980001
1.4859999 -0.18700001 0.42300001 150 0 0 0 0.03799
1.487 -0.186 0.41800001 150 0 0 0 0.037999999
1.489 -0.184 0.414 150 0 0 0 0.038010001
1.482 -0.182 0.40700001 150 0 0 0 0.03802
1.492 -0.18099999 0.405 150 0 0 0 0.038029999
1.493 -0.18000001 0.40099999 150 0 0 0 0.038040001
1.494 -0.178 0.396 150 0 0 0 0.03805
1.487 -0.176 0.38999999 150 0 0 0 0.038059998
1.488 -0.17399999 0.38499999 150 0 0 0 0.038070001
1.49 -0.17299999 0.38100001 150 0 0 0 0.038079999
1.5 -0.17200001 0.37900001 150 0 0 0 0.038090002
1.492 -0.17 0.37200001 150 0 0 0 0.0381
1.494 -0.168 0.368 150 0 0 0 0.038109999
1.495 -0.167 0.36300001 150 0 0 0 0.038120002
1.4960001 -0.16500001 0.359 150 0 0 0 0.03813
1.497 -0.164 0.354 150 0 0 0 0.038139999
1.499 -0.162 0.34999999 150 0 0 0 0.038150001
1.5 -0.16 0.34599999 150 0 0 0 0.03816
1.501 -0.15899999 0.34099999 150 0 0 0 0.038169999
1.502 -0.15700001 0.33700001 150 0 0 0 0.038180001
1.503 -0.156 0.33199999 150 0 0 0 0.03819
1.5039999 -0.154 0.32800001 150 0 0 0 0.038199998
1.506 -0.152 0.32300001 150 0 0 0 0.038210001
1.5039999 -0.15000001 0.31799999 150 0 0 0 0.03822
1.508 -0.149 0.31400001 150 0 0 0 0.038229998
1.5089999 -0.147 0.31 150 0 0 0 0.038240001
1.507 -0.145 0.30500001 150 0 0 0 0.038249999
1.508 -0.14300001 0.301 150 0 0 0 0.038260002
1.506 -0.141 0.29499999 150 0 0 0 0.03827
1.507 -0.14 0.29100001 150 0 0 0 0.038279999
1.511 -0.138 0.287 150 0 0 0 0.038290001
1.512 -0.13600001 0.28299999 150 0 0 0 0.0383
1.5089999 -0.134 0.278 150 0 0 0 0.038309999
1.511 -0.132 0.273 150 0 0 0 0.038320001
1.515 -0.131 0.26899999 150 0 0 0 0.03833
1.5089999 -0.12800001 0.264 150 0 0 0 0.038339999
1.5140001 -0.127 0.25999999 150 0 0 0 0.038350001
1.5089999 -0.124 0.25400001 150 0 0 0 0.03836
1.51 -0.123 0.25 150 0 0 0 0.038369998
1.513 -0.121 0.24600001 150 0 0 0 0.038380001
1.5140001 -0.119 0.241 150 0 0 0 0.038389999
1.589 0.44100001 -0.579 150 0 0 0 0.040320002
1.5829999 0.44299999 -0.58099997 150 0 0 0 0.04033
1.585 0.44800001 -0.58499998 150 0 0 0 0.040339999
1.582 0.45100001 -0.58700001 151 0 0 0 0.040350001
1.58 0.45500001 -0.58999997 151 0 0 0 0.04036
1.579 0.458 -0.59299999 151 0 0 0 0.040369999
1.576 0.46200001 -0.59600002 150 0 0 0 0.040380001
1.574 0.465 -0.59799999 151 0 0 0 0.04039
1.574 0.46900001 -0.602 151 0 0 0 0.040399998
1.572 0.472 -0.60399997 150 0 0 0 0.040410001
1.568 0.47499999 -0.60600001 150 0 0 0 0.04042
1.566 0.479 -0.60900003 150 0 0 0 0.040429998
1.567 0.48300001 -0.61199999 150 0 0 0 0.040440001
1.566 0.48699999 -0.61500001 150 0 0 0 0.040449999
1.563 0.49000001 -0.61699998 150 0 0 0 0.040460002
1.562 0.49399999 -0.62 150 0 0 0 0.04047
1.559 0.49700001 -0.62199998 150 0 0 0 0.040479999
1.557 0.5 -0.62400001 150 0 0 0 0.040490001
1.556 0.50400001 -0.62699997 150 0 0 0 0.0405
1.556 0.50800002 -0.63 150 0 0 0 0.040509999
1.5549999 0.51200002 -0.63300002 151 0 0 0 0.040520001
1.553 0.51499999 -0.63499999 150 0 0 0 0.04053
1.551 0.51899999 -0.63700002 150 0 0 0 0.040539999
1.549 0.52200001 -0.639 150 0 0 0 0.040550001
1.545 0.52499998 -0.64099997 151 0 0 0 0.04056
1.5470001 0.52999997 -0.64399999 151 0 0 0 0.040569998
1.543 0.53299999 -0.64499998 150 0 0 0 0.040580001
1.548 0.53799999 -0.64999998 150 0 0 0 0.040589999
1.541 0.54000002 -0.64999998 150 0 0 0 0.040600002
1.544 0.54500002 -0.65399998 150 0 0 0 0.04061
1.538 0.54699999 -0.65499997 150 0 0 0 0.040619999
1.54 0.55199999 -0.65799999 150 0 0 0 0.040630002
1.539 0.55599999 -0.66000003 150 0 0 0 0.04064
1.5319999 0.55699998 -0.66000003 150 0 0 0 0.040649999
1.535 0.56199998 -0.66399997 150 0 0 0 0.040660001
1.53 0.565 -0.66399997 150 0 0 0 0.04067
1.534 0.56999999 -0.66799998 150 0 0 0 0.040679999
1.529 0.57200003 -0.66900003 150 0 0 0 0.040690001
1.526 0.57499999 -0.67000002 150 0 0 0 0.0407
1.525 0.579 -0.67199999 150 0 0 0 0.040709998
1.523 0.58200002 -0.67299998 150 0 0 0 0.040720001
1.52 0.58499998 -0.67400002 150 0 0 0 0.04073
1.5190001 0.58899999 -0.676 150 0 0 0 0.040739998
1.5190001 0.59299999 -0.67799997 150 0 0 0 0.040750001
1.517 0.59600002 -0.68000001 150 0 0 0 0.040759999
1.517 0.60000002 -0.68199998 57 0 0 0 0.040770002
1.515 0.60299999 -0.68300003 150 0 0 0 0.04078
1.513 0.60600001 -0.68400002 150 0 0 0 0.040789999
1.511 0.60900003 -0.685 150 0 0 0 0.040800001
1.5190001 0.61699998 -0.69099998 151 0 0 0 0.04081
1.508 0.616 -0.68699998 150 0 0 0 0.040819999
1.516 0.62300003 -0.69300002 151 0 0 0 0.040830001
1.517 0.62699997 -0.69499999 151 0 0 0 0.04084
1.515 0.63 -0.69599998 151 0 0 0 0.040849999
1.513 0.634 -0.69700003 151 0 0 0 0.040860001
1.516 0.639 -0.69999999 151 0 0 0 0.04087
1.51 0.63999999 -0.699 151 0 0 0 0.040879998
1.508 0.64300001 -0.699 150 0 0 0 0.040890001
1.506 0.64600003 -0.69999999 151 0 0 0 0.040899999
1.505 0.64899999 -0.70099998 151 0 0 0 0.040910002
1.503 0.65200001 -0.70200002 151 0 0 0 0.040920001
1.5039999 0.65600002 -0.70300001 151 0 0 0 0.040929999
1.502 0.65899998 -0.704 151 0 0 0 0.040940002
1.498 0.66100001 -0.70300001 151 0 0 0 0.04095
1.501 0.66600001 -0.70599997 151 0 0 0 0.040959999
1.499 0.66900003 -0.70599997 151 0 0 0 0.040970001
1.4960001 0.671 -0.70599997 151 0 0 0 0.04098
1.492 0.67199999 -0.70499998 151 0 0 0 0.040989999
1.4960001 0.67799997 -0.708 150 0 0 0 0.041000001
1.494 0.68000001 -0.708 151 0 0 0 0.04101
1.492 0.68300003 -0.708 150 0 0 0 0.041019998
1.4910001 0.68599999 -0.708 151 0 0 0 0.041030001
1.488 0.68800002 -0.70700002 151 0 0 0 0.04104
1.484 0.68900001 -0.70599997 151 0 0 0 0.041049998
1.488 0.69400001 -0.70899999 151 0 0 0 0.041060001
1.4809999 0.69499999 -0.70599997 151 0 0 0 0.041069999
1.484 0.699 -0.708 151 0 0 0 0.041080002
1.484 0.70200002 -0.70899999 151 0 0 0 0.04109
1.482 0.70499998 -0.708 151 0 0 0 0.041099999
1.4809999 0.70700002 -0.708 151 0 0 0 0.041110002
1.48 0.70999998 -0.708 151 0 0 0 0.04112
1.479 0.713 -0.708 151 0 0 0 0.041129999
1.477 0.71499997 -0.70700002 151 0 0 0 0.041140001
1.476 0.71700001 -0.70700002 151 0 0 0 0.04115
1.475 0.72000003 -0.70700002 151 0 0 0 0.041159999
1.474 0.722 -0.70599997 151 0 0 0 0.041170001
1.476 0.72600001 -0.70700002 150 0 0 0 0.04118
1.475 0.72799999 -0.70599997 150 0 0 0 0.041189998
1.4630001 0.72500002 -0.69999999 150 0 0 0 0.041200001
1.449 0.72100002 -0.69400001 150 0 0 0 0.041209999
1.4299999 0.713 -0.68400002 83 0 0 0 0.041219998
1.408 0.70499998 -0.67299998 35 0 0 0 0.041230001
1.381 0.69400001 -0.66000003 20 0 0 0 0.041239999
1.376 0.69400001 -0.65700001 20 0 0 0 0.041250002
1.378 0.69700003 -0.65799999 21 0 0 0 0.04126
1.375 0.69800001 -0.65600002 22 0 0 0 0.041269999
1.372 0.699 -0.65399998 21 0 0 0 0.041280001
1.373 0.70099998 -0.65399998 22 0 0 0 0.04129
1.374 0.704 -0.65399998 22 0 0 0 0.041299999
1.3710001 0.704 -0.65100002 21 0 0 0 0.041310001
1.37 0.70599997 -0.64999998 21 0 0 0 0.04132
1.37 0.708 -0.64899999 20 0 0 0 0.041329999
1.381 0.71499997 -0.65399998 23 0 0 0 0.041340001
1.401 0.72799999 -0.662 39 0 0 0 0.04135
1.4119999 0.73500001 -0.667 63 0 0 0 0.041359998
1.429 0.74599999 -0.67299998 123 0 0 0 0.041370001
1.418 0.74199998 -0.667 150 0 0 0 0.041379999
1.401 0.73500001 -0.65799999 150 0 0 0 0.041390002
1.383 0.727 -0.648 150 0 0 0 0.0414
1.362 0.71700001 -0.63700002 150 0 0 0 0.041409999
1.347 0.70999998 -0.62900001 150 0 0 0 0.041420002
1.326 0.70099998 -0.61799997 150 0 0 0 0.04143
1.303 0.69 -0.60600001 148 0 0 0 0.041439999
1.27 0.67400002 -0.58899999 119 0 0 0 0.041450001
1.2180001 0.64700001 -0.56300002 71 0 0 0 0.04146
1.155 0.61500001 -0.53299999 46 0 0 0 0.041469999
1.104 0.588 -0.50800002 23 0 0 0 0.041480001
1.075 0.574 -0.49399999 11 0 0 0 0.04149
1.061 0.56699997 -0.486 8 0 0 0 0.041499998
1.062 0.56800002 -0.48500001 7 0 0 0 0.041510001
1.057 0.56699997 -0.48100001 6 0 0 0 0.04152
1.061 0.56900001 -0.48199999 7 0 0 0 0.041529998
1.061 0.56999999 -0.47999999 7 0 0 0 0.041540001
1.054 0.56599998 -0.47499999 7 0 0 0 0.041549999
1.061 0.57099998 -0.477 7 0 0 0 0.041560002
1.062 0.57200003 -0.47600001 7 0 0 0 0.04157
1.0599999 0.57099998 -0.47299999 7 0 0 0 0.041579999
1.0599999 0.57099998 -0.472 7 0 0 0 0.041590001
1.0599999 0.57200003 -0.47 7 0 0 0 0.0416
1.0599999 0.57200003 -0.46799999 7 0 0 0 0.041609999
1.054 0.56900001 -0.46399999 7 0 0 0 0.041620001
1.058 0.57200003 -0.46399999 7 0 0 0 0.04163
1.062 0.574 -0.46399999 7 0 0 0 0.041639999
1.062 0.574 -0.46200001 7 0 0 0 0.041650001
1.061 0.57300001 -0.46000001 6 0 0 0 0.04166
1.063 0.574 -0.45899999 7 0 0 0 0.041669998
1.059 0.57200003 -0.45500001 6 0 0 0 0.041680001
1.0599999 0.57200003 -0.454 6 0 0 0 0.041689999
1.059 0.57200003 -0.45100001 6 0 0 0 0.041700002
1.0599999 0.57200003 -0.449 6 0 0 0 0.04171
1.0599999 0.57200003 -0.44800001 6 0 0 0 0.041719999
1.062 0.57300001 -0.44600001 6 0 0 0 0.041730002
1.061 0.57200003 -0.44400001 6 0 0 0 0.04174
1.063 0.57300001 -0.44299999 6 0 0 0 0.041749999
1.062 0.57099998 -0.44 6 0 0 0 0.041760001
1.063 0.57200003 -0.43799999 6 0 0 0 0.04177
1.071 0.57599998 -0.44 6 0 0 0 0.041779999
1.073 0.57599998 -0.43799999 7 0 0 0 0.041790001
1.085 0.58099997 -0.44100001 8 0 0 0 0.0418
1.096 0.58700001 -0.44299999 9 0 0 0 0.041809998
1.124 0.60100001 -0.45199999 11 0 0 0 0.041820001
1.152 0.61500001 -0.461 12 0 0 0 0.04183
1.196 0.63800001 -0.47600001 17 0 0 0 0.041839998
1.24 0.66000003 -0.491 23 0 0 0 0.041850001
1.279 0.68000001 -0.50300002 31 0 0 0 0.041859999
1.307 0.69400001 -0.51099998 33 0 0 0 0.041870002
1.326 0.70300001 -0.51599997 31 0 0 0 0.04188
1.35 0.71399999 -0.52200001 30 0 0 0 0.041889999
1.364 0.72000003 -0.52399999 34 0 0 0 0.041900001
1.359 0.71600002 -0.51899999 21 0 0 0 0.04191
1.362 0.71700001 -0.51800001 20 0 0 0 0.041919999
1.368 0.71799999 -0.51700002 21 0 0 0 0.041930001
1.364 0.71499997 -0.51200002 21 0 0 0 0.04194
1.369 0.71600002 -0.51099998 19 0 0 0 0.041949999
1.376 0.71700001 -0.50999999 20 0 0 0 0.041960001
1.4069999 0.73199999 -0.51800001 44 0 0 0 0.04197
1.434 0.74400002 -0.52499998 95 0 0 0 0.041979998
1.448 0.74900001 -0.52700001 150 0 0 0 0.041990001
1.4630001 0.755 -0.52899998 150 0 0 0 0.041999999
1.47 0.75700003 -0.528 150 0 0 0 0.042010002
1.466 0.75300002 -0.523 151 0 0 0 0.042020001
1.4680001 0.75199997 -0.51999998 151 0 0 0 0.042029999
1.47 0.75 -0.51700002 151 0 0 0 0.042040002
1.469 0.74800003 -0.514 151 0 0 0 0.04205
1.4680001 0.745 -0.50999999 151 0 0 0 0.042059999
1.47 0.74400002 -0.50700003 151 0 0 0 0.042070001
1.474 0.74400002 -0.505 151 0 0 0 0.04208
1.473 0.741 -0.50099999 151 0 0 0 0.042089999
1.473 0.73799998 -0.49700001 151 0 0 0 0.042100001
1.472 0.73500001 -0.49399999 151 0 0 0 0.04211
1.474 0.73400003 -0.491 151 0 0 0 0.042119998
1.476 0.73199999 -0.48800001 151 0 0 0 0.042130001
1.475 0.72899997 -0.484 151 0 0 0 0.04214
1.48 0.72899997 -0.48199999 151 0 0 0 0.042149998
1.479 0.72600001 -0.47799999 151 0 0 0 0.042160001
1.478 0.72299999 -0.47400001 151 0 0 0 0.042169999
1.476 0.71899998 -0.47 150 0 0 0 0.042180002
1.477 0.71600002 -0.46700001 150 0 0 0 0.04219
1.478 0.71399999 -0.463 150 0 0 0 0.042199999
1.4809999 0.713 -0.461 150 0 0 0 0.042210001
1.4809999 0.70999998 -0.45699999 150 0 0 0 0.04222
1.483 0.708 -0.454 150 0 0 0 0.042229999
1.484 0.70599997 -0.45100001 150 0 0 0 0.042240001
1.4859999 0.70300001 -0.44800001 150 0 0 0 0.04225
1.4859999 0.69999999 -0.44400001 150 0 0 0 0.042259999
1.487 0.69800001 -0.44100001 150 0 0 0 0.042270001
1.489 0.69599998 -0.43799999 150 0 0 0 0.04228
1.4910001 0.69300002 -0.435 150 0 0 0 0.042289998
1.493 0.69099998 -0.43200001 150 0 0 0 0.042300001
1.493 0.68699998 -0.428 150 0 0 0 0.042309999
1.492 0.68400002 -0.42500001 150 0 0 0 0.042319998
1.494 0.68099999 -0.42199999 150 0 0 0 0.042330001
1.501 0.68099999 -0.41999999 150 0 0 0 0.042339999
1.498 0.67699999 -0.41600001 150 0 0 0 0.042350002
1.5 0.67400002 -0.41299999 151 0 0 0 0.04236
1.5 0.671 -0.40900001 150 0 0 0 0.042369999
1.502 0.66799998 -0.40599999 151 0 0 0 0.042380001
1.5039999 0.66600001 -0.403 150 0 0 0 0.04239
1.5039999 0.662 -0.40000001 151 0 0 0 0.042399999
1.505 0.65899998 -0.39700001 150 0 0 0 0.042410001
1.508 0.65700001 -0.39399999 150 0 0 0 0.04242
1.505 0.65200001 -0.389 150 0 0 0 0.042429999
1.512 0.65100002 -0.38800001 150 0 0 0 0.042440001
1.512 0.648 -0.384 150 0 0 0 0.04245
1.5140001 0.64499998 -0.38100001 150 0 0 0 0.042459998
1.513 0.64099997 -0.37799999 150 0 0 0 0.042470001
1.515 0.63800001 -0.375 150 0 0 0 0.042479999
1.517 0.63499999 -0.37200001 150 0 0 0 0.042490002
1.5190001 0.63200003 -0.36899999 150 0 0 0 0.0425
1.517 0.62699997 -0.36500001 150 0 0 0 0.042509999
1.521 0.625 -0.36199999 150 0 0 0 0.042520002
1.52 0.62099999 -0.359 150 0 0 0 0.04253
1.522 0.61799997 -0.35600001 150 0 0 0 0.042539999
1.523 0.61400002 -0.352 150 0 0 0 0.042550001
1.525 0.61199999 -0.34999999 150 0 0 0 0.04256
1.527 0.60799998 -0.347 150 0 0 0 0.042569999
1.529 0.60500002 -0.34400001 150 0 0 0 0.042580001
1.531 0.602 -0.34099999 150 0 0 0 0.04259
1.533 0.59899998 -0.338 150 0 0 0 0.042599998
1.534 0.59500003 -0.33500001 150 0 0 0 0.042610001
1.536 0.59200001 -0.33199999 150 0 0 0 0.042619999
1.538 0.58899999 -0.329 150 0 0 0 0.042629998
1.5319999 0.58200002 -0.324 150 0 0 0 0.042640001
1.536 0.57999998 -0.322 150 0 0 0 0.042649999
1.544 0.579 -0.31999999 150 0 0 0 0.042660002
1.545 0.57499999 -0.317 150 0 0 0 0.04267
1.5420001 0.56999999 -0.31299999 150 0 0 0 0.042679999
1.544 0.56599998 -0.31 150 0 0 0 0.042690001
1.546 0.56300002 -0.308 150 0 0 0 0.0427
1.5470001 0.55900002 -0.30500001 150 0 0 0 0.042709999
1.549 0.55599999 -0.30199999 150 0 0 0 0.042720001
1.551 0.55199999 -0.29899999 150 0 0 0 0.04273
1.55 0.54799998 -0.296 150 0 0 0 0.042739999
1.5599999 0.54699999 -0.294 150 0 0 0 0.042750001
1.554 0.54000002 -0.28999999 150 0 0 0 0.04276
1.558 0.53799999 -0.28799999 150 0 0 0 0.042769998
1.557 0.53299999 -0.28400001 150 0 0 0 0.042780001
1.562 0.52999997 -0.28200001 150 0 0 0 0.042789999
1.564 0.52700001 -0.27900001 150 0 0 0 0.042800002
1.563 0.52200001 -0.27599999 150 0 0 0 0.04281
1.567 0.51899999 -0.273 150 0 0 0 0.042819999
1.569 0.51499999 -0.271 150 0 0 0 0.042830002
1.571 0.51200002 -0.26800001 150 0 0 0 0.04284
1.569 0.50700003 -0.26499999 150 0 0 0 0.042849999
1.574 0.50400001 -0.26199999 150 0 0 0 0.042860001
1.575 0.5 -0.259 150 0 0 0 0.04287
1.5829999 0.498 -0.25799999 150 0 0 0 0.042879999
1.5779999 0.49200001 -0.25400001 150 0 0 0 0.042890001
1.581 0.48800001 -0.25099999 150 0 0 0 0.0429
1.582 0.484 -0.248 150 0 0 0 0.042909998
1.584 0.47999999 -0.24600001 150 0 0 0 0.042920001
1.586 0.47600001 -0.243 150 0 0 0 0.04293
1.587 0.472 -0.23999999 150 0 0 0 0.042939998
1.589 0.46799999 -0.237 151 0 0 0 0.042950001
1.5880001 0.463 -0.234 150 0 0 0 0.042959999
1.592 0.46000001 -0.23199999 150 0 0 0 0.042970002
1.594 0.456 -0.229 150 0 0 0 0.04298
1.595 0.45199999 -0.226 150 0 0 0 0.042989999
1.597 0.44800001 -0.22400001 150 0 0 0 0.043000001
1.6 0.44400001 -0.221 150 0 0 0 0.04301
1.605 0.44100001 -0.219 150 0 0 0 0.043019999
1.603 0.43599999 -0.21600001 150 0 0 0 0.043030001
1.609 0.433 -0.214 150 0 0 0 0.04304
1.6109999 0.42899999 -0.211 150 0 0 0 0.043049999
1.6109999 0.42399999 -0.208 150 0 0 0 0.043060001
1.614 0.41999999 -0.206 150 0 0 0 0.04307
1.614 0.41600001 -0.20299999 150 0 0 0 0.043079998
1.617 0.412 -0.20100001 150 0 0 0 0.043090001
1.618 0.40799999 -0.198 150 0 0 0 0.043099999
1.617 0.40200001 -0.19499999 150 0 0 0 0.043110002
1.6210001 0.39899999 -0.193 150 0 0 0 0.043120001
1.626 0.39500001 -0.19 150 0 0 0 0.043129999
1.6210001 0.389 -0.18700001 150 0 0 0 0.043140002
1.6289999 0.38699999 -0.185 150 0 0 0 0.04315
1.63 0.382 -0.183 150 0 0 0 0.043159999
1.633 0.37799999 -0.18000001 150 0 0 0 0.043170001
1.635 0.37400001 -0.178 150 0 0 0 0.04318
1.6390001 0.37 -0.175 150 0 0 0 0.043189999
1.637 0.36500001 -0.17200001 150 0 0 0 0.043200001
1.642 0.361 -0.17 150 0 0 0 0.04321
1.643 0.35699999 -0.168 150 0 0 0 0.043219998
1.6440001 0.352 -0.16500001 150 0 0 0 0.043230001
1.645 0.34799999 -0.163 150 0 0 0 0.04324
1.649 0.34400001 -0.16 150 0 0 0 0.043249998
1.651 0.33899999 -0.15800001 150 0 0 0 0.043260001
1.653 0.33500001 -0.155 150 0 0 0 0.043269999
1.65 0.329 -0.152 150 0 0 0 0.043280002
1.651 0.32499999 -0.15000001 150 0 0 0 0.04329
1.656 0.32100001 -0.148 150 0 0 0 0.043299999
1.6569999 0.31600001 -0.145 150 0 0 0 0.043310001
1.66 0.31200001 -0.14300001 150 0 0 0 0.04332
1.661 0.30700001 -0.14 150 0 0 0 0.043329999
1.6619999 0.303 -0.138 150 0 0 0 0.043340001
1.663 0.29800001 -0.13500001 150 0 0 0 0.04335
1.671 0.29499999 -0.133 150 0 0 0 0.043359999
1.6720001 0.28999999 -0.131 150 0 0 0 0.043370001
1.6720001 0.285 -0.12800001 150 0 0 0 0.04338
1.673 0.28 -0.126 150 0 0 0 0.043389998
1.675 0.27599999 -0.123 150 0 0 0 0.043400001
1.675 0.271 -0.121 150 0 0 0 0.043409999
1.6799999 0.266 -0.119 150 0 0 0 0.043419998
1.681 0.26199999 -0.116 150 0 0 0 0.043430001
1.682 0.257 -0.114 150 0 0 0 0.043439999
1.683 0.252 -0.111 150 0 0 0 0.043450002
1.688 0.248 -0.109 150 0 0 0 0.04346
1.689 0.243 -0.107 150 0 0 0 0.043469999
1.687 0.23800001 -0.104 150 0 0 0 0.043480001
1.691 0.233 -0.102 150 0 0 0 0.04349
1.696 0.229 -0.1 150 0 0 0 0.043499999
1.6950001 0.22400001 -0.097000003 150 0 0 0 0.043510001
1.692 0.219 -0.094999999 150 0 0 0 0.04352
1.6900001 0.213 -0.092 150 0 0 0 0.043529999
1.6849999 0.208 -0.090000004 150 0 0 0 0.043540001
1.683 0.20299999 -0.086999997 150 0 0 0 0.04355
1.682 0.197 -0.085000001 150 0 0 0 0.043559998
1.679 0.192 -0.082000002 150 0 0 0 0.043570001
1.682 0.18799999 -0.079999998 150 0 0 0 0.043579999
1.675 0.182 -0.077 150 0 0 0 0.043590002
1.675 0.177 -0.075000003 150 0 0 0 0.0436
1.6670001 0.171 -0.071999997 150 0 0 0 0.043609999
1.665 0.16599999 -0.07 150 0 0 0 0.043620002
1.665 0.161 -0.068000004 150 0 0 0 0.04363
1.658 0.155 -0.064999998 150 0 0 0 0.043639999
1.656 0.15000001 -0.063000001 150 0 0 0 0.043650001
1.656 0.145 -0.061000001 150 0 0 0 0.04366
1.6569999 0.141 -0.059 150 0 0 0 0.043669999
1.655 0.13500001 -0.056000002 150 0 0 0 0.043680001
1.646 0.13 -0.054000001 150 0 0 0 0.04369
1.647 0.125 -0.052000001 150 0 0 0 0.043699998
1.64 0.12 -0.048999999 150 0 0 0 0.043710001
1.64 0.115 -0.046999998 150 0 0 0 0.043719999
1.641 0.11 -0.045000002 150 0 0 0 0.043729998
1.633 0.104 -0.043000001 150 0 0 0 0.043740001
1.625 0.098999999 -0.039999999 137 0 0 0 0.043749999
1.612 0.093999997 -0.037999999 150 0 0 0 0.043760002
1.612 0.089000002 -0.035999998 150 0 0 0 0.04377
1.608 0.083999999 -0.034000002 150 0 0 0 0.043779999
1.608 0.079000004 -0.032000002 150 0 0 0 0.043790001
1.6059999 0.074000001 -0.029999999 150 0 0 0 0.0438
1.605 0.068999998 -0.028000001 150 0 0 0 0.043809999
1.601 0.064000003 -0.025 150 0 0 0 0.043820001
1.6 0.059 -0.023 150 0 0 0 0.04383
1.602 0.055 -0.021 150 0 0 0 0.043839999
1.604 0.050000001 -0.02 150 0 0 0 0.043850001
1.608 0.045000002 -0.017999999 133 0 0 0 0.04386
1.6059999 0.039999999 -0.016000001 143 0 0 0 0.043869998
1.602 0.035 -0.014 150 0 0 0 0.043880001
1.6 0.030999999 -0.012 150 0 0 0 0.043889999
1.594 0.026000001 -0.0099999998 150 0 0 0 0.043900002
1.595 0.021 -0.0080000004 150 0 0 0 0.04391
1.592 0.016000001 -0.0060000001 150 0 0 0 0.043919999
1.592 0.011 -0.0040000002 150 0 0 0 0.043930002
1.589 0.0060000001 -0.0020000001 150 0 0 0 0.04394
1.585 0.0020000001 0 150 0 0 0 0.043949999
1.581 -0.0020000001 0.001 150 0 0 0 0.043960001
1.5779999 -0.0070000002 0.003 150 0 0 0 0.04397
1.575 -0.012 0.0040000002 150 0 0 0 0.043979999
1.575 -0.016000001 0.0060000001 150 0 0 0 0.043990001
1.574 -0.021 0.0080000004 150 0 0 0 0.044
1.569 -0.026000001 0.0099999998 150 0 0 0 0.044009998
1.569 -0.030999999 0.012 150 0 0 0 0.044020001
1.566 -0.035 0.013 150 0 0 0 0.04403
1.566 -0.039999999 0.015 150 0 0 0 0.044039998
1.561 -0.045000002 0.017000001 150 0 0 0 0.044050001
1.559 -0.048999999 0.018999999 150 0 0 0 0.044059999
1.551 -0.054000001 0.02 150 0 0 0 0.044070002
1.557 -0.059 0.022 150 0 0 0 0.04408
1.55 -0.063000001 0.024 150 0 0 0 0.044089999
1.548 -0.068000004 0.026000001 150 0 0 0 0.044100001
1.546 -0.071999997 0.027000001 150 0 0 0 0.04411
1.546 -0.077 0.028999999 150 0 0 0 0.044119999
1.54 -0.081 0.029999999 150 0 0 0 0.044130001
1.539 -0.086000003 0.032000002 150 0 0 0 0.04414
1.539 -0.090999998 0.034000002 150 0 0 0 0.044149999
1.536 -0.094999999 0.035 150 0 0 0 0.044160001
1.529 -0.1 0.037 150 0 0 0 0.04417
1.528 -0.104 0.037999999 150 0 0 0 0.044179998
1.528 -0.109 0.039999999 150 0 0 0 0.044190001
1.526 -0.113 0.041999999 150 0 0 0 0.044199999
1.524 -0.118 0.043000001 150 0 0 0 0.044210002
1.525 -0.123 0.045000002 150 0 0 0 0.044220001
1.518 -0.127 0.046 150 0 0 0 0.044229999
1.518 -0.132 0.048 150 0 0 0 0.044240002
1.5140001 -0.13600001 0.048999999 150 0 0 0 0.04425
1.513 -0.141 0.050999999 150 0 0 0 0.044259999
1.513 -0.145 0.052000001 150 0 0 0 0.044270001
1.508 -0.149 0.054000001 150 0 0 0 0.04428
1.5039999 -0.154 0.055 150 0 0 0 0.044289999
1.5 -0.15800001 0.056000002 150 0 0 0 0.044300001
1.502 -0.163 0.057999998 150 0 0 0 0.04431
1.494 -0.167 0.059 150 0 0 0 0.044319998
1.492 -0.171 0.061000001 150 0 0 0 0.044330001
1.492 -0.176 0.061999999 150 0 0 0 0.04434
1.489 -0.18000001 0.063000001 150 0 0 0 0.044349998
1.489 -0.185 0.064999998 150 0 0 0 0.044360001
1.487 -0.189 0.066 150 0 0 0 0.044369999
1.48 -0.193 0.067000002 150 0 0 0 0.044380002
1.482 -0.198 0.068999998 150 0 0 0 0.04439
1.479 -0.20200001 0.07 150 0 0 0 0.044399999
1.471 -0.205 0.071000002 150 0 0 0 0.044410001
1.476 -0.211 0.072999999 150 0 0 0 0.04442
1.472 -0.215 0.074000001 150 0 0 0 0.044429999
1.469 -0.219 0.075000003 150 0 0 0 0.044440001
1.467 -0.223 0.075999998 150 0 0 0 0.04445
1.464 -0.227 0.078000002 150 0 0 0 0.044459999
1.4630001 -0.23199999 0.079000004 150 0 0 0 0.044470001
1.456 -0.235 0.079999998 150 0 0 0 0.04448
1.456 -0.23999999 0.081 150 0 0 0 0.044489998
1.456 -0.245 0.082000002 150 0 0 0 0.044500001
1.454 -0.249 0.083999999 150 0 0 0 0.044509999
1.451 -0.25299999 0.085000001 150 0 0 0 0.044520002
1.451 -0.25799999 0.086000003 150 0 0 0 0.044530001
1.451 -0.26199999 0.086999997 150 0 0 0 0.044539999
1.4450001 -0.266 0.088 150 0 0 0 0.044550002
1.447 -0.271 0.089000002 150 0 0 0 0.04456
1.441 -0.27399999 0.090000004 150 0 0 0 0.044569999
1.4400001 -0.27900001 0.092 150 0 0 0 0.044580001
1.439 -0.28299999 0.093000002 150 0 0 0 0.04459
1.437 -0.287 0.093999997 150 0 0 0 0.044599999
1.434 -0.29100001 0.094999999 150 0 0 0 0.044610001
1.432 -0.296 0.096000001 150 0 0 0 0.04462
1.432 -0.30000001 0.097000003 150 0 0 0 0.044629999
1.428 -0.30399999 0.097999997 150 0 0 0 0.044640001
1.432 -0.30899999 0.098999999 150 0 0 0 0.04465
1.426 -0.31299999 0.1 150 0 0 0 0.044659998
1.42 -0.31600001 0.101 150 0 0 0 0.044670001
1.4220001 -0.32100001 0.102 150 0 0 0 0.044679999
1.418 -0.32499999 0.103 150 0 0 0 0.044690002
1.4170001 -0.329 0.104 150 0 0 0 0.0447
1.416 -0.33399999 0.105 150 0 0 0 0.044709999
1.413 -0.33700001 0.106 150 0 0 0 0.044720002
1.409 -0.34099999 0.106 150 0 0 0 0.04473
1.409 -0.34599999 0.107 150 0 0 0 0.044739999
1.4069999 -0.34999999 0.108 150 0 0 0 0.044750001
1.401 -0.35299999 0.109 150 0 0 0 0.04476
1.4 -0.35699999 0.11 150 0 0 0 0.044769999
1.395 -0.361 0.11 150 0 0 0 0.044780001
1.396 -0.36500001 0.111 150 0 0 0 0.04479
1.393 -0.36899999 0.112 150 0 0 0 0.044799998
1.395 -0.37400001 0.113 150 0 0 0 0.044810001
1.39 -0.37799999 0.114 150 0 0 0 0.044819999
1.3890001 -0.382 0.115 150 0 0 0 0.044829998
1.388 -0.38600001 0.116 150 0 0 0 0.044840001
1.3839999 -0.38999999 0.116 150 0 0 0 0.044849999
1.382 -0.39399999 0.117 150 0 0 0 0.044860002
1.381 -0.398 0.118 150 0 0 0 0.04487
1.3789999 -0.40200001 0.118 150 0 0 0 0.044879999
1.3789999 -0.40700001 0.119 150 0 0 0 0.044890001
1.377 -0.41100001 0.12 150 0 0 0 0.0449
1.372 -0.414 0.12 150 0 0 0 0.044909999
1.375 -0.419 0.121 150 0 0 0 0.044920001
1.372 -0.42300001 0.122 150 0 0 0 0.04493
1.363 -0.42500001 0.122 150 0 0 0 0.044939999
1.365 -0.43000001 0.123 150 0 0 0 0.044950001
1.36 -0.433 0.123 150 0 0 0 0.04496
1.358 -0.43700001 0.124 150 0 0 0 0.044969998
1.357 -0.44100001 0.124 150 0 0 0 0.044980001
1.3559999 -0.44499999 0.125 150 0 0 0 0.044989999
1.355 -0.44999999 0.126 150 0 0 0 0.045000002
1.353 -0.45300001 0.126 150 0 0 0 0.04501
1.348 -0.456 0.126 150 0 0 0 0.045019999
1.346 -0.46000001 0.127 150 0 0 0 0.045030002
1.345 -0.46399999 0.127 150 0 0 0 0.04504
1.345 -0.46900001 0.12800001 150 0 0 0 0.045049999
1.342 -0.472 0.12800001 150 0 0 0 0.045060001
1.344 -0.47799999 0.12899999 150 0 0 0 0.04507
1.3430001 -0.48199999 0.12899999 150 0 0 0 0.045079999
1.341 -0.486 0.13 150 0 0 0 0.045090001
1.3329999 -0.48699999 0.13 150 0 0 0 0.0451
1.334 -0.49200001 0.13 150 0 0 0 0.045109998
1.334 -0.49700001 0.131 150 0 0 0 0.045120001
1.327 -0.498 0.131 150 0 0 0 0.04513
1.325 -0.50199997 0.131 150 0 0 0 0.045139998
1.324 -0.50599998 0.131 150 0 0 0 0.045150001
1.322 -0.50999999 0.132 150 0 0 0 0.045159999
1.321 -0.514 0.132 150 0 0 0 0.045170002
1.319 -0.51800001 0.132 150 0 0 0 0.04518
1.318 -0.52200001 0.133 150 0 0 0 0.045189999
1.316 -0.52600002 0.133 150 0 0 0 0.045200001
1.316 -0.52999997 0.133 150 0 0 0 0.04521
1.313 -0.53299999 0.133 150 0 0 0 0.045219999
1.311 -0.537 0.133 150 0 0 0 0.045230001
1.3099999 -0.54100001 0.134 150 0 0 0 0.04524
1.308 -0.54500002 0.134 150 0 0 0 0.045249999
1.307 -0.54900002 0.134 150 0 0 0 0.045260001
1.3049999 -0.55199999 0.134 150 0 0 0 0.04527
1.3049999 -0.55699998 0.134 150 0 0 0 0.045279998
1.302 -0.56 0.134 150 0 0 0 0.045290001
1.3 -0.56400001 0.134 150 0 0 0 0.045299999
1.298 -0.56699997 0.134 150 0 0 0 0.045310002
1.299 -0.57200003 0.134 150 0 0 0 0.04532
1.2920001 -0.57300001 0.134 150 0 0 0 0.045329999
1.288 -0.57599998 0.134 150 0 0 0 0.045340002
1.288 -0.57999998 0.134 150 0 0 0 0.04535
1.285 -0.583 0.134 150 0 0 0 0.045359999
1.283 -0.58700001 0.134 150 0 0 0 0.045370001
1.2819999 -0.58999997 0.134 150 0 0 0 0.04538
1.284 -0.59600002 0.134 150 0 0 0 0.045389999
1.278 -0.597 0.133 150 0 0 0 0.045400001
1.278 -0.602 0.133 150 0 0 0 0.04541
1.275 -0.60399997 0.133 150 0 0 0 0.045419998
1.273 -0.60799998 0.133 150 0 0 0 0.045430001
1.274 -0.61199999 0.133 150 0 0 0 0.04544
1.272 -0.616 0.133 150 0 0 0 0.045449998
1.27 -0.61900002 0.132 150 0 0 0 0.045460001
1.2690001 -0.62300003 0.132 150 0 0 0 0.045469999
1.265 -0.625 0.132 39 0 0 0 0.045480002
1.262 -0.62800002 0.131 150 0 0 0 0.04549
1.262 -0.63200003 0.131 150 0 0 0 0.045499999
1.261 -0.63599998 0.131 150 0 0 0 0.045510001
1.2589999 -0.639 0.131 150 0 0 0 0.04552
1.257 -0.64200002 0.13 150 0 0 0 0.045529999
1.257 -0.64600003 0.13 150 0 0 0 0.045540001
1.255 -0.64899999 0.13 150 0 0 0 0.04555
1.252 -0.65200001 0.12899999 150 0 0 0 0.045559999
1.256 -0.65799999 0.12899999 150 0 0 0 0.045570001
1.2640001 -0.66600001 0.13 150 0 0 0 0.04558
1.257 -0.66600001 0.12899999 150 0 0 0 0.045589998
1.251 -0.667 0.12800001 150 0 0 0 0.045600001
1.245 -0.66799998 0.127 150 0 0 0 0.045609999
1.2359999 -0.667 0.125 150 0 0 0 0.045620002
1.2309999 -0.66900003 0.125 150 0 0 0 0.045630001
1.2309999 -0.67199999 0.124 150 0 0 0 0.045639999
1.2309999 -0.676 0.124 150 0 0 0 0.045650002
1.23 -0.67900002 0.123 150 0 0 0 0.04566
1.225 -0.68000001 0.122 150 0 0 0 0.045669999
1.223 -0.68300003 0.121 150 0 0 0 0.045680001
1.223 -0.68699998 0.121 150 0 0 0 0.04569
1.223 -0.69099998 0.12 150 0 0 0 0.045699999
1.2180001 -0.69199997 0.119 150 0 0 0 0.045710001
1.217 -0.69499999 0.119 150 0 0 0 0.04572
1.221 -0.70099998 0.118 150 0 0 0 0.045729998
1.232 -0.71100003 0.119 150 0 0 0 0.045740001
1.2359999 -0.71700001 0.119 150 0 0 0 0.04575
1.2309999 -0.71700001 0.117 150 0 0 0 0.045759998
1.224 -0.71700001 0.116 150 0 0 0 0.045770001
1.222 -0.72000003 0.115 150 0 0 0 0.045779999
1.221 -0.72299999 0.114 150 0 0 0 0.045790002
1.221 -0.72600001 0.114 150 0 0 0 0.0458
1.2180001 -0.72799999 0.113 150 0 0 0 0.045809999
1.216 -0.73000002 0.112 150 0 0 0 0.045820002
1.217 -0.73400003 0.111 150 0 0 0 0.04583
1.215 -0.73699999 0.11 150 0 0 0 0.045839999
1.214 -0.73900002 0.109 150 0 0 0 0.045850001
1.2130001 -0.74199998 0.108 150 0 0 0 0.04586
1.215 -0.74599999 0.107 150 0 0 0 0.045869999
1.214 -0.74900001 0.106 150 0 0 0 0.045880001
1.212 -0.75099999 0.105 150 0 0 0 0.04589
1.211 -0.75400001 0.104 150 0 0 0 0.045899998
1.21 -0.75599998 0.103 150 0 0 0 0.045910001
1.2079999 -0.75800002 0.102 150 0 0 0 0.045919999
1.206 -0.75999999 0.101 150 0 0 0 0.045929998
1.206 -0.76300001 0.1 150 0 0 0 0.045940001
1.2079999 -0.76700002 0.098999999 150 0 0 0 0.045949999
1.209 -0.77100003 0.097999997 150 0 0 0 0.045960002
1.206 -0.77200001 0.097000003 150 0 0 0 0.04597
1.204 -0.773 0.094999999 150 0 0 0 0.045979999
1.204 -0.77600002 0.093999997 150 0 0 0 0.045990001
1.2029999 -0.778 0.093000002 150 0 0 0 0.046
1.201 -0.77999997 0.092 150 0 0 0 0.046009999
1.199 -0.78100002 0.090000004 150 0 0 0 0.046020001
1.201 -0.78500003 0.089000002 150 0 0 0 0.04603
1.2 -0.787 0.088 150 0 0 0 0.046039999
1.199 -0.78799999 0.086999997 150 0 0 0 0.046050001
1.199 -0.79100001 0.086000003 150 0 0 0 0.04606
1.196 -0.792 0.083999999 150 0 0 0 0.046069998
1.197 -0.79500002 0.082999997 150 0 0 0 0.046080001
1.194 -0.79500002 0.081 150 0 0 0 0.046089999
1.193 -0.79699999 0.079999998 150 0 0 0 0.046100002
1.192 -0.79900002 0.079000004 150 0 0 0 0.04611
1.1950001 -0.80199999 0.077 150 0 0 0 0.046119999
1.1950001 -0.80400002 0.075999998 150 0 0 0 0.046130002
1.193 -0.80500001 0.074000001 150 0 0 0 0.04614
1.192 -0.80699998 0.072999999 150 0 0 0 0.046149999
1.192 -0.80900002 0.071999997 150 0 0 0 0.046160001
1.191 -0.81 0.07 150 0 0 0 0.04617
1.1900001 -0.81099999 0.068999998 150 0 0 0 0.046179999
1.189 -0.81199998 0.067000002 150 0 0 0 0.046190001
1.188 -0.81300002 0.066 150 0 0 0 0.0462
1.187 -0.815 0.064000003 150 0 0 0 0.046209998
1.187 -0.81599998 0.063000001 150 0 0 0 0.046220001
1.187 -0.81699997 0.061000001 150 0 0 0 0.04623
1.189 -0.82099998 0.059999999 150 0 0 0 0.046239998
1.186 -0.81900001 0.057999998 150 0 0 0 0.046250001
1.1849999 -0.81999999 0.056000002 150 0 0 0 0.046259999
1.184 -0.82099998 0.055 150 0 0 0 0.046270002
1.184 -0.82200003 0.052999999 150 0 0 0 0.04628
1.183 -0.82300001 0.052000001 150 0 0 0 0.046289999
1.183 -0.824 0.050000001 150 0 0 0 0.046300001
1.186 -0.82700002 0.048 12 0 0 0 0.04631
1.182 -0.82499999 0.046999998 150 0 0 0 0.046319999
1.182 -0.82599998 0.045000002 150 0 0 0 0.046330001
1.181 -0.82700002 0.043000001 150 0 0 0 0.04634
1.181 -0.82700002 0.041999999 150 0 0 0 0.046349999
1.181 -0.82800001 0.039999999 150 0 0 0 0.046360001
1.1799999 -0.82800001 0.039000001 150 0 0 0 0.04637
1.1799999 -0.829 0.037 150 0 0 0 0.046379998
1.183 -0.83099997 0.035 150 0 0 0 0.046390001
1.183 -0.83200002 0.034000002 17 0 0 0 0.046399999
1.179 -0.82999998 0.032000002 150 0 0 0 0.046410002
1.182 -0.83200002 0.029999999 150 0 0 0 0.04642
1.182 -0.83200002 0.028999999 150 0 0 0 0.046429999
1.179 -0.82999998 0.027000001 150 0 0 0 0.046440002
1.179 -0.82999998 0.025 150 0 0 0 0.04645
1.181 -0.83200002 0.023 150 0 0 0 0.046459999
1.184 -0.83399999 0.022 150 0 0 0 0.046470001
1.184 -0.83399999 0.02 150 0 0 0 0.04648
1.183 -0.833 0.017999999 150 0 0 0 0.046489999
1.182 -0.833 0.017000001 150 0 0 0 0.046500001
1.179 -0.82999998 0.015 150 0 0 0 0.04651
1.179 -0.82999998 0.013 150 0 0 0 0.046519998
1.1799999 -0.82999998 0.012 150 0 0 0 0.046530001
1.1799999 -0.82999998 0.0099999998 150 0 0 0 0.04654
1.1799999 -0.829 0.0080000004 150 0 0 0 0.046549998
1.183 -0.83099997 0.0070000002 150 0 0 0 0.046560001
1.1849999 -0.83099997 0.0049999999 150 0 0 0 0.046569999
1.183 -0.82999998 0.003 150 0 0 0 0.046580002
1.177 -0.82499999 0.0020000001 150 0 0 0 0.04659
1.181 -0.82599998 0 150 0 0 0 0.046599999
1.178 -0.824 -0.001 150 0 0 0 0.046610001
1.1799999 -0.824 -0.0020000001 150 0 0 0 0.04662
1.184 -0.82599998 -0.0040000002 150 0 0 0 0.046629999
1.188 -0.82700002 -0.0060000001 150 0 0 0 0.046640001
1.186 -0.82499999 -0.0070000002 150 0 0 0 0.04665
1.187 -0.824 -0.0089999996 150 0 0 0 0.046659999
1.1900001 -0.82499999 -0.0099999998 150 0 0 0 0.046670001
1.186 -0.82099998 -0.012 150 0 0 0 0.04668
1.186 -0.81999999 -0.014 14 0 0 0 0.046689998
1.187 -0.81900001 -0.015 150 0 0 0 0.046700001
1.188 -0.81800002 -0.017000001 150 0 0 0 0.046709999
1.188 -0.81599998 -0.017999999 150 0 0 0 0.046720002
1.189 -0.81599998 -0.02 150 0 0 0 0.046730001
1.1900001 -0.815 -0.022 150 0 0 0 0.046739999
1.191 -0.81400001 -0.023 150 0 0 0 0.046750002
1.192 -0.81199998 -0.025 150 0 0 0 0.04676
1.192 -0.81 -0.026000001 150 0 0 0 0.046769999
1.192 -0.80900002 -0.028000001 150 0 0 0 0.046780001
1.197 -0.81 -0.028999999 150 0 0 0 0.04679
1.194 -0.80599999 -0.030999999 150 0 0 0 0.046799999
1.1950001 -0.80500001 -0.032000002 150 0 0 0 0.046810001
1.196 -0.80299997 -0.034000002 150 0 0 0 0.04682
1.197 -0.80199999 -0.035 150 0 0 0 0.046829998
1.1950001 -0.79799998 -0.037 150 0 0 0 0.046840001
