# .PCD v0.7 - Point Cloud Data file format
VERSION 0.7
FIELDS x y z intensity normal_x normal_y normal_z curvature
SIZE 4 4 4 4 4 4 4 4
TYPE F F F F F F F F
COUNT 1 1 1 1 1 1 1 1
WIDTH 1028
HEIGHT 1
VIEWPOINT 0 0 0 1 0 0 0
POINTS 1028
DATA ascii
1.688 0.116 0.287 0 0 0 0 0.06402
1.6900001 0.118 0.29300001 0 0 0 0 0.064029999
1.692 0.12 0.29800001 0 0 0 0 0.064039998
1.698 0.123 0.30500001 0 0 0 0 0.064049996
1.702 0.125 0.31099999 0 0 0 0 0.064060003
1.705 0.127 0.317 0 0 0 0 0.064070001
1.702 0.12800001 0.322 0 0 0 0 0.06408
1.706 0.13 0.32800001 0 0 0 0 0.064089999
1.706 0.132 0.333 0 0 0 0 0.064099997
1.706 0.134 0.33899999 0 0 0 0 0.064110003
1.712 0.13600001 0.345 0 0 0 0 0.064120002
1.712 0.138 0.35100001 0 0 0 0 0.064130001
1.71 0.139 0.35600001 0 0 0 0 0.064139999
1.719 0.142 0.36300001 0 0 0 0 0.064149998
1.715 0.14300001 0.368 0 0 0 0 0.064159997
1.72 0.145 0.37400001 0 0 0 0 0.064170003
1.707 0.146 0.377 0 0 0 0 0.064180002
1.711 0.148 0.38299999 0 0 0 0 0.06419
1.716 0.15000001 0.38999999 0 0 0 0 0.064199999
1.719 0.152 0.396 0 0 0 0 0.064209998
1.721 0.154 0.40200001 0 0 0 0 0.064219996
1.722 0.155 0.40799999 1 0 0 0 0.064230002
1.7130001 0.156 0.41100001 0 0 0 0 0.064240001
1.717 0.15800001 0.41800001 0 0 0 0 0.06425
1.7079999 0.15899999 0.421 0 0 0 0 0.064259999
1.717 0.161 0.42899999 0 0 0 0 0.064269997
1.761 0.167 0.44499999 0 0 0 0 0.064280003
1.767 0.169 0.45199999 0 0 0 0 0.064290002
1.7410001 0.168 0.45100001 0 0 0 0 0.064300001
1.753 0.171 0.46000001 0 0 0 0 0.064309999
0 0 0 0 0 0 0 0.064319998
2.747 0.273 0.73900002 2 0 0 0 0.064329997
2.802 0.28099999 0.76300001 2 0 0 0 0.064340003
2.802 0.28299999 0.77200001 2 0 0 0 0.064350002
2.8139999 0.287 0.78500003 2 0 0 0 0.06436
2.806 0.28799999 0.792 2 0 0 0 0.064369999
2.809 0.29100001 0.80199999 2 0 0 0 0.064379998
2.8050001 0.29300001 0.81 2 0 0 0 0.064390004
2.8 0.29499999 0.81800002 2 0 0 0 0.064400002
2.8010001 0.29699999 0.82700002 2 0 0 0 0.064410001
2.7950001 0.29899999 0.83499998 2 0 0 0 0.06442
2.8039999 0.30199999 0.847 2 0 0 0 0.064429998
2.813 0.30500001 0.85900003 2 0 0 0 0.064439997
2.819 0.308 0.87 2 0 0 0 0.064450003
2.8110001 0.30899999 0.87699997 2 0 0 0 0.064460002
3.0569999 0.33899999 0.96399999 14 0 0 0 0.064470001
3.1889999 0.35600001 1.016 16 0 0 0 0.064479999
3.181 0.35699999 1.024 10 0 0 0 0.064489998
2.3529999 0.266 0.76499999 150 0 0 0 0.064499997
2.1199999 0.241 0.69599998 80 0 0 0 0.064510003
2.096 0.23999999 0.69499999 73 0 0 0 0.064520001
2.0799999 0.23899999 0.69700003 74 0 0 0 0.06453
2.0610001 0.23899999 0.69800001 69 0 0 0 0.064539999
2.0439999 0.23800001 0.699 72 0 0 0 0.064549997
2.0220001 0.237 0.69800001 73 0 0 0 0.064560004
2.0039999 0.236 0.69800001 75 0 0 0 0.064570002
1.983 0.235 0.69800001 74 0 0 0 0.064580001
1.9680001 0.234 0.699 75 0 0 0 0.06459
1.954 0.234 0.70099998 83 0 0 0 0.064599998
1.932 0.23199999 0.699 79 0 0 0 0.064609997
1.919 0.23199999 0.70099998 83 0 0 0 0.064620003
1.905 0.23100001 0.70200002 85 0 0 0 0.064630002
1.885 0.23 0.70099998 88 0 0 0 0.06464
1.869 0.229 0.70099998 87 0 0 0 0.064649999
1.8559999 0.229 0.70300001 90 0 0 0 0.064659998
1.839 0.227 0.70200002 89 0 0 0 0.064669997
1.823 0.226 0.70300001 91 0 0 0 0.064680003
1.807 0.226 0.70300001 92 0 0 0 0.064690001
1.794 0.22499999 0.704 92 0 0 0 0.0647
1.78 0.22400001 0.704 96 0 0 0 0.064709999
1.767 0.223 0.70499998 48 0 0 0 0.064719997
1.751 0.222 0.704 150 0 0 0 0.064730003
1.75 0.223 0.70999998 150 0 0 0 0.064740002
1.751 0.22400001 0.71600002 150 0 0 0 0.064750001
1.768 0.227 0.72899997 150 0 0 0 0.06476
1.781 0.229 0.741 150 0 0 0 0.064769998
1.779 0.229 0.74599999 150 0 0 0 0.064779997
1.778 0.23 0.75199997 150 0 0 0 0.064790003
1.785 0.23199999 0.76099998 150 0 0 0 0.064800002
1.783 0.23199999 0.76599997 150 0 0 0 0.06481
1.776 0.23199999 0.76899999 150 0 0 0 0.064819999
1.777 0.233 0.77499998 150 0 0 0 0.064829998
1.775 0.233 0.77999997 150 0 0 0 0.064839996
1.776 0.234 0.787 150 0 0 0 0.064850003
1.779 0.235 0.79400003 150 0 0 0 0.064860001
1.777 0.235 0.79900002 150 0 0 0 0.06487
1.78 0.236 0.80599999 150 0 0 0 0.064879999
1.793 0.23800001 0.81800002 150 0 0 0 0.064889997
1.793 0.23800001 0.824 150 0 0 0 0.064900003
1.78 0.237 0.82499999 150 0 0 0 0.064910002
1.784 0.23800001 0.83200002 150 0 0 0 0.064920001
1.785 0.23899999 0.83899999 150 0 0 0 0.064929999
1.784 0.23899999 0.84399998 150 0 0 0 0.064939998
1.786 0.23899999 0.85100001 150 0 0 0 0.064949997
1.795 0.241 0.861 150 0 0 0 0.064960003
1.7920001 0.241 0.866 150 0 0 0 0.064970002
1.794 0.241 0.87300003 150 0 0 0 0.06498
1.794 0.241 0.87900001 150 0 0 0 0.064989999
1.796 0.242 0.88599998 150 0 0 0 0.064999998
1.799 0.242 0.89300001 150 0 0 0 0.065009996
1.799 0.243 0.89899999 150 0 0 0 0.065020002
1.7970001 0.242 0.90399998 150 0 0 0 0.065030001
1.7970001 0.242 0.91000003 150 0 0 0 0.06504
1.798 0.243 0.91600001 150 0 0 0 0.065049998
1.799 0.243 0.92299998 150 0 0 0 0.065059997
1.804 0.243 0.93099999 150 0 0 0 0.065070003
1.8 0.243 0.935 150 0 0 0 0.065080002
1.803 0.243 0.94300002 150 0 0 0 0.065090001
1.802 0.243 0.94800001 150 0 0 0 0.065099999
1.802 0.243 0.954 150 0 0 0 0.065109998
1.806 0.243 0.96100003 150 0 0 0 0.065119997
1.811 0.243 0.97000003 150 0 0 0 0.065130003
1.814 0.244 0.977 150 0 0 0 0.065140001
1.809 0.243 0.98000002 150 0 0 0 0.06515
1.7970001 0.241 0.97899997 148 0 0 0 0.065159999
1.783 0.23899999 0.977 150 0 0 0 0.065169998
1.775 0.237 0.97899997 150 0 0 0 0.065180004
1.762 0.235 0.977 150 0 0 0 0.065190002
1.755 0.234 0.97899997 150 0 0 0 0.065200001
1.755 0.233 0.98400003 150 0 0 0 0.06521
1.752 0.23199999 0.98699999 150 0 0 0 0.065219998
1.7589999 0.233 0.99699998 150 0 0 0 0.065229997
1.766 0.233 1.006 150 0 0 0 0.065240003
1.774 0.233 1.016 150 0 0 0 0.065250002
1.7819999 0.234 1.026 151 0 0 0 0.065260001
1.779 0.233 1.03 151 0 0 0 0.065269999
1.78 0.23199999 1.036 151 0 0 0 0.065279998
1.7819999 0.23199999 1.0420001 151 0 0 0 0.065289997
1.785 0.23199999 1.049 151 0 0 0 0.065300003
1.791 0.23199999 1.058 150 0 0 0 0.065310001
1.783 0.23 1.058 150 0 0 0 0.06532
1.784 0.229 1.064 150 0 0 0 0.065329999
1.785 0.228 1.069 150 0 0 0 0.065339997
1.79 0.228 1.077 150 0 0 0 0.065350004
1.793 0.227 1.084 150 0 0 0 0.065360002
1.791 0.226 1.0880001 150 0 0 0 0.065370001
1.789 0.22499999 1.091 121 0 0 0 0.06538
1.7920001 0.22400001 1.099 93 0 0 0 0.065389998
1.791 0.223 1.103 75 0 0 0 0.065399997
1.793 0.222 1.108 65 0 0 0 0.065410003
1.789 0.22 1.1109999 77 0 0 0 0.065420002
1.796 0.22 1.119 86 0 0 0 0.06543
1.789 0.21799999 1.12 75 0 0 0 0.065439999
1.7970001 0.21699999 1.1289999 81 0 0 0 0.065449998
1.7970001 0.21600001 1.1339999 86 0 0 0 0.065459996
1.796 0.215 1.138 68 0 0 0 0.065470003
1.795 0.213 1.141 46 0 0 0 0.065480001
1.793 0.212 1.1440001 40 0 0 0 0.06549
1.791 0.20999999 1.147 41 0 0 0 0.065499999
1.798 0.20900001 1.156 45 0 0 0 0.065509997
1.7970001 0.208 1.16 51 0 0 0 0.065520003
1.798 0.206 1.164 63 0 0 0 0.065530002
1.7970001 0.204 1.1670001 62 0 0 0 0.065540001
1.7970001 0.20299999 1.1720001 69 0 0 0 0.065549999
1.798 0.20100001 1.176 70 0 0 0 0.065559998
1.8 0.2 1.181 90 0 0 0 0.065569997
1.795 0.198 1.182 106 0 0 0 0.065580003
1.796 0.19599999 1.186 121 0 0 0 0.065590002
1.796 0.19400001 1.1900001 126 0 0 0 0.0656
1.795 0.192 1.192 128 0 0 0 0.065609999
1.799 0.191 1.199 128 0 0 0 0.065619998
1.8 0.189 1.2029999 118 0 0 0 0.065629996
1.799 0.18700001 1.205 114 0 0 0 0.065640002
1.795 0.185 1.206 113 0 0 0 0.065650001
1.796 0.183 1.209 112 0 0 0 0.06566
1.796 0.18099999 1.212 114 0 0 0 0.065669999
1.7970001 0.17900001 1.216 109 0 0 0 0.065679997
1.798 0.177 1.22 107 0 0 0 0.065690003
1.7970001 0.175 1.222 104 0 0 0 0.065700002
1.796 0.17299999 1.224 103 0 0 0 0.065710001
1.794 0.171 1.225 92 0 0 0 0.065719999
1.794 0.168 1.227 104 0 0 0 0.065729998
1.795 0.16599999 1.23 110 0 0 0 0.065739997
1.794 0.164 1.232 104 0 0 0 0.065750003
1.795 0.162 1.235 108 0 0 0 0.065760002
1.793 0.16 1.2359999 122 0 0 0 0.06577
1.7920001 0.15700001 1.237 150 0 0 0 0.065779999
1.791 0.155 1.239 150 0 0 0 0.065789998
1.789 0.152 1.239 150 0 0 0 0.065800004
1.786 0.15000001 1.238 150 0 0 0 0.065810002
1.791 0.148 1.244 151 0 0 0 0.065820001
1.789 0.146 1.244 151 0 0 0 0.06583
1.788 0.14300001 1.245 151 0 0 0 0.065839998
1.791 0.141 1.248 151 0 0 0 0.065849997
1.789 0.138 1.248 151 0 0 0 0.065860003
1.786 0.13600001 1.247 151 0 0 0 0.065870002
1.789 0.133 1.25 151 0 0 0 0.065880001
1.785 0.131 1.249 150 0 0 0 0.065889999
1.781 0.12800001 1.247 150 0 0 0 0.065899998
1.781 0.126 1.248 150 0 0 0 0.065909997
1.781 0.123 1.248 150 0 0 0 0.065920003
1.777 0.12 1.2460001 150 0 0 0 0.065930001
1.775 0.118 1.245 150 0 0 0 0.06594
1.775 0.115 1.245 150 0 0 0 0.065949999
1.775 0.113 1.2460001 150 0 0 0 0.065959997
1.775 0.11 1.2460001 150 0 0 0 0.065970004
1.774 0.108 1.2460001 150 0 0 0 0.065980002
1.7819999 0.105 1.251 150 0 0 0 0.065990001
1.788 0.103 1.255 150 0 0 0 0.066
1.793 0.101 1.2589999 150 0 0 0 0.066009998
1.796 0.097999997 1.26 150 0 0 0 0.066019997
1.795 0.096000001 1.26 150 0 0 0 0.066030003
1.791 0.093000002 1.256 150 0 0 0 0.066040002
1.7920001 0.090999998 1.256 150 0 0 0 0.06605
1.788 0.088 1.253 150 0 0 0 0.066059999
1.789 0.085000001 1.252 150 0 0 0 0.066069998
1.789 0.082999997 1.252 150 0 0 0 0.066079997
1.789 0.079999998 1.251 150 0 0 0 0.066090003
1.79 0.077 1.251 150 0 0 0 0.066100001
1.789 0.075000003 1.249 150 0 0 0 0.06611
1.785 0.071999997 1.245 150 0 0 0 0.066119999
1.786 0.07 1.244 150 0 0 0 0.066129997
1.785 0.067000002 1.242 150 0 0 0 0.066140004
1.785 0.064000003 1.24 150 0 0 0 0.066150002
1.786 0.061999999 1.239 150 0 0 0 0.066160001
1.7819999 0.059 1.235 150 0 0 0 0.06617
1.785 0.057 1.235 150 0 0 0 0.066179998
1.784 0.054000001 1.233 150 0 0 0 0.066189997
1.783 0.052000001 1.23 150 0 0 0 0.066200003
1.784 0.048999999 1.228 150 0 0 0 0.066210002
1.784 0.046999998 1.226 150 0 0 0 0.06622
1.785 0.044 1.225 150 0 0 0 0.066229999
1.781 0.041999999 1.22 150 0 0 0 0.066239998
1.783 0.039000001 1.219 150 0 0 0 0.066249996
1.78 0.037 1.2130001 150 0 0 0 0.066260003
1.78 0.034000002 1.211 150 0 0 0 0.066270001
1.781 0.032000002 1.209 150 0 0 0 0.06628
1.7819999 0.028999999 1.207 150 0 0 0 0.066289999
1.781 0.027000001 1.2029999 150 0 0 0 0.066299997
1.7819999 0.025 1.201 150 0 0 0 0.066310003
1.776 0.022 1.194 150 0 0 0 0.066320002
1.781 0.02 1.194 150 0 0 0 0.066330001
1.779 0.017000001 1.1900001 150 0 0 0 0.066339999
1.779 0.015 1.187 150 0 0 0 0.066349998
1.779 0.013 1.183 150 0 0 0 0.066359997
1.78 0.0099999998 1.181 150 0 0 0 0.066370003
1.778 0.0080000004 1.176 150 0 0 0 0.066380002
1.778 0.0060000001 1.1720001 150 0 0 0 0.06639
1.774 0.0040000002 1.166 150 0 0 0 0.066399999
1.776 0.001 1.164 150 0 0 0 0.066409998
1.7690001 0 1.155 150 0 0 0 0.066419996
1.77 -0.0020000001 1.152 150 0 0 0 0.066430002
1.77 -0.0040000002 1.148 150 0 0 0 0.066440001
1.771 -0.0060000001 1.145 150 0 0 0 0.06645
1.7690001 -0.0080000004 1.14 150 0 0 0 0.066459998
1.773 -0.0099999998 1.138 150 0 0 0 0.066469997
1.771 -0.013 1.133 150 0 0 0 0.066480003
1.773 -0.015 1.13 150 0 0 0 0.066490002
1.771 -0.016000001 1.124 150 0 0 0 0.066500001
1.771 -0.018999999 1.12 150 0 0 0 0.066509999
1.773 -0.02 1.117 150 0 0 0 0.066519998
1.7690001 -0.022 1.11 150 0 0 0 0.066529997
1.765 -0.024 1.103 150 0 0 0 0.066540003
1.766 -0.026000001 1.099 150 0 0 0 0.066550002
1.768 -0.028000001 1.096 150 0 0 0 0.06656
1.766 -0.029999999 1.09 150 0 0 0 0.066569999
1.7640001 -0.032000002 1.084 150 0 0 0 0.066579998
1.766 -0.033 1.08 150 0 0 0 0.066590004
1.766 -0.035 1.076 150 0 0 0 0.066600002
1.761 -0.037 1.068 150 0 0 0 0.066610001
1.763 -0.039000001 1.064 150 0 0 0 0.06662
1.757 -0.039999999 1.056 150 0 0 0 0.066629998
1.74 -0.041000001 1.04 150 0 0 0 0.066639997
1.716 -0.041999999 1.021 150 0 0 0 0.066650003
1.705 -0.044 1.01 150 0 0 0 0.066660002
1.7029999 -0.045000002 1.0039999 150 0 0 0 0.066670001
1.702 -0.046999998 0.99900001 150 0 0 0 0.066679999
1.7079999 -0.048 0.99699998 144 0 0 0 0.066689998
1.7180001 -0.050000001 0.99800003 117 0 0 0 0.066699997
1.726 -0.052000001 0.99699998 122 0 0 0 0.066710003
1.734 -0.052999999 0.99599999 123 0 0 0 0.066720001
1.747 -0.055 0.99900001 130 0 0 0 0.06673
1.755 -0.057 0.99800003 150 0 0 0 0.066739999
1.763 -0.057999998 0.99699998 150 0 0 0 0.066749997
1.763 -0.059999999 0.99199998 150 0 0 0 0.066760004
1.7589999 -0.061000001 0.98400003 150 0 0 0 0.066770002
1.757 -0.061999999 0.97799999 150 0 0 0 0.066780001
1.751 -0.063000001 0.96899998 150 0 0 0 0.06679
1.748 -0.064000003 0.96200001 150 0 0 0 0.066799998
1.742 -0.064999998 0.95300001 150 0 0 0 0.066809997
1.74 -0.066 0.94700003 150 0 0 0 0.066820003
1.734 -0.067000002 0.93800002 150 0 0 0 0.066830002
1.73 -0.068000004 0.93000001 150 0 0 0 0.06684
1.725 -0.068999998 0.92199999 150 0 0 0 0.066849999
1.72 -0.07 0.91399997 150 0 0 0 0.066859998
1.7130001 -0.071000002 0.90499997 150 0 0 0 0.066869996
1.7130001 -0.071999997 0.89899999 150 0 0 0 0.066880003
1.705 -0.071999997 0.889 150 0 0 0 0.066890001
1.701 -0.072999999 0.88200003 150 0 0 0 0.0669
1.7 -0.074000001 0.87599999 150 0 0 0 0.066909999
1.702 -0.075000003 0.87099999 150 0 0 0 0.066919997
1.699 -0.075999998 0.86400002 150 0 0 0 0.066930003
1.696 -0.075999998 0.85699999 150 0 0 0 0.066940002
1.696 -0.077 0.85100001 150 0 0 0 0.066950001
1.698 -0.078000002 0.847 150 0 0 0 0.06696
1.696 -0.079000004 0.83999997 150 0 0 0 0.066969998
1.6950001 -0.079000004 0.83399999 150 0 0 0 0.066979997
1.693 -0.079999998 0.82800001 150 0 0 0 0.066990003
1.694 -0.081 0.82300001 150 0 0 0 0.067000002
1.6900001 -0.081 0.815 150 0 0 0 0.06701
1.696 -0.082000002 0.81199998 150 0 0 0 0.067019999
1.693 -0.082999997 0.80500001 150 0 0 0 0.067029998
1.691 -0.082999997 0.79799998 150 0 0 0 0.067039996
1.696 -0.083999999 0.79500002 150 0 0 0 0.067050003
1.694 -0.083999999 0.78799999 150 0 0 0 0.067060001
1.683 -0.083999999 0.77700001 150 0 0 0 0.06707
1.696 -0.085000001 0.778 150 0 0 0 0.067079999
1.6950001 -0.086000003 0.77200001 150 0 0 0 0.067089997
1.696 -0.086000003 0.76599997 150 0 0 0 0.067100003
1.698 -0.086999997 0.76200002 150 0 0 0 0.067110002
1.696 -0.086999997 0.755 150 0 0 0 0.067120001
1.683 -0.086999997 0.74299997 150 0 0 0 0.067129999
1.698 -0.088 0.74400002 150 0 0 0 0.067139998
1.6950001 -0.088 0.73699999 150 0 0 0 0.067149997
1.684 -0.088 0.727 150 0 0 0 0.067160003
1.694 -0.089000002 0.72500002 150 0 0 0 0.067170002
1.694 -0.089000002 0.71899998 150 0 0 0 0.06718
1.705 -0.090000004 0.71799999 24 0 0 0 0.067189999
1.7180001 -0.090999998 0.71799999 19 0 0 0 0.067199998
1.733 -0.092 0.71799999 17 0 0 0 0.067209996
1.7460001 -0.093000002 0.71799999 17 0 0 0 0.067220002
1.757 -0.093000002 0.71600002 79 0 0 0 0.067230001
1.767 -0.093999997 0.71399999 75 0 0 0 0.06724
1.79 -0.096000001 0.71700001 74 0 0 0 0.067249998
1.8049999 -0.096000001 0.71700001 76 0 0 0 0.067259997
1.817 -0.097000003 0.71600002 77 0 0 0 0.067270003
1.84 -0.098999999 0.71799999 17 0 0 0 0.067280002
1.849 -0.098999999 0.71600002 72 0 0 0 0.067290001
1.864 -0.1 0.71499997 69 0 0 0 0.067299999
1.882 -0.101 0.71600002 68 0 0 0 0.067309998
1.901 -0.102 0.71600002 66 0 0 0 0.067319997
1.916 -0.103 0.71600002 65 0 0 0 0.067330003
1.9299999 -0.103 0.71399999 60 0 0 0 0.067340001
1.951 -0.105 0.71499997 62 0 0 0 0.06735
1.9680001 -0.105 0.71499997 61 0 0 0 0.067359999
1.985 -0.106 0.71399999 58 0 0 0 0.067369998
2.0039999 -0.107 0.71399999 52 0 0 0 0.067380004
2.0250001 -0.108 0.71499997 49 0 0 0 0.067390002
2.1359999 -0.114 0.74699998 150 0 0 0 0.067400001
2.243 -0.119 0.77600002 151 0 0 0 0.06741
3.0450001 -0.162 1.044 150 0 0 0 0.067419998
3.105 -0.16500001 1.054 119 0 0 0 0.067429997
3.099 -0.164 1.041 78 0 0 0 0.067440003
3.04 -0.16 1.011 39 0 0 0 0.067450002
2.7520001 -0.145 0.90600002 3 0 0 0 0.067460001
2.6860001 -0.141 0.875 3 0 0 0 0.067469999
2.4489999 -0.12800001 0.79000002 3 0 0 0 0.067479998
2.661 -0.139 0.84899998 4 0 0 0 0.067489997
2.2969999 -0.119 0.72500002 3 0 0 0 0.067500003
2.652 -0.13699999 0.82800001 3 0 0 0 0.067510001
2.6589999 -0.13699999 0.82099998 3 0 0 0 0.06752
2.6760001 -0.13699999 0.81699997 3 0 0 0 0.067529999
2.6240001 -0.134 0.79299998 4 0 0 0 0.067539997
2.6670001 -0.13600001 0.796 3 0 0 0 0.067550004
2.7049999 -0.13699999 0.79900002 2 0 0 0 0.067560002
2.7119999 -0.13699999 0.792 2 0 0 0 0.067570001
2.7179999 -0.13600001 0.78399998 2 0 0 0 0.06758
2.7190001 -0.13600001 0.77499998 2 0 0 0 0.067589998
2.7149999 -0.13500001 0.76499999 2 0 0 0 0.067599997
2.7079999 -0.134 0.75400001 2 0 0 0 0.067610003
2.7149999 -0.133 0.74699998 3 0 0 0 0.067620002
2.714 -0.132 0.73799998 3 0 0 0 0.06763
2.7079999 -0.131 0.727 3 0 0 0 0.067639999
2.694 -0.13 0.71399999 3 0 0 0 0.067649998
2.6429999 -0.126 0.69199997 5 0 0 0 0.067659996
2.6070001 -0.124 0.67400002 11 0 0 0 0.067670003
2.5680001 -0.121 0.65499997 16 0 0 0 0.067680001
2.53 -0.118 0.63700002 17 0 0 0 0.06769
2.507 -0.116 0.62300003 17 0 0 0 0.067699999
2.5280001 -0.117 0.62 18 0 0 0 0.067709997
2.566 -0.117 0.62 18 0 0 0 0.067720003
2.628 -0.119 0.62699997 16 0 0 0 0.067730002
2.7 -0.121 0.63499999 4 0 0 0 0.067740001
2.7090001 -0.121 0.62800002 4 0 0 0 0.067749999
2.7119999 -0.12 0.62 4 0 0 0 0.067759998
2.714 -0.119 0.611 4 0 0 0 0.067769997
2.7119999 -0.118 0.602 4 0 0 0 0.067780003
2.711 -0.116 0.59299999 4 0 0 0 0.067790002
2.7079999 -0.115 0.583 4 0 0 0 0.0678
2.711 -0.114 0.57499999 4 0 0 0 0.067809999
2.7060001 -0.113 0.565 4 0 0 0 0.067819998
2.7119999 -0.112 0.55699998 4 0 0 0 0.067829996
2.71 -0.11 0.54799998 4 0 0 0 0.067840002
2.7060001 -0.109 0.53799999 4 0 0 0 0.067850001
2.704 -0.108 0.52899998 4 0 0 0 0.06786
2.7030001 -0.106 0.51999998 4 0 0 0 0.067869999
2.697 -0.105 0.50999999 4 0 0 0 0.067879997
2.687 -0.103 0.49900001 3 0 0 0 0.067890003
2.6700001 -0.101 0.48699999 2 0 0 0 0.067900002
2.6619999 -0.1 0.477 2 0 0 0 0.067910001
1.938 -0.071000002 0.34099999 5 0 0 0 0.067919999
1.929 -0.07 0.333 5 0 0 0 0.067929998
1.946 -0.07 0.33000001 1 0 0 0 0.067939997
1.943 -0.068999998 0.32300001 1 0 0 0 0.067950003
1.948 -0.068000004 0.317 1 0 0 0 0.067960002
1.973 -0.067000002 0.315 1 0 0 0 0.06797
2.211 -0.074000001 0.34599999 1 0 0 0 0.067979999
2.3310001 -0.077 0.35699999 1 0 0 0 0.067989998
2.332 -0.075999998 0.34900001 1 0 0 0 0.068000004
2.3759999 -0.075999998 0.34799999 1 0 0 0 0.068010002
2.398 -0.075000003 0.34400001 1 0 0 0 0.068020001
2.3959999 -0.074000001 0.336 1 0 0 0 0.06803
1.784 -0.054000001 0.244 1 0 0 0 0.068039998
1.757 -0.052000001 0.235 7 0 0 0 0.068049997
1.749 -0.050999999 0.228 12 0 0 0 0.068060003
1.725 -0.048999999 0.219 12 0 0 0 0.068070002
1.6799999 -0.046999998 0.208 12 0 0 0 0.068080001
1.6720001 -0.046 0.20200001 19 0 0 0 0.068089999
1.661 -0.044 0.19499999 15 0 0 0 0.068099998
1.671 -0.043000001 0.191 65 0 0 0 0.068109997
1.673 -0.041999999 0.186 150 0 0 0 0.068120003
1.664 -0.041000001 0.18000001 150 0 0 0 0.068130001
1.665 -0.039999999 0.17399999 150 0 0 0 0.06814
1.665 -0.039000001 0.169 150 0 0 0 0.068149999
1.666 -0.037999999 0.164 150 0 0 0 0.068159997
1.666 -0.037 0.15899999 150 0 0 0 0.068170004
1.6670001 -0.035999998 0.153 150 0 0 0 0.068180002
1.668 -0.035 0.148 150 0 0 0 0.068190001
1.673 -0.034000002 0.14300001 150 0 0 0 0.0682
1.668 -0.033 0.138 150 0 0 0 0.068209998
1.669 -0.030999999 0.132 150 0 0 0 0.068219997
1.669 -0.029999999 0.127 150 0 0 0 0.068230003
1.67 -0.028999999 0.122 150 0 0 0 0.068240002
1.67 -0.028000001 0.117 150 0 0 0 0.06825
1.671 -0.027000001 0.111 150 0 0 0 0.068259999
1.671 -0.026000001 0.106 150 0 0 0 0.068269998
1.671 -0.024 0.101 150 0 0 0 0.068279997
1.663 -0.023 0.094999999 150 0 0 0 0.068290003
1.6720001 -0.022 0.090000004 150 0 0 0 0.068300001
1.663 -0.021 0.083999999 150 0 0 0 0.06831
1.6720001 -0.02 0.079999998 150 0 0 0 0.068319999
1.673 -0.017999999 0.074000001 150 0 0 0 0.068329997
1.673 -0.017000001 0.068999998 150 0 0 0 0.068340003
1.673 -0.016000001 0.064000003 150 0 0 0 0.068350002
1.673 -0.015 0.059 150 0 0 0 0.068360001
1.674 -0.013 0.052999999 150 0 0 0 0.06837
1.674 -0.012 0.048 150 0 0 0 0.068379998
1.674 -0.011 0.043000001 150 0 0 0 0.068389997
1.677 -0.0089999996 0.037999999 150 0 0 0 0.068400003
1.674 -0.0080000004 0.032000002 150 0 0 0 0.068410002
1.679 -0.0070000002 0.027000001 150 0 0 0 0.06842
1.679 -0.0049999999 0.022 150 0 0 0 0.068429999
1.679 -0.0040000002 0.016000001 150 0 0 0 0.068439998
1.682 -0.003 0.011 150 0 0 0 0.068449996
1.682 -0.001 0.0060000001 150 0 0 0 0.068460003
1.682 0 0.001 150 0 0 0 0.068470001
1.682 0 -0.0040000002 150 0 0 0 0.06848
1.6849999 0.0020000001 -0.0089999996 150 0 0 0 0.068489999
1.6849999 0.003 -0.014 150 0 0 0 0.068499997
1.6849999 0.0049999999 -0.018999999 150 0 0 0 0.068510003
1.6849999 0.0060000001 -0.025 150 0 0 0 0.068520002
1.6849999 0.0070000002 -0.029999999 150 0 0 0 0.068530001
1.6849999 0.0089999996 -0.035 150 0 0 0 0.068539999
1.6849999 0.0099999998 -0.039999999 150 0 0 0 0.068549998
1.6849999 0.012 -0.046 150 0 0 0 0.068559997
1.696 0.013 -0.050999999 150 0 0 0 0.068570003
1.684 0.015 -0.056000002 150 0 0 0 0.068580002
1.684 0.016000001 -0.061000001 150 0 0 0 0.06859
1.684 0.017999999 -0.067000002 150 0 0 0 0.068599999
1.6849999 0.018999999 -0.071999997 150 0 0 0 0.068609998
1.674 0.021 -0.077 8 0 0 0 0.068619996
1.675 0.022 -0.082000002 21 0 0 0 0.068630002
1.653 0.023 -0.086000003 97 0 0 0 0.068640001
1.687 0.025 -0.093000002 31 0 0 0 0.06865
1.698 0.027000001 -0.098999999 7 0 0 0 0.068659998
1.545 0.026000001 -0.094999999 0 0 0 0 0.068669997
1.023 0.017999999 -0.066 0 0 0 0 0.068680003
1 0.017999999 -0.067000002 0 0 0 0 0.068690002
1.028 0.02 -0.072999999 0 0 0 0 0.068700001
1.021 0.021 -0.075000003 0 0 0 0 0.068709999
1.006 0.021 -0.077 0 0 0 0 0.068719998
0.977 0.022 -0.078000002 0 0 0 0 0.068729997
1.052 0.024 -0.086999997 0 0 0 0 0.068740003
1.154 0.028000001 -0.098999999 0 0 0 0 0.068750001
1.26 0.032000002 -0.113 0 0 0 0 0.06876
1.35 0.035999998 -0.125 0 0 0 0 0.068769999
1.38 0.037999999 -0.132 0 0 0 0 0.068779998
1.385 0.039000001 -0.13699999 0 0 0 0 0.068790004
1.4680001 0.043000001 -0.149 0 0 0 0 0.068800002
1.646 0.050000001 -0.17299999 1 0 0 0 0.068810001
1.742 0.055 -0.18799999 11 0 0 0 0.06882
1.683 0.055 -0.18700001 82 0 0 0 0.068829998
1.693 0.057 -0.193 149 0 0 0 0.068839997
1.697 0.057999998 -0.199 150 0 0 0 0.068850003
1.698 0.059999999 -0.204 150 0 0 0 0.068860002
1.698 0.061999999 -0.20999999 150 0 0 0 0.068870001
1.698 0.064000003 -0.215 150 0 0 0 0.068879999
1.699 0.066 -0.22 150 0 0 0 0.068889998
1.698 0.067000002 -0.226 150 0 0 0 0.068899997
1.691 0.068999998 -0.23 150 0 0 0 0.068910003
1.6950001 0.071000002 -0.236 150 0 0 0 0.068920001
1.6900001 0.072999999 -0.23999999 150 0 0 0 0.06893
1.701 0.075000003 -0.24699999 150 0 0 0 0.068939999
1.692 0.075999998 -0.25099999 150 0 0 0 0.068949997
1.691 0.078000002 -0.25600001 150 0 0 0 0.068960004
1.692 0.079999998 -0.26199999 150 0 0 0 0.068970002
1.697 0.082000002 -0.26699999 150 0 0 0 0.068980001
1.693 0.083999999 -0.27200001 150 0 0 0 0.06899
1.692 0.086000003 -0.27700001 150 0 0 0 0.068999998
1.694 0.088 -0.28299999 150 0 0 0 0.069009997
1.6950001 0.090000004 -0.28799999 150 0 0 0 0.069020003
1.693 0.092 -0.29300001 150 0 0 0 0.069030002
1.698 0.093999997 -0.29899999 150 0 0 0 0.06904
1.697 0.096000001 -0.30399999 150 0 0 0 0.069049999
1.699 0.097999997 -0.31 150 0 0 0 0.069059998
1.698 0.1 -0.315 150 0 0 0 0.069069996
1.696 0.102 -0.31999999 150 0 0 0 0.069080003
1.6950001 0.104 -0.32499999 150 0 0 0 0.069090001
1.702 0.106 -0.331 150 0 0 0 0.0691
1.697 0.108 -0.336 150 0 0 0 0.069109999
1.7029999 0.111 -0.34200001 150 0 0 0 0.069119997
1.701 0.112 -0.347 150 0 0 0 0.069130003
1.7 0.114 -0.352 150 0 0 0 0.069140002
1.698 0.117 -0.35699999 150 0 0 0 0.069150001
1.701 0.119 -0.36300001 150 0 0 0 0.069159999
1.702 0.121 -0.368 150 0 0 0 0.069169998
1.704 0.123 -0.37400001 150 0 0 0 0.069179997
1.7029999 0.125 -0.37900001 150 0 0 0 0.069190003
1.7 0.127 -0.384 150 0 0 0 0.069200002
1.706 0.13 -0.38999999 150 0 0 0 0.06921
1.704 0.132 -0.39500001 150 0 0 0 0.069219999
1.706 0.134 -0.40099999 150 0 0 0 0.069229998
1.704 0.13699999 -0.40599999 150 0 0 0 0.069239996
1.706 0.139 -0.41100001 150 0 0 0 0.069250003
1.7079999 0.141 -0.417 66 0 0 0 0.069260001
1.651 0.139 -0.40799999 6 0 0 0 0.06927
1.572 0.134 -0.39300001 1 0 0 0 0.069279999
1.567 0.13600001 -0.39700001 1 0 0 0 0.069289997
1.5420001 0.13600001 -0.39500001 1 0 0 0 0.069300003
1.5319999 0.13699999 -0.39700001 1 0 0 0 0.069310002
1.511 0.13699999 -0.39700001 1 0 0 0 0.069320001
1.493 0.138 -0.396 1 0 0 0 0.069329999
1.47 0.138 -0.39500001 2 0 0 0 0.069339998
1.446 0.13699999 -0.39300001 1 0 0 0 0.069349997
1.438 0.139 -0.39500001 1 0 0 0 0.069360003
1.427 0.14 -0.396 0 0 0 0 0.069370002
1.4069999 0.14 -0.39500001 0 0 0 0 0.06938
1.385 0.14 -0.39300001 0 0 0 0 0.069389999
1.382 0.141 -0.39700001 0 0 0 0 0.069399998
1.369 0.142 -0.39700001 0 0 0 0 0.069410004
1.33 0.14 -0.38999999 0 0 0 0 0.069420002
1.3150001 0.14 -0.389 0 0 0 0 0.069430001
1.303 0.141 -0.38999999 0 0 0 0 0.06944
1.281 0.14 -0.38699999 0 0 0 0 0.069449998
1.273 0.141 -0.389 0 0 0 0 0.069459997
1.2690001 0.14300001 -0.391 0 0 0 0 0.069470003
1.242 0.142 -0.38699999 0 0 0 0 0.069480002
1.255 0.145 -0.39399999 1 0 0 0 0.069490001
1.247 0.146 -0.396 5 0 0 0 0.069499999
1.239 0.147 -0.39700001 7 0 0 0 0.069509998
1.2359999 0.149 -0.40000001 6 0 0 0 0.069519997
1.238 0.15099999 -0.40400001 5 0 0 0 0.069530003
1.2410001 0.153 -0.40900001 5 0 0 0 0.069540001
1.2410001 0.155 -0.41299999 5 0 0 0 0.06955
1.245 0.15800001 -0.41800001 5 0 0 0 0.069559999
1.238 0.15899999 -0.419 5 0 0 0 0.069569997
1.2410001 0.161 -0.42399999 5 0 0 0 0.069580004
1.244 0.164 -0.42899999 5 0 0 0 0.069590002
1.248 0.16599999 -0.43399999 5 0 0 0 0.069600001
1.3609999 0.184 -0.477 32 0 0 0 0.06961
1.543 0.211 -0.546 150 0 0 0 0.069619998
1.63 0.22499999 -0.58099997 150 0 0 0 0.069629997
1.706 0.23899999 -0.61299998 38 0 0 0 0.069640003
1.698 0.23999999 -0.616 12 0 0 0 0.069650002
1.627 0.233 -0.59500003 6 0 0 0 0.069660001
1.617 0.234 -0.59600002 8 0 0 0 0.069669999
1.622 0.23800001 -0.602 8 0 0 0 0.069679998
1.62 0.23999999 -0.60600001 8 0 0 0 0.069689997
1.62 0.243 -0.611 8 0 0 0 0.069700003
1.623 0.24600001 -0.61699998 7 0 0 0 0.069710001
1.624 0.25 -0.62199998 6 0 0 0 0.06972
1.6849999 0.26199999 -0.65100002 12 0 0 0 0.069729999
1.721 0.271 -0.66900003 24 0 0 0 0.069739997
1.732 0.27500001 -0.67900002 150 0 0 0 0.069750004
1.7460001 0.28099999 -0.68900001 150 0 0 0 0.069760002
1.745 0.28400001 -0.69400001 150 0 0 0 0.069770001
1.726 0.28400001 -0.69099998 150 0 0 0 0.06978
1.7130001 0.285 -0.69099998 150 0 0 0 0.069789998
1.61 0.27000001 -0.65399998 150 0 0 0 0.069799997
1.501 0.255 -0.61400002 103 0 0 0 0.069810003
1.346 0.23100001 -0.55500001 2 0 0 0 0.069820002
0.94300002 0.164 -0.391 0 0 0 0 0.06983
0.92400002 0.162 -0.38600001 0 0 0 0 0.069839999
0.93599999 0.16599999 -0.39399999 0 0 0 0 0.069849998
0.91000003 0.163 -0.38499999 0 0 0 0 0.069859996
0.91600001 0.16599999 -0.38999999 0 0 0 0 0.069870003
0.912 0.167 -0.391 0 0 0 0 0.069880001
0.90499997 0.167 -0.391 0 0 0 0 0.06989
0.90700001 0.169 -0.39399999 0 0 0 0 0.069899999
0.89999998 0.17 -0.39399999 0 0 0 0 0.069909997
0.89899999 0.171 -0.396 0 0 0 0 0.069920003
0.88200003 0.17 -0.38999999 0 0 0 0 0.069930002
0.89300001 0.17399999 -0.398 0 0 0 0 0.069940001
0.88999999 0.175 -0.39899999 0 0 0 0 0.069949999
0.884 0.175 -0.398 0 0 0 0 0.069959998
0.86000001 0.17299999 -0.38999999 0 0 0 0 0.069969997
0.866 0.175 -0.39500001 0 0 0 0 0.069980003
0.875 0.17900001 -0.40099999 0 0 0 0 0.069990002
0.84799999 0.175 -0.391 0 0 0 0 0.07
0.847 0.177 -0.39300001 0 0 0 0 0.070009999
0.84299999 0.178 -0.39300001 0 0 0 0 0.070019998
0.82200003 0.175 -0.38600001 0 0 0 0 0.070029996
0.83200002 0.17900001 -0.39300001 0 0 0 0 0.070040002
0.81999999 0.178 -0.389 0 0 0 0 0.070050001
0.81900001 0.17900001 -0.391 0 0 0 0 0.07006
0.80900002 0.17900001 -0.38800001 0 0 0 0 0.070069999
0.82200003 0.183 -0.396 0 0 0 0 0.070079997
0.81800002 0.184 -0.396 0 0 0 0 0.070090003
0.80299997 0.182 -0.391 0 0 0 0 0.070100002
0.79000002 0.18099999 -0.38699999 0 0 0 0 0.070110001
0.80500001 0.186 -0.396 0 0 0 0 0.070119999
0.78799999 0.184 -0.38999999 0 0 0 0 0.070129998
0.78899997 0.186 -0.39199999 0 0 0 0 0.070139997
0.80400002 0.191 -0.40099999 0 0 0 0 0.070150003
0.80599999 0.193 -0.40400001 0 0 0 0 0.070160002
0.80199999 0.19400001 -0.40400001 0 0 0 0 0.07017
0.78200001 0.191 -0.396 0 0 0 0 0.070179999
0.78100002 0.192 -0.39700001 0 0 0 0 0.070189998
0.77399999 0.192 -0.39500001 0 0 0 0 0.070200004
0.77700001 0.19499999 -0.39899999 0 0 0 0 0.070210002
0.77899998 0.197 -0.40099999 0 0 0 0 0.070220001
0.77999997 0.199 -0.403 0 0 0 0 0.07023
0.77200001 0.199 -0.40099999 0 0 0 0 0.070239998
0.76599997 0.199 -0.40000001 0 0 0 0 0.070249997
0.76700002 0.20100001 -0.40200001 0 0 0 0 0.070260003
0.76200002 0.20100001 -0.40099999 0 0 0 0 0.070270002
0.75800002 0.20100001 -0.40000001 0 0 0 0 0.070280001
0.75400001 0.20200001 -0.40000001 0 0 0 0 0.070289999
0.75800002 0.205 -0.403 0 0 0 0 0.070299998
0.75199997 0.205 -0.40200001 0 0 0 0 0.070309997
0.74599999 0.205 -0.40000001 0 0 0 0 0.070320003
0.745 0.206 -0.40099999 0 0 0 0 0.070330001
0.74599999 0.208 -0.403 0 0 0 0 0.07034
0.74299997 0.20900001 -0.40200001 0 0 0 0 0.070349999
0.74400002 0.211 -0.405 0 0 0 0 0.070359997
0.75 0.214 -0.40900001 0 0 0 0 0.070370004
0.74000001 0.213 -0.405 0 0 0 0 0.070380002
0.73799998 0.214 -0.405 0 0 0 0 0.070390001
0.73799998 0.21600001 -0.40700001 0 0 0 0 0.0704
0.72799999 0.214 -0.40200001 0 0 0 0 0.070409998
0.72799999 0.21600001 -0.40400001 0 0 0 0 0.070419997
0.72799999 0.21699999 -0.40400001 0 0 0 0 0.070430003
0.73000002 0.22 -0.40700001 0 0 0 0 0.070440002
0.71200001 0.21600001 -0.398 0 0 0 0 0.07045
0.72399998 0.221 -0.40599999 0 0 0 0 0.070459999
0.71700001 0.22 -0.403 1 0 0 0 0.070469998
0.71200001 0.22 -0.40099999 1 0 0 0 0.070479997
0.72399998 0.226 -0.40900001 1 0 0 0 0.070490003
0.70999998 0.223 -0.40200001 1 0 0 0 0.070500001
0.708 0.22400001 -0.40200001 1 0 0 0 0.07051
0.71700001 0.228 -0.40700001 0 0 0 0 0.070519999
0.713 0.228 -0.40700001 0 0 0 0 0.070529997
0.708 0.228 -0.40400001 0 0 0 0 0.070540003
0.71200001 0.23100001 -0.40700001 0 0 0 0 0.070550002
0.708 0.23100001 -0.40599999 0 0 0 0 0.070560001
0.69 0.227 -0.396 0 0 0 0 0.07057
0.699 0.23100001 -0.40200001 0 0 0 0 0.070579998
0.70200002 0.234 -0.405 0 0 0 0 0.070589997
0.69800001 0.234 -0.403 0 0 0 0 0.070600003
0.70099998 0.236 -0.405 0 0 0 0 0.070610002
0.68300003 0.23100001 -0.396 0 0 0 0 0.07062
0.68599999 0.234 -0.398 0 0 0 0 0.070629999
0.68599999 0.235 -0.398 0 0 0 0 0.070639998
0.685 0.236 -0.39899999 0 0 0 0 0.070649996
0.685 0.237 -0.39899999 0 0 0 0 0.070660003
0.68000001 0.237 -0.39700001 0 0 0 0 0.070670001
0.68300003 0.23899999 -0.39899999 0 0 0 0 0.07068
0.68699998 0.242 -0.40200001 0 0 0 0 0.070689999
0.68300003 0.242 -0.39899999 0 0 0 0 0.070699997
0.68099999 0.243 -0.39899999 0 0 0 0 0.070710003
0.67900002 0.243 -0.398 0 0 0 0 0.070720002
0.68699998 0.24699999 -0.403 0 0 0 0 0.070730001
0.68000001 0.24600001 -0.39899999 0 0 0 0 0.070739999
0.68000001 0.24699999 -0.39899999 0 0 0 0 0.070749998
0.67900002 0.248 -0.39899999 0 0 0 0 0.070759997
0.67900002 0.249 -0.39899999 0 0 0 0 0.070770003
0.676 0.249 -0.39700001 0 0 0 0 0.070780002
0.676 0.25099999 -0.39700001 0 0 0 0 0.07079
0.68300003 0.25400001 -0.40200001 0 0 0 0 0.070799999
0.67799997 0.25299999 -0.39899999 0 0 0 0 0.070809998
0.67799997 0.25400001 -0.398 0 0 0 0 0.070819996
0.67699999 0.25600001 -0.398 0 0 0 0 0.070830002
0.67799997 0.257 -0.398 0 0 0 0 0.070840001
0.67400002 0.25600001 -0.396 0 0 0 0 0.07085
0.67299998 0.257 -0.39500001 0 0 0 0 0.070859998
0.68099999 0.26100001 -0.40000001 0 0 0 0 0.070869997
0.68099999 0.26199999 -0.40000001 0 0 0 0 0.070880003
0.68099999 0.26300001 -0.39899999 0 0 0 0 0.070890002
0.67699999 0.26199999 -0.39700001 0 0 0 0 0.070900001
0.67699999 0.26300001 -0.396 0 0 0 0 0.070909999
0.67699999 0.264 -0.396 0 0 0 0 0.070919998
0.676 0.26499999 -0.39500001 0 0 0 0 0.070929997
0.68000001 0.26800001 -0.39700001 0 0 0 0 0.070940003
0.69300002 0.273 -0.40400001 0 0 0 0 0.070950001
0.676 0.26800001 -0.39399999 0 0 0 0 0.07096
0.67900002 0.26899999 -0.39500001 0 0 0 0 0.070969999
0.68000001 0.271 -0.39500001 0 0 0 0 0.070979998
0.68400002 0.273 -0.39700001 0 0 0 0 0.070990004
0.69400001 0.278 -0.40200001 0 0 0 0 0.071000002
0.69300002 0.278 -0.40099999 0 0 0 0 0.071010001
0.69300002 0.27900001 -0.40000001 0 0 0 0 0.07102
0.69099998 0.27900001 -0.398 0 0 0 0 0.071029998
0.68599999 0.278 -0.39500001 0 0 0 0 0.071039997
0.69700003 0.28299999 -0.40000001 0 0 0 0 0.071050003
0.69700003 0.28400001 -0.40000001 0 0 0 0 0.071060002
0.69700003 0.28400001 -0.39899999 0 0 0 0 0.071070001
0.70300001 0.287 -0.40099999 0 0 0 0 0.071079999
0.70200002 0.287 -0.40000001 0 0 0 0 0.071089998
0.69700003 0.28600001 -0.396 0 0 0 0 0.071099997
0.69700003 0.28600001 -0.39500001 0 0 0 0 0.071110003
0.71100003 0.29300001 -0.40200001 0 0 0 0 0.071120001
0.71200001 0.29300001 -0.40099999 0 0 0 0 0.07113
0.70899999 0.29300001 -0.39899999 0 0 0 0 0.071139999
0.70899999 0.29300001 -0.398 0 0 0 0 0.071149997
0.72100002 0.29800001 -0.403 0 0 0 0 0.071160004
0.72100002 0.29899999 -0.40200001 0 0 0 0 0.071170002
0.72100002 0.29899999 -0.40099999 0 0 0 0 0.071180001
0.71399999 0.29699999 -0.396 0 0 0 0 0.07119
0.72399998 0.301 -0.40000001 0 0 0 0 0.071199998
0.71899998 0.29899999 -0.396 0 0 0 0 0.071209997
0.72500002 0.30199999 -0.398 0 0 0 0 0.071220003
0.72799999 0.30399999 -0.39899999 0 0 0 0 0.071230002
0.73699999 0.308 -0.40200001 0 0 0 0 0.07124
0.73699999 0.308 -0.40099999 0 0 0 0 0.071249999
0.73799998 0.308 -0.40000001 0 0 0 0 0.071259998
0.73500001 0.30700001 -0.39700001 0 0 0 0 0.071269996
0.736 0.308 -0.396 0 0 0 0 0.071280003
0.74900001 0.31400001 -0.40200001 0 0 0 0 0.071290001
0.75199997 0.315 -0.40200001 0 0 0 0 0.0713
0.75 0.31400001 -0.39899999 0 0 0 0 0.071309999
0.75400001 0.315 -0.39899999 0 0 0 0 0.071319997
0.76099998 0.31799999 -0.40099999 0 0 0 0 0.071330003
0.75800002 0.317 -0.398 0 0 0 0 0.071340002
0.74900001 0.31299999 -0.39199999 0 0 0 0 0.071350001
0.76099998 0.31799999 -0.396 0 0 0 0 0.071359999
0.76800001 0.32100001 -0.398 0 0 0 0 0.071369998
0.76800001 0.32100001 -0.39700001 0 0 0 0 0.071379997
0.78899997 0.329 -0.405 0 0 0 0 0.071390003
0.77999997 0.32600001 -0.39899999 0 0 0 0 0.071400002
0.79299998 0.331 -0.40400001 0 0 0 0 0.07141
0.78799999 0.32800001 -0.39899999 0 0 0 0 0.071419999
0.78299999 0.32600001 -0.39500001 0 0 0 0 0.071429998
0.78799999 0.32800001 -0.39500001 0 0 0 0 0.071439996
0.79100001 0.329 -0.39500001 0 0 0 0 0.071450002
0.792 0.329 -0.39399999 0 0 0 0 0.071460001
0.80599999 0.33399999 -0.39899999 0 0 0 0 0.07147
0.80800003 0.33500001 -0.398 1 0 0 0 0.071479999
0.80900002 0.33500001 -0.396 1 0 0 0 0.071489997
0.801 0.331 -0.38999999 1 0 0 0 0.071500003
0.81900001 0.338 -0.39700001 1 0 0 0 0.071510002
0.83099997 0.34200001 -0.40099999 1 0 0 0 0.071520001
0.82800001 0.34 -0.39700001 1 0 0 0 0.071529999
0.84200001 0.345 -0.40099999 1 0 0 0 0.071539998
0.83700001 0.34299999 -0.39700001 1 0 0 0 0.071549997
0.84399998 0.345 -0.398 1 0 0 0 0.071560003
0.85000002 0.347 -0.39899999 2 0 0 0 0.071570002
0.86799997 0.35299999 -0.405 2 0 0 0 0.07158
0.85500002 0.347 -0.396 2 0 0 0 0.071589999
0.86299998 0.34900001 -0.398 2 0 0 0 0.071599998
0.866 0.34999999 -0.39700001 2 0 0 0 0.071610004
0.87900001 0.35499999 -0.40000001 3 0 0 0 0.071620002
0.87599999 0.352 -0.39700001 3 0 0 0 0.071630001
0.86900002 0.34799999 -0.391 3 0 0 0 0.07164
0.89099997 0.35699999 -0.398 0 0 0 0 0.071649998
0.89600003 0.35800001 -0.398 0 0 0 0 0.071659997
0.90600002 0.361 -0.40000001 0 0 0 0 0.071670003
0.91299999 0.36199999 -0.40099999 0 0 0 0 0.071680002
0.90600002 0.35800001 -0.39500001 0 0 0 0 0.071690001
0.91399997 0.361 -0.396 0 0 0 0 0.071699999
0.93000001 0.366 -0.40000001 0 0 0 0 0.071709998
0.93099999 0.36500001 -0.398 0 0 0 0 0.071719997
0.92900002 0.36300001 -0.39399999 0 0 0 0 0.071730003
0.93300003 0.36399999 -0.39399999 0 0 0 0 0.071740001
0.94599998 0.36700001 -0.396 0 0 0 0 0.07175
0.954 0.36899999 -0.39700001 0 0 0 0 0.071759999
0.96200001 0.37099999 -0.398 0 0 0 0 0.071769997
0.958 0.368 -0.39300001 0 0 0 0 0.071780004
0.95899999 0.36700001 -0.391 0 0 0 0 0.071790002
0.986 0.37599999 -0.39899999 0 0 0 0 0.071800001
1.002 0.38100001 -0.403 1 0 0 0 0.07181
1.023 0.38699999 -0.40799999 2 0 0 0 0.071819998
1.02 0.38499999 -0.40400001 4 0 0 0 0.071829997
1.0319999 0.38800001 -0.40599999 4 0 0 0 0.071840003
1.035 0.38699999 -0.405 5 0 0 0 0.071850002
1.039 0.38699999 -0.403 5 0 0 0 0.07186
1.04 0.38600001 -0.40000001 5 0 0 0 0.071869999
1.046 0.38600001 -0.40000001 5 0 0 0 0.071879998
1.049 0.38600001 -0.398 5 0 0 0 0.071889997
1.052 0.38499999 -0.396 5 0 0 0 0.071900003
1.0549999 0.38499999 -0.39399999 5 0 0 0 0.071910001
1.0549999 0.38299999 -0.391 5 0 0 0 0.07192
1.061 0.38299999 -0.38999999 5 0 0 0 0.071929999
1.061 0.382 -0.38699999 5 0 0 0 0.071939997
1.066 0.38100001 -0.38600001 5 0 0 0 0.071950004
1.072 0.382 -0.38499999 5 0 0 0 0.071960002
1.069 0.37900001 -0.38100001 4 0 0 0 0.071970001
1.074 0.37900001 -0.38 4 0 0 0 0.07198
1.08 0.37900001 -0.37900001 5 0 0 0 0.071989998
1.0829999 0.37799999 -0.377 5 0 0 0 0.071999997
1.087 0.37799999 -0.375 4 0 0 0 0.072010003
1.09 0.377 -0.373 4 0 0 0 0.072020002
1.091 0.375 -0.37099999 4 0 0 0 0.07203
1.0930001 0.37400001 -0.368 4 0 0 0 0.072039999
1.107 0.37599999 -0.37 4 0 0 0 0.072049998
1.108 0.375 -0.36700001 4 0 0 0 0.072059996
1.11 0.373 -0.36399999 4 0 0 0 0.072070003
1.114 0.37200001 -0.36300001 4 0 0 0 0.072080001
1.117 0.37099999 -0.361 4 0 0 0 0.07209
1.119 0.37 -0.35800001 4 0 0 0 0.072099999
1.126 0.37 -0.35699999 4 0 0 0 0.072109997
1.132 0.37 -0.35600001 5 0 0 0 0.072120003
1.136 0.36899999 -0.354 6 0 0 0 0.072130002
1.1339999 0.366 -0.34999999 7 0 0 0 0.072140001
1.132 0.36300001 -0.347 10 0 0 0 0.072149999
1.131 0.36000001 -0.34299999 10 0 0 0 0.072159998
1.135 0.359 -0.34099999 10 0 0 0 0.072169997
1.132 0.35600001 -0.33700001 9 0 0 0 0.072180003
1.133 0.354 -0.33399999 8 0 0 0 0.072190002
1.133 0.352 -0.331 8 0 0 0 0.0722
1.136 0.34999999 -0.329 8 0 0 0 0.072209999
1.13 0.34599999 -0.324 8 0 0 0 0.072219998
1.131 0.34400001 -0.322 8 0 0 0 0.072229996
1.128 0.34099999 -0.31799999 7 0 0 0 0.072240002
1.131 0.33899999 -0.315 7 0 0 0 0.072250001
1.131 0.33700001 -0.31200001 7 0 0 0 0.07226
1.1289999 0.33399999 -0.30899999 7 0 0 0 0.072269998
1.13 0.33199999 -0.30599999 7 0 0 0 0.072279997
1.132 0.33000001 -0.30399999 7 0 0 0 0.072290003
1.131 0.32699999 -0.30000001 7 0 0 0 0.072300002
1.123 0.32300001 -0.29499999 6 0 0 0 0.072310001
1.1339999 0.32300001 -0.29499999 7 0 0 0 0.072319999
1.1339999 0.32100001 -0.292 7 0 0 0 0.072329998
1.128 0.317 -0.28799999 6 0 0 0 0.072339997
1.13 0.315 -0.285 6 0 0 0 0.072350003
1.127 0.31099999 -0.28099999 6 0 0 0 0.072360002
1.13 0.31 -0.27900001 6 0 0 0 0.07237
1.131 0.308 -0.27700001 6 0 0 0 0.072379999
1.1289999 0.30500001 -0.273 6 0 0 0 0.072389998
1.128 0.30199999 -0.27000001 6 0 0 0 0.072400004
1.132 0.30000001 -0.26800001 6 0 0 0 0.072410002
1.127 0.29699999 -0.264 6 0 0 0 0.072420001
1.124 0.29300001 -0.25999999 6 0 0 0 0.07243
1.125 0.29100001 -0.25799999 6 0 0 0 0.072439998
1.123 0.28799999 -0.255 5 0 0 0 0.072449997
1.125 0.28600001 -0.252 5 0 0 0 0.072460003
1.128 0.28400001 -0.25 5 0 0 0 0.072470002
1.124 0.28 -0.24600001 5 0 0 0 0.072480001
1.12 0.27700001 -0.243 5 0 0 0 0.072489999
1.124 0.27500001 -0.241 5 0 0 0 0.072499998
1.12 0.27200001 -0.237 5 0 0 0 0.072509997
1.1210001 0.26899999 -0.234 5 0 0 0 0.072520003
1.123 0.26699999 -0.23199999 5 0 0 0 0.072530001
1.1210001 0.264 -0.229 5 0 0 0 0.07254
1.119 0.26100001 -0.226 4 0 0 0 0.072549999
1.117 0.25799999 -0.222 4 0 0 0 0.072559997
1.117 0.255 -0.22 4 0 0 0 0.072570004
1.114 0.252 -0.21600001 4 0 0 0 0.072580002
1.113 0.249 -0.213 3 0 0 0 0.072590001
1.109 0.24600001 -0.20999999 3 0 0 0 0.0726
1.126 0.24699999 -0.20999999 1 0 0 0 0.072609998
1.103 0.23899999 -0.204 1 0 0 0 0.072619997
1.1210001 0.241 -0.204 0 0 0 0 0.072630003
1.128 0.23899999 -0.20299999 0 0 0 0 0.072640002
1.123 0.236 -0.199 0 0 0 0 0.07265
1.115 0.23100001 -0.19499999 0 0 0 0 0.072659999
1.112 0.228 -0.192 0 0 0 0 0.072669998
1.068 0.21600001 -0.182 0 0 0 0 0.072679996
1.026 0.206 -0.17200001 0 0 0 0 0.072690003
0.97500002 0.193 -0.161 0 0 0 0 0.072700001
0.89700001 0.175 -0.146 0 0 0 0 0.07271
0.79900002 0.154 -0.12800001 0 0 0 0 0.072719999
0.76599997 0.146 -0.121 0 0 0 0 0.072729997
0.75700003 0.14300001 -0.118 0 0 0 0 0.072740003
0.75 0.139 -0.115 0 0 0 0 0.072750002
0.755 0.139 -0.114 0 0 0 0 0.072760001
0.75099999 0.13600001 -0.112 0 0 0 0 0.07277
0.736 0.131 -0.108 0 0 0 0 0.072779998
0.75999999 0.134 -0.11 0 0 0 0 0.072789997
0.75300002 0.131 -0.107 0 0 0 0 0.072800003
0.75199997 0.12899999 -0.105 0 0 0 0 0.072810002
0.72399998 0.122 -0.1 0 0 0 0 0.07282
0.70700002 0.118 -0.096000001 0 0 0 0 0.072829999
0.69 0.113 -0.092 0 0 0 0 0.072839998
0.69099998 0.112 -0.090000004 0 0 0 0 0.072849996
0.676 0.108 -0.086999997 0 0 0 0 0.072860003
0.66299999 0.104 -0.083999999 0 0 0 0 0.072870001
0.667 0.103 -0.082999997 0 0 0 0 0.07288
0.65200001 0.098999999 -0.079000004 0 0 0 0 0.072889999
0.66100001 0.098999999 -0.079000004 0 0 0 0 0.072899997
0.64499998 0.094999999 -0.075999998 0 0 0 0 0.072910003
0.64099997 0.092 -0.074000001 0 0 0 0 0.072920002
0.61799997 0.088 -0.07 0 0 0 0 0.072930001
0.62599999 0.086999997 -0.068999998 0 0 0 0 0.072939999
0.634 0.086999997 -0.068999998 0 0 0 0 0.072949998
0.63800001 0.086000003 -0.068000004 0 0 0 0 0.072959997
0.62800002 0.082999997 -0.064999998 0 0 0 0 0.072970003
0.65600002 0.085000001 -0.067000002 0 0 0 0 0.072980002
0.65600002 0.082999997 -0.064999998 0 0 0 0 0.07299
0.65899998 0.082000002 -0.064000003 0 0 0 0 0.072999999
0.66799998 0.082000002 -0.064000003 0 0 0 0 0.073009998
0.68099999 0.081 -0.064000003 0 0 0 0 0.073019996
0.69 0.081 -0.063000001 0 0 0 0 0.073030002
0.71200001 0.082000002 -0.064000003 0 0 0 0 0.073040001
0.71200001 0.079999998 -0.061999999 0 0 0 0 0.07305
0.764 0.083999999 -0.064999998 0 0 0 0 0.073059998
0.77200001 0.082999997 -0.064000003 0 0 0 0 0.073069997
0.78200001 0.082000002 -0.063000001 0 0 0 0 0.073080003
0.77899998 0.079999998 -0.061000001 0 0 0 0 0.073090002
0.75199997 0.075000003 -0.057999998 0 0 0 0 0.073100001
0.792 0.077 -0.059 0 0 0 0 0.073109999
0.81099999 0.077 -0.059 0 0 0 0 0.073119998
0 0 0 0 0 0 0 0.073129997
1.346 0.121 -0.092 0 0 0 0 0.073140003
1.409 0.123 -0.093999997 1 0 0 0 0.073150001
1.383 0.117 -0.089000002 9 0 0 0 0.07316
1.358 0.112 -0.085000001 8 0 0 0 0.073169999
1.299 0.103 -0.078000002 50 0 0 0 0.073179998
1.319 0.102 -0.077 1 0 0 0 0.073190004
1.247 0.093000002 -0.07 0 0 0 0 0.073200002
1.376 0.098999999 -0.075000003 1 0 0 0 0.073210001
1.364 0.094999999 -0.071000002 4 0 0 0 0.07322
1.392 0.093000002 -0.07 4 0 0 0 0.073229998
1.395 0.090000004 -0.067000002 3 0 0 0 0.073239997
1.427 0.088 -0.066 3 0 0 0 0.073250003
1.46 0.086000003 -0.064000003 150 0 0 0 0.073260002
1.438 0.081 -0.061000001 151 0 0 0 0.073270001
1.437 0.078000002 -0.057999998 151 0 0 0 0.073279999
1.506 0.078000002 -0.057 1 0 0 0 0.073289998
1.49 0.072999999 -0.054000001 0 0 0 0 0.073299997
1.5 0.068999998 -0.050999999 0 0 0 0 0.073310003
1.511 0.066 -0.048999999 0 0 0 0 0.073320001
1.524 0.063000001 -0.046 0 0 0 0 0.07333
1.704 0.066 -0.048 1 0 0 0 0.073339999
1.719 0.061999999 -0.045000002 10 0 0 0 0.073349997
1.706 0.057 -0.041999999 144 0 0 0 0.073360004
1.697 0.052000001 -0.037999999 150 0 0 0 0.073370002
1.7 0.048 -0.035 150 0 0 0 0.073380001
1.701 0.044 -0.032000002 150 0 0 0 0.07339
1.693 0.039000001 -0.028000001 150 0 0 0 0.073399998
1.693 0.035 -0.025 150 0 0 0 0.073409997
1.693 0.029999999 -0.022 150 0 0 0 0.073420003
1.691 0.026000001 -0.017999999 150 0 0 0 0.073430002
1.693 0.021 -0.015 150 0 0 0 0.07344
1.693 0.017000001 -0.012 150 0 0 0 0.073449999
1.691 0.013 -0.0089999996 150 0 0 0 0.073459998
1.688 0.0080000004 -0.0049999999 150 0 0 0 0.073469996
1.686 0.0040000002 -0.0020000001 150 0 0 0 0.073480003
1.686 0 0 150 0 0 0 0.073490001
1.684 -0.0040000002 0.003 150 0 0 0 0.0735
1.681 -0.0080000004 0.0060000001 150 0 0 0 0.073509999
1.6799999 -0.013 0.0089999996 150 0 0 0 0.073519997
1.677 -0.017000001 0.013 150 0 0 0 0.073530003
1.674 -0.022 0.016000001 150 0 0 0 0.073540002
1.664 -0.026000001 0.018999999 150 0 0 0 0.073550001
1.65 -0.029999999 0.022 150 0 0 0 0.073559999
1.636 -0.034000002 0.024 150 0 0 0 0.073569998
1.636 -0.039000001 0.027000001 118 0 0 0 0.073579997
1.638 -0.043000001 0.030999999 69 0 0 0 0.073590003
1.64 -0.046999998 0.034000002 26 0 0 0 0.073600002
1.678 -0.052999999 0.037 11 0 0 0 0.07361
1.655 -0.057 0.039999999 1 0 0 0 0.073619999
0.56699997 -0.021 0.014 0 0 0 0 0.073629998
0.55299997 -0.022 0.015 0 0 0 0 0.073639996
0.59799999 -0.025 0.017000001 0 0 0 0 0.073650002
0.56999999 -0.025 0.017999999 0 0 0 0 0.073660001
0.58099997 -0.027000001 0.018999999 0 0 0 0 0.07367
0.59600002 -0.029999999 0.021 0 0 0 0 0.073679999
0.58999997 -0.030999999 0.021 0 0 0 0 0.073689997
0.58899999 -0.033 0.023 0 0 0 0 0.073700003
0.60600001 -0.035 0.024 0 0 0 0 0.073710002
0.58899999 -0.035999998 0.025 0 0 0 0 0.073720001
0.60100001 -0.037999999 0.026000001 0 0 0 0 0.073729999
0.60100001 -0.039999999 0.027000001 0 0 0 0 0.073739998
0.611 -0.041999999 0.028999999 0 0 0 0 0.073749997
0.62599999 -0.045000002 0.030999999 0 0 0 0 0.073760003
0.611 -0.045000002 0.030999999 0 0 0 0 0.073770002
0.61400002 -0.046999998 0.032000002 0 0 0 0 0.07378
0.64399999 -0.050999999 0.035 0 0 0 0 0.073789999
0.62800002 -0.052000001 0.035 0 0 0 0 0.073799998
0.64300001 -0.055 0.037 0 0 0 0 0.073810004
0.63300002 -0.056000002 0.037999999 0 0 0 0 0.073820002
0.62800002 -0.057 0.037999999 0 0 0 0 0.073830001
0.65100002 -0.061000001 0.041000001 0 0 0 0 0.07384
0.63499999 -0.061000001 0.041000001 0 0 0 0 0.073849998
0.63499999 -0.063000001 0.041999999 0 0 0 0 0.073859997
0.65899998 -0.067000002 0.045000002 0 0 0 0 0.073870003
0.67400002 -0.071000002 0.046999998 0 0 0 0 0.073880002
0.65899998 -0.071000002 0.046999998 0 0 0 0 0.073890001
0.65100002 -0.071999997 0.048 0 0 0 0 0.073899999
0.66600001 -0.075000003 0.050000001 0 0 0 0 0.073909998
0.65600002 -0.075999998 0.050000001 0 0 0 0 0.073919997
0.66600001 -0.079000004 0.052000001 0 0 0 0 0.073930003
0.71100003 -0.086000003 0.057 0 0 0 0 0.073940001
1.596 -0.199 0.131 1 0 0 0 0.07395
1.638 -0.20900001 0.138 9 0 0 0 0.073959999
1.638 -0.213 0.14 69 0 0 0 0.073969997
1.635 -0.21799999 0.14300001 150 0 0 0 0.073980004
1.636 -0.222 0.146 150 0 0 0 0.073990002
1.632 -0.227 0.148 150 0 0 0 0.074000001
1.635 -0.23199999 0.15099999 150 0 0 0 0.07401
1.628 -0.235 0.153 150 0 0 0 0.074019998
1.631 -0.23999999 0.156 150 0 0 0 0.074029997
1.632 -0.245 0.15899999 150 0 0 0 0.074040003
1.633 -0.25 0.162 150 0 0 0 0.074050002
1.6289999 -0.25400001 0.164 150 0 0 0 0.07406
1.63 -0.259 0.167 150 0 0 0 0.074069999
1.6289999 -0.26300001 0.169 150 0 0 0 0.074079998
1.628 -0.26800001 0.17200001 150 0 0 0 0.074089997
1.624 -0.27200001 0.17399999 150 0 0 0 0.074100003
1.625 -0.27700001 0.177 150 0 0 0 0.074110001
1.626 -0.28200001 0.18000001 150 0 0 0 0.07412
1.625 -0.28600001 0.182 150 0 0 0 0.074129999
1.624 -0.29100001 0.185 150 0 0 0 0.074139997
1.625 -0.296 0.18700001 150 0 0 0 0.074150003
1.6210001 -0.30000001 0.19 150 0 0 0 0.074160002
1.625 -0.30500001 0.193 150 0 0 0 0.074170001
1.624 -0.31 0.19499999 150 0 0 0 0.07418
1.622 -0.31400001 0.197 150 0 0 0 0.074189998
1.618 -0.31799999 0.199 150 0 0 0 0.074199997
1.62 -0.32300001 0.20200001 150 0 0 0 0.074210003
1.6210001 -0.32800001 0.205 150 0 0 0 0.074220002
1.615 -0.33199999 0.206 150 0 0 0 0.07423
1.6160001 -0.33700001 0.20900001 150 0 0 0 0.074239999
1.615 -0.34099999 0.212 150 0 0 0 0.074249998
1.614 -0.34599999 0.214 150 0 0 0 0.074259996
1.615 -0.35100001 0.21600001 150 0 0 0 0.074270003
1.613 -0.35499999 0.219 150 0 0 0 0.074280001
1.612 -0.36000001 0.221 150 0 0 0 0.07429
