# .PCD v0.7 - Point Cloud Data file format
VERSION 0.7
FIELDS x y z intensity normal_x normal_y normal_z curvature
SIZE 4 4 4 4 4 4 4 4
TYPE F F F F F F F F
COUNT 1 1 1 1 1 1 1 1
WIDTH 1159
HEIGHT 1
VIEWPOINT 0 0 0 1 0 0 0
POINTS 1159
DATA ascii
1.141 0.26800001 -0.62199998 8 0 0 0 0.01513
1.137 0.27000001 -0.62199998 9 0 0 0 0.01514
1.13 0.27000001 -0.62099999 8 0 0 0 0.01515
1.122 0.271 -0.61799997 9 0 0 0 0.01516
1.112 0.271 -0.61500001 9 0 0 0 0.01517
1.104 0.271 -0.61400002 10 0 0 0 0.01518
1.101 0.273 -0.61400002 10 0 0 0 0.01519
1.096 0.27399999 -0.61299998 10 0 0 0 0.0152
1.089 0.27399999 -0.611 10 0 0 0 0.01521
1.079 0.27399999 -0.60799998 10 0 0 0 0.01522
1.0779999 0.27599999 -0.60900003 10 0 0 0 0.01523
1.075 0.27700001 -0.60900003 10 0 0 0 0.01524
1.071 0.27900001 -0.60900003 9 0 0 0 0.01525
1.069 0.28 -0.61000001 9 0 0 0 0.01526
1.063 0.28099999 -0.60900003 9 0 0 0 0.01527
1.058 0.28200001 -0.60799998 9 0 0 0 0.01528
1.056 0.28299999 -0.60799998 8 0 0 0 0.01529
1.052 0.285 -0.60799998 8 0 0 0 0.0153
1.0470001 0.285 -0.60600001 8 0 0 0 0.01531
1.038 0.285 -0.60299999 8 0 0 0 0.01532
1.0369999 0.287 -0.60399997 10 0 0 0 0.01533
1.033 0.28799999 -0.60299999 11 0 0 0 0.01534
1.029 0.289 -0.602 15 0 0 0 0.01535
1.028 0.28999999 -0.60299999 68 0 0 0 0.01536
1.021 0.29100001 -0.60100001 77 0 0 0 0.01537
1.023 0.29300001 -0.60299999 79 0 0 0 0.01538
1.026 0.296 -0.60600001 59 0 0 0 0.01539
1.028 0.29899999 -0.60799998 55 0 0 0 0.0154
1.033 0.30199999 -0.61299998 49 0 0 0 0.01541
1.033 0.30500001 -0.61400002 48 0 0 0 0.01542
1.033 0.30700001 -0.61500001 50 0 0 0 0.01543
1.0319999 0.30899999 -0.616 50 0 0 0 0.01544
1.027 0.30899999 -0.61400002 53 0 0 0 0.01545
1.027 0.31099999 -0.61500001 54 0 0 0 0.01546
1.026 0.31299999 -0.61500001 60 0 0 0 0.01547
1.025 0.31400001 -0.616 64 0 0 0 0.01548
1.028 0.317 -0.61900002 57 0 0 0 0.01549
1.027 0.31900001 -0.61900002 64 0 0 0 0.0155
1.027 0.32100001 -0.61900002 61 0 0 0 0.01551
1.029 0.324 -0.62199998 69 0 0 0 0.01552
1.029 0.32499999 -0.62199998 78 0 0 0 0.01553
1.025 0.32600001 -0.62099999 84 0 0 0 0.01554
1.03 0.33000001 -0.62400001 85 0 0 0 0.01555
1.03 0.331 -0.625 100 0 0 0 0.01556
1.029 0.333 -0.625 102 0 0 0 0.01557
1.025 0.33399999 -0.62300003 104 0 0 0 0.01558
1.029 0.33700001 -0.625 106 0 0 0 0.01559
1.025 0.33700001 -0.62400001 127 0 0 0 0.0156
1.027 0.34 -0.625 139 0 0 0 0.01561
1.03 0.34299999 -0.62800002 123 0 0 0 0.01562
1.026 0.34299999 -0.625 115 0 0 0 0.015629999
1.025 0.34400001 -0.625 122 0 0 0 0.01564
1.025 0.34599999 -0.625 138 0 0 0 0.01565
1.029 0.34900001 -0.62699997 123 0 0 0 0.015659999
1.028 0.34999999 -0.62699997 112 0 0 0 0.01567
1.03 0.352 -0.62800002 133 0 0 0 0.01568
1.031 0.354 -0.62800002 116 0 0 0 0.015690001
1.03 0.35600001 -0.62800002 125 0 0 0 0.015699999
1.03 0.35699999 -0.62800002 114 0 0 0 0.01571
1.027 0.35800001 -0.62599999 126 0 0 0 0.01572
1.0319999 0.361 -0.62800002 118 0 0 0 0.015729999
1.0319999 0.36300001 -0.62800002 124 0 0 0 0.01574
1.033 0.36500001 -0.62800002 127 0 0 0 0.01575
1.033 0.366 -0.62800002 109 0 0 0 0.015760001
1.031 0.36700001 -0.62599999 121 0 0 0 0.015769999
1.03 0.368 -0.625 110 0 0 0 0.01578
1.034 0.37 -0.62699997 117 0 0 0 0.015790001
1.033 0.37099999 -0.62599999 118 0 0 0 0.015799999
1.033 0.373 -0.625 113 0 0 0 0.01581
1.033 0.37400001 -0.62400001 108 0 0 0 0.01582
1.0369999 0.377 -0.62599999 92 0 0 0 0.015830001
1.038 0.37900001 -0.62599999 93 0 0 0 0.01584
1.039 0.38 -0.62599999 80 0 0 0 0.01585
1.039 0.38100001 -0.625 87 0 0 0 0.015860001
1.0420001 0.38299999 -0.625 86 0 0 0 0.015869999
1.041 0.384 -0.62400001 80 0 0 0 0.01588
1.041 0.38499999 -0.62300003 73 0 0 0 0.01589
1.046 0.38800001 -0.625 67 0 0 0 0.015900001
1.044 0.389 -0.62199998 57 0 0 0 0.01591
1.044 0.38999999 -0.62099999 57 0 0 0 0.01592
1.045 0.391 -0.62 52 0 0 0 0.015930001
1.045 0.39199999 -0.61900002 54 0 0 0 0.015939999
1.046 0.39300001 -0.61799997 56 0 0 0 0.01595
1.046 0.39399999 -0.61699998 58 0 0 0 0.01596
1.046 0.39500001 -0.61500001 56 0 0 0 0.015969999
1.049 0.396 -0.616 51 0 0 0 0.01598
1.048 0.39700001 -0.61299998 53 0 0 0 0.01599
1.048 0.398 -0.61199999 52 0 0 0 0.016000001
1.051 0.39899999 -0.61199999 0 0 0 0 0.016009999
1.051 0.40000001 -0.61000001 53 0 0 0 0.01602
1.049 0.40000001 -0.60699999 51 0 0 0 0.016030001
1.05 0.40099999 -0.60600001 55 0 0 0 0.016039999
1.048 0.40099999 -0.60399997 52 0 0 0 0.01605
1.0470001 0.40099999 -0.60100001 53 0 0 0 0.01606
1.048 0.40200001 -0.60000002 50 0 0 0 0.016070001
1.052 0.403 -0.60000002 56 0 0 0 0.01608
1.051 0.40400001 -0.59799999 57 0 0 0 0.01609
1.053 0.405 -0.597 56 0 0 0 0.016100001
1.053 0.405 -0.59500003 59 0 0 0 0.016109999
1.051 0.405 -0.59200001 56 0 0 0 0.01612
1.049 0.40400001 -0.588 54 0 0 0 0.01613
1.051 0.405 -0.58700001 49 0 0 0 0.016140001
1.053 0.40599999 -0.58600003 60 0 0 0 0.01615
1.0470001 0.40400001 -0.58099997 57 0 0 0 0.01616
1.048 0.405 -0.579 59 0 0 0 0.016170001
1.048 0.405 -0.57700002 64 0 0 0 0.016179999
1.053 0.40599999 -0.57700002 62 0 0 0 0.01619
1.05 0.405 -0.57300001 61 0 0 0 0.0162
1.049 0.405 -0.56999999 50 0 0 0 0.016209999
1.052 0.40599999 -0.56900001 67 0 0 0 0.01622
1.051 0.40599999 -0.56699997 66 0 0 0 0.01623
1.049 0.405 -0.56300002 55 0 0 0 0.016240001
1.05 0.405 -0.56099999 47 0 0 0 0.016249999
1.05 0.405 -0.55800003 46 0 0 0 0.01626
1.051 0.405 -0.55699998 50 0 0 0 0.01627
1.052 0.405 -0.55400002 53 0 0 0 0.016279999
1.053 0.405 -0.55199999 57 0 0 0 0.01629
1.054 0.405 -0.55000001 56 0 0 0 0.0163
1.0549999 0.405 -0.54799998 59 0 0 0 0.016310001
1.052 0.40400001 -0.54400003 57 0 0 0 0.016319999
1.052 0.403 -0.54100001 52 0 0 0 0.01633
1.054 0.40400001 -0.54000002 52 0 0 0 0.016340001
1.0549999 0.403 -0.537 49 0 0 0 0.016349999
1.054 0.40200001 -0.53399998 14 0 0 0 0.01636
1.0549999 0.40200001 -0.53200001 13 0 0 0 0.01637
1.056 0.40200001 -0.52999997 13 0 0 0 0.016380001
1.056 0.40099999 -0.52700001 12 0 0 0 0.01639
1.062 0.403 -0.52700001 12 0 0 0 0.0164
1.061 0.40200001 -0.523 11 0 0 0 0.016410001
1.0599999 0.40099999 -0.51999998 11 0 0 0 0.016419999
1.0549999 0.398 -0.51499999 12 0 0 0 0.01643
1.0549999 0.39700001 -0.51200002 12 0 0 0 0.01644
1.051 0.39500001 -0.50700003 13 0 0 0 0.016450001
1.053 0.39500001 -0.505 13 0 0 0 0.01646
1.049 0.39300001 -0.5 15 0 0 0 0.01647
1.058 0.39500001 -0.50199997 11 0 0 0 0.016480001
1.061 0.396 -0.5 9 0 0 0 0.016489999
1.064 0.396 -0.49900001 10 0 0 0 0.0165
1.066 0.39500001 -0.49599999 11 0 0 0 0.01651
1.075 0.398 -0.49700001 11 0 0 0 0.016519999
1.079 0.398 -0.49700001 10 0 0 0 0.01653
1.086 0.40000001 -0.49700001 9 0 0 0 0.01654
1.089 0.40000001 -0.495 8 0 0 0 0.016550001
1.091 0.39899999 -0.493 7 0 0 0 0.016559999
1.0930001 0.39899999 -0.49000001 7 0 0 0 0.01657
1.096 0.39899999 -0.48800001 7 0 0 0 0.016580001
1.097 0.398 -0.486 8 0 0 0 0.016589999
1.1 0.398 -0.484 8 0 0 0 0.0166
1.104 0.398 -0.48199999 8 0 0 0 0.01661
1.105 0.39700001 -0.47999999 8 0 0 0 0.016620001
1.105 0.39500001 -0.47600001 8 0 0 0 0.01663
1.108 0.39500001 -0.47400001 8 0 0 0 0.01664
1.109 0.39399999 -0.472 8 0 0 0 0.016650001
1.112 0.39399999 -0.46900001 8 0 0 0 0.016659999
1.114 0.39300001 -0.46700001 8 0 0 0 0.01667
1.114 0.39199999 -0.46399999 8 0 0 0 0.01668
1.122 0.39300001 -0.46399999 8 0 0 0 0.016690001
1.124 0.39199999 -0.461 8 0 0 0 0.0167
1.124 0.391 -0.458 7 0 0 0 0.01671
1.126 0.38999999 -0.456 7 0 0 0 0.016720001
1.1339999 0.391 -0.456 8 0 0 0 0.016729999
1.135 0.389 -0.45300001 8 0 0 0 0.01674
1.132 0.38699999 -0.44800001 7 0 0 0 0.01675
1.142 0.389 -0.449 8 0 0 0 0.016759999
1.1440001 0.38699999 -0.44600001 7 0 0 0 0.01677
1.145 0.38600001 -0.44299999 8 0 0 0 0.01678
1.147 0.38499999 -0.44100001 7 0 0 0 0.016790001
1.133 0.37900001 -0.43200001 7 0 0 0 0.016799999
1.084 0.36000001 -0.41 8 0 0 0 0.01681
1.054 0.34900001 -0.396 8 0 0 0 0.01682
1.048 0.345 -0.38999999 7 0 0 0 0.016829999
1.0470001 0.34299999 -0.38699999 7 0 0 0 0.01684
1.056 0.345 -0.38699999 6 0 0 0 0.01685
1.058 0.34400001 -0.38499999 4 0 0 0 0.016860001
1.0650001 0.34400001 -0.384 2 0 0 0 0.016869999
1.071 0.34400001 -0.38299999 2 0 0 0 0.01688
1.0880001 0.34799999 -0.38600001 2 0 0 0 0.016890001
1.095 0.34799999 -0.38600001 2 0 0 0 0.016899999
1.102 0.34900001 -0.38499999 2 0 0 0 0.01691
1.12 0.352 -0.38800001 2 0 0 0 0.01692
1.108 0.34599999 -0.38 3 0 0 0 0.016930001
1.087 0.338 -0.37 5 0 0 0 0.01694
1.0650001 0.329 -0.359 5 0 0 0 0.01695
1.0420001 0.31999999 -0.34900001 6 0 0 0 0.016960001
1.011 0.30899999 -0.33500001 5 0 0 0 0.016969999
0.98699999 0.30000001 -0.324 6 0 0 0 0.01698
0.98799998 0.29800001 -0.322 9 0 0 0 0.01699
0.98799998 0.29699999 -0.31900001 10 0 0 0 0.017000001
0.98799998 0.29499999 -0.31600001 9 0 0 0 0.01701
0.98799998 0.29300001 -0.31299999 8 0 0 0 0.01702
0.98699999 0.29100001 -0.31 8 0 0 0 0.017030001
0.98799998 0.289 -0.308 8 0 0 0 0.017039999
0.98900002 0.28799999 -0.30500001 8 0 0 0 0.01705
0.99900001 0.289 -0.30599999 4 0 0 0 0.01706
0.98799998 0.28400001 -0.29899999 2 0 0 0 0.017069999
1.006 0.287 -0.30199999 0 0 0 0 0.01708
1.018 0.28799999 -0.303 0 0 0 0 0.01709
1.041 0.29300001 -0.30700001 2 0 0 0 0.017100001
1.051 0.294 -0.30700001 4 0 0 0 0.017109999
1.058 0.294 -0.30599999 4 0 0 0 0.01712
1.069 0.294 -0.30599999 5 0 0 0 0.017130001
1.073 0.29300001 -0.30399999 4 0 0 0 0.017139999
1.0779999 0.29300001 -0.303 4 0 0 0 0.01715
1.081 0.29100001 -0.30000001 4 0 0 0 0.01716
1.0880001 0.29100001 -0.29899999 4 0 0 0 0.017170001
1.082 0.287 -0.29499999 3 0 0 0 0.01718
1.049 0.27599999 -0.28299999 4 0 0 0 0.01719
1.044 0.273 -0.27900001 4 0 0 0 0.017200001
1.038 0.26899999 -0.27399999 4 0 0 0 0.017209999
1.04 0.26800001 -0.27200001 4 0 0 0 0.01722
1.044 0.266 -0.27000001 4 0 0 0 0.01723
1.035 0.26199999 -0.26499999 1 0 0 0 0.017240001
1.052 0.264 -0.26699999 0 0 0 0 0.01725
1.0700001 0.266 -0.26800001 0 0 0 0 0.01726
1.082 0.26699999 -0.26800001 0 0 0 0 0.017270001
1.079 0.264 -0.26499999 0 0 0 0 0.017279999
1.1160001 0.271 -0.271 0 0 0 0 0.01729
1.107 0.266 -0.26499999 0 0 0 0 0.0173
1.138 0.271 -0.27000001 1 0 0 0 0.017309999
1.146 0.271 -0.26899999 2 0 0 0 0.01732
1.155 0.271 -0.26800001 4 0 0 0 0.01733
1.163 0.27000001 -0.26699999 4 0 0 0 0.017340001
1.1670001 0.26800001 -0.264 4 0 0 0 0.017349999
1.1720001 0.26699999 -0.26199999 2 0 0 0 0.01736
1.164 0.26300001 -0.257 0 0 0 0 0.01737
1.175 0.26300001 -0.257 0 0 0 0 0.017379999
1.12 0.248 -0.242 0 0 0 0 0.01739
1.1109999 0.244 -0.237 0 0 0 0 0.0174
1.109 0.241 -0.234 0 0 0 0 0.017410001
1.1160001 0.23999999 -0.233 0 0 0 0 0.017419999
1.1160001 0.23800001 -0.23 0 0 0 0 0.01743
1.114 0.234 -0.226 0 0 0 0 0.017440001
1.117 0.233 -0.22400001 0 0 0 0 0.017449999
1.1160001 0.23 -0.221 0 0 0 0 0.01746
1.0880001 0.222 -0.213 0 0 0 0 0.01747
1.059 0.214 -0.204 0 0 0 0 0.017480001
1.025 0.205 -0.19499999 0 0 0 0 0.01749
1.0190001 0.20100001 -0.191 0 0 0 0 0.0175
1.018 0.199 -0.189 0 0 0 0 0.017510001
1.013 0.19499999 -0.185 0 0 0 0 0.017519999
1.012 0.193 -0.183 2 0 0 0 0.01753
1.015 0.191 -0.18000001 2 0 0 0 0.01754
1.0089999 0.18799999 -0.177 2 0 0 0 0.017550001
1.023 0.18799999 -0.177 3 0 0 0 0.01756
1.0190001 0.185 -0.17399999 3 0 0 0 0.01757
1.0140001 0.182 -0.17 3 0 0 0 0.017580001
1.02 0.18099999 -0.169 3 0 0 0 0.017589999
1.0140001 0.177 -0.16500001 3 0 0 0 0.0176
1.022 0.176 -0.164 3 0 0 0 0.01761
1.006 0.171 -0.15899999 0 0 0 0 0.017619999
1.0140001 0.17 -0.15800001 0 0 0 0 0.01763
3.372 0.56 -0.51800001 1 0 0 0 0.01764
3.3610001 0.55000001 -0.50800002 2 0 0 0 0.017650001
3.385 0.546 -0.50300002 2 0 0 0 0.017659999
3.3759999 0.537 -0.49399999 2 0 0 0 0.01767
3.382 0.52999997 -0.48699999 2 0 0 0 0.017680001
3.381 0.52200001 -0.47799999 3 0 0 0 0.017689999
3.3829999 0.51499999 -0.47099999 2 0 0 0 0.0177
3.3859999 0.50800002 -0.463 3 0 0 0 0.01771
3.3870001 0.5 -0.45500001 5 0 0 0 0.017720001
3.3840001 0.49200001 -0.447 5 0 0 0 0.017729999
3.385 0.484 -0.43900001 5 0 0 0 0.01774
3.381 0.47499999 -0.43000001 4 0 0 0 0.017750001
3.3759999 0.46700001 -0.42199999 5 0 0 0 0.017759999
3.3789999 0.45899999 -0.414 4 0 0 0 0.01777
3.3840001 0.45199999 -0.40700001 3 0 0 0 0.01778
3.392 0.44600001 -0.40000001 2 0 0 0 0.017790001
3.3859999 0.43700001 -0.391 1 0 0 0 0.0178
3.4389999 0.43599999 -0.38999999 1 0 0 0 0.01781
3.473 0.43200001 -0.38499999 2 0 0 0 0.017820001
3.4660001 0.42300001 -0.377 4 0 0 0 0.017829999
3.47 0.41499999 -0.36899999 5 0 0 0 0.01784
3.477 0.40799999 -0.36199999 5 0 0 0 0.01785
3.474 0.39899999 -0.35299999 4 0 0 0 0.017859999
3.473 0.391 -0.34599999 4 0 0 0 0.01787
3.4749999 0.38299999 -0.338 3 0 0 0 0.01788
3.487 0.37599999 -0.331 4 0 0 0 0.017890001
3.4920001 0.368 -0.324 5 0 0 0 0.017899999
3.4920001 0.36000001 -0.31600001 4 0 0 0 0.01791
3.4920001 0.352 -0.308 4 0 0 0 0.01792
3.5280001 0.347 -0.303 2 0 0 0 0.017929999
3.536 0.33899999 -0.296 2 0 0 0 0.01794
3.54 0.331 -0.28799999 4 0 0 0 0.01795
3.556 0.324 -0.28200001 6 0 0 0 0.017960001
3.55 0.315 -0.273 6 0 0 0 0.017969999
3.546 0.30599999 -0.26499999 5 0 0 0 0.01798
3.5469999 0.29800001 -0.257 5 0 0 0 0.017990001
3.5599999 0.28999999 -0.25099999 3 0 0 0 0.017999999
3.546 0.28099999 -0.242 1 0 0 0 0.01801
1.342 0.103 -0.088 0 0 0 0 0.01802
1.373 0.102 -0.086999997 4 0 0 0 0.018030001
1.3839999 0.098999999 -0.085000001 7 0 0 0 0.01804
1.386 0.096000001 -0.082000002 25 0 0 0 0.01805
1.383 0.093000002 -0.079000004 98 0 0 0 0.018060001
1.38 0.089000002 -0.075999998 111 0 0 0 0.018069999
1.38 0.086000003 -0.072999999 101 0 0 0 0.01808
1.378 0.082000002 -0.07 108 0 0 0 0.01809
1.377 0.079000004 -0.067000002 107 0 0 0 0.018100001
1.377 0.075000003 -0.064000003 106 0 0 0 0.01811
1.374 0.071999997 -0.061000001 102 0 0 0 0.01812
1.3710001 0.068000004 -0.057 113 0 0 0 0.018130001
1.3710001 0.064999998 -0.055 97 0 0 0 0.018139999
1.369 0.061999999 -0.052000001 100 0 0 0 0.01815
1.368 0.057999998 -0.048999999 114 0 0 0 0.01816
1.369 0.055 -0.046 72 0 0 0 0.018169999
1.378 0.052000001 -0.043000001 28 0 0 0 0.01818
1.388 0.048999999 -0.039999999 8 0 0 0 0.01819
1.408 0.046 -0.037999999 1 0 0 0 0.018200001
1.428 0.043000001 -0.035999998 0 0 0 0 0.018209999
1.439 0.039999999 -0.033 0 0 0 0 0.01822
1.444 0.037 -0.029999999 0 0 0 0 0.018230001
1.457 0.033 -0.027000001 0 0 0 0 0.018239999
1.498 0.030999999 -0.025 1 0 0 0 0.01825
1.503 0.027000001 -0.022 1 0 0 0 0.01826
1.516 0.023 -0.018999999 1 0 0 0 0.018270001
1.534 0.02 -0.016000001 1 0 0 0 0.018279999
1.553 0.016000001 -0.013 1 0 0 0 0.01829
2.6300001 0.021 -0.017000001 131 0 0 0 0.018300001
2.3859999 0.013 -0.0099999998 150 0 0 0 0.018309999
2.47 0.0080000004 -0.0060000001 150 0 0 0 0.01832
2.592 0.001 -0.001 150 0 0 0 0.01833
2.5910001 -0.0040000002 0.0040000002 150 0 0 0 0.018340001
2.5899999 -0.011 0.0089999996 150 0 0 0 0.01835
2.5899999 -0.017000001 0.014 150 0 0 0 0.01836
2.4790001 -0.023 0.018999999 150 0 0 0 0.018370001
2.3610001 -0.027000001 0.023 150 0 0 0 0.018379999
2.3139999 -0.033 0.027000001 151 0 0 0 0.01839
2.306 -0.037999999 0.030999999 151 0 0 0 0.0184
2.306 -0.044 0.035999998 151 0 0 0 0.018409999
2.306 -0.050000001 0.041000001 151 0 0 0 0.01842
2.3050001 -0.056000002 0.045000002 151 0 0 0 0.01843
2.3050001 -0.061999999 0.050000001 151 0 0 0 0.018440001
2.296 -0.067000002 0.054000001 151 0 0 0 0.018449999
2.296 -0.072999999 0.059 151 0 0 0 0.01846
2.2950001 -0.079000004 0.063000001 151 0 0 0 0.01847
2.289 -0.085000001 0.068000004 151 0 0 0 0.018479999
2.289 -0.090999998 0.071999997 151 0 0 0 0.01849
2.2880001 -0.097000003 0.077 151 0 0 0 0.0185
2.2880001 -0.102 0.081 151 0 0 0 0.018510001
2.2869999 -0.108 0.086000003 151 0 0 0 0.018519999
2.2869999 -0.114 0.090000004 151 0 0 0 0.01853
2.286 -0.12 0.094999999 151 0 0 0 0.018540001
2.2850001 -0.126 0.098999999 151 0 0 0 0.018549999
2.299 -0.133 0.104 151 0 0 0 0.01856
2.2920001 -0.138 0.108 151 0 0 0 0.01857
2.2909999 -0.14399999 0.113 151 0 0 0 0.018580001
2.299 -0.15099999 0.118 151 0 0 0 0.01859
2.313 -0.15800001 0.123 150 0 0 0 0.0186
2.3710001 -0.168 0.131 16 0 0 0 0.018610001
2.4289999 -0.178 0.139 18 0 0 0 0.018619999
2.4790001 -0.18799999 0.146 20 0 0 0 0.01863
2.529 -0.199 0.154 20 0 0 0 0.01864
2.592 -0.211 0.163 22 0 0 0 0.018650001
2.652 -0.222 0.17200001 25 0 0 0 0.01866
2.737 -0.237 0.182 27 0 0 0 0.01867
2.8269999 -0.252 0.19400001 29 0 0 0 0.018680001
2.8989999 -0.266 0.204 31 0 0 0 0.018689999
2.9809999 -0.28200001 0.21600001 32 0 0 0 0.0187
3.0580001 -0.29699999 0.227 33 0 0 0 0.01871
3.1210001 -0.31200001 0.23800001 32 0 0 0 0.018719999
3.145 -0.322 0.245 28 0 0 0 0.01873
3.1930001 -0.336 0.255 26 0 0 0 0.01874
3.2390001 -0.34900001 0.26499999 26 0 0 0 0.018750001
3.2869999 -0.36300001 0.27500001 27 0 0 0 0.018759999
3.306 -0.37400001 0.28299999 150 0 0 0 0.01877
3.312 -0.384 0.289 152 0 0 0 0.018780001
3.3099999 -0.39300001 0.296 152 0 0 0 0.018789999
3.3110001 -0.40200001 0.30199999 151 0 0 0 0.0188
3.3050001 -0.41 0.30700001 152 0 0 0 0.01881
3.3139999 -0.41999999 0.31400001 151 0 0 0 0.018820001
3.332 -0.43200001 0.322 151 0 0 0 0.018829999
3.332 -0.44100001 0.32800001 151 0 0 0 0.01884
3.3310001 -0.44999999 0.33399999 151 0 0 0 0.018850001
3.3840001 -0.46599999 0.34599999 151 0 0 0 0.018859999
3.388 -0.47600001 0.352 151 0 0 0 0.01887
3.3900001 -0.48500001 0.359 151 0 0 0 0.01888
3.388 -0.495 0.36500001 151 0 0 0 0.018890001
3.3789999 -0.50300002 0.37 151 0 0 0 0.0189
3.385 -0.51300001 0.377 151 0 0 0 0.01891
3.3829999 -0.52200001 0.38299999 151 0 0 0 0.018920001
3.381 -0.53100002 0.38800001 151 0 0 0 0.018929999
3.378 -0.54000002 0.39399999 151 0 0 0 0.01894
3.3759999 -0.54900002 0.40000001 151 0 0 0 0.01895
3.3759999 -0.55800003 0.40599999 151 0 0 0 0.018959999
3.372 -0.56699997 0.412 151 0 0 0 0.01897
3.3699999 -0.57599998 0.417 151 0 0 0 0.01898
3.369 -0.58499998 0.42300001 151 0 0 0 0.018990001
3.3659999 -0.59500003 0.42899999 151 0 0 0 0.018999999
3.365 -0.60399997 0.435 151 0 0 0 0.01901
3.362 -0.61299998 0.44 151 0 0 0 0.01902
3.358 -0.62199998 0.44499999 151 0 0 0 0.019029999
3.3570001 -0.63099998 0.45100001 151 0 0 0 0.01904
3.355 -0.63999999 0.45699999 151 0 0 0 0.01905
3.3499999 -0.64899999 0.46200001 151 0 0 0 0.019060001
3.3499999 -0.65799999 0.46799999 151 0 0 0 0.019069999
3.348 -0.667 0.47299999 151 0 0 0 0.01908
3.345 -0.676 0.47799999 151 0 0 0 0.019090001
3.349 -0.68699998 0.48500001 151 0 0 0 0.019099999
3.3440001 -0.69499999 0.49000001 151 0 0 0 0.01911
3.342 -0.70499998 0.495 151 0 0 0 0.01912
3.3410001 -0.71399999 0.50099999 151 0 0 0 0.019130001
3.339 -0.72299999 0.50599998 151 0 0 0 0.01914
3.336 -0.73199999 0.51099998 151 0 0 0 0.01915
3.335 -0.74199998 0.51700002 151 0 0 0 0.019160001
3.3329999 -0.75099999 0.52200001 151 0 0 0 0.019169999
3.3310001 -0.75999999 0.52700001 151 0 0 0 0.01918
3.3299999 -0.76999998 0.53299999 151 0 0 0 0.01919
3.322 -0.778 0.537 151 0 0 0 0.019200001
3.329 -0.78899997 0.54299998 151 0 0 0 0.01921
3.325 -0.79799998 0.54799998 151 0 0 0 0.01922
3.319 -0.80599999 0.55299997 151 0 0 0 0.019230001
3.316 -0.81599998 0.55699998 151 0 0 0 0.019239999
3.319 -0.82599998 0.56300002 151 0 0 0 0.01925
3.313 -0.83499998 0.56800002 151 0 0 0 0.01926
3.316 -0.84500003 0.57300001 151 0 0 0 0.019269999
3.3099999 -0.85299999 0.57800001 151 0 0 0 0.01928
3.3080001 -0.86299998 0.583 151 0 0 0 0.01929
3.306 -0.87199998 0.58700001 151 0 0 0 0.019300001
3.302 -0.88099998 0.59200001 151 0 0 0 0.019309999
3.3010001 -0.89099997 0.597 151 0 0 0 0.01932
3.2980001 -0.89999998 0.602 151 0 0 0 0.019330001
3.2950001 -0.90899998 0.60600001 151 0 0 0 0.019339999
3.2939999 -0.91900003 0.611 151 0 0 0 0.01935
3.296 -0.92900002 0.616 151 0 0 0 0.01936
3.2909999 -0.93800002 0.62099999 151 0 0 0 0.019370001
3.2909999 -0.94800001 0.62599999 151 0 0 0 0.019379999
3.2880001 -0.95700002 0.63 151 0 0 0 0.01939
3.2880001 -0.96700001 0.63499999 151 0 0 0 0.019400001
3.283 -0.97600001 0.639 151 0 0 0 0.019409999
3.2839999 -0.986 0.64399999 151 0 0 0 0.01942
3.28 -0.995 0.648 151 0 0 0 0.01943
3.279 -1.005 0.653 151 0 0 0 0.019440001
3.2750001 -1.013 0.65700001 151 0 0 0 0.01945
3.2739999 -1.023 0.66100001 150 0 0 0 0.01946
3.267 -1.031 0.66500002 150 0 0 0 0.019470001
3.2739999 -1.044 0.671 151 0 0 0 0.019479999
3.266 -1.051 0.67400002 150 0 0 0 0.01949
3.263 -1.0599999 0.67799997 150 0 0 0 0.0195
3.2650001 -1.071 0.68300003 150 0 0 0 0.019509999
3.26 -1.08 0.68599999 150 0 0 0 0.01952
3.2639999 -1.091 0.69199997 150 0 0 0 0.01953
3.2590001 -1.1 0.69499999 150 0 0 0 0.019540001
3.2550001 -1.109 0.699 150 0 0 0 0.019549999
3.2520001 -1.118 0.70200002 150 0 0 0 0.01956
3.2479999 -1.126 0.70599997 151 0 0 0 0.01957
3.2290001 -1.13 0.70599997 150 0 0 0 0.019579999
3.1860001 -1.125 0.70099998 150 0 0 0 0.01959
3.187 -1.136 0.70499998 151 0 0 0 0.0196
3.1830001 -1.1440001 0.70899999 150 0 0 0 0.019610001
3.152 -1.143 0.70599997 150 0 0 0 0.019619999
3.1489999 -1.152 0.70899999 151 0 0 0 0.01963
3.1500001 -1.1619999 0.713 151 0 0 0 0.019640001
3.141 -1.169 0.71499997 150 0 0 0 0.019649999
3.142 -1.179 0.71899998 151 0 0 0 0.01966
3.132 -1.186 0.72100002 69 0 0 0 0.01967
3.0409999 -1.161 0.70300001 101 0 0 0 0.019680001
3.0250001 -1.164 0.70300001 150 0 0 0 0.01969
3.023 -1.173 0.70700002 151 0 0 0 0.0197
3.026 -1.184 0.71100003 150 0 0 0 0.019710001
3.023 -1.192 0.71399999 151 0 0 0 0.019719999
3.023 -1.202 0.71700001 151 0 0 0 0.01973
3.0090001 -1.206 0.71700001 150 0 0 0 0.01974
2.99 -1.2079999 0.71600002 150 0 0 0 0.019750001
2.987 -1.217 0.71799999 150 0 0 0 0.01976
2.9849999 -1.225 0.72100002 150 0 0 0 0.01977
2.9860001 -1.235 0.72500002 150 0 0 0 0.019780001
2.983 -1.243 0.727 150 0 0 0 0.019789999
2.9790001 -1.251 0.72899997 150 0 0 0 0.0198
2.7739999 -1.174 0.68199998 151 0 0 0 0.01981
2.5999999 -1.108 0.64200002 150 0 0 0 0.019819999
2.3629999 -1.015 0.58499998 33 0 0 0 0.01983
2.3169999 -1.003 0.57599998 31 0 0 0 0.01984
2.277 -0.99299997 0.56800002 28 0 0 0 0.019850001
2.224 -0.977 0.55699998 22 0 0 0 0.019859999
2.198 -0.972 0.55299997 41 0 0 0 0.01987
2.1919999 -0.97600001 0.55299997 16 0 0 0 0.019880001
2.2360001 -1.003 0.56599998 0 0 0 0 0.019889999
2.1889999 -0.98900002 0.55599999 0 0 0 0 0.0199
0 0 0 0 0 0 0 0.01991
0 0 0 0 0 0 0 0.019920001
0 0 0 0 0 0 0 0.019929999
0 0 0 0 0 0 0 0.01994
0 0 0 0 0 0 0 0.019950001
0 0 0 0 0 0 0 0.019959999
0 0 0 0 0 0 0 0.01997
0 0 0 0 0 0 0 0.01998
0 0 0 0 0 0 0 0.019990001
0 0 0 0 0 0 0 0.02
0 0 0 0 0 0 0 0.02001
0 0 0 0 0 0 0 0.020020001
0 0 0 0 0 0 0 0.020029999
0 0 0 0 0 0 0 0.02004
0 0 0 0 0 0 0 0.02005
0 0 0 0 0 0 0 0.020059999
0 0 0 0 0 0 0 0.02007
0 0 0 0 0 0 0 0.02008
0 0 0 0 0 0 0 0.020090001
0 0 0 0 0 0 0 0.020099999
0 0 0 0 0 0 0 0.02011
0 0 0 0 0 0 0 0.02012
0 0 0 0 0 0 0 0.020129999
0 0 0 0 0 0 0 0.02014
0 0 0 0 0 0 0 0.02015
0 0 0 0 0 0 0 0.020160001
0 0 0 0 0 0 0 0.020169999
0 0 0 0 0 0 0 0.02018
0 0 0 0 0 0 0 0.020190001
0 0 0 0 0 0 0 0.020199999
0 0 0 0 0 0 0 0.02021
0 0 0 0 0 0 0 0.02022
0 0 0 0 0 0 0 0.020230001
0 0 0 0 0 0 0 0.02024
0 0 0 0 0 0 0 0.02025
0 0 0 0 0 0 0 0.020260001
0 0 0 0 0 0 0 0.020269999
0 0 0 0 0 0 0 0.02028
0 0 0 0 0 0 0 0.02029
0 0 0 0 0 0 0 0.020300001
0 0 0 0 0 0 0 0.02031
0 0 0 0 0 0 0 0.02032
0 0 0 0 0 0 0 0.020330001
0 0 0 0 0 0 0 0.020339999
0 0 0 0 0 0 0 0.02035
0 0 0 0 0 0 0 0.02036
0 0 0 0 0 0 0 0.020369999
0 0 0 0 0 0 0 0.02038
0 0 0 0 0 0 0 0.02039
0 0 0 0 0 0 0 0.020400001
0 0 0 0 0 0 0 0.020409999
0 0 0 0 0 0 0 0.02042
0 0 0 0 0 0 0 0.02043
0 0 0 0 0 0 0 0.020439999
0 0 0 0 0 0 0 0.02045
0 0 0 0 0 0 0 0.02046
0 0 0 0 0 0 0 0.020470001
0 0 0 0 0 0 0 0.020479999
0 0 0 0 0 0 0 0.02049
0 0 0 0 0 0 0 0.020500001
0 0 0 0 0 0 0 0.020509999
0 0 0 0 0 0 0 0.02052
0 0 0 0 0 0 0 0.02053
0 0 0 0 0 0 0 0.020540001
0 0 0 0 0 0 0 0.02055
0 0 0 0 0 0 0 0.02056
0 0 0 0 0 0 0 0.020570001
0 0 0 0 0 0 0 0.020579999
0 0 0 0 0 0 0 0.02059
0 0 0 0 0 0 0 0.0206
0 0 0 0 0 0 0 0.020609999
0 0 0 0 0 0 0 0.02062
0 0 0 0 0 0 0 0.02063
0 0 0 0 0 0 0 0.020640001
0 0 0 0 0 0 0 0.020649999
0 0 0 0 0 0 0 0.02066
0 0 0 0 0 0 0 0.02067
0 0 0 0 0 0 0 0.020679999
0 0 0 0 0 0 0 0.02069
0 0 0 0 0 0 0 0.0207
0 0 0 0 0 0 0 0.020710001
0 0 0 0 0 0 0 0.020719999
0 0 0 0 0 0 0 0.02073
0 0 0 0 0 0 0 0.020740001
0 0 0 0 0 0 0 0.020749999
0 0 0 0 0 0 0 0.02076
0 0 0 0 0 0 0 0.02077
0 0 0 0 0 0 0 0.020780001
0 0 0 0 0 0 0 0.02079
0 0 0 0 0 0 0 0.0208
0 0 0 0 0 0 0 0.020810001
0 0 0 0 0 0 0 0.020819999
0 0 0 0 0 0 0 0.02083
0 0 0 0 0 0 0 0.02084
0 0 0 0 0 0 0 0.020850001
0 0 0 0 0 0 0 0.02086
0 0 0 0 0 0 0 0.02087
0 0 0 0 0 0 0 0.020880001
0 0 0 0 0 0 0 0.020889999
0 0 0 0 0 0 0 0.0209
0 0 0 0 0 0 0 0.02091
0 0 0 0 0 0 0 0.020919999
0 0 0 0 0 0 0 0.02093
0 0 0 0 0 0 0 0.02094
0 0 0 0 0 0 0 0.020950001
0 0 0 0 0 0 0 0.020959999
0 0 0 0 0 0 0 0.02097
0 0 0 0 0 0 0 0.02098
0 0 0 0 0 0 0 0.020989999
0 0 0 0 0 0 0 0.021
0 0 0 0 0 0 0 0.02101
0 0 0 0 0 0 0 0.021020001
0 0 0 0 0 0 0 0.021029999
0 0 0 0 0 0 0 0.02104
0 0 0 0 0 0 0 0.021050001
0 0 0 0 0 0 0 0.021059999
0 0 0 0 0 0 0 0.02107
0 0 0 0 0 0 0 0.02108
0 0 0 0 0 0 0 0.021090001
0 0 0 0 0 0 0 0.0211
0 0 0 0 0 0 0 0.02111
0 0 0 0 0 0 0 0.021120001
0 0 0 0 0 0 0 0.021129999
0 0 0 0 0 0 0 0.02114
0 0 0 0 0 0 0 0.02115
0 0 0 0 0 0 0 0.021159999
0 0 0 0 0 0 0 0.02117
0 0 0 0 0 0 0 0.02118
0 0 0 0 0 0 0 0.021190001
0 0 0 0 0 0 0 0.021199999
0 0 0 0 0 0 0 0.02121
0 0 0 0 0 0 0 0.02122
0 0 0 0 0 0 0 0.021229999
0 0 0 0 0 0 0 0.02124
0 0 0 0 0 0 0 0.02125
0 0 0 0 0 0 0 0.021260001
0 0 0 0 0 0 0 0.021269999
0 0 0 0 0 0 0 0.02128
0 0 0 0 0 0 0 0.021290001
0 0 0 0 0 0 0 0.021299999
0 0 0 0 0 0 0 0.02131
0 0 0 0 0 0 0 0.02132
0 0 0 0 0 0 0 0.021330001
0 0 0 0 0 0 0 0.02134
0 0 0 0 0 0 0 0.02135
0 0 0 0 0 0 0 0.021360001
0 0 0 0 0 0 0 0.021369999
0 0 0 0 0 0 0 0.02138
0 0 0 0 0 0 0 0.02139
0 0 0 0 0 0 0 0.021400001
0 0 0 0 0 0 0 0.02141
0 0 0 0 0 0 0 0.02142
0 0 0 0 0 0 0 0.021430001
0 0 0 0 0 0 0 0.021439999
0 0 0 0 0 0 0 0.02145
2.154 -1.291 0.287 0 0 0 0 0.02146
2.1459999 -1.281 0.28299999 0 0 0 0 0.021469999
2.1400001 -1.273 0.278 0 0 0 0 0.02148
0 0 0 0 0 0 0 0.02149
0 0 0 0 0 0 0 0.021500001
0 0 0 0 0 0 0 0.021509999
0 0 0 0 0 0 0 0.02152
0 0 0 0 0 0 0 0.02153
0 0 0 0 0 0 0 0.021539999
0 0 0 0 0 0 0 0.02155
0 0 0 0 0 0 0 0.02156
0 0 0 0 0 0 0 0.021570001
0 0 0 0 0 0 0 0.021579999
0 0 0 0 0 0 0 0.02159
0 0 0 0 0 0 0 0.021600001
0 0 0 0 0 0 0 0.021609999
0 0 0 0 0 0 0 0.02162
0 0 0 0 0 0 0 0.02163
0 0 0 0 0 0 0 0.021640001
0 0 0 0 0 0 0 0.02165
0 0 0 0 0 0 0 0.02166
0 0 0 0 0 0 0 0.021670001
0 0 0 0 0 0 0 0.021679999
0 0 0 0 0 0 0 0.02169
0 0 0 0 0 0 0 0.0217
0 0 0 0 0 0 0 0.021709999
0 0 0 0 0 0 0 0.02172
0 0 0 0 0 0 0 0.02173
0 0 0 0 0 0 0 0.021740001
0 0 0 0 0 0 0 0.021749999
0 0 0 0 0 0 0 0.02176
0 0 0 0 0 0 0 0.02177
0 0 0 0 0 0 0 0.021779999
0 0 0 0 0 0 0 0.02179
0 0 0 0 0 0 0 0.0218
0 0 0 0 0 0 0 0.021810001
0 0 0 0 0 0 0 0.021819999
0 0 0 0 0 0 0 0.02183
2.1900001 -1.082 0.17 0 0 0 0 0.021840001
0 0 0 0 0 0 0 0.021849999
0 0 0 0 0 0 0 0.02186
2.181 -1.057 0.162 0 0 0 0 0.02187
2.191 -1.0549999 0.16 0 0 0 0 0.021880001
2.1819999 -1.044 0.156 0 0 0 0 0.02189
2.198 -1.045 0.155 1 0 0 0 0.0219
2.1830001 -1.03 0.15099999 6 0 0 0 0.021910001
2.1760001 -1.021 0.148 13 0 0 0 0.021919999
2.1730001 -1.012 0.146 18 0 0 0 0.02193
2.174 -1.006 0.14300001 18 0 0 0 0.02194
2.1730001 -0.99800003 0.141 20 0 0 0 0.021950001
2.1719999 -0.991 0.138 23 0 0 0 0.02196
2.177 -0.986 0.13600001 25 0 0 0 0.02197
2.191 -0.986 0.13500001 17 0 0 0 0.021980001
2.2249999 -0.99400002 0.134 19 0 0 0 0.021989999
2.267 -1.005 0.134 23 0 0 0 0.022
2.3139999 -1.018 0.13500001 29 0 0 0 0.02201
2.355 -1.029 0.13500001 28 0 0 0 0.022019999
2.4100001 -1.045 0.13500001 30 0 0 0 0.02203
2.75 -1.183 0.152 150 0 0 0 0.02204
2.973 -1.27 0.161 150 0 0 0 0.022050001
2.9760001 -1.262 0.15800001 150 0 0 0 0.022059999
2.9760001 -1.252 0.155 150 0 0 0 0.02207
2.98 -1.244 0.153 150 0 0 0 0.02208
2.9809999 -1.234 0.15000001 150 0 0 0 0.022089999
2.984 -1.226 0.147 150 0 0 0 0.0221
3.0020001 -1.224 0.145 150 0 0 0 0.02211
3.013 -1.2180001 0.14300001 150 0 0 0 0.022120001
3.0220001 -1.212 0.141 150 0 0 0 0.022129999
3.017 -1.2 0.138 150 0 0 0 0.02214
3.0209999 -1.191 0.13500001 150 0 0 0 0.022150001
3.0250001 -1.183 0.133 151 0 0 0 0.022159999
3.0320001 -1.176 0.13 150 0 0 0 0.02217
3.1240001 -1.201 0.132 59 0 0 0 0.02218
3.1340001 -1.194 0.12899999 152 0 0 0 0.022190001
3.1359999 -1.1849999 0.127 150 0 0 0 0.0222
3.1370001 -1.175 0.124 150 0 0 0 0.02221
3.142 -1.166 0.122 151 0 0 0 0.022220001
3.154 -1.16 0.12 150 0 0 0 0.022229999
3.178 -1.158 0.118 151 0 0 0 0.02224
3.181 -1.149 0.116 151 0 0 0 0.02225
3.178 -1.138 0.113 150 0 0 0 0.022260001
3.247 -1.152 0.113 153 0 0 0 0.02227
3.247 -1.141 0.111 151 0 0 0 0.02228
3.2479999 -1.13 0.108 150 0 0 0 0.022290001
3.2509999 -1.12 0.106 150 0 0 0 0.022299999
3.2539999 -1.1109999 0.104 150 0 0 0 0.02231
3.25 -1.099 0.101 150 0 0 0 0.02232
3.2579999 -1.091 0.098999999 150 0 0 0 0.022329999
3.2620001 -1.081 0.097000003 150 0 0 0 0.02234
3.263 -1.0700001 0.094999999 150 0 0 0 0.02235
3.2609999 -1.059 0.093000002 150 0 0 0 0.022360001
3.2690001 -1.051 0.090999998 150 0 0 0 0.022369999
3.267 -1.039 0.088 150 0 0 0 0.02238
3.2709999 -1.029 0.086000003 150 0 0 0 0.022390001
3.2690001 -1.018 0.083999999 150 0 0 0 0.022399999
3.276 -1.0089999 0.082000002 150 0 0 0 0.02241
3.2780001 -0.99900001 0.079999998 150 0 0 0 0.02242
3.277 -0.98799998 0.078000002 150 0 0 0 0.022430001
3.2809999 -0.97799999 0.077 150 0 0 0 0.02244
3.2839999 -0.96799999 0.075000003 151 0 0 0 0.02245
3.2869999 -0.958 0.072999999 151 0 0 0 0.022460001
3.2839999 -0.94599998 0.071000002 151 0 0 0 0.022469999
3.289 -0.93699998 0.068999998 151 0 0 0 0.02248
3.2920001 -0.92699999 0.067000002 152 0 0 0 0.02249
3.296 -0.917 0.066 152 0 0 0 0.022500001
3.296 -0.90600002 0.064000003 153 0 0 0 0.02251
3.2980001 -0.89600003 0.061999999 153 0 0 0 0.02252
3.3010001 -0.88499999 0.061000001 153 0 0 0 0.022530001
3.29 -0.87099999 0.059 154 0 0 0 0.022539999
3.2909999 -0.861 0.057 155 0 0 0 0.02255
3.2909999 -0.85000002 0.055 155 0 0 0 0.02256
3.2809999 -0.83600003 0.054000001 155 0 0 0 0.022569999
3.283 -0.82599998 0.052000001 157 0 0 0 0.02258
3.2809999 -0.815 0.050999999 158 0 0 0 0.02259
3.276 -0.80299997 0.048999999 158 0 0 0 0.022600001
3.279 -0.792 0.046999998 159 0 0 0 0.022609999
3.283 -0.78299999 0.046 159 0 0 0 0.02262
3.279 -0.77100003 0.045000002 160 0 0 0 0.02263
3.2850001 -0.76099998 0.043000001 160 0 0 0 0.022639999
3.2839999 -0.75 0.041999999 161 0 0 0 0.02265
3.2850001 -0.74000001 0.041000001 160 0 0 0 0.02266
3.2939999 -0.73100001 0.039000001 162 0 0 0 0.022670001
3.2920001 -0.71899998 0.037999999 162 0 0 0 0.022679999
3.2969999 -0.70899999 0.037 162 0 0 0 0.02269
3.2950001 -0.69800001 0.035 163 0 0 0 0.022700001
3.2969999 -0.68800002 0.034000002 162 0 0 0 0.022709999
3.2969999 -0.67699999 0.033 161 0 0 0 0.02272
3.3010001 -0.667 0.032000002 161 0 0 0 0.02273
3.309 -0.65700001 0.030999999 159 0 0 0 0.022740001
3.313 -0.64700001 0.029999999 159 0 0 0 0.02275
3.3110001 -0.63599998 0.028000001 160 0 0 0 0.02276
3.316 -0.62599999 0.027000001 160 0 0 0 0.022770001
3.3169999 -0.61500001 0.026000001 159 0 0 0 0.022779999
3.3269999 -0.60600001 0.025 158 0 0 0 0.02279
3.332 -0.59600002 0.024 156 0 0 0 0.0228
3.332 -0.58499998 0.023 156 0 0 0 0.022810001
3.3399999 -0.57599998 0.022 155 0 0 0 0.02282
3.352 -0.56699997 0.021 154 0 0 0 0.02283
3.369 -0.55900002 0.021 153 0 0 0 0.022840001
3.3740001 -0.54900002 0.02 153 0 0 0 0.022849999
3.365 -0.53600001 0.018999999 153 0 0 0 0.02286
3.378 -0.52700001 0.017999999 152 0 0 0 0.02287
3.381 -0.51599997 0.017000001 152 0 0 0 0.022879999
3.3840001 -0.50599998 0.016000001 152 0 0 0 0.02289
3.3859999 -0.495 0.015 152 0 0 0 0.0229
3.3789999 -0.48300001 0.015 154 0 0 0 0.022910001
3.348 -0.46700001 0.014 153 0 0 0 0.022919999
3.332 -0.454 0.013 153 0 0 0 0.02293
3.3329999 -0.44400001 0.012 152 0 0 0 0.022940001
3.3050001 -0.42899999 0.011 152 0 0 0 0.022949999
3.286 -0.41600001 0.011 154 0 0 0 0.02296
3.3080001 -0.40799999 0.0099999998 153 0 0 0 0.02297
3.289 -0.39500001 0.0089999996 154 0 0 0 0.022980001
3.3080001 -0.38600001 0.0089999996 150 0 0 0 0.02299
3.2750001 -0.37200001 0.0080000004 25 0 0 0 0.023
3.23 -0.35600001 0.0070000002 25 0 0 0 0.023010001
3.1700001 -0.33899999 0.0070000002 27 0 0 0 0.023019999
3.118 -0.324 0.0060000001 27 0 0 0 0.02303
3.0309999 -0.30500001 0.0049999999 28 0 0 0 0.02304
3.0009999 -0.292 0.0049999999 30 0 0 0 0.023050001
2.921 -0.27500001 0.0040000002 30 0 0 0 0.02306
2.7720001 -0.252 0.0040000002 26 0 0 0 0.02307
2.661 -0.233 0.003 24 0 0 0 0.023080001
2.592 -0.21799999 0.003 23 0 0 0 0.023089999
2.5239999 -0.204 0.0020000001 22 0 0 0 0.0231
2.4619999 -0.191 0.0020000001 22 0 0 0 0.02311
2.405 -0.17900001 0.0020000001 22 0 0 0 0.023119999
2.319 -0.16500001 0.001 150 0 0 0 0.02313
2.3010001 -0.156 0.001 151 0 0 0 0.02314
2.2939999 -0.148 0.001 152 0 0 0 0.023150001
2.3099999 -0.142 0.001 151 0 0 0 0.023159999
2.2869999 -0.133 0 150 0 0 0 0.02317
2.2869999 -0.126 0 150 0 0 0 0.02318
2.2869999 -0.118 0 151 0 0 0 0.023189999
2.2880001 -0.111 0 150 0 0 0 0.0232
2.2939999 -0.104 0 150 0 0 0 0.02321
2.2939999 -0.096000001 0 151 0 0 0 0.023220001
2.296 -0.089000002 0 150 0 0 0 0.023229999
2.296 -0.082000002 0 150 0 0 0 0.02324
2.302 -0.074000001 0 151 0 0 0 0.023250001
2.3139999 -0.067000002 0 151 0 0 0 0.023259999
2.3110001 -0.059999999 0 151 0 0 0 0.02327
2.3169999 -0.052000001 0 151 0 0 0 0.02328
2.312 -0.045000002 0 151 0 0 0 0.023290001
2.319 -0.037 0 150 0 0 0 0.0233
2.4159999 -0.030999999 0 150 0 0 0 0.02331
2.586 -0.025 0 150 0 0 0 0.023320001
2.5880001 -0.017000001 0 150 0 0 0 0.023329999
2.586 -0.0080000004 0 150 0 0 0 0.02334
2.5439999 0 0 150 0 0 0 0.02335
2.4059999 0.0070000002 0 150 0 0 0 0.023360001
2.612 0.016000001 0 90 0 0 0 0.02337
1.539 0.014 0 1 0 0 0 0.02338
1.518 0.018999999 0 0 0 0 0 0.023390001
1.484 0.023 0 0 0 0 0 0.023399999
1.457 0.028000001 0 0 0 0 0 0.02341
1.441 0.032000002 0 0 0 0 0 0.02342
1.434 0.035999998 0 0 0 0 0 0.023429999
1.421 0.041000001 0 0 0 0 0 0.02344
1.396 0.045000002 0 5 0 0 0 0.02345
1.383 0.048999999 0 19 0 0 0 0.023460001
1.374 0.052999999 0 69 0 0 0 0.023469999
1.37 0.057 0 83 0 0 0 0.02348
1.37 0.061000001 0 76 0 0 0 0.023490001
1.37 0.066 0.001 96 0 0 0 0.023499999
1.373 0.071000002 0.001 86 0 0 0 0.02351
1.377 0.075000003 0.001 78 0 0 0 0.02352
1.377 0.079999998 0.001 99 0 0 0 0.023530001
1.38 0.083999999 0.001 83 0 0 0 0.023539999
1.383 0.089000002 0.001 83 0 0 0 0.02355
1.387 0.093999997 0.0020000001 20 0 0 0 0.023560001
1.386 0.097999997 0.0020000001 6 0 0 0 0.023569999
1.36 0.101 0.0020000001 2 0 0 0 0.02358
3.536 0.27399999 0.0060000001 1 0 0 0 0.02359
3.5599999 0.28799999 0.0070000002 2 0 0 0 0.023600001
3.5450001 0.29800001 0.0080000004 4 0 0 0 0.02361
3.556 0.31 0.0080000004 4 0 0 0 0.02362
3.569 0.32300001 0.0089999996 7 0 0 0 0.023630001
3.5669999 0.33399999 0.0099999998 7 0 0 0 0.023639999
3.5550001 0.345 0.0099999998 2 0 0 0 0.02365
3.5320001 0.354 0.011 2 0 0 0 0.02366
3.4990001 0.36199999 0.011 4 0 0 0 0.023669999
3.4909999 0.373 0.012 4 0 0 0 0.02368
3.503 0.38499999 0.013 2 0 0 0 0.02369
3.4920001 0.39500001 0.014 3 0 0 0 0.023700001
3.48 0.405 0.014 4 0 0 0 0.023709999
3.48 0.417 0.015 4 0 0 0 0.02372
3.4979999 0.43000001 0.016000001 2 0 0 0 0.02373
3.4560001 0.43599999 0.017000001 1 0 0 0 0.023739999
3.428 0.44400001 0.017000001 0 0 0 0 0.02375
3.3800001 0.449 0.017999999 1 0 0 0 0.02376
3.385 0.461 0.018999999 2 0 0 0 0.023770001
3.3989999 0.47400001 0.02 2 0 0 0 0.023779999
3.391 0.484 0.021 2 0 0 0 0.02379
3.3889999 0.49399999 0.022 4 0 0 0 0.023800001
3.388 0.505 0.023 4 0 0 0 0.023809999
3.3800001 0.51499999 0.024 2 0 0 0 0.02382
3.382 0.52600002 0.025 2 0 0 0 0.02383
3.3640001 0.53500003 0.026000001 2 0 0 0 0.023840001
3.385 0.54900002 0.027000001 1 0 0 0 0.02385
3.382 0.56 0.028000001 0 0 0 0 0.02386
1.018 0.17200001 0.0080000004 0 0 0 0 0.023870001
1.008 0.17299999 0.0089999996 2 0 0 0 0.023879999
1.018 0.178 0.0089999996 3 0 0 0 0.02389
1.017 0.18099999 0.0089999996 3 0 0 0 0.0239
1.0089999 0.183 0.0099999998 0 0 0 0 0.023910001
1.026 0.19 0.0099999998 0 0 0 0 0.02392
0 0 0 0 0 0 0 0.02393
0 0 0 0 0 0 0 0.023940001
0 0 0 0 0 0 0 0.023949999
0 0 0 0 0 0 0 0.02396
0 0 0 0 0 0 0 0.02397
0 0 0 0 0 0 0 0.023979999
0 0 0 0 0 0 0 0.02399
3.477 0.73500001 0.046999998 0 0 0 0 0.024
3.5139999 0.755 0.048999999 1 0 0 0 0.024010001
3.5050001 0.764 0.050000001 0 0 0 0 0.024019999
3.6029999 0.79799998 0.052999999 0 0 0 0 0.02403
3.572 0.80299997 0.054000001 0 0 0 0 0.024040001
3.6029999 0.82099998 0.056000002 0 0 0 0 0.024049999
3.5780001 0.82700002 0.057999998 0 0 0 0 0.02406
3.6440001 0.85500002 0.059999999 0 0 0 0 0.02407
3.596 0.85500002 0.061000001 0 0 0 0 0.024080001
3.5090001 0.84600002 0.061999999 0 0 0 0 0.024089999
3.425 0.83700001 0.061999999 0 0 0 0 0.0241
3.4319999 0.85000002 0.064000003 0 0 0 0 0.024110001
3.493 0.87699997 0.067000002 1 0 0 0 0.024119999
3.4960001 0.889 0.068000004 1 0 0 0 0.02413
3.618 0.93300003 0.072999999 0 0 0 0 0.02414
4.0359998 1.054 0.082999997 1 0 0 0 0.024150001
4.0159998 1.062 0.085000001 1 0 0 0 0.02416
4.085 1.0930001 0.089000002 2 0 0 0 0.02417
4.0939999 1.109 0.090999998 2 0 0 0 0.024180001
4.1069999 1.127 0.093999997 4 0 0 0 0.024189999
4.1220002 1.1440001 0.097000003 3 0 0 0 0.0242
1.329 0.373 0.032000002 150 0 0 0 0.02421
1.341 0.38100001 0.033 12 0 0 0 0.024219999
1.347 0.38699999 0.034000002 5 0 0 0 0.02423
3.641 1.059 0.093999997 2 0 0 0 0.02424
3.5469999 1.044 0.093999997 1 0 0 0 0.024250001
3.549 1.056 0.096000001 1 0 0 0 0.024259999
1.614 0.486 0.045000002 0 0 0 0 0.02427
3.5239999 1.072 0.1 0 0 0 0 0.02428
1.664 0.51099998 0.048 0 0 0 0 0.024289999
1.656 0.514 0.048999999 0 0 0 0 0.0243
3.5250001 1.107 0.107 2 0 0 0 0.02431
3.53 1.1210001 0.11 2 0 0 0 0.024320001
3.506 1.124 0.112 3 0 0 0 0.024329999
3.5190001 1.14 0.115 4 0 0 0 0.02434
3.5120001 1.15 0.117 0 0 0 0 0.024350001
3.5079999 1.16 0.119 0 0 0 0 0.024359999
3.513 1.173 0.122 2 0 0 0 0.02437
3.5109999 1.184 0.125 3 0 0 0 0.02438
3.576 1.2180001 0.13 3 0 0 0 0.024390001
3.5699999 1.228 0.132 3 0 0 0 0.0244
3.549 1.232 0.134 3 0 0 0 0.02441
3.5539999 1.2460001 0.13699999 3 0 0 0 0.024420001
0 0 0 0 0 0 0 0.024429999
0 0 0 0 0 0 0 0.02444
0 0 0 0 0 0 0 0.02445
0 0 0 0 0 0 0 0.024460001
3.575 1.312 0.153 3 0 0 0 0.02447
3.569 1.322 0.155 4 0 0 0 0.02448
3.605 1.347 0.16 4 0 0 0 0.024490001
3.5940001 1.355 0.163 4 0 0 0 0.024499999
0 0 0 0 0 0 0 0.02451
0 0 0 0 0 0 0 0.02452
1.421 0.55000001 0.068000004 3 0 0 0 0.024529999
1.421 0.55400002 0.068999998 4 0 0 0 0.02454
1.423 0.56 0.07 0 0 0 0 0.02455
1.4400001 0.57099998 0.072999999 0 0 0 0 0.024560001
1.441 0.57599998 0.074000001 0 0 0 0 0.024569999
3.6760001 1.483 0.193 5 0 0 0 0.02458
3.6229999 1.473 0.19400001 5 0 0 0 0.024590001
3.6270001 1.487 0.198 4 0 0 0 0.024599999
3.6270001 1.499 0.20200001 4 0 0 0 0.02461
3.6440001 1.517 0.206 5 0 0 0 0.02462
3.6400001 1.528 0.20999999 5 0 0 0 0.024630001
3.6489999 1.543 0.214 5 0 0 0 0.024639999
3.6700001 1.564 0.219 5 0 0 0 0.02465
3.6630001 1.573 0.222 5 0 0 0 0.024660001
3.6760001 1.591 0.227 0 0 0 0 0.024669999
3.6949999 1.6109999 0.23199999 6 0 0 0 0.02468
3.6830001 1.617 0.236 6 0 0 0 0.02469
1.346 0.59500003 0.086999997 6 0 0 0 0.024700001
3.7030001 1.65 0.245 0 0 0 0 0.02471
1.331 0.597 0.089000002 8 0 0 0 0.02472
1.325 0.59899998 0.090000004 9 0 0 0 0.024730001
1.324 0.602 0.092 10 0 0 0 0.024739999
1.33 0.61000001 0.093999997 0 0 0 0 0.02475
1.3200001 0.60900003 0.094999999 0 0 0 0 0.02476
1.313 0.61000001 0.096000001 0 0 0 0 0.024769999
1.311 0.61299998 0.097000003 0 0 0 0 0.02478
1.306 0.61500001 0.097999997 0 0 0 0 0.02479
1.2970001 0.61500001 0.098999999 0 0 0 0 0.024800001
1.296 0.61799997 0.101 0 0 0 0 0.024809999
1.288 0.61900002 0.102 0 0 0 0 0.02482
1.284 0.62099999 0.103 0 0 0 0 0.02483
1.279 0.62199998 0.104 0 0 0 0 0.024839999
1.271 0.62199998 0.105 0 0 0 0 0.02485
1.27 0.62599999 0.107 0 0 0 0 0.02486
1.262 0.625 0.108 0 0 0 0 0.024870001
1.257 0.62699997 0.109 0 0 0 0 0.024879999
1.252 0.62800002 0.11 0 0 0 0 0.02489
1.2460001 0.62900001 0.111 0 0 0 0 0.024900001
1.2410001 0.63 0.112 0 0 0 0 0.024909999
1.238 0.63300002 0.114 0 0 0 0 0.02492
1.229 0.63099998 0.115 0 0 0 0 0.02493
1.227 0.634 0.116 0 0 0 0 0.024940001
1.223 0.63599998 0.117 0 0 0 0 0.02495
1.216 0.63599998 0.118 0 0 0 0 0.02496
1.214 0.63800001 0.12 0 0 0 0 0.024970001
1.2079999 0.63800001 0.121 0 0 0 0 0.024979999
1.206 0.64099997 0.123 0 0 0 0 0.02499
1.198 0.63999999 0.124 0 0 0 0 0.025
1.191 0.63999999 0.125 0 0 0 0 0.025010001
1.1849999 0.63999999 0.126 0 0 0 0 0.02502
1.182 0.64200002 0.127 0 0 0 0 0.02503
1.178 0.64300001 0.12800001 0 0 0 0 0.025040001
1.175 0.64499998 0.13 0 0 0 0 0.025049999
1.165 0.64200002 0.13 0 0 0 0 0.02506
1.165 0.64499998 0.132 0 0 0 0 0.02507
1.1619999 0.64700001 0.134 0 0 0 0 0.025079999
1.158 0.648 0.13500001 0 0 0 0 0.02509
1.153 0.64899999 0.13600001 0 0 0 0 0.0251
1.15 0.64999998 0.138 0 0 0 0 0.025110001
1.15 0.653 0.139 0 0 0 0 0.025119999
1.1440001 0.65200001 0.141 0 0 0 0 0.02513
1.136 0.65100002 0.141 8 0 0 0 0.025140001
1.132 0.65100002 0.14300001 11 0 0 0 0.025149999
1.122 0.648 0.14300001 19 0 0 0 0.02516
1.118 0.64899999 0.145 21 0 0 0 0.02517
1.114 0.64899999 0.146 22 0 0 0 0.025180001
1.1109999 0.65100002 0.147 24 0 0 0 0.025189999
1.113 0.65499997 0.149 24 0 0 0 0.0252
1.126 0.66500002 0.153 40 0 0 0 0.025210001
1.216 0.72100002 0.167 106 0 0 0 0.025219999
1.284 0.764 0.17900001 150 0 0 0 0.02523
1.353 0.80800003 0.191 150 0 0 0 0.02524
1.428 0.85600001 0.20299999 150 0 0 0 0.025250001
1.446 0.87 0.208 150 0 0 0 0.02526
1.448 0.875 0.211 150 0 0 0 0.02527
1.448 0.87800002 0.214 150 0 0 0 0.025280001
1.45 0.88300002 0.21600001 150 0 0 0 0.025289999
1.448 0.88499999 0.219 150 0 0 0 0.0253
1.452 0.88999999 0.222 150 0 0 0 0.02531
1.454 0.89399999 0.22400001 150 0 0 0 0.025319999
1.454 0.89700001 0.227 150 0 0 0 0.02533
1.457 0.90200001 0.23 150 0 0 0 0.02534
1.457 0.90399998 0.23199999 150 0 0 0 0.025350001
1.457 0.90700001 0.235 150 0 0 0 0.025359999
1.4630001 0.91399997 0.23899999 150 0 0 0 0.02537
1.461 0.91600001 0.241 150 0 0 0 0.02538
1.46 0.917 0.243 150 0 0 0 0.025389999
1.461 0.921 0.24600001 150 0 0 0 0.0254
1.46 0.92199999 0.248 150 0 0 0 0.02541
1.459 0.92400002 0.25099999 150 0 0 0 0.025420001
1.465 0.93099999 0.25400001 150 0 0 0 0.025429999
1.462 0.93099999 0.25600001 150 0 0 0 0.02544
1.465 0.935 0.259 150 0 0 0 0.025450001
1.467 0.93900001 0.26199999 150 0 0 0 0.025459999
1.467 0.94099998 0.26499999 150 0 0 0 0.02547
1.467 0.94300002 0.26699999 150 0 0 0 0.02548
1.466 0.94400001 0.27000001 150 0 0 0 0.025490001
1.471 0.94999999 0.273 150 0 0 0 0.0255
1.471 0.95099998 0.27599999 150 0 0 0 0.02551
1.471 0.954 0.278 113 0 0 0 0.025520001
1.472 0.95599997 0.28099999 110 0 0 0 0.025529999
1.473 0.958 0.28400001 117 0 0 0 0.02554
1.47 0.958 0.28600001 109 0 0 0 0.02555
1.471 0.95999998 0.28799999 114 0 0 0 0.025560001
1.47 0.96100003 0.29100001 116 0 0 0 0.02557
1.476 0.96600002 0.294 115 0 0 0 0.02558
1.475 0.96700001 0.29699999 118 0 0 0 0.025590001
1.476 0.96899998 0.29899999 113 0 0 0 0.025599999
1.475 0.97000003 0.30199999 104 0 0 0 0.02561
1.475 0.97100002 0.30399999 100 0 0 0 0.02562
1.474 0.97100002 0.30599999 106 0 0 0 0.025629999
1.479 0.97500002 0.31 108 0 0 0 0.02564
1.478 0.97600001 0.31200001 111 0 0 0 0.02565
1.48 0.97799999 0.315 103 0 0 0 0.025660001
1.4809999 0.98000002 0.31799999 114 0 0 0 0.025669999
1.478 0.97799999 0.31900001 111 0 0 0 0.02568
1.478 0.97899997 0.322 103 0 0 0 0.025690001
1.477 0.97899997 0.324 106 0 0 0 0.025699999
1.477 0.97899997 0.32600001 108 0 0 0 0.02571
1.476 0.97899997 0.32800001 111 0 0 0 0.02572
1.475 0.97899997 0.33000001 108 0 0 0 0.025730001
1.4809999 0.98299998 0.33399999 115 0 0 0 0.025739999
1.48 0.98299998 0.336 112 0 0 0 0.02575
1.483 0.98500001 0.33899999 106 0 0 0 0.025760001
1.477 0.98100001 0.34 109 0 0 0 0.025769999
1.4809999 0.98299998 0.34299999 106 0 0 0 0.02578
1.479 0.98199999 0.345 110 0 0 0 0.02579
1.48 0.98199999 0.347 110 0 0 0 0.025800001
1.48 0.98199999 0.34900001 105 0 0 0 0.02581
1.482 0.98199999 0.352 105 0 0 0 0.02582
1.4809999 0.98100001 0.35299999 102 0 0 0 0.025830001
1.48 0.98000002 0.35499999 103 0 0 0 0.025839999
1.4809999 0.98000002 0.35699999 101 0 0 0 0.02585
1.4809999 0.97899997 0.359 101 0 0 0 0.02586
1.48 0.97799999 0.361 101 0 0 0 0.025869999
1.48 0.977 0.36300001 108 0 0 0 0.02588
1.48 0.97600001 0.36500001 111 0 0 0 0.02589
1.478 0.97399998 0.36700001 109 0 0 0 0.025900001
1.4809999 0.97500002 0.36899999 102 0 0 0 0.025909999
1.48 0.97399998 0.37099999 103 0 0 0 0.02592
1.479 0.97100002 0.37200001 108 0 0 0 0.02593
1.477 0.96899998 0.373 110 0 0 0 0.025939999
1.476 0.96700001 0.375 111 0 0 0 0.02595
1.474 0.96399999 0.37599999 113 0 0 0 0.02596
1.477 0.96399999 0.37799999 113 0 0 0 0.025970001
1.477 0.963 0.38 115 0 0 0 0.025979999
1.474 0.95899999 0.38100001 116 0 0 0 0.02599
1.471 0.95599997 0.382 117 0 0 0 0.026000001
1.475 0.95599997 0.384 117 0 0 0 0.026009999
1.473 0.95300001 0.38499999 120 0 0 0 0.02602
1.473 0.95099998 0.38600001 114 0 0 0 0.02603
1.473 0.949 0.38800001 128 0 0 0 0.026040001
1.474 0.94800001 0.38999999 130 0 0 0 0.02605
1.473 0.94499999 0.391 129 0 0 0 0.02606
1.471 0.94099998 0.391 133 0 0 0 0.026070001
1.471 0.93900001 0.39300001 131 0 0 0 0.026079999
1.469 0.935 0.39300001 131 0 0 0 0.02609
1.47 0.93400002 0.39500001 129 0 0 0 0.0261
1.464 0.92699999 0.39399999 125 0 0 0 0.026110001
1.465 0.92500001 0.396 132 0 0 0 0.02612
1.465 0.92299998 0.39700001 129 0 0 0 0.02613
1.4680001 0.92199999 0.39899999 131 0 0 0 0.026140001
1.467 0.91900003 0.39899999 127 0 0 0 0.026149999
1.4630001 0.91299999 0.39899999 131 0 0 0 0.02616
1.461 0.91000003 0.39899999 130 0 0 0 0.02617
1.4630001 0.90700001 0.40099999 150 0 0 0 0.026179999
1.462 0.90399998 0.40099999 150 0 0 0 0.02619
1.461 0.90100002 0.40200001 136 0 0 0 0.0262
1.4579999 0.89600003 0.40200001 143 0 0 0 0.026210001
1.4579999 0.89300001 0.40200001 150 0 0 0 0.026219999
1.4529999 0.88599998 0.40200001 150 0 0 0 0.02623
1.454 0.884 0.40200001 150 0 0 0 0.026240001
1.4529999 0.88 0.403 150 0 0 0 0.026249999
1.449 0.87400001 0.40200001 150 0 0 0 0.02626
1.4400001 0.866 0.40000001 150 0 0 0 0.02627
1.355 0.81199998 0.377 150 0 0 0 0.026280001
1.285 0.76599997 0.35800001 150 0 0 0 0.026289999
1.222 0.72600001 0.34 150 0 0 0 0.0263
1.148 0.67900002 0.31999999 104 0 0 0 0.026310001
1.109 0.65399998 0.31 54 0 0 0 0.026319999
1.104 0.64700001 0.308 55 0 0 0 0.02633
1.107 0.64600003 0.30899999 49 0 0 0 0.02634
1.112 0.64700001 0.31099999 47 0 0 0 0.026350001
1.114 0.64499998 0.31099999 45 0 0 0 0.02636
1.119 0.64499998 0.31299999 24 0 0 0 0.02637
1.1289999 0.648 0.31600001 14 0 0 0 0.026380001
1.143 0.653 0.31999999 10 0 0 0 0.026389999
1.1440001 0.64999998 0.31999999 0 0 0 0 0.0264
1.149 0.64999998 0.32100001 0 0 0 0 0.02641
1.156 0.65100002 0.32300001 0 0 0 0 0.026419999
1.1569999 0.648 0.32300001 0 0 0 0 0.02643
1.16 0.64700001 0.324 0 0 0 0 0.02644
1.161 0.64399999 0.324 0 0 0 0 0.026450001
1.171 0.64700001 0.32699999 0 0 0 0 0.026459999
1.173 0.64399999 0.32699999 0 0 0 0 0.02647
1.177 0.64300001 0.32800001 0 0 0 0 0.02648
1.1849999 0.64399999 0.33000001 0 0 0 0 0.026489999
1.186 0.64099997 0.33000001 0 0 0 0 0.0265
1.191 0.63999999 0.331 0 0 0 0 0.02651
1.197 0.63999999 0.33199999 0 0 0 0 0.026520001
1.201 0.639 0.333 0 0 0 0 0.026529999
1.204 0.63700002 0.333 0 0 0 0 0.02654
1.211 0.63700002 0.33500001 0 0 0 0 0.026550001
1.2130001 0.634 0.33500001 0 0 0 0 0.026559999
1.216 0.63200003 0.33500001 0 0 0 0 0.02657
1.222 0.63200003 0.336 0 0 0 0 0.02658
1.2309999 0.63300002 0.338 0 0 0 0 0.026590001
1.233 0.63 0.338 0 0 0 0 0.0266
1.237 0.62800002 0.33899999 0 0 0 0 0.02661
1.242 0.62699997 0.33899999 1 0 0 0 0.026620001
1.249 0.62699997 0.34099999 1 0 0 0 0.026629999
1.224 0.61000001 0.333 112 0 0 0 0.02664
1.261 0.625 0.34200001 0 0 0 0 0.02665
1.239 0.61000001 0.336 121 0 0 0 0.026660001
1.2460001 0.61000001 0.33700001 14 0 0 0 0.02667
1.253 0.61000001 0.338 7 0 0 0 0.02668
1.266 0.61199999 0.34 6 0 0 0 0.026690001
1.268 0.60900003 0.34 6 0 0 0 0.026699999
1.277 0.60900003 0.34099999 6 0 0 0 0.02671
