# .PCD v0.7 - Point Cloud Data file format
VERSION 0.7
FIELDS x y z intensity normal_x normal_y normal_z curvature
SIZE 4 4 4 4 4 4 4 4
TYPE F F F F F F F F
COUNT 1 1 1 1 1 1 1 1
WIDTH 1023
HEIGHT 1
VIEWPOINT 0 0 0 1 0 0 0
POINTS 1023
DATA ascii
1.367 -0.13500001 -0.61000001 150 0 0 0 0.00343
1.367 -0.133 -0.60600001 150 0 0 0 0.0034399999
1.373 -0.132 -0.60399997 150 0 0 0 0.00345
1.372 -0.13 -0.60000002 150 0 0 0 0.00346
1.373 -0.12800001 -0.59600002 150 0 0 0 0.0034700001
1.369 -0.126 -0.58999997 9 0 0 0 0.00348
1.3710001 -0.124 -0.58600003 150 0 0 0 0.00349
1.373 -0.123 -0.58200002 150 0 0 0 0.0035000001
1.375 -0.121 -0.579 150 0 0 0 0.00351
1.376 -0.119 -0.57499999 150 0 0 0 0.00352
1.378 -0.118 -0.57099998 150 0 0 0 0.0035300001
1.378 -0.116 -0.56699997 150 0 0 0 0.0035399999
1.381 -0.115 -0.56400001 150 0 0 0 0.00355
1.381 -0.113 -0.56 150 0 0 0 0.0035600001
1.383 -0.111 -0.55599999 150 0 0 0 0.0035699999
1.3839999 -0.11 -0.55199999 150 0 0 0 0.00358
1.386 -0.108 -0.54799998 150 0 0 0 0.0035900001
1.381 -0.106 -0.542 150 0 0 0 0.0035999999
1.381 -0.105 -0.537 150 0 0 0 0.00361
1.388 -0.104 -0.53600001 150 0 0 0 0.0036200001
1.386 -0.102 -0.52999997 150 0 0 0 0.0036299999
1.386 -0.101 -0.52600002 150 0 0 0 0.00364
1.387 -0.098999999 -0.52200001 150 0 0 0 0.0036500001
1.3890001 -0.097999997 -0.51800001 150 0 0 0 0.0036599999
1.388 -0.096000001 -0.51300001 150 0 0 0 0.00367
1.392 -0.094999999 -0.50999999 150 0 0 0 0.0036800001
1.3890001 -0.093000002 -0.50400001 150 0 0 0 0.0036899999
1.391 -0.092 -0.50099999 150 0 0 0 0.0037
1.39 -0.090000004 -0.49599999 150 0 0 0 0.0037100001
1.395 -0.089000002 -0.493 150 0 0 0 0.0037199999
1.393 -0.088 -0.48800001 150 0 0 0 0.00373
1.396 -0.086000003 -0.48500001 150 0 0 0 0.0037400001
1.397 -0.085000001 -0.47999999 150 0 0 0 0.0037499999
1.392 -0.082999997 -0.47400001 150 0 0 0 0.00376
1.401 -0.082000002 -0.472 150 0 0 0 0.0037700001
1.393 -0.081 -0.465 150 0 0 0 0.0037799999
1.397 -0.079000004 -0.46200001 150 0 0 0 0.00379
1.398 -0.078000002 -0.458 150 0 0 0 0.0038000001
1.397 -0.077 -0.45300001 150 0 0 0 0.0038099999
1.398 -0.075999998 -0.449 150 0 0 0 0.00382
1.4 -0.074000001 -0.44499999 150 0 0 0 0.0038300001
1.4 -0.072999999 -0.44 150 0 0 0 0.0038399999
1.401 -0.071999997 -0.43599999 150 0 0 0 0.00385
1.401 -0.071000002 -0.43099999 150 0 0 0 0.0038600001
1.404 -0.07 -0.428 150 0 0 0 0.0038699999
1.405 -0.068000004 -0.42399999 150 0 0 0 0.00388
1.404 -0.067000002 -0.41800001 150 0 0 0 0.0038900001
1.405 -0.066 -0.414 150 0 0 0 0.0038999999
1.403 -0.064999998 -0.40900001 150 0 0 0 0.00391
1.405 -0.064000003 -0.405 150 0 0 0 0.00392
1.405 -0.061999999 -0.40099999 150 0 0 0 0.0039300001
1.408 -0.061000001 -0.39700001 150 0 0 0 0.0039400002
1.411 -0.059999999 -0.39300001 150 0 0 0 0.0039499998
1.409 -0.059 -0.38800001 150 0 0 0 0.0039599999
1.411 -0.057999998 -0.384 150 0 0 0 0.00397
1.409 -0.057 -0.37900001 150 0 0 0 0.00398
1.4069999 -0.056000002 -0.373 150 0 0 0 0.0039900001
1.408 -0.055 -0.36899999 150 0 0 0 0.0040000002
1.413 -0.054000001 -0.366 150 0 0 0 0.0040099998
1.41 -0.052000001 -0.36000001 150 0 0 0 0.0040199999
1.415 -0.052000001 -0.35699999 150 0 0 0 0.00403
1.4119999 -0.050000001 -0.352 150 0 0 0 0.00404
1.415 -0.050000001 -0.34799999 150 0 0 0 0.0040500001
1.415 -0.048 -0.34299999 150 0 0 0 0.0040600002
1.416 -0.046999998 -0.33899999 150 0 0 0 0.0040699998
1.416 -0.046 -0.33399999 150 0 0 0 0.0040799999
1.4170001 -0.046 -0.33000001 150 0 0 0 0.0040899999
1.418 -0.045000002 -0.32499999 150 0 0 0 0.0041
1.424 -0.044 -0.322 150 0 0 0 0.0041100001
1.4170001 -0.043000001 -0.31600001 150 0 0 0 0.0041200002
1.418 -0.041999999 -0.31200001 150 0 0 0 0.0041299998
1.419 -0.041000001 -0.30700001 150 0 0 0 0.0041399999
1.42 -0.039999999 -0.303 150 0 0 0 0.0041499999
1.42 -0.039000001 -0.29800001 150 0 0 0 0.00416
1.4220001 -0.037999999 -0.294 150 0 0 0 0.0041700001
1.42 -0.037 -0.289 150 0 0 0 0.0041800002
1.423 -0.035999998 -0.285 150 0 0 0 0.0041899998
1.4220001 -0.035 -0.28 150 0 0 0 0.0041999999
1.423 -0.035 -0.27500001 150 0 0 0 0.0042099999
1.421 -0.034000002 -0.271 150 0 0 0 0.00422
1.424 -0.033 -0.26699999 142 0 0 0 0.0042300001
1.425 -0.032000002 -0.26199999 150 0 0 0 0.0042400002
1.426 -0.030999999 -0.25799999 130 0 0 0 0.0042500002
1.424 -0.029999999 -0.25299999 138 0 0 0 0.0042599998
1.426 -0.029999999 -0.248 131 0 0 0 0.0042699999
1.425 -0.028999999 -0.244 135 0 0 0 0.00428
1.426 -0.028000001 -0.23899999 130 0 0 0 0.0042900001
1.423 -0.027000001 -0.234 136 0 0 0 0.0043000001
1.425 -0.027000001 -0.23 98 0 0 0 0.0043100002
1.428 -0.026000001 -0.226 121 0 0 0 0.0043199998
1.429 -0.025 -0.221 124 0 0 0 0.0043299999
1.427 -0.024 -0.21600001 107 0 0 0 0.00434
1.428 -0.024 -0.212 109 0 0 0 0.0043500001
1.428 -0.023 -0.207 107 0 0 0 0.0043600001
1.432 -0.022 -0.20299999 109 0 0 0 0.0043700002
1.434 -0.022 -0.198 110 0 0 0 0.0043799998
1.433 -0.021 -0.19400001 108 0 0 0 0.0043899999
1.431 -0.02 -0.189 107 0 0 0 0.0044
1.431 -0.018999999 -0.184 113 0 0 0 0.0044100001
1.431 -0.018999999 -0.18000001 113 0 0 0 0.0044200001
1.433 -0.017999999 -0.175 109 0 0 0 0.0044300002
1.431 -0.017000001 -0.17 91 0 0 0 0.0044399998
1.432 -0.017000001 -0.16599999 114 0 0 0 0.0044499999
1.433 -0.016000001 -0.161 88 0 0 0 0.00446
1.434 -0.016000001 -0.15700001 103 0 0 0 0.00447
1.434 -0.015 -0.152 99 0 0 0 0.0044800001
1.4349999 -0.014 -0.148 90 0 0 0 0.0044900002
1.433 -0.014 -0.14300001 90 0 0 0 0.0044999998
1.436 -0.013 -0.138 85 0 0 0 0.0045099999
1.434 -0.013 -0.134 98 0 0 0 0.00452
1.437 -0.012 -0.12899999 91 0 0 0 0.00453
1.4349999 -0.011 -0.124 91 0 0 0 0.0045400001
1.4349999 -0.011 -0.12 88 0 0 0 0.0045500002
1.434 -0.0099999998 -0.115 98 0 0 0 0.0045599998
1.436 -0.0099999998 -0.111 93 0 0 0 0.0045699999
1.439 -0.0089999996 -0.106 91 0 0 0 0.0045799999
1.434 -0.0089999996 -0.101 89 0 0 0 0.00459
1.437 -0.0080000004 -0.097000003 88 0 0 0 0.0046000001
1.4349999 -0.0080000004 -0.092 87 0 0 0 0.0046100002
1.436 -0.0070000002 -0.086999997 82 0 0 0 0.0046199998
1.436 -0.0070000002 -0.082999997 67 0 0 0 0.0046299999
1.436 -0.0060000001 -0.078000002 94 0 0 0 0.0046399999
1.4349999 -0.0060000001 -0.072999999 76 0 0 0 0.00465
1.437 -0.0049999999 -0.068999998 70 0 0 0 0.0046600001
1.437 -0.0049999999 -0.064000003 82 0 0 0 0.0046700002
1.437 -0.0040000002 -0.059999999 71 0 0 0 0.0046799998
1.439 -0.0040000002 -0.055 79 0 0 0 0.0046899999
1.438 -0.0040000002 -0.050000001 72 0 0 0 0.0046999999
1.438 -0.003 -0.046 77 0 0 0 0.00471
1.436 -0.003 -0.041000001 73 0 0 0 0.0047200001
1.438 -0.0020000001 -0.035999998 73 0 0 0 0.0047300002
1.437 -0.0020000001 -0.032000002 104 0 0 0 0.0047399998
1.438 -0.001 -0.027000001 83 0 0 0 0.0047499998
1.437 -0.001 -0.023 83 0 0 0 0.0047599999
1.437 -0.001 -0.017999999 80 0 0 0 0.00477
1.438 0 -0.013 64 0 0 0 0.0047800001
1.4400001 0 -0.0089999996 78 0 0 0 0.0047900002
1.438 0 -0.0040000002 66 0 0 0 0.0048000002
1.437 0 0 81 0 0 0 0.0048099998
1.436 0 0.0040000002 71 0 0 0 0.0048199999
1.438 0 0.0089999996 72 0 0 0 0.00483
1.438 0.001 0.014 78 0 0 0 0.0048400001
1.4400001 0.001 0.017999999 70 0 0 0 0.0048500001
1.438 0.001 0.023 81 0 0 0 0.0048600002
1.438 0.0020000001 0.028000001 86 0 0 0 0.0048699998
1.438 0.0020000001 0.032000002 106 0 0 0 0.0048799999
1.438 0.0020000001 0.037 83 0 0 0 0.00489
1.434 0.0020000001 0.041000001 93 0 0 0 0.0049000001
1.4400001 0.003 0.046 73 0 0 0 0.0049100001
1.438 0.003 0.050999999 90 0 0 0 0.0049200002
1.437 0.003 0.055 91 0 0 0 0.0049299998
1.437 0.003 0.059999999 91 0 0 0 0.0049399999
1.439 0.0040000002 0.064999998 88 0 0 0 0.00495
1.437 0.0040000002 0.068999998 75 0 0 0 0.00496
1.439 0.0040000002 0.074000001 96 0 0 0 0.0049700001
1.438 0.0040000002 0.079000004 80 0 0 0 0.0049800002
1.438 0.0049999999 0.082999997 83 0 0 0 0.0049899998
1.4400001 0.0049999999 0.088 102 0 0 0 0.0049999999
1.437 0.0049999999 0.093000002 106 0 0 0 0.00501
1.434 0.0049999999 0.097000003 97 0 0 0 0.00502
1.4349999 0.0049999999 0.102 101 0 0 0 0.0050300001
1.438 0.0049999999 0.107 90 0 0 0 0.0050400002
1.438 0.0060000001 0.111 96 0 0 0 0.0050499998
1.4349999 0.0060000001 0.116 101 0 0 0 0.0050599999
1.434 0.0060000001 0.12 89 0 0 0 0.00507
1.4349999 0.0060000001 0.125 108 0 0 0 0.00508
1.434 0.0060000001 0.13 97 0 0 0 0.0050900001
1.4299999 0.0060000001 0.134 119 0 0 0 0.0051000002
1.431 0.0060000001 0.139 117 0 0 0 0.0051099998
1.428 0.0060000001 0.14300001 110 0 0 0 0.0051199999
1.423 0.0060000001 0.147 150 0 0 0 0.0051299999
1.4220001 0.0070000002 0.152 150 0 0 0 0.00514
1.421 0.0070000002 0.156 150 0 0 0 0.0051500001
1.42 0.0070000002 0.161 150 0 0 0 0.0051600002
1.416 0.0070000002 0.16500001 150 0 0 0 0.0051699998
1.387 0.0070000002 0.16599999 150 0 0 0 0.0051799999
1.405 0.0070000002 0.17299999 150 0 0 0 0.0051899999
1.4 0.0070000002 0.177 150 0 0 0 0.0052
1.397 0.0070000002 0.18099999 150 0 0 0 0.0052100001
1.387 0.0070000002 0.184 150 0 0 0 0.0052200002
1.382 0.0070000002 0.18799999 150 0 0 0 0.0052299998
1.3789999 0.0070000002 0.192 150 0 0 0 0.0052399999
1.369 0.0070000002 0.19499999 150 0 0 0 0.0052499999
1.247 0.0060000001 0.182 150 0 0 0 0.00526
1.25 0.0060000001 0.18700001 150 0 0 0 0.0052700001
1.252 0.0060000001 0.191 150 0 0 0 0.0052800002
1.251 0.0060000001 0.19499999 150 0 0 0 0.0052899998
1.381 0.0060000001 0.22 150 0 0 0 0.0052999998
1.3839999 0.0060000001 0.22499999 150 0 0 0 0.0053099999
1.392 0.0060000001 0.23100001 150 0 0 0 0.00532
1.4220001 0.0060000001 0.23999999 150 0 0 0 0.0053300001
1.428 0.0060000001 0.24600001 150 0 0 0 0.0053400001
1.426 0.0060000001 0.25 147 0 0 0 0.0053500002
1.425 0.0060000001 0.255 150 0 0 0 0.0053599998
1.428 0.0060000001 0.25999999 141 0 0 0 0.0053699999
1.428 0.0060000001 0.26499999 150 0 0 0 0.00538
1.426 0.0060000001 0.26899999 150 0 0 0 0.0053900001
1.425 0.0049999999 0.27399999 145 0 0 0 0.0054000001
1.425 0.0049999999 0.27900001 150 0 0 0 0.0054100002
1.429 0.0049999999 0.28400001 150 0 0 0 0.0054199998
1.428 0.0049999999 0.28799999 150 0 0 0 0.0054299999
1.426 0.0049999999 0.29300001 150 0 0 0 0.00544
1.426 0.0049999999 0.29699999 150 0 0 0 0.0054500001
1.421 0.0040000002 0.301 150 0 0 0 0.0054600001
1.423 0.0040000002 0.30599999 150 0 0 0 0.0054700002
1.423 0.0040000002 0.31099999 150 0 0 0 0.0054799998
1.4220001 0.0040000002 0.31600001 150 0 0 0 0.0054899999
1.421 0.003 0.31999999 150 0 0 0 0.0055
1.42 0.003 0.32499999 150 0 0 0 0.00551
1.419 0.003 0.329 150 0 0 0 0.0055200001
1.418 0.0020000001 0.33399999 150 0 0 0 0.0055300002
1.415 0.0020000001 0.338 150 0 0 0 0.0055399998
1.416 0.0020000001 0.34200001 150 0 0 0 0.0055499999
1.414 0.001 0.347 150 0 0 0 0.00556
1.416 0.001 0.352 150 0 0 0 0.00557
1.4119999 0.001 0.35600001 150 0 0 0 0.0055800001
1.4170001 0 0.36199999 150 0 0 0 0.0055900002
1.418 0 0.36700001 150 0 0 0 0.0055999998
1.414 0 0.37 150 0 0 0 0.0056099999
1.414 0 0.375 150 0 0 0 0.00562
1.411 0 0.37900001 150 0 0 0 0.00563
1.408 -0.001 0.38299999 150 0 0 0 0.0056400001
1.402 -0.001 0.38600001 150 0 0 0 0.0056500002
1.403 -0.001 0.391 150 0 0 0 0.0056599998
1.402 -0.0020000001 0.39500001 150 0 0 0 0.0056699999
1.402 -0.0020000001 0.40000001 150 0 0 0 0.0056799999
1.401 -0.003 0.405 150 0 0 0 0.00569
1.4 -0.003 0.40900001 150 0 0 0 0.0057000001
1.401 -0.0040000002 0.414 150 0 0 0 0.0057100002
1.406 -0.0040000002 0.41999999 150 0 0 0 0.0057199998
1.406 -0.0049999999 0.42500001 150 0 0 0 0.0057299999
1.404 -0.0049999999 0.42899999 150 0 0 0 0.0057399999
1.403 -0.0060000001 0.433 150 0 0 0 0.00575
1.397 -0.0060000001 0.43599999 150 0 0 0 0.0057600001
1.395 -0.0070000002 0.44 150 0 0 0 0.0057700002
1.405 -0.0080000004 0.44800001 150 0 0 0 0.0057799998
1.402 -0.0080000004 0.45199999 150 0 0 0 0.0057899999
1.403 -0.0089999996 0.45699999 150 0 0 0 0.0057999999
1.401 -0.0099999998 0.461 150 0 0 0 0.00581
1.4 -0.0099999998 0.465 150 0 0 0 0.0058200001
1.4 -0.011 0.47 150 0 0 0 0.0058300002
1.404 -0.012 0.47600001 150 0 0 0 0.0058400002
1.402 -0.012 0.47999999 150 0 0 0 0.0058499998
1.402 -0.013 0.48500001 150 0 0 0 0.0058599999
1.402 -0.014 0.49000001 150 0 0 0 0.00587
1.401 -0.014 0.49399999 150 0 0 0 0.0058800001
1.399 -0.015 0.498 150 0 0 0 0.0058900001
1.4 -0.016000001 0.50300002 150 0 0 0 0.0059000002
1.396 -0.017000001 0.50700003 150 0 0 0 0.0059099998
1.395 -0.017000001 0.51099998 150 0 0 0 0.0059199999
1.393 -0.017999999 0.51499999 150 0 0 0 0.00593
1.4 -0.018999999 0.52200001 150 0 0 0 0.0059400001
1.398 -0.02 0.52600002 150 0 0 0 0.0059500001
1.397 -0.021 0.52999997 150 0 0 0 0.0059600002
1.395 -0.022 0.53399998 150 0 0 0 0.0059699998
1.3940001 -0.022 0.53799999 150 0 0 0 0.0059799999
1.3940001 -0.023 0.54299998 150 0 0 0 0.00599
1.391 -0.024 0.54699999 150 0 0 0 0.0060000001
1.392 -0.025 0.55199999 150 0 0 0 0.0060100001
1.3940001 -0.026000001 0.55699998 150 0 0 0 0.0060200002
1.392 -0.027000001 0.56099999 150 0 0 0 0.0060299998
1.386 -0.028000001 0.56300002 150 0 0 0 0.0060399999
1.3890001 -0.028999999 0.56900001 150 0 0 0 0.00605
1.3890001 -0.029999999 0.574 150 0 0 0 0.00606
1.388 -0.030999999 0.57800001 150 0 0 0 0.0060700001
1.387 -0.032000002 0.58200002 150 0 0 0 0.0060800002
1.387 -0.033 0.58700001 150 0 0 0 0.0060899998
1.385 -0.034000002 0.59100002 150 0 0 0 0.0060999999
1.386 -0.035 0.59600002 150 0 0 0 0.00611
1.3839999 -0.035999998 0.59899998 150 0 0 0 0.00612
1.383 -0.037 0.60299999 150 0 0 0 0.0061300001
1.383 -0.037999999 0.60799998 150 0 0 0 0.0061400002
1.381 -0.039000001 0.61199999 150 0 0 0 0.0061499998
1.382 -0.041000001 0.61699998 150 0 0 0 0.0061599999
1.382 -0.041999999 0.62199998 150 0 0 0 0.0061699999
1.381 -0.043000001 0.625 150 0 0 0 0.00618
1.378 -0.044 0.62900001 150 0 0 0 0.0061900001
1.3789999 -0.045000002 0.634 150 0 0 0 0.0062000002
1.372 -0.046 0.63499999 150 0 0 0 0.0062099998
1.376 -0.048 0.64099997 150 0 0 0 0.0062199999
1.376 -0.048999999 0.64499998 150 0 0 0 0.0062299999
1.377 -0.050000001 0.64999998 150 0 0 0 0.00624
1.375 -0.050999999 0.65399998 150 0 0 0 0.0062500001
1.373 -0.052999999 0.65799999 150 0 0 0 0.0062600002
1.373 -0.054000001 0.662 150 0 0 0 0.0062699998
1.363 -0.055 0.662 150 0 0 0 0.0062799999
1.367 -0.056000002 0.66799998 150 0 0 0 0.0062899999
1.364 -0.057999998 0.671 150 0 0 0 0.0063
1.368 -0.059 0.67699999 150 0 0 0 0.0063100001
1.369 -0.061000001 0.68199998 150 0 0 0 0.0063200002
1.364 -0.061999999 0.68400002 150 0 0 0 0.0063299998
1.36 -0.063000001 0.68599999 150 0 0 0 0.0063399998
1.3609999 -0.064999998 0.69099998 150 0 0 0 0.0063499999
1.359 -0.066 0.69400001 150 0 0 0 0.00636
1.36 -0.068000004 0.699 150 0 0 0 0.0063700001
1.355 -0.068999998 0.70099998 150 0 0 0 0.0063800002
1.3609999 -0.071000002 0.708 150 0 0 0 0.0063900002
1.352 -0.071999997 0.70700002 150 0 0 0 0.0063999998
1.3559999 -0.074000001 0.71399999 150 0 0 0 0.0064099999
1.359 -0.075000003 0.71899998 150 0 0 0 0.00642
1.353 -0.077 0.72000003 150 0 0 0 0.0064300001
1.355 -0.078000002 0.72600001 150 0 0 0 0.0064400001
1.354 -0.079999998 0.72899997 150 0 0 0 0.0064500002
1.352 -0.081 0.73199999 150 0 0 0 0.0064599998
1.353 -0.082999997 0.736 150 0 0 0 0.0064699999
1.35 -0.085000001 0.73900002 150 0 0 0 0.00648
1.348 -0.086000003 0.74199998 150 0 0 0 0.0064900001
1.348 -0.088 0.74599999 150 0 0 0 0.0065000001
1.348 -0.089000002 0.75 150 0 0 0 0.0065100002
1.345 -0.090999998 0.75199997 150 0 0 0 0.0065199998
1.342 -0.093000002 0.75400001 150 0 0 0 0.0065299999
1.341 -0.093999997 0.75700003 150 0 0 0 0.00654
1.341 -0.096000001 0.76099998 150 0 0 0 0.00655
1.341 -0.097999997 0.76499999 150 0 0 0 0.0065600001
1.339 -0.1 0.76700002 150 0 0 0 0.0065700002
1.34 -0.101 0.77100003 150 0 0 0 0.0065799998
1.3380001 -0.103 0.77399999 150 0 0 0 0.0065899999
1.336 -0.105 0.77700001 150 0 0 0 0.0066
1.335 -0.107 0.77899998 150 0 0 0 0.00661
1.335 -0.108 0.78299999 150 0 0 0 0.0066200001
1.3329999 -0.11 0.78600001 150 0 0 0 0.0066300002
1.332 -0.112 0.78799999 150 0 0 0 0.0066399998
1.33 -0.114 0.79100001 150 0 0 0 0.0066499999
1.327 -0.115 0.792 150 0 0 0 0.00666
1.327 -0.117 0.79500002 150 0 0 0 0.00667
1.325 -0.119 0.79799998 150 0 0 0 0.0066800001
1.329 -0.121 0.80299997 150 0 0 0 0.0066900002
1.326 -0.123 0.80500001 150 0 0 0 0.0066999998
1.3200001 -0.124 0.80400002 150 0 0 0 0.0067099999
1.319 -0.126 0.80699998 150 0 0 0 0.0067199999
1.323 -0.12899999 0.81300002 150 0 0 0 0.00673
1.323 -0.131 0.815 150 0 0 0 0.0067400001
1.321 -0.132 0.81800002 150 0 0 0 0.0067500002
1.317 -0.134 0.81800002 150 0 0 0 0.0067599998
1.317 -0.13600001 0.82099998 150 0 0 0 0.0067699999
1.319 -0.138 0.82499999 150 0 0 0 0.0067799999
1.3150001 -0.14 0.82499999 150 0 0 0 0.00679
1.316 -0.142 0.829 150 0 0 0 0.0068000001
1.312 -0.14399999 0.829 150 0 0 0 0.0068100002
1.313 -0.146 0.83200002 150 0 0 0 0.0068199998
1.3099999 -0.148 0.833 150 0 0 0 0.0068299999
1.308 -0.149 0.83399999 150 0 0 0 0.0068399999
1.306 -0.15099999 0.83600003 150 0 0 0 0.00685
1.3049999 -0.153 0.838 150 0 0 0 0.0068600001
1.307 -0.156 0.84100002 150 0 0 0 0.0068700002
1.3049999 -0.15700001 0.84200001 150 0 0 0 0.0068799998
1.304 -0.15899999 0.84399998 150 0 0 0 0.0068899998
1.303 -0.161 0.84600002 11 0 0 0 0.0068999999
1.301 -0.163 0.847 150 0 0 0 0.00691
1.302 -0.16500001 0.84899998 150 0 0 0 0.0069200001
1.302 -0.168 0.85100001 150 0 0 0 0.0069300001
1.298 -0.169 0.85100001 150 0 0 0 0.0069400002
1.298 -0.171 0.85299999 150 0 0 0 0.0069499998
1.294 -0.17299999 0.852 150 0 0 0 0.0069599999
1.293 -0.175 0.85299999 150 0 0 0 0.00697
1.295 -0.177 0.85699999 150 0 0 0 0.0069800001
1.291 -0.17900001 0.85600001 150 0 0 0 0.0069900001
1.29 -0.18099999 0.85699999 150 0 0 0 0.0070000002
1.289 -0.183 0.85799998 150 0 0 0 0.0070099998
1.288 -0.185 0.85900003 150 0 0 0 0.0070199999
1.2869999 -0.18700001 0.86000001 150 0 0 0 0.00703
1.2869999 -0.189 0.86000001 150 0 0 0 0.0070400001
1.2819999 -0.19 0.85799998 150 0 0 0 0.0070500001
1.283 -0.192 0.861 150 0 0 0 0.0070600002
1.281 -0.19400001 0.861 150 0 0 0 0.0070699998
1.28 -0.19599999 0.861 150 0 0 0 0.0070799999
1.283 -0.198 0.86400002 150 0 0 0 0.00709
1.278 -0.2 0.86199999 150 0 0 0 0.0071
1.276 -0.20100001 0.86199999 150 0 0 0 0.0071100001
1.276 -0.20299999 0.86199999 150 0 0 0 0.0071200002
1.276 -0.205 0.86299998 150 0 0 0 0.0071299998
1.276 -0.207 0.86400002 150 0 0 0 0.0071399999
1.267 -0.208 0.85799998 150 0 0 0 0.00715
1.268 -0.20999999 0.86000001 150 0 0 0 0.00716
1.266 -0.212 0.85900003 150 0 0 0 0.0071700001
1.267 -0.214 0.86000001 150 0 0 0 0.0071800002
1.267 -0.21600001 0.86000001 150 0 0 0 0.0071899998
1.265 -0.21699999 0.85900003 150 0 0 0 0.0071999999
1.263 -0.219 0.85799998 150 0 0 0 0.00721
1.265 -0.221 0.861 150 0 0 0 0.00722
1.262 -0.223 0.85799998 150 0 0 0 0.0072300001
1.263 -0.22499999 0.85900003 150 0 0 0 0.0072400002
1.261 -0.226 0.85799998 150 0 0 0 0.0072499998
1.257 -0.227 0.85500002 150 0 0 0 0.0072599999
1.2589999 -0.229 0.85600001 150 0 0 0 0.0072699999
1.258 -0.23100001 0.85600001 150 0 0 0 0.00728
1.257 -0.233 0.85399997 150 0 0 0 0.0072900001
1.253 -0.234 0.852 150 0 0 0 0.0073000002
1.257 -0.236 0.85299999 150 0 0 0 0.0073099998
1.2539999 -0.237 0.85100001 150 0 0 0 0.0073199999
1.253 -0.23899999 0.85000002 150 0 0 0 0.0073299999
1.252 -0.23999999 0.84899998 150 0 0 0 0.00734
1.249 -0.241 0.84600002 150 0 0 0 0.0073500001
1.249 -0.243 0.84600002 150 0 0 0 0.0073600002
1.248 -0.244 0.84399998 150 0 0 0 0.0073699998
1.243 -0.245 0.83999997 150 0 0 0 0.0073799998
1.2460001 -0.24699999 0.84100002 150 0 0 0 0.0073899999
1.2460001 -0.249 0.83999997 150 0 0 0 0.0074
1.242 -0.25 0.83600003 150 0 0 0 0.0074100001
1.243 -0.25099999 0.83499998 150 0 0 0 0.0074200002
1.2410001 -0.252 0.833 150 0 0 0 0.0074300002
1.2410001 -0.25400001 0.83200002 150 0 0 0 0.0074399998
1.242 -0.255 0.83099997 150 0 0 0 0.0074499999
1.239 -0.25600001 0.82800001 150 0 0 0 0.00746
1.238 -0.257 0.82599998 150 0 0 0 0.0074700001
1.239 -0.259 0.82499999 150 0 0 0 0.0074800001
1.237 -0.25999999 0.82200003 150 0 0 0 0.0074900002
1.238 -0.26100001 0.82099998 150 0 0 0 0.0074999998
1.238 -0.26300001 0.81999999 150 0 0 0 0.0075099999
1.239 -0.264 0.81800002 150 0 0 0 0.00752
1.2359999 -0.26499999 0.815 150 0 0 0 0.0075300001
1.234 -0.26499999 0.81099999 150 0 0 0 0.0075400001
1.233 -0.266 0.80900002 150 0 0 0 0.0075500002
1.227 -0.266 0.80299997 150 0 0 0 0.0075599998
1.234 -0.26899999 0.80599999 150 0 0 0 0.0075699999
1.228 -0.26899999 0.80000001 150 0 0 0 0.00758
1.229 -0.27000001 0.79799998 150 0 0 0 0.0075900001
1.23 -0.271 0.79699999 150 0 0 0 0.0076000001
1.226 -0.271 0.792 150 0 0 0 0.0076100002
1.226 -0.27200001 0.78899997 150 0 0 0 0.0076199998
1.227 -0.273 0.78799999 150 0 0 0 0.0076299999
1.227 -0.27399999 0.78500003 150 0 0 0 0.00764
1.209 -0.271 0.77200001 150 0 0 0 0.00765
1.204 -0.271 0.76599997 150 0 0 0 0.0076600001
1.222 -0.27599999 0.77499998 150 0 0 0 0.0076700002
1.223 -0.27700001 0.773 150 0 0 0 0.0076799998
1.202 -0.273 0.75700003 150 0 0 0 0.0076899999
1.2029999 -0.273 0.755 150 0 0 0 0.0077
1.204 -0.27399999 0.75300002 150 0 0 0 0.00771
1.205 -0.27500001 0.75099999 150 0 0 0 0.0077200001
1.2029999 -0.27599999 0.74800003 150 0 0 0 0.0077300002
1.205 -0.27599999 0.745 150 0 0 0 0.0077399998
1.196 -0.27500001 0.73799998 150 0 0 0 0.0077499999
1.197 -0.27599999 0.73500001 150 0 0 0 0.0077599999
1.199 -0.27700001 0.73299998 150 0 0 0 0.00777
1.199 -0.27700001 0.73100001 150 0 0 0 0.0077800001
1.2 -0.278 0.72799999 150 0 0 0 0.0077900002
1.197 -0.278 0.72399998 150 0 0 0 0.0077999998
1.198 -0.278 0.72100002 150 0 0 0 0.0078099999
1.199 -0.27900001 0.71799999 150 0 0 0 0.0078199999
1.2180001 -0.28400001 0.727 150 0 0 0 0.0078299996
1.2 -0.28 0.713 150 0 0 0 0.0078400001
1.217 -0.28400001 0.72000003 150 0 0 0 0.0078499997
1.2180001 -0.285 0.71700001 150 0 0 0 0.0078600002
1.219 -0.285 0.71399999 150 0 0 0 0.0078699999
1.22 -0.285 0.71200001 150 0 0 0 0.0078800004
1.222 -0.28600001 0.70899999 150 0 0 0 0.00789
1.22 -0.285 0.70499998 150 0 0 0 0.0078999996
1.221 -0.28600001 0.70200002 150 0 0 0 0.0079100002
1.22 -0.28600001 0.69800001 150 0 0 0 0.0079199998
1.22 -0.28600001 0.69400001 150 0 0 0 0.0079300003
1.217 -0.285 0.68900001 150 0 0 0 0.0079399999
1.2180001 -0.285 0.68699998 150 0 0 0 0.0079500005
1.2180001 -0.285 0.68300003 150 0 0 0 0.0079600001
1.221 -0.28600001 0.68099999 150 0 0 0 0.0079699997
1.22 -0.285 0.67699999 150 0 0 0 0.0079800002
1.22 -0.285 0.67299998 150 0 0 0 0.0079899998
1.22 -0.285 0.67000002 150 0 0 0 0.0080000004
1.221 -0.285 0.667 150 0 0 0 0.00801
1.2180001 -0.28400001 0.662 150 0 0 0 0.0080199996
1.22 -0.285 0.65899998 150 0 0 0 0.0080300001
1.221 -0.285 0.65600002 150 0 0 0 0.0080399998
1.223 -0.285 0.653 150 0 0 0 0.0080500003
1.223 -0.285 0.64999998 150 0 0 0 0.0080599999
1.223 -0.28400001 0.64600003 150 0 0 0 0.0080700004
1.223 -0.28400001 0.64200002 150 0 0 0 0.0080800001
1.221 -0.28299999 0.63700002 150 0 0 0 0.0080899997
1.223 -0.28299999 0.634 150 0 0 0 0.0081000002
1.224 -0.28299999 0.63099998 150 0 0 0 0.0081099998
1.229 -0.28400001 0.63 150 0 0 0 0.0081200004
1.227 -0.28200001 0.625 150 0 0 0 0.00813
1.227 -0.28200001 0.62099999 150 0 0 0 0.0081399996
1.226 -0.28099999 0.61699998 150 0 0 0 0.0081500001
1.228 -0.28099999 0.61400002 150 0 0 0 0.0081599997
1.2309999 -0.28099999 0.61199999 150 0 0 0 0.0081700003
1.227 -0.28 0.60500002 150 0 0 0 0.0081799999
1.227 -0.27900001 0.60100001 150 0 0 0 0.0081900004
1.226 -0.278 0.597 150 0 0 0 0.0082
1.228 -0.278 0.59399998 150 0 0 0 0.0082099997
1.23 -0.278 0.59100002 150 0 0 0 0.0082200002
1.2309999 -0.27700001 0.588 150 0 0 0 0.0082299998
1.2309999 -0.27599999 0.58399999 150 0 0 0 0.0082400003
1.233 -0.27599999 0.58099997 150 0 0 0 0.00825
1.233 -0.27500001 0.57700002 150 0 0 0 0.0082599996
1.2309999 -0.27399999 0.57200003 150 0 0 0 0.0082700001
1.232 -0.27399999 0.56800002 150 0 0 0 0.0082799997
1.238 -0.27399999 0.56699997 150 0 0 0 0.0082900003
1.235 -0.27200001 0.56199998 150 0 0 0 0.0082999999
1.239 -0.27200001 0.55900002 150 0 0 0 0.0083100004
1.238 -0.271 0.55500001 150 0 0 0 0.00832
1.24 -0.271 0.55199999 150 0 0 0 0.0083299996
1.2410001 -0.27000001 0.54799998 150 0 0 0 0.0083400002
1.2410001 -0.26899999 0.54400003 150 0 0 0 0.0083499998
1.242 -0.26800001 0.54100001 150 0 0 0 0.0083600003
1.244 -0.26800001 0.537 150 0 0 0 0.0083699999
1.2460001 -0.26699999 0.53399998 150 0 0 0 0.0083799995
1.245 -0.266 0.52999997 150 0 0 0 0.0083900001
1.245 -0.26499999 0.52600002 150 0 0 0 0.0083999997
1.249 -0.264 0.523 150 0 0 0 0.0084100002
1.25 -0.26300001 0.51999998 150 0 0 0 0.0084199999
1.25 -0.26199999 0.51599997 150 0 0 0 0.0084300004
1.251 -0.26100001 0.51200002 150 0 0 0 0.00844
1.252 -0.25999999 0.50800002 150 0 0 0 0.0084499996
1.251 -0.259 0.50400001 150 0 0 0 0.0084600002
1.252 -0.25799999 0.5 150 0 0 0 0.0084699998
1.251 -0.257 0.49599999 150 0 0 0 0.0084800003
1.257 -0.25600001 0.49399999 150 0 0 0 0.0084899999
1.256 -0.255 0.48899999 150 0 0 0 0.0085000005
1.258 -0.25400001 0.486 150 0 0 0 0.0085100001
1.258 -0.25299999 0.48199999 150 0 0 0 0.0085199997
1.2589999 -0.252 0.47799999 150 0 0 0 0.0085300002
1.261 -0.25099999 0.47499999 150 0 0 0 0.0085399998
1.262 -0.25 0.47099999 150 0 0 0 0.0085500004
1.263 -0.248 0.46700001 150 0 0 0 0.00856
1.2640001 -0.24699999 0.46399999 150 0 0 0 0.0085699996
1.268 -0.24699999 0.461 150 0 0 0 0.0085800001
1.266 -0.245 0.456 150 0 0 0 0.0085899998
1.267 -0.244 0.45300001 150 0 0 0 0.0086000003
1.268 -0.242 0.449 150 0 0 0 0.0086099999
1.27 -0.241 0.44499999 150 0 0 0 0.0086200004
1.27 -0.23999999 0.44100001 150 0 0 0 0.0086300001
1.273 -0.23899999 0.43799999 150 0 0 0 0.0086399997
1.272 -0.237 0.43399999 150 0 0 0 0.0086500002
1.274 -0.236 0.43099999 150 0 0 0 0.0086599998
1.275 -0.235 0.42699999 150 0 0 0 0.0086700004
1.273 -0.233 0.42199999 150 0 0 0 0.00868
1.276 -0.23199999 0.419 150 0 0 0 0.0086899996
1.278 -0.23100001 0.41600001 150 0 0 0 0.0087000001
1.28 -0.229 0.412 150 0 0 0 0.0087099997
1.281 -0.228 0.40799999 150 0 0 0 0.0087200003
1.2819999 -0.227 0.405 150 0 0 0 0.0087299999
1.283 -0.22499999 0.40099999 150 0 0 0 0.0087400004
1.285 -0.22400001 0.398 150 0 0 0 0.00875
1.286 -0.222 0.39399999 150 0 0 0 0.0087599996
1.289 -0.221 0.391 150 0 0 0 0.0087700002
1.291 -0.22 0.38699999 149 0 0 0 0.0087799998
1.2869999 -0.21699999 0.382 135 0 0 0 0.0087900003
1.29 -0.21600001 0.37900001 112 0 0 0 0.0088
1.291 -0.215 0.375 110 0 0 0 0.0088099996
1.291 -0.213 0.37099999 101 0 0 0 0.0088200001
1.293 -0.211 0.368 150 0 0 0 0.0088299997
1.295 -0.20999999 0.36399999 119 0 0 0 0.0088400003
1.296 -0.208 0.36000001 112 0 0 0 0.0088499999
1.2970001 -0.207 0.35699999 103 0 0 0 0.0088600004
1.299 -0.205 0.35299999 132 0 0 0 0.00887
1.299 -0.204 0.34900001 116 0 0 0 0.0088799996
1.3 -0.20200001 0.345 105 0 0 0 0.0088900002
1.298 -0.2 0.34099999 119 0 0 0 0.0088999998
1.303 -0.199 0.338 101 0 0 0 0.0089100003
1.303 -0.197 0.33399999 103 0 0 0 0.0089199999
1.304 -0.19499999 0.33000001 112 0 0 0 0.0089299995
1.3049999 -0.193 0.32699999 115 0 0 0 0.0089400001
1.308 -0.192 0.324 103 0 0 0 0.0089499997
1.307 -0.19 0.31900001 110 0 0 0 0.0089600002
1.309 -0.18799999 0.31600001 69 0 0 0 0.0089699998
1.312 -0.18700001 0.31200001 99 0 0 0 0.0089800004
1.314 -0.185 0.30899999 93 0 0 0 0.00899
1.3150001 -0.183 0.30500001 101 0 0 0 0.0089999996
1.316 -0.182 0.301 102 0 0 0 0.0090100002
1.316 -0.18000001 0.29800001 87 0 0 0 0.0090199998
1.317 -0.178 0.294 94 0 0 0 0.0090300003
1.318 -0.176 0.28999999 98 0 0 0 0.0090399999
1.319 -0.17399999 0.28600001 98 0 0 0 0.0090500005
1.321 -0.17200001 0.28299999 98 0 0 0 0.0090600001
1.322 -0.171 0.27900001 100 0 0 0 0.0090699997
1.325 -0.169 0.27599999 86 0 0 0 0.0090800002
1.325 -0.167 0.27200001 90 0 0 0 0.0090899998
1.327 -0.16500001 0.26800001 80 0 0 0 0.0091000004
1.3279999 -0.163 0.26499999 81 0 0 0 0.00911
1.331 -0.161 0.26100001 83 0 0 0 0.0091199996
1.332 -0.16 0.25799999 81 0 0 0 0.0091300001
1.334 -0.15800001 0.25400001 87 0 0 0 0.0091399997
1.332 -0.155 0.25 79 0 0 0 0.0091500003
1.3329999 -0.153 0.24600001 90 0 0 0 0.0091599999
1.339 -0.152 0.243 78 0 0 0 0.0091700004
1.335 -0.149 0.23899999 84 0 0 0 0.0091800001
1.3380001 -0.148 0.235 84 0 0 0 0.0091899997
1.342 -0.146 0.23199999 86 0 0 0 0.0092000002
1.3380001 -0.14300001 0.227 83 0 0 0 0.0092099998
1.342 -0.142 0.22400001 77 0 0 0 0.0092200004
1.347 -0.14 0.221 78 0 0 0 0.00923
1.348 -0.138 0.21699999 85 0 0 0 0.0092399996
1.349 -0.13600001 0.214 81 0 0 0 0.0092500001
1.348 -0.134 0.20999999 75 0 0 0 0.0092599997
1.348 -0.131 0.206 76 0 0 0 0.0092700003
1.348 -0.12899999 0.20200001 73 0 0 0 0.0092799999
1.352 -0.127 0.199 80 0 0 0 0.0092900004
1.353 -0.125 0.19499999 79 0 0 0 0.0093
1.357 -0.123 0.192 65 0 0 0 0.0093099996
1.3609999 -0.122 0.18799999 62 0 0 0 0.0093200002
1.3609999 -0.119 0.184 66 0 0 0 0.0093299998
1.3609999 -0.117 0.18099999 67 0 0 0 0.0093400003
1.36 -0.115 0.177 70 0 0 0 0.0093499999
1.364 -0.113 0.17299999 61 0 0 0 0.0093599996
1.364 -0.11 0.169 69 0 0 0 0.0093700001
1.365 -0.108 0.16599999 62 0 0 0 0.0093799997
1.369 -0.106 0.162 68 0 0 0 0.0093900003
1.3660001 -0.104 0.15800001 67 0 0 0 0.0093999999
1.375 -0.102 0.155 68 0 0 0 0.0094100004
1.378 -0.1 0.152 60 0 0 0 0.00942
1.376 -0.097000003 0.148 69 0 0 0 0.0094299996
1.378 -0.094999999 0.14399999 63 0 0 0 0.0094400002
1.378 -0.093000002 0.14 66 0 0 0 0.0094499998
1.378 -0.090000004 0.13600001 66 0 0 0 0.0094600003
1.3789999 -0.088 0.133 69 0 0 0 0.0094699999
1.3839999 -0.086000003 0.12899999 76 0 0 0 0.0094799995
1.386 -0.083999999 0.126 75 0 0 0 0.0094900001
1.391 -0.082000002 0.122 69 0 0 0 0.0094999997
1.393 -0.079000004 0.119 65 0 0 0 0.0095100002
1.3940001 -0.077 0.115 67 0 0 0 0.0095199998
1.392 -0.075000003 0.111 74 0 0 0 0.0095300004
1.3940001 -0.071999997 0.107 62 0 0 0 0.00954
1.399 -0.07 0.104 44 0 0 0 0.0095499996
1.398 -0.068000004 0.1 62 0 0 0 0.0095600002
1.3839999 -0.064000003 0.094999999 150 0 0 0 0.0095699998
1.4 -0.063000001 0.092 51 0 0 0 0.0095800003
1.402 -0.059999999 0.089000002 52 0 0 0 0.0095899999
1.404 -0.057999998 0.085000001 46 0 0 0 0.0096000005
1.4069999 -0.056000002 0.081 50 0 0 0 0.0096100001
1.4069999 -0.052999999 0.077 61 0 0 0 0.0096199997
1.4069999 -0.050999999 0.074000001 63 0 0 0 0.0096300002
1.408 -0.048 0.07 60 0 0 0 0.0096399998
1.414 -0.046 0.066 64 0 0 0 0.0096500004
1.414 -0.043000001 0.063000001 70 0 0 0 0.00966
1.418 -0.041000001 0.059 64 0 0 0 0.0096699996
1.415 -0.037999999 0.055 66 0 0 0 0.0096800001
1.418 -0.035999998 0.050999999 66 0 0 0 0.0096899997
1.419 -0.033 0.048 71 0 0 0 0.0097000003
1.421 -0.030999999 0.044 30 0 0 0 0.0097099999
1.423 -0.028000001 0.039999999 31 0 0 0 0.0097200004
1.423 -0.025 0.035999998 30 0 0 0 0.00973
1.425 -0.023 0.032000002 31 0 0 0 0.0097399997
1.426 -0.02 0.028999999 33 0 0 0 0.0097500002
1.429 -0.017999999 0.025 29 0 0 0 0.0097599998
1.4299999 -0.015 0.021 32 0 0 0 0.0097700004
1.426 -0.012 0.017000001 31 0 0 0 0.00978
1.431 -0.0099999998 0.014 27 0 0 0 0.0097899996
1.432 -0.0070000002 0.0099999998 35 0 0 0 0.0098000001
1.433 -0.0040000002 0.0060000001 29 0 0 0 0.0098099997
1.439 -0.0020000001 0.0020000001 27 0 0 0 0.0098200003
1.439 0 -0.001 29 0 0 0 0.0098299999
1.439 0.003 -0.0040000002 28 0 0 0 0.0098400004
1.4450001 0.0060000001 -0.0080000004 31 0 0 0 0.00985
1.447 0.0080000004 -0.012 30 0 0 0 0.0098599996
1.447 0.011 -0.016000001 36 0 0 0 0.0098700002
1.447 0.014 -0.02 36 0 0 0 0.0098799998
1.447 0.016000001 -0.023 31 0 0 0 0.0098900003
1.448 0.018999999 -0.027000001 66 0 0 0 0.0098999999
1.449 0.022 -0.030999999 130 0 0 0 0.0099099996
1.441 0.025 -0.035 150 0 0 0 0.0099200001
1.442 0.027000001 -0.037999999 150 0 0 0 0.0099299997
1.446 0.029999999 -0.041999999 150 0 0 0 0.0099400003
1.447 0.033 -0.046 150 0 0 0 0.0099499999
1.443 0.035999998 -0.050000001 134 0 0 0 0.0099600004
1.4450001 0.039000001 -0.054000001 111 0 0 0 0.00997
1.446 0.041000001 -0.057 123 0 0 0 0.0099799996
1.4450001 0.044 -0.061000001 119 0 0 0 0.0099900002
1.4450001 0.046999998 -0.064999998 109 0 0 0 0.0099999998
1.444 0.050000001 -0.068999998 92 0 0 0 0.01001
1.447 0.052999999 -0.071999997 133 0 0 0 0.01002
1.446 0.056000002 -0.075999998 119 0 0 0 0.01003
1.442 0.057999998 -0.079999998 128 0 0 0 0.01004
1.439 0.061000001 -0.082999997 128 0 0 0 0.01005
1.441 0.064000003 -0.086999997 111 0 0 0 0.01006
1.4400001 0.067000002 -0.090999998 141 0 0 0 0.01007
1.438 0.07 -0.093999997 136 0 0 0 0.01008
1.436 0.071999997 -0.097999997 133 0 0 0 0.01009
1.4400001 0.075999998 -0.102 117 0 0 0 0.0101
1.436 0.078000002 -0.105 135 0 0 0 0.01011
1.434 0.081 -0.109 148 0 0 0 0.01012
1.4349999 0.083999999 -0.112 150 0 0 0 0.01013
1.432 0.086999997 -0.116 134 0 0 0 0.01014
1.432 0.089000002 -0.119 147 0 0 0 0.01015
1.436 0.093000002 -0.123 5 0 0 0 0.01016
1.427 0.094999999 -0.126 150 0 0 0 0.01017
1.4299999 0.097999997 -0.13 150 0 0 0 0.01018
1.426 0.101 -0.133 150 0 0 0 0.01019
1.429 0.104 -0.13699999 150 0 0 0 0.0102
1.428 0.107 -0.141 150 0 0 0 0.01021
1.426 0.11 -0.14399999 150 0 0 0 0.01022
1.427 0.113 -0.148 144 0 0 0 0.01023
1.427 0.116 -0.15099999 150 0 0 0 0.01024
1.433 0.119 -0.156 150 0 0 0 0.01025
1.428 0.122 -0.15899999 150 0 0 0 0.01026
1.425 0.124 -0.162 150 0 0 0 0.01027
1.428 0.12800001 -0.16599999 150 0 0 0 0.01028
1.4220001 0.13 -0.169 150 0 0 0 0.01029
1.42 0.133 -0.17200001 150 0 0 0 0.0103
1.421 0.13600001 -0.176 150 0 0 0 0.01031
1.421 0.139 -0.17900001 150 0 0 0 0.01032
1.419 0.142 -0.183 150 0 0 0 0.01033
1.4220001 0.145 -0.18700001 150 0 0 0 0.01034
1.419 0.148 -0.19 150 0 0 0 0.01035
1.419 0.15099999 -0.193 106 0 0 0 0.01036
1.419 0.154 -0.197 63 0 0 0 0.01037
1.411 0.156 -0.199 98 0 0 0 0.01038
1.406 0.15899999 -0.20200001 150 0 0 0 0.01039
1.398 0.161 -0.204 150 0 0 0 0.0104
1.402 0.16500001 -0.20900001 150 0 0 0 0.01041
1.397 0.167 -0.211 150 0 0 0 0.01042
1.402 0.171 -0.215 150 0 0 0 0.01043
1.4 0.17399999 -0.219 150 0 0 0 0.01044
1.402 0.177 -0.222 150 0 0 0 0.01045
1.402 0.18000001 -0.226 150 0 0 0 0.01046
1.399 0.183 -0.229 150 0 0 0 0.01047
1.397 0.186 -0.23199999 150 0 0 0 0.01048
1.4 0.189 -0.236 150 0 0 0 0.01049
1.399 0.192 -0.23899999 150 0 0 0 0.0105
1.403 0.19599999 -0.243 141 0 0 0 0.01051
1.409 0.2 -0.248 128 0 0 0 0.01052
1.413 0.204 -0.252 132 0 0 0 0.01053
1.409 0.206 -0.25400001 150 0 0 0 0.01054
1.408 0.20900001 -0.25799999 150 0 0 0 0.01055
1.403 0.212 -0.25999999 150 0 0 0 0.01056
1.401 0.215 -0.26300001 150 0 0 0 0.01057
1.401 0.21799999 -0.26699999 150 0 0 0 0.01058
1.402 0.222 -0.27000001 150 0 0 0 0.01059
1.397 0.22400001 -0.273 150 0 0 0 0.0106
1.398 0.227 -0.27599999 150 0 0 0 0.01061
1.399 0.23100001 -0.28 150 0 0 0 0.01062
1.396 0.234 -0.28200001 150 0 0 0 0.01063
1.398 0.237 -0.28600001 150 0 0 0 0.01064
1.396 0.23999999 -0.289 150 0 0 0 0.01065
1.391 0.242 -0.29100001 150 0 0 0 0.01066
1.395 0.24699999 -0.296 150 0 0 0 0.01067
1.393 0.25 -0.29899999 150 0 0 0 0.01068
1.393 0.25299999 -0.30199999 150 0 0 0 0.01069
1.392 0.25600001 -0.30500001 150 0 0 0 0.0107
1.39 0.259 -0.308 150 0 0 0 0.01071
1.3890001 0.26199999 -0.31099999 150 0 0 0 0.01072
1.388 0.26499999 -0.31400001 150 0 0 0 0.01073
1.386 0.26800001 -0.317 150 0 0 0 0.01074
1.387 0.27200001 -0.31999999 150 0 0 0 0.01075
1.386 0.27500001 -0.32300001 150 0 0 0 0.01076
1.386 0.278 -0.32699999 150 0 0 0 0.01077
1.383 0.28099999 -0.329 150 0 0 0 0.01078
1.3839999 0.285 -0.33199999 150 0 0 0 0.01079
1.382 0.28799999 -0.33500001 150 0 0 0 0.0108
1.381 0.29100001 -0.338 150 0 0 0 0.01081
1.38 0.294 -0.34099999 150 0 0 0 0.01082
1.381 0.29800001 -0.345 150 0 0 0 0.01083
1.38 0.301 -0.347 150 0 0 0 0.01084
1.378 0.30399999 -0.34999999 150 0 0 0 0.01085
1.374 0.30700001 -0.352 150 0 0 0 0.01086
1.377 0.31099999 -0.35600001 150 0 0 0 0.01087
1.374 0.31400001 -0.35800001 150 0 0 0 0.01088
1.373 0.317 -0.361 150 0 0 0 0.01089
1.376 0.32100001 -0.36500001 150 0 0 0 0.0109
1.375 0.32499999 -0.368 150 0 0 0 0.01091
1.373 0.32800001 -0.37099999 150 0 0 0 0.01092
1.3710001 0.331 -0.373 150 0 0 0 0.01093
1.375 0.33500001 -0.377 14 0 0 0 0.01094
1.37 0.338 -0.37900001 150 0 0 0 0.01095
1.369 0.34099999 -0.382 150 0 0 0 0.01096
1.372 0.345 -0.38600001 150 0 0 0 0.01097
1.368 0.34799999 -0.38699999 150 0 0 0 0.01098
1.369 0.35100001 -0.391 150 0 0 0 0.01099
1.367 0.35499999 -0.39300001 150 0 0 0 0.011
1.3660001 0.35800001 -0.396 150 0 0 0 0.01101
1.3710001 0.36300001 -0.40000001 150 0 0 0 0.01102
1.363 0.36399999 -0.40099999 150 0 0 0 0.01103
1.363 0.368 -0.40400001 150 0 0 0 0.01104
1.3660001 0.37200001 -0.40799999 150 0 0 0 0.01105
1.364 0.37599999 -0.41 150 0 0 0 0.01106
1.363 0.37900001 -0.412 150 0 0 0 0.01107
1.362 0.382 -0.41499999 150 0 0 0 0.01108
1.3609999 0.38600001 -0.41800001 27 0 0 0 0.01109
1.35 0.38600001 -0.417 150 0 0 0 0.0111
1.358 0.39199999 -0.42199999 150 0 0 0 0.01111
1.358 0.396 -0.42500001 150 0 0 0 0.01112
1.357 0.39899999 -0.428 150 0 0 0 0.01113
1.3559999 0.40200001 -0.43000001 150 0 0 0 0.01114
1.354 0.40599999 -0.43200001 150 0 0 0 0.01115
1.353 0.40900001 -0.435 150 0 0 0 0.01116
1.351 0.412 -0.43700001 150 0 0 0 0.01117
1.355 0.417 -0.44100001 150 0 0 0 0.01118
1.351 0.41999999 -0.442 150 0 0 0 0.01119
1.351 0.42300001 -0.44499999 150 0 0 0 0.0112
1.349 0.426 -0.447 150 0 0 0 0.01121
1.348 0.43000001 -0.449 150 0 0 0 0.01122
1.348 0.43399999 -0.45199999 150 0 0 0 0.01123
1.349 0.43799999 -0.45500001 150 0 0 0 0.01124
1.347 0.44100001 -0.45699999 150 0 0 0 0.01125
1.345 0.44400001 -0.458 150 0 0 0 0.01126
1.346 0.44800001 -0.46200001 150 0 0 0 0.01127
1.342 0.44999999 -0.463 150 0 0 0 0.01128
1.3430001 0.45500001 -0.465 150 0 0 0 0.01129
1.347 0.46000001 -0.46900001 150 0 0 0 0.0113
1.344 0.46200001 -0.47099999 150 0 0 0 0.01131
1.345 0.46700001 -0.47299999 150 0 0 0 0.01132
1.3430001 0.47 -0.47499999 150 0 0 0 0.01133
1.341 0.47299999 -0.477 150 0 0 0 0.01134
1.3380001 0.47499999 -0.47799999 150 0 0 0 0.01135
1.34 0.47999999 -0.48100001 150 0 0 0 0.01136
1.336 0.48199999 -0.48199999 150 0 0 0 0.01137
1.335 0.48500001 -0.484 150 0 0 0 0.01138
1.339 0.491 -0.48800001 150 0 0 0 0.01139
1.3380001 0.49399999 -0.49000001 150 0 0 0 0.0114
1.337 0.498 -0.49200001 150 0 0 0 0.01141
1.335 0.50099999 -0.493 150 0 0 0 0.01142
1.334 0.50400001 -0.495 150 0 0 0 0.01143
1.332 0.50700003 -0.49599999 150 0 0 0 0.01144
1.335 0.51200002 -0.49900001 150 0 0 0 0.01145
1.329 0.514 -0.49900001 150 0 0 0 0.01146
1.335 0.51999998 -0.50300002 150 0 0 0 0.01147
1.331 0.52200001 -0.50400001 150 0 0 0 0.01148
1.329 0.52499998 -0.505 150 0 0 0 0.01149
1.329 0.52899998 -0.50700003 150 0 0 0 0.0115
1.334 0.53500003 -0.51099998 150 0 0 0 0.01151
1.327 0.53500003 -0.50999999 150 0 0 0 0.01152
1.329 0.54000002 -0.51300001 150 0 0 0 0.01153
1.33 0.54400003 -0.51499999 150 0 0 0 0.01154
1.33 0.54799998 -0.51700002 150 0 0 0 0.01155
1.327 0.551 -0.51800001 150 0 0 0 0.01156
1.3279999 0.55500001 -0.51999998 150 0 0 0 0.01157
1.325 0.55699998 -0.51999998 150 0 0 0 0.01158
1.323 0.56 -0.52100003 150 0 0 0 0.01159
1.327 0.56599998 -0.52499998 150 0 0 0 0.0116
1.326 0.56900001 -0.52600002 150 0 0 0 0.01161
1.318 0.56900001 -0.52399999 150 0 0 0 0.01162
1.316 0.57200003 -0.52499998 150 0 0 0 0.01163
1.3150001 0.57499999 -0.52600002 150 0 0 0 0.01164
1.313 0.57800001 -0.52700001 150 0 0 0 0.01165
1.314 0.58200002 -0.52899998 150 0 0 0 0.01166
1.3150001 0.58600003 -0.52999997 150 0 0 0 0.01167
1.313 0.58899999 -0.53100002 150 0 0 0 0.01168
1.312 0.59200001 -0.53200001 150 0 0 0 0.01169
1.308 0.59299999 -0.53200001 150 0 0 0 0.0117
1.311 0.59899998 -0.53399998 150 0 0 0 0.01171
1.3099999 0.60100001 -0.53500003 150 0 0 0 0.01172
1.308 0.60399997 -0.53500003 150 0 0 0 0.01173
1.312 0.60900003 -0.53799999 150 0 0 0 0.01174
1.3049999 0.61000001 -0.53600001 150 0 0 0 0.01175
1.304 0.61299998 -0.537 150 0 0 0 0.01176
1.302 0.61500001 -0.537 150 0 0 0 0.01177
1.306 0.62 -0.54000002 150 0 0 0 0.01178
1.304 0.62300003 -0.54000002 150 0 0 0 0.01179
1.303 0.62599999 -0.54100001 150 0 0 0 0.0118
1.306 0.63 -0.54299998 150 0 0 0 0.01181
1.303 0.63200003 -0.542 150 0 0 0 0.01182
1.309 0.639 -0.546 150 0 0 0 0.01183
1.302 0.639 -0.54400003 150 0 0 0 0.01184
1.309 0.64499998 -0.54699999 150 0 0 0 0.01185
1.3049999 0.64600003 -0.546 150 0 0 0 0.01186
1.299 0.64600003 -0.54400003 150 0 0 0 0.01187
1.307 0.65399998 -0.54799998 150 0 0 0 0.01188
1.306 0.65700001 -0.54799998 150 0 0 0 0.01189
1.3049999 0.65899998 -0.54799998 150 0 0 0 0.0119
1.3049999 0.662 -0.54900002 150 0 0 0 0.01191
1.304 0.66500002 -0.54900002 150 0 0 0 0.01192
1.303 0.667 -0.54900002 150 0 0 0 0.01193
1.302 0.67000002 -0.54799998 150 0 0 0 0.01194
1.301 0.67199999 -0.54799998 150 0 0 0 0.01195
1.3 0.67500001 -0.54799998 150 0 0 0 0.01196
1.298 0.67699999 -0.54799998 150 0 0 0 0.01197
1.303 0.68199998 -0.55000001 150 0 0 0 0.01198
1.303 0.685 -0.55000001 150 0 0 0 0.01199
1.302 0.68699998 -0.54900002 150 0 0 0 0.012
1.301 0.68900001 -0.54900002 150 0 0 0 0.01201
1.303 0.69300002 -0.55000001 150 0 0 0 0.01202
1.299 0.69400001 -0.54799998 150 0 0 0 0.01203
1.3 0.69700003 -0.54799998 150 0 0 0 0.01204
1.3 0.69999999 -0.54799998 150 0 0 0 0.01205
1.296 0.69999999 -0.546 150 0 0 0 0.01206
1.299 0.704 -0.54699999 150 0 0 0 0.01207
1.298 0.70599997 -0.546 150 0 0 0 0.01208
1.2970001 0.708 -0.546 150 0 0 0 0.01209
1.2970001 0.70999998 -0.54500002 150 0 0 0 0.0121
1.296 0.71100003 -0.54400003 150 0 0 0 0.01211
1.296 0.71399999 -0.54400003 150 0 0 0 0.01212
1.2970001 0.71700001 -0.54400003 150 0 0 0 0.01213
1.296 0.71799999 -0.54299998 150 0 0 0 0.01214
1.296 0.72000003 -0.542 150 0 0 0 0.01215
1.295 0.722 -0.54100001 150 0 0 0 0.01216
1.294 0.72299999 -0.53899997 150 0 0 0 0.01217
1.294 0.72500002 -0.53899997 150 0 0 0 0.01218
1.294 0.727 -0.53799999 19 0 0 0 0.01219
1.2920001 0.72799999 -0.53600001 150 0 0 0 0.0122
1.2920001 0.73000002 -0.53500003 150 0 0 0 0.01221
1.294 0.73199999 -0.53500003 150 0 0 0 0.01222
1.2920001 0.73299998 -0.53299999 150 0 0 0 0.01223
1.2920001 0.73500001 -0.53200001 150 0 0 0 0.01224
1.29 0.73500001 -0.52999997 150 0 0 0 0.01225
1.29 0.73699999 -0.52899998 150 0 0 0 0.01226
1.291 0.73900002 -0.528 150 0 0 0 0.01227
1.2920001 0.741 -0.528 150 0 0 0 0.01228
1.29 0.741 -0.52499998 150 0 0 0 0.01229
1.289 0.74199998 -0.52399999 150 0 0 0 0.0123
1.289 0.74299997 -0.52200001 150 0 0 0 0.01231
1.2920001 0.74599999 -0.52200001 150 0 0 0 0.01232
1.2920001 0.74699998 -0.51999998 150 0 0 0 0.01233
1.291 0.74699998 -0.51899999 150 0 0 0 0.01234
1.291 0.74800003 -0.51700002 150 0 0 0 0.01235
1.291 0.74900001 -0.51599997 150 0 0 0 0.01236
1.291 0.75 -0.514 150 0 0 0 0.01237
1.291 0.75099999 -0.51200002 150 0 0 0 0.01238
1.2869999 0.75 -0.509 150 0 0 0 0.01239
1.2920001 0.75300002 -0.509 150 0 0 0 0.0124
1.2920001 0.75400001 -0.50700003 150 0 0 0 0.01241
1.29 0.75300002 -0.505 150 0 0 0 0.01242
1.29 0.75300002 -0.50300002 150 0 0 0 0.01243
1.293 0.75599998 -0.50199997 150 0 0 0 0.01244
1.291 0.755 -0.49900001 150 0 0 0 0.01245
1.291 0.755 -0.49700001 150 0 0 0 0.01246
1.29 0.755 -0.495 150 0 0 0 0.01247
1.29 0.755 -0.493 150 0 0 0 0.01248
1.291 0.75599998 -0.491 150 0 0 0 0.01249
1.293 0.75700003 -0.49000001 150 0 0 0 0.0125
1.293 0.75700003 -0.48800001 14 0 0 0 0.01251
1.291 0.75599998 -0.48500001 150 0 0 0 0.01252
1.2920001 0.75599998 -0.48300001 150 0 0 0 0.01253
1.2920001 0.75599998 -0.48100001 150 0 0 0 0.01254
1.29 0.755 -0.47799999 150 0 0 0 0.01255
1.291 0.755 -0.47600001 150 0 0 0 0.01256
1.294 0.75700003 -0.47499999 150 0 0 0 0.01257
1.2920001 0.755 -0.472 150 0 0 0 0.01258
1.293 0.755 -0.47 150 0 0 0 0.01259
1.293 0.755 -0.46700001 150 0 0 0 0.0126
1.294 0.755 -0.465 150 0 0 0 0.01261
1.294 0.75400001 -0.463 150 0 0 0 0.01262
1.295 0.75400001 -0.461 150 0 0 0 0.01263
1.295 0.75300002 -0.458 150 0 0 0 0.01264
1.296 0.75300002 -0.456 150 0 0 0 0.01265
1.298 0.75300002 -0.454 150 0 0 0 0.01266
1.294 0.75 -0.44999999 150 0 0 0 0.01267
1.293 0.74800003 -0.447 150 0 0 0 0.01268
1.294 0.74800003 -0.44499999 150 0 0 0 0.01269
1.294 0.74699998 -0.44299999 150 0 0 0 0.0127
1.294 0.74599999 -0.44 150 0 0 0 0.01271
1.296 0.74599999 -0.43799999 150 0 0 0 0.01272
1.298 0.74599999 -0.43599999 150 0 0 0 0.01273
1.293 0.741 -0.43200001 150 0 0 0 0.01274
1.294 0.74000001 -0.42899999 150 0 0 0 0.01275
1.295 0.74000001 -0.42699999 150 0 0 0 0.01276
1.293 0.73699999 -0.42399999 150 0 0 0 0.01277
1.2970001 0.73799998 -0.42199999 150 0 0 0 0.01278
1.295 0.73500001 -0.419 150 0 0 0 0.01279
1.2970001 0.73400003 -0.41600001 150 0 0 0 0.0128
1.294 0.73100001 -0.41299999 150 0 0 0 0.01281
1.295 0.73000002 -0.41 150 0 0 0 0.01282
1.2970001 0.73000002 -0.40799999 150 0 0 0 0.01283
1.298 0.72799999 -0.40599999 150 0 0 0 0.01284
1.299 0.727 -0.403 150 0 0 0 0.01285
1.298 0.72399998 -0.40000001 150 0 0 0 0.01286
1.299 0.72299999 -0.398 150 0 0 0 0.01287
1.295 0.71899998 -0.39399999 150 0 0 0 0.01288
1.298 0.71799999 -0.39199999 150 0 0 0 0.01289
1.3 0.71700001 -0.38999999 150 0 0 0 0.0129
1.299 0.71499997 -0.38600001 150 0 0 0 0.01291
1.302 0.71399999 -0.38499999 150 0 0 0 0.01292
1.3 0.71100003 -0.38100001 150 0 0 0 0.01293
1.304 0.70999998 -0.37900001 150 0 0 0 0.01294
1.302 0.708 -0.37599999 150 0 0 0 0.01295
1.3 0.704 -0.37200001 150 0 0 0 0.01296
1.302 0.70300001 -0.37 150 0 0 0 0.01297
1.303 0.70099998 -0.36700001 150 0 0 0 0.01298
1.302 0.69800001 -0.36399999 150 0 0 0 0.01299
1.298 0.69300002 -0.36000001 150 0 0 0 0.013
1.3049999 0.69400001 -0.359 150 0 0 0 0.01301
1.301 0.69 -0.35600001 150 0 0 0 0.01302
1.301 0.68699998 -0.35299999 150 0 0 0 0.01303
1.303 0.685 -0.34999999 150 0 0 0 0.01304
1.302 0.68199998 -0.347 150 0 0 0 0.01305
1.304 0.68000001 -0.345 150 0 0 0 0.01306
1.3049999 0.67799997 -0.34200001 150 0 0 0 0.01307
1.307 0.676 -0.34 150 0 0 0 0.01308
1.308 0.67400002 -0.33700001 150 0 0 0 0.01309
1.3049999 0.67000002 -0.33399999 150 0 0 0 0.0131
1.307 0.66799998 -0.331 150 0 0 0 0.01311
1.308 0.66500002 -0.329 150 0 0 0 0.01312
1.311 0.66399997 -0.32699999 150 0 0 0 0.01313
1.309 0.66000003 -0.32300001 150 0 0 0 0.01314
1.311 0.65799999 -0.32100001 150 0 0 0 0.01315
1.307 0.653 -0.317 150 0 0 0 0.01316
1.314 0.653 -0.31600001 150 0 0 0 0.01317
1.312 0.64899999 -0.31299999 150 0 0 0 0.01318
1.311 0.64600003 -0.31 150 0 0 0 0.01319
1.313 0.64300001 -0.30700001 150 0 0 0 0.0132
1.3150001 0.64099997 -0.30500001 150 0 0 0 0.01321
1.317 0.63800001 -0.303 150 0 0 0 0.01322
1.317 0.63599998 -0.30000001 150 0 0 0 0.01323
1.317 0.63200003 -0.29699999 150 0 0 0 0.01324
1.321 0.63099998 -0.29499999 150 0 0 0 0.01325
1.323 0.62800002 -0.29300001 150 0 0 0 0.01326
1.317 0.62199998 -0.289 150 0 0 0 0.01327
1.319 0.62 -0.287 150 0 0 0 0.01328
1.321 0.61699998 -0.28400001 150 0 0 0 0.01329
1.322 0.61400002 -0.28200001 150 0 0 0 0.0133
1.323 0.611 -0.27900001 150 0 0 0 0.01331
1.326 0.60900003 -0.27700001 150 0 0 0 0.01332
1.325 0.60500002 -0.27399999 150 0 0 0 0.01333
1.327 0.60299999 -0.27200001 150 0 0 0 0.01334
1.326 0.59899998 -0.26899999 150 0 0 0 0.01335
1.327 0.59600002 -0.26699999 150 0 0 0 0.01336
1.3279999 0.59299999 -0.264 150 0 0 0 0.01337
1.325 0.58700001 -0.26100001 150 0 0 0 0.01338
1.327 0.58499998 -0.259 150 0 0 0 0.01339
1.329 0.58200002 -0.257 150 0 0 0 0.0134
1.33 0.579 -0.25400001 150 0 0 0 0.01341
1.33 0.57499999 -0.25099999 150 0 0 0 0.01342
1.331 0.57200003 -0.249 150 0 0 0 0.01343
1.3329999 0.56900001 -0.24699999 150 0 0 0 0.01344
1.3329999 0.565 -0.244 150 0 0 0 0.01345
1.336 0.56300002 -0.242 150 0 0 0 0.01346
1.335 0.55900002 -0.23999999 150 0 0 0 0.01347
1.335 0.55500001 -0.237 150 0 0 0 0.01348
1.3329999 0.551 -0.234 150 0 0 0 0.01349
1.335 0.54699999 -0.23199999 150 0 0 0 0.0135
1.34 0.546 -0.23 150 0 0 0 0.01351
1.3380001 0.54100001 -0.227 150 0 0 0 0.01352
1.34 0.53799999 -0.22499999 150 0 0 0 0.01353
1.341 0.53500003 -0.223 150 0 0 0 0.01354
1.3430001 0.53200001 -0.221 150 0 0 0 0.01355
1.345 0.528 -0.219 150 0 0 0 0.01356
1.3430001 0.52399999 -0.21600001 150 0 0 0 0.01357
1.344 0.51999998 -0.214 150 0 0 0 0.01358
1.345 0.51700002 -0.212 150 0 0 0 0.01359
1.344 0.51200002 -0.20900001 150 0 0 0 0.0136
1.349 0.50999999 -0.207 150 0 0 0 0.01361
1.347 0.50599998 -0.205 150 0 0 0 0.01362
1.349 0.50199997 -0.20299999 150 0 0 0 0.01363
1.35 0.49900001 -0.2 150 0 0 0 0.01364
1.348 0.49399999 -0.198 150 0 0 0 0.01365
