# .PCD v0.7 - Point Cloud Data file format
VERSION 0.7
FIELDS x y z intensity normal_x normal_y normal_z curvature
SIZE 4 4 4 4 4 4 4 4
TYPE F F F F F F F F
COUNT 1 1 1 1 1 1 1 1
WIDTH 1103
HEIGHT 1
VIEWPOINT 0 0 0 1 0 0 0
POINTS 1103
DATA ascii
3.408 0.050000001 -0.63499999 150 0 0 0 0.036079999
3.4030001 0.050999999 -0.64499998 150 0 0 0 0.036090001
3.404 0.052999999 -0.65600002 150 0 0 0 0.0361
3.4119999 0.054000001 -0.66900003 150 0 0 0 0.036109999
3.4059999 0.056000002 -0.67900002 150 0 0 0 0.036120001
3.408 0.057999998 -0.69099998 150 0 0 0 0.03613
3.4070001 0.059 -0.70200002 150 0 0 0 0.036139999
3.4059999 0.061000001 -0.713 150 0 0 0 0.036150001
3.404 0.061999999 -0.72299999 150 0 0 0 0.03616
3.405 0.064000003 -0.73500001 150 0 0 0 0.036169998
3.4030001 0.066 -0.74599999 150 0 0 0 0.036180001
3.4070001 0.068000004 -0.75800002 150 0 0 0 0.036189999
3.4100001 0.07 -0.76999998 150 0 0 0 0.036200002
3.405 0.071000002 -0.77899998 150 0 0 0 0.036210001
3.405 0.072999999 -0.79100001 150 0 0 0 0.036219999
3.408 0.075000003 -0.80299997 150 0 0 0 0.036230002
3.4070001 0.077 -0.81400001 150 0 0 0 0.03624
3.4030001 0.079000004 -0.824 151 0 0 0 0.036249999
3.4089999 0.081 -0.83700001 126 0 0 0 0.036260001
3.401 0.082999997 -0.84600002 29 0 0 0 0.03627
3.3540001 0.083999999 -0.84500003 26 0 0 0 0.036279999
3.3150001 0.083999999 -0.84600002 26 0 0 0 0.036290001
3.2739999 0.085000001 -0.84600002 27 0 0 0 0.0363
3.2309999 0.086000003 -0.84600002 26 0 0 0 0.036309998
3.1889999 0.086999997 -0.84600002 26 0 0 0 0.036320001
3.155 0.088 -0.847 26 0 0 0 0.03633
3.1210001 0.089000002 -0.84799999 27 0 0 0 0.036339998
3.089 0.090000004 -0.85000002 27 0 0 0 0.036350001
3.0480001 0.090999998 -0.84799999 26 0 0 0 0.036359999
3.0009999 0.092 -0.84500003 26 0 0 0 0.036370002
2.971 0.093000002 -0.847 25 0 0 0 0.03638
2.9289999 0.093000002 -0.84399998 25 0 0 0 0.036389999
2.8889999 0.093999997 -0.84200001 24 0 0 0 0.036400001
2.855 0.094999999 -0.84200001 26 0 0 0 0.03641
2.826 0.096000001 -0.84299999 26 0 0 0 0.036419999
2.7950001 0.097000003 -0.84200001 24 0 0 0 0.036430001
2.763 0.097999997 -0.84200001 24 0 0 0 0.03644
2.7360001 0.098999999 -0.84299999 25 0 0 0 0.036449999
2.7060001 0.1 -0.84299999 25 0 0 0 0.036460001
2.6700001 0.101 -0.83999997 24 0 0 0 0.03647
2.645 0.102 -0.84100002 25 0 0 0 0.036479998
2.612 0.102 -0.83899999 24 0 0 0 0.036490001
2.5869999 0.103 -0.83899999 23 0 0 0 0.036499999
2.5539999 0.104 -0.83700001 22 0 0 0 0.036509998
2.5280001 0.105 -0.83700001 23 0 0 0 0.036520001
2.5050001 0.106 -0.838 24 0 0 0 0.036529999
2.48 0.107 -0.83700001 24 0 0 0 0.036540002
2.4530001 0.108 -0.83700001 23 0 0 0 0.03655
2.4330001 0.109 -0.838 23 0 0 0 0.036559999
2.4070001 0.11 -0.83700001 23 0 0 0 0.036570001
2.3870001 0.111 -0.838 23 0 0 0 0.03658
2.3570001 0.112 -0.83499998 23 0 0 0 0.036589999
2.342 0.113 -0.838 23 0 0 0 0.036600001
2.3180001 0.114 -0.83600003 23 0 0 0 0.03661
2.299 0.115 -0.83700001 25 0 0 0 0.036619999
2.2750001 0.116 -0.83600003 25 0 0 0 0.036630001
2.2550001 0.117 -0.83600003 28 0 0 0 0.03664
2.2360001 0.118 -0.83600003 29 0 0 0 0.036649998
2.2190001 0.12 -0.83700001 29 0 0 0 0.036660001
2.1949999 0.121 -0.83499998 30 0 0 0 0.036669999
2.175 0.122 -0.83499998 30 0 0 0 0.036680002
2.155 0.123 -0.83399999 31 0 0 0 0.03669
2.1400001 0.124 -0.83499998 29 0 0 0 0.036699999
2.1210001 0.125 -0.83499998 28 0 0 0 0.036710002
2.1059999 0.126 -0.83600003 29 0 0 0 0.03672
2.085 0.127 -0.83399999 29 0 0 0 0.036729999
2.0680001 0.12800001 -0.83399999 29 0 0 0 0.036740001
2.0510001 0.12899999 -0.83399999 30 0 0 0 0.03675
2.0350001 0.13 -0.83399999 31 0 0 0 0.036759999
2.0190001 0.131 -0.83399999 30 0 0 0 0.036770001
2.006 0.133 -0.83499998 31 0 0 0 0.03678
1.9859999 0.134 -0.833 30 0 0 0 0.036789998
1.973 0.13500001 -0.83399999 30 0 0 0 0.036800001
1.954 0.13600001 -0.83200002 31 0 0 0 0.036809999
1.9400001 0.13699999 -0.833 31 0 0 0 0.036819998
1.9299999 0.138 -0.83499998 31 0 0 0 0.036830001
1.913 0.139 -0.833 31 0 0 0 0.036839999
1.899 0.141 -0.833 32 0 0 0 0.036850002
1.892 0.142 -0.83600003 32 0 0 0 0.03686
1.87 0.14300001 -0.833 33 0 0 0 0.036869999
1.862 0.14399999 -0.83499998 35 0 0 0 0.036880001
1.852 0.146 -0.83600003 37 0 0 0 0.03689
1.832 0.146 -0.833 32 0 0 0 0.036899999
1.818 0.148 -0.833 31 0 0 0 0.036910001
1.807 0.149 -0.833 28 0 0 0 0.03692
1.791 0.15000001 -0.83099997 31 0 0 0 0.036929999
1.783 0.152 -0.833 33 0 0 0 0.036940001
1.774 0.153 -0.83399999 13 0 0 0 0.03695
1.755 0.154 -0.83099997 40 0 0 0 0.036959998
1.75 0.155 -0.83399999 13 0 0 0 0.036970001
1.7359999 0.156 -0.833 42 0 0 0 0.036979999
1.726 0.15800001 -0.833 41 0 0 0 0.036990002
1.714 0.15899999 -0.833 45 0 0 0 0.037
1.709 0.161 -0.83600003 13 0 0 0 0.037009999
1.698 0.162 -0.83499998 12 0 0 0 0.037020002
1.686 0.163 -0.83499998 12 0 0 0 0.03703
1.677 0.16500001 -0.83600003 12 0 0 0 0.037039999
1.666 0.16599999 -0.83499998 12 0 0 0 0.037050001
1.654 0.167 -0.83399999 12 0 0 0 0.03706
1.648 0.169 -0.83600003 13 0 0 0 0.037069999
1.637 0.17 -0.83499998 13 0 0 0 0.037080001
1.626 0.171 -0.83399999 13 0 0 0 0.03709
1.608 0.17200001 -0.82999998 55 0 0 0 0.037099998
1.61 0.17399999 -0.83499998 13 0 0 0 0.037110001
1.604 0.176 -0.83700001 13 0 0 0 0.03712
1.591 0.177 -0.83499998 12 0 0 0 0.037129998
1.584 0.178 -0.83499998 13 0 0 0 0.037140001
1.579 0.18000001 -0.83700001 12 0 0 0 0.037149999
1.571 0.182 -0.838 12 0 0 0 0.037160002
1.561 0.183 -0.83700001 13 0 0 0 0.03717
1.549 0.184 -0.83499998 12 0 0 0 0.037179999
1.535 0.184 -0.83099997 13 0 0 0 0.037190001
1.521 0.185 -0.82800001 12 0 0 0 0.0372
1.517 0.18700001 -0.82999998 12 0 0 0 0.037209999
1.5140001 0.189 -0.833 12 0 0 0 0.037220001
1.505 0.19 -0.83200002 12 0 0 0 0.03723
1.501 0.192 -0.833 12 0 0 0 0.037239999
1.49 0.193 -0.83099997 12 0 0 0 0.037250001
1.4859999 0.19499999 -0.833 13 0 0 0 0.03726
1.479 0.197 -0.833 12 0 0 0 0.037269998
1.471 0.198 -0.83200002 13 0 0 0 0.037280001
1.469 0.2 -0.83499998 11 0 0 0 0.037289999
1.462 0.20100001 -0.83499998 11 0 0 0 0.037300002
1.45 0.20200001 -0.83099997 11 0 0 0 0.037310001
1.446 0.204 -0.833 12 0 0 0 0.037319999
1.436 0.205 -0.83099997 12 0 0 0 0.037330002
1.431 0.207 -0.83200002 12 0 0 0 0.03734
1.427 0.20900001 -0.833 12 0 0 0 0.037349999
1.418 0.20999999 -0.83099997 13 0 0 0 0.037360001
1.414 0.212 -0.83200002 13 0 0 0 0.03737
1.41 0.213 -0.833 13 0 0 0 0.037379999
1.402 0.215 -0.83099997 13 0 0 0 0.037390001
1.398 0.21600001 -0.83200002 13 0 0 0 0.0374
1.393 0.21799999 -0.83200002 14 0 0 0 0.037409998
1.3890001 0.22 -0.833 14 0 0 0 0.037420001
1.385 0.222 -0.833 13 0 0 0 0.03743
1.375 0.222 -0.82999998 13 0 0 0 0.037439998
1.3710001 0.22400001 -0.83099997 14 0 0 0 0.037450001
1.367 0.226 -0.83099997 14 0 0 0 0.037459999
1.363 0.228 -0.83200002 14 0 0 0 0.037470002
1.358 0.229 -0.83099997 13 0 0 0 0.03748
1.354 0.23100001 -0.83099997 14 0 0 0 0.037489999
1.35 0.23199999 -0.83200002 14 0 0 0 0.037500001
1.348 0.235 -0.833 13 0 0 0 0.03751
1.342 0.236 -0.83200002 13 0 0 0 0.037519999
1.335 0.237 -0.82999998 14 0 0 0 0.037530001
1.334 0.23899999 -0.83200002 14 0 0 0 0.03754
1.329 0.241 -0.83099997 14 0 0 0 0.037549999
1.326 0.242 -0.83099997 14 0 0 0 0.037560001
1.324 0.244 -0.833 14 0 0 0 0.03757
1.322 0.24600001 -0.833 14 0 0 0 0.037579998
1.317 0.248 -0.83200002 14 0 0 0 0.037590001
1.313 0.249 -0.83200002 14 0 0 0 0.037599999
1.309 0.25099999 -0.83099997 14 0 0 0 0.037610002
1.307 0.25299999 -0.83200002 14 0 0 0 0.037620001
1.303 0.25400001 -0.83099997 14 0 0 0 0.037629999
1.302 0.25600001 -0.83200002 14 0 0 0 0.037640002
1.295 0.257 -0.82999998 14 0 0 0 0.03765
1.2920001 0.259 -0.829 14 0 0 0 0.037659999
1.294 0.26199999 -0.83200002 14 0 0 0 0.037670001
1.2869999 0.26300001 -0.829 14 0 0 0 0.03768
1.2819999 0.264 -0.82700002 15 0 0 0 0.037689999
1.285 0.26699999 -0.83099997 14 0 0 0 0.037700001
1.2819999 0.26800001 -0.83099997 52 0 0 0 0.03771
1.279 0.27000001 -0.82999998 54 0 0 0 0.037719999
1.278 0.27200001 -0.82999998 54 0 0 0 0.037730001
1.276 0.27399999 -0.82999998 54 0 0 0 0.03774
1.276 0.27599999 -0.83099997 53 0 0 0 0.037749998
1.274 0.278 -0.83099997 45 0 0 0 0.037760001
1.272 0.27900001 -0.82999998 46 0 0 0 0.037769999
1.271 0.28099999 -0.83099997 47 0 0 0 0.037780002
1.261 0.28099999 -0.82499999 87 0 0 0 0.03779
1.271 0.28600001 -0.833 33 0 0 0 0.037799999
1.2690001 0.287 -0.83200002 31 0 0 0 0.037810002
1.266 0.289 -0.83099997 32 0 0 0 0.03782
1.253 0.28799999 -0.82300001 83 0 0 0 0.037829999
1.265 0.29300001 -0.83200002 32 0 0 0 0.037840001
1.2640001 0.294 -0.83099997 33 0 0 0 0.03785
1.257 0.29499999 -0.82700002 86 0 0 0 0.037859999
1.249 0.29499999 -0.82200003 84 0 0 0 0.037870001
1.25 0.29699999 -0.82300001 84 0 0 0 0.03788
1.25 0.29899999 -0.82300001 84 0 0 0 0.037889998
1.2539999 0.30199999 -0.82599998 86 0 0 0 0.037900001
1.257 0.30500001 -0.82800001 86 0 0 0 0.037909999
1.255 0.30599999 -0.82599998 86 0 0 0 0.037919998
1.249 0.30599999 -0.82200003 83 0 0 0 0.037930001
1.248 0.308 -0.82200003 83 0 0 0 0.037939999
1.256 0.31200001 -0.82700002 79 0 0 0 0.037950002
1.256 0.31299999 -0.82700002 75 0 0 0 0.03796
1.251 0.31400001 -0.82300001 74 0 0 0 0.037969999
1.255 0.317 -0.82499999 62 0 0 0 0.037980001
1.255 0.31799999 -0.82499999 56 0 0 0 0.03799
1.26 0.32100001 -0.82700002 43 0 0 0 0.037999999
1.261 0.32300001 -0.82700002 36 0 0 0 0.038010001
1.263 0.32600001 -0.82800001 37 0 0 0 0.03802
1.262 0.32699999 -0.82700002 45 0 0 0 0.038029999
1.258 0.32800001 -0.824 55 0 0 0 0.038040001
1.261 0.33000001 -0.82499999 68 0 0 0 0.03805
1.266 0.333 -0.82700002 80 0 0 0 0.038059998
1.266 0.33399999 -0.82599998 87 0 0 0 0.038070001
1.266 0.336 -0.82499999 88 0 0 0 0.038079999
1.266 0.33700001 -0.824 82 0 0 0 0.038090002
1.268 0.33899999 -0.824 86 0 0 0 0.0381
1.275 0.34299999 -0.82700002 85 0 0 0 0.038109999
1.275 0.34400001 -0.82599998 86 0 0 0 0.038120002
1.276 0.34599999 -0.82499999 84 0 0 0 0.03813
1.279 0.34799999 -0.82599998 81 0 0 0 0.038139999
1.28 0.34900001 -0.82499999 84 0 0 0 0.038150001
1.2819999 0.35100001 -0.82499999 84 0 0 0 0.03816
1.29 0.35499999 -0.82800001 85 0 0 0 0.038169999
1.288 0.35499999 -0.82499999 87 0 0 0 0.038180001
1.2920001 0.35800001 -0.82599998 84 0 0 0 0.03819
1.2970001 0.36000001 -0.82700002 87 0 0 0 0.038199998
1.308 0.36399999 -0.83200002 38 0 0 0 0.038210001
1.312 0.36700001 -0.833 39 0 0 0 0.03822
1.316 0.36899999 -0.833 36 0 0 0 0.038229998
1.3099999 0.368 -0.82800001 90 0 0 0 0.038240001
1.319 0.37200001 -0.83099997 40 0 0 0 0.038249999
1.324 0.37400001 -0.83200002 41 0 0 0 0.038260002
1.329 0.377 -0.833 40 0 0 0 0.03827
1.331 0.37799999 -0.83200002 35 0 0 0 0.038279999
1.336 0.38 -0.83200002 38 0 0 0 0.038290001
1.34 0.382 -0.833 40 0 0 0 0.0383
1.341 0.384 -0.83099997 44 0 0 0 0.038309999
1.345 0.38600001 -0.83099997 39 0 0 0 0.038320001
1.347 0.38699999 -0.829 38 0 0 0 0.03833
1.35 0.38800001 -0.82800001 23 0 0 0 0.038339999
1.351 0.389 -0.82599998 17 0 0 0 0.038350001
1.351 0.38999999 -0.82300001 9 0 0 0 0.03836
1.348 0.38999999 -0.81800002 9 0 0 0 0.038369998
1.351 0.391 -0.81800002 9 0 0 0 0.038380001
1.349 0.391 -0.81300002 9 0 0 0 0.038389999
1.478 0.32300001 -0.46799999 1 0 0 0 0.039360002
1.4910001 0.32300001 -0.46700001 1 0 0 0 0.03937
1.501 0.32300001 -0.46599999 1 0 0 0 0.039379999
1.5089999 0.322 -0.46399999 1 0 0 0 0.039390001
1.523 0.32300001 -0.463 8 0 0 0 0.0394
2.543 0.53600001 -0.76599997 150 0 0 0 0.039409999
2.3540001 0.49200001 -0.70200002 150 0 0 0 0.039420001
2.378 0.49399999 -0.70200002 150 0 0 0 0.03943
2.4400001 0.50199997 -0.713 150 0 0 0 0.039439999
2.527 0.51599997 -0.73100001 150 0 0 0 0.039450001
2.5350001 0.514 -0.72600001 150 0 0 0 0.03946
2.5350001 0.50999999 -0.71799999 150 0 0 0 0.039469998
2.5369999 0.50599998 -0.71100003 150 0 0 0 0.039480001
2.5380001 0.50199997 -0.704 150 0 0 0 0.039489999
2.5350001 0.49700001 -0.69499999 150 0 0 0 0.039500002
2.5369999 0.49399999 -0.68800002 150 0 0 0 0.03951
2.5350001 0.48899999 -0.68000001 150 0 0 0 0.039519999
2.467 0.472 -0.65499997 150 0 0 0 0.039530002
2.349 0.44499999 -0.61699998 150 0 0 0 0.03954
2.299 0.43200001 -0.597 151 0 0 0 0.039549999
2.2709999 0.42300001 -0.583 151 0 0 0 0.039560001
2.27 0.419 -0.57599998 151 0 0 0 0.03957
2.2639999 0.414 -0.56800002 151 0 0 0 0.039579999
2.266 0.41 -0.56099999 151 0 0 0 0.039590001
2.2650001 0.40599999 -0.55500001 151 0 0 0 0.0396
2.2650001 0.403 -0.54799998 151 0 0 0 0.039609998
2.2639999 0.398 -0.54100001 151 0 0 0 0.039620001
2.266 0.39500001 -0.53500003 151 0 0 0 0.03963
2.266 0.391 -0.528 151 0 0 0 0.039639998
2.2620001 0.38600001 -0.52100003 151 0 0 0 0.039650001
2.2609999 0.382 -0.514 151 0 0 0 0.039659999
2.257 0.37799999 -0.50700003 151 0 0 0 0.039670002
2.2590001 0.37400001 -0.50099999 151 0 0 0 0.03968
2.256 0.36899999 -0.49399999 151 0 0 0 0.039689999
2.2579999 0.366 -0.48800001 151 0 0 0 0.039700001
2.257 0.361 -0.48100001 151 0 0 0 0.03971
2.2579999 0.35800001 -0.47499999 151 0 0 0 0.039719999
2.2539999 0.35299999 -0.46799999 151 0 0 0 0.039730001
2.256 0.34900001 -0.46200001 151 0 0 0 0.03974
2.2579999 0.34599999 -0.456 151 0 0 0 0.039749999
2.257 0.34099999 -0.449 151 0 0 0 0.039760001
2.2620001 0.338 -0.44400001 151 0 0 0 0.03977
2.26 0.33399999 -0.43700001 151 0 0 0 0.039779998
2.2590001 0.329 -0.43099999 151 0 0 0 0.039790001
2.266 0.32600001 -0.426 151 0 0 0 0.039799999
2.2750001 0.32300001 -0.421 151 0 0 0 0.039810002
2.2850001 0.31999999 -0.41600001 151 0 0 0 0.039820001
2.279 0.315 -0.40900001 151 0 0 0 0.039829999
2.28 0.31099999 -0.403 151 0 0 0 0.039840002
2.2809999 0.30700001 -0.39700001 151 0 0 0 0.03985
2.296 0.30500001 -0.39300001 151 0 0 0 0.039859999
2.303 0.30199999 -0.38800001 150 0 0 0 0.039870001
2.3469999 0.303 -0.389 25 0 0 0 0.03988
2.402 0.30599999 -0.391 26 0 0 0 0.039889999
2.4419999 0.30599999 -0.391 25 0 0 0 0.039900001
2.47 0.30500001 -0.389 25 0 0 0 0.03991
2.5039999 0.30399999 -0.38800001 24 0 0 0 0.039919998
2.536 0.30399999 -0.38600001 25 0 0 0 0.039930001
2.5739999 0.303 -0.384 25 0 0 0 0.03994
2.618 0.303 -0.384 25 0 0 0 0.039949998
2.6530001 0.30199999 -0.382 25 0 0 0 0.039960001
2.694 0.30199999 -0.38100001 26 0 0 0 0.039969999
2.737 0.30199999 -0.37900001 26 0 0 0 0.039980002
2.7980001 0.303 -0.38 28 0 0 0 0.03999
2.852 0.303 -0.38 29 0 0 0 0.039999999
2.892 0.30199999 -0.37799999 28 0 0 0 0.040010002
2.9400001 0.301 -0.37599999 29 0 0 0 0.04002
2.993 0.301 -0.375 29 0 0 0 0.040029999
3.0569999 0.301 -0.375 30 0 0 0 0.040040001
3.0899999 0.29899999 -0.37099999 29 0 0 0 0.04005
3.1300001 0.296 -0.36700001 29 0 0 0 0.040059999
3.175 0.29499999 -0.36399999 28 0 0 0 0.040070001
3.2160001 0.292 -0.36000001 28 0 0 0 0.04008
3.253 0.289 -0.35600001 28 0 0 0 0.040089998
3.2880001 0.28600001 -0.35100001 48 0 0 0 0.040100001
3.3150001 0.28099999 -0.345 151 0 0 0 0.040109999
3.316 0.27500001 -0.33700001 152 0 0 0 0.040119998
3.3169999 0.26899999 -0.32800001 153 0 0 0 0.040130001
3.319 0.26199999 -0.31999999 152 0 0 0 0.040139999
3.3199999 0.25600001 -0.31099999 153 0 0 0 0.040150002
3.3210001 0.249 -0.303 152 0 0 0 0.04016
3.325 0.243 -0.29499999 151 0 0 0 0.040169999
3.3429999 0.237 -0.287 151 0 0 0 0.040180001
3.3510001 0.23100001 -0.27900001 152 0 0 0 0.04019
3.348 0.22400001 -0.271 152 0 0 0 0.040199999
3.348 0.21799999 -0.26199999 152 0 0 0 0.040210001
3.3800001 0.213 -0.25600001 151 0 0 0 0.04022
3.414 0.208 -0.25 153 0 0 0 0.040229999
3.411 0.20100001 -0.241 152 0 0 0 0.040240001
3.414 0.19400001 -0.23199999 152 0 0 0 0.04025
3.414 0.18799999 -0.22400001 152 0 0 0 0.040259998
3.4119999 0.18000001 -0.215 152 0 0 0 0.040270001
3.4130001 0.17399999 -0.206 152 0 0 0 0.040279999
3.414 0.167 -0.198 152 0 0 0 0.040290002
3.415 0.16 -0.189 152 0 0 0 0.0403
3.4100001 0.153 -0.18000001 152 0 0 0 0.040309999
3.411 0.146 -0.17200001 153 0 0 0 0.040320002
3.4119999 0.139 -0.163 153 0 0 0 0.04033
3.4119999 0.132 -0.155 153 0 0 0 0.040339999
3.402 0.124 -0.146 153 0 0 0 0.040350001
3.395 0.117 -0.13699999 154 0 0 0 0.04036
3.385 0.11 -0.12800001 154 0 0 0 0.040369999
3.3829999 0.103 -0.119 154 0 0 0 0.040380001
3.3800001 0.096000001 -0.111 155 0 0 0 0.04039
3.3829999 0.089000002 -0.103 155 0 0 0 0.040399998
3.372 0.081 -0.093999997 157 0 0 0 0.040410001
3.3670001 0.074000001 -0.085000001 159 0 0 0 0.04042
3.3670001 0.067000002 -0.077 160 0 0 0 0.040429998
3.3640001 0.059999999 -0.068999998 160 0 0 0 0.040440001
3.3670001 0.052999999 -0.059999999 161 0 0 0 0.040449999
3.369 0.046 -0.052000001 163 0 0 0 0.040460002
3.3670001 0.039000001 -0.044 162 0 0 0 0.04047
3.368 0.032000002 -0.035999998 163 0 0 0 0.040479999
3.3640001 0.024 -0.027000001 164 0 0 0 0.040490001
3.3610001 0.017000001 -0.018999999 164 0 0 0 0.0405
3.365 0.0099999998 -0.011 165 0 0 0 0.040509999
3.3610001 0.003 -0.003 165 0 0 0 0.040520001
3.3640001 -0.003 0.0040000002 164 0 0 0 0.04053
3.3659999 -0.0099999998 0.013 163 0 0 0 0.040539999
3.3699999 -0.017999999 0.021 163 0 0 0 0.040550001
3.368 -0.025 0.028999999 163 0 0 0 0.04056
3.3670001 -0.032000002 0.037 163 0 0 0 0.040569998
3.3670001 -0.039000001 0.045000002 162 0 0 0 0.040580001
3.3699999 -0.046999998 0.052999999 161 0 0 0 0.040589999
3.3640001 -0.054000001 0.061000001 161 0 0 0 0.040600002
3.369 -0.061000001 0.07 159 0 0 0 0.04061
3.3699999 -0.068999998 0.078000002 158 0 0 0 0.040619999
3.372 -0.075999998 0.086000003 157 0 0 0 0.040630002
3.378 -0.082999997 0.093999997 156 0 0 0 0.04064
3.382 -0.090999998 0.102 155 0 0 0 0.040649999
3.3829999 -0.097999997 0.11 155 0 0 0 0.040660001
3.3859999 -0.106 0.119 154 0 0 0 0.04067
3.395 -0.114 0.127 154 0 0 0 0.040679999
3.4000001 -0.121 0.13500001 153 0 0 0 0.040690001
3.4130001 -0.12899999 0.14399999 153 0 0 0 0.0407
3.4119999 -0.13699999 0.152 152 0 0 0 0.040709998
3.4119999 -0.14399999 0.16 153 0 0 0 0.040720001
3.4159999 -0.152 0.168 153 0 0 0 0.04073
3.4159999 -0.16 0.177 152 0 0 0 0.040739998
3.4130001 -0.167 0.185 152 0 0 0 0.040750001
3.4119999 -0.175 0.192 151 0 0 0 0.040759999
3.414 -0.183 0.20100001 152 0 0 0 0.040770002
3.414 -0.19 0.20900001 152 0 0 0 0.04078
3.414 -0.198 0.21699999 152 0 0 0 0.040789999
3.408 -0.205 0.22400001 151 0 0 0 0.040800001
3.4130001 -0.213 0.233 152 0 0 0 0.04081
3.4170001 -0.221 0.241 152 0 0 0 0.040819999
3.4170001 -0.229 0.249 151 0 0 0 0.040830001
3.4159999 -0.237 0.257 151 0 0 0 0.04084
3.4100001 -0.244 0.264 151 0 0 0 0.040849999
3.4130001 -0.252 0.27200001 151 0 0 0 0.040860001
3.4119999 -0.25999999 0.28 151 0 0 0 0.04087
3.4170001 -0.26800001 0.28799999 151 0 0 0 0.040879998
3.4100001 -0.27500001 0.296 151 0 0 0 0.040890001
3.418 -0.28400001 0.30399999 151 0 0 0 0.040899999
3.4119999 -0.29100001 0.31200001 151 0 0 0 0.040910002
3.4130001 -0.29899999 0.31999999 151 0 0 0 0.040920001
3.414 -0.30700001 0.32800001 151 0 0 0 0.040929999
3.415 -0.31600001 0.336 151 0 0 0 0.040940002
3.414 -0.32300001 0.34299999 151 0 0 0 0.04095
3.4119999 -0.331 0.35100001 151 0 0 0 0.040959999
3.4119999 -0.33899999 0.359 151 0 0 0 0.040970001
3.4159999 -0.347 0.36700001 151 0 0 0 0.04098
3.411 -0.35499999 0.37400001 151 0 0 0 0.040989999
3.415 -0.36399999 0.38299999 151 0 0 0 0.041000001
3.4119999 -0.37099999 0.38999999 151 0 0 0 0.04101
3.415 -0.38 0.398 151 0 0 0 0.041019998
3.4159999 -0.38800001 0.40599999 151 0 0 0 0.041030001
3.4119999 -0.396 0.41299999 151 0 0 0 0.04104
3.415 -0.40400001 0.421 151 0 0 0 0.041049998
3.4089999 -0.412 0.428 151 0 0 0 0.041060001
3.414 -0.41999999 0.43700001 151 0 0 0 0.041069999
3.4119999 -0.428 0.44400001 151 0 0 0 0.041080002
3.4170001 -0.43700001 0.45199999 151 0 0 0 0.04109
3.4170001 -0.44600001 0.46000001 151 0 0 0 0.041099999
3.415 -0.454 0.46700001 151 0 0 0 0.041110002
3.4200001 -0.463 0.47600001 151 0 0 0 0.04112
3.3789999 -0.46599999 0.47799999 150 0 0 0 0.041129999
3.3429999 -0.46900001 0.47999999 150 0 0 0 0.041140001
3.345 -0.477 0.48800001 151 0 0 0 0.04115
3.3440001 -0.48500001 0.495 151 0 0 0 0.041159999
3.325 -0.491 0.5 150 0 0 0 0.041170001
3.3169999 -0.498 0.50599998 151 0 0 0 0.04118
3.316 -0.50599998 0.51300001 151 0 0 0 0.041189998
3.316 -0.514 0.51999998 151 0 0 0 0.041200001
3.3169999 -0.523 0.528 151 0 0 0 0.041209999
3.3169999 -0.53100002 0.53500003 152 0 0 0 0.041219998
3.312 -0.53799999 0.54100001 150 0 0 0 0.041230001
3.2509999 -0.53600001 0.53799999 41 0 0 0 0.041239999
3.2049999 -0.537 0.53799999 150 0 0 0 0.041250002
3.2049999 -0.54500002 0.54500002 151 0 0 0 0.04126
3.2049999 -0.55299997 0.55199999 151 0 0 0 0.041269999
3.2049999 -0.56099999 0.55900002 151 0 0 0 0.041280001
3.2060001 -0.56999999 0.56599998 151 0 0 0 0.04129
3.207 -0.57800001 0.57300001 151 0 0 0 0.041299999
3.197 -0.58399999 0.57800001 151 0 0 0 0.041310001
3.1760001 -0.58899999 0.58099997 150 0 0 0 0.04132
3.1760001 -0.597 0.588 151 0 0 0 0.041329999
3.1719999 -0.60399997 0.59399998 151 0 0 0 0.041340001
3.171 -0.61199999 0.60100001 151 0 0 0 0.04135
3.1719999 -0.62099999 0.60799998 151 0 0 0 0.041359998
3.1730001 -0.62900001 0.61500001 151 0 0 0 0.041370001
3.1370001 -0.63 0.61400002 151 0 0 0 0.041379999
2.859 -0.58200002 0.56599998 150 0 0 0 0.041390002
2.5650001 -0.52899998 0.51300001 31 0 0 0 0.0414
2.5050001 -0.523 0.50599998 28 0 0 0 0.041409999
2.461 -0.51999998 0.50300002 23 0 0 0 0.041420002
2.415 -0.51700002 0.498 19 0 0 0 0.04143
2.3659999 -0.51300001 0.493 25 0 0 0 0.041439999
2.3469999 -0.51499999 0.49399999 28 0 0 0 0.041450001
2.3510001 -0.52200001 0.5 3 0 0 0 0.04146
2.3640001 -0.53100002 0.50700003 0 0 0 0 0.041469999
0 0 0 0 0 0 0 0.041480001
0 0 0 0 0 0 0 0.04149
0 0 0 0 0 0 0 0.041499998
0 0 0 0 0 0 0 0.041510001
0 0 0 0 0 0 0 0.04152
0 0 0 0 0 0 0 0.041529998
0 0 0 0 0 0 0 0.041540001
0 0 0 0 0 0 0 0.041549999
0 0 0 0 0 0 0 0.041560002
0 0 0 0 0 0 0 0.04157
0 0 0 0 0 0 0 0.041579999
0 0 0 0 0 0 0 0.041590001
0 0 0 0 0 0 0 0.0416
0 0 0 0 0 0 0 0.041609999
0 0 0 0 0 0 0 0.041620001
0 0 0 0 0 0 0 0.04163
0 0 0 0 0 0 0 0.041639999
0 0 0 0 0 0 0 0.041650001
0 0 0 0 0 0 0 0.04166
0 0 0 0 0 0 0 0.041669998
0 0 0 0 0 0 0 0.041680001
0 0 0 0 0 0 0 0.041689999
0 0 0 0 0 0 0 0.041700002
0 0 0 0 0 0 0 0.04171
0 0 0 0 0 0 0 0.041719999
0 0 0 0 0 0 0 0.041730002
0 0 0 0 0 0 0 0.04174
0 0 0 0 0 0 0 0.041749999
0 0 0 0 0 0 0 0.041760001
0 0 0 0 0 0 0 0.04177
0 0 0 0 0 0 0 0.041779999
0 0 0 0 0 0 0 0.041790001
2.375 -0.75300002 0.66299999 0 0 0 0 0.0418
0 0 0 0 0 0 0 0.041809998
0 0 0 0 0 0 0 0.041820001
0 0 0 0 0 0 0 0.04183
0 0 0 0 0 0 0 0.041839998
0 0 0 0 0 0 0 0.041850001
0 0 0 0 0 0 0 0.041859999
0 0 0 0 0 0 0 0.041870002
0 0 0 0 0 0 0 0.04188
0 0 0 0 0 0 0 0.041889999
0 0 0 0 0 0 0 0.041900001
0 0 0 0 0 0 0 0.04191
0 0 0 0 0 0 0 0.041919999
0 0 0 0 0 0 0 0.041930001
0 0 0 0 0 0 0 0.04194
0 0 0 0 0 0 0 0.041949999
0 0 0 0 0 0 0 0.041960001
0 0 0 0 0 0 0 0.04197
0 0 0 0 0 0 0 0.041979998
0 0 0 0 0 0 0 0.041990001
0 0 0 0 0 0 0 0.041999999
0 0 0 0 0 0 0 0.042010002
0 0 0 0 0 0 0 0.042020001
0 0 0 0 0 0 0 0.042029999
0 0 0 0 0 0 0 0.042040002
2.369 -0.926 0.75800002 0 0 0 0 0.04205
0 0 0 0 0 0 0 0.042059999
0 0 0 0 0 0 0 0.042070001
0 0 0 0 0 0 0 0.04208
0 0 0 0 0 0 0 0.042089999
0 0 0 0 0 0 0 0.042100001
0 0 0 0 0 0 0 0.04211
2.382 -0.98100001 0.78600001 0 0 0 0 0.042119998
2.6700001 -1.107 0.884 0 0 0 0 0.042130001
2.711 -1.132 0.90100002 0 0 0 0 0.04214
0 0 0 0 0 0 0 0.042149998
2.3039999 -0.97600001 0.77200001 0 0 0 0 0.042160001
0 0 0 0 0 0 0 0.042169999
2.563 -1.101 0.86500001 0 0 0 0 0.042180002
4.165 -1.802 1.411 17 0 0 0 0.04219
2.7149999 -1.183 0.92299998 0 0 0 0 0.042199999
4.1090002 -1.802 1.401 17 0 0 0 0.042210001
4.0770001 -1.8 1.395 17 0 0 0 0.04222
4.052 -1.801 1.391 17 0 0 0 0.042229999
4.0240002 -1.801 1.386 17 0 0 0 0.042240001
3.9949999 -1.8 1.38 17 0 0 0 0.04225
3.95 -1.791 1.369 17 0 0 0 0.042259999
3.9200001 -1.789 1.363 18 0 0 0 0.042270001
3.8889999 -1.786 1.3559999 20 0 0 0 0.04228
3.8599999 -1.784 1.349 21 0 0 0 0.042289998
3.8340001 -1.783 1.344 21 0 0 0 0.042300001
3.812 -1.784 1.34 20 0 0 0 0.042309999
3.789 -1.784 1.335 17 0 0 0 0.042319998
3.767 -1.784 1.331 16 0 0 0 0.042330001
3.7320001 -1.779 1.322 17 0 0 0 0.042339999
3.707 -1.778 1.316 57 0 0 0 0.042350002
3.71 -1.789 1.3200001 63 0 0 0 0.04236
3.7019999 -1.796 1.3200001 28 0 0 0 0.042369999
3.651 -1.7819999 1.3049999 28 0 0 0 0.042380001
3.543 -1.739 1.2690001 37 0 0 0 0.04239
3.5280001 -1.742 1.266 61 0 0 0 0.042399999
3.5239999 -1.749 1.267 66 0 0 0 0.042410001
3.5220001 -1.758 1.268 65 0 0 0 0.04242
3.527 -1.77 1.272 66 0 0 0 0.042429999
3.5220001 -1.777 1.273 64 0 0 0 0.042440001
3.5190001 -1.785 1.274 66 0 0 0 0.04245
3.5250001 -1.798 1.278 65 0 0 0 0.042459998
3.5250001 -1.808 1.28 64 0 0 0 0.042470001
3.526 -1.818 1.2819999 66 0 0 0 0.042479999
3.5280001 -1.8279999 1.284 64 0 0 0 0.042490002
3.5239999 -1.835 1.284 64 0 0 0 0.0425
3.527 -1.846 1.2869999 62 0 0 0 0.042509999
3.5280001 -1.8559999 1.288 61 0 0 0 0.042520002
3.523 -1.862 1.288 61 0 0 0 0.04253
3.5250001 -1.872 1.289 62 0 0 0 0.042539999
3.526 -1.882 1.291 64 0 0 0 0.042550001
3.523 -1.8890001 1.29 64 0 0 0 0.04256
3.5220001 -1.897 1.291 63 0 0 0 0.042569999
3.5239999 -1.9069999 1.293 63 0 0 0 0.042580001
3.5239999 -1.915 1.293 64 0 0 0 0.04259
3.5209999 -1.9220001 1.2920001 64 0 0 0 0.042599998
3.52 -1.9299999 1.2920001 63 0 0 0 0.042610001
3.5179999 -1.937 1.2920001 63 0 0 0 0.042619999
3.517 -1.9450001 1.291 63 0 0 0 0.042629998
3.52 -1.955 1.293 64 0 0 0 0.042640001
3.5179999 -1.962 1.2920001 63 0 0 0 0.042649999
3.5139999 -1.9680001 1.29 63 0 0 0 0.042660002
3.52 -1.978 1.2920001 63 0 0 0 0.04267
3.5179999 -1.985 1.29 63 0 0 0 0.042679999
3.516 -1.9910001 1.289 64 0 0 0 0.042690001
3.5150001 -1.998 1.288 63 0 0 0 0.0427
3.5150001 -2.006 1.288 63 0 0 0 0.042709999
3.5150001 -2.013 1.2869999 64 0 0 0 0.042720001
3.5190001 -2.0220001 1.2869999 64 0 0 0 0.04273
3.5139999 -2.026 1.284 63 0 0 0 0.042739999
3.5150001 -2.033 1.283 64 0 0 0 0.042750001
3.5150001 -2.04 1.281 63 0 0 0 0.04276
3.5139999 -2.046 1.28 63 0 0 0 0.042769998
3.516 -2.0539999 1.279 63 0 0 0 0.042780001
3.5179999 -2.062 1.278 63 0 0 0 0.042789999
3.516 -2.0669999 1.275 63 0 0 0 0.042800002
3.516 -2.072 1.273 63 0 0 0 0.04281
3.5209999 -2.0810001 1.273 64 0 0 0 0.042819999
3.5150001 -2.0829999 1.2690001 65 0 0 0 0.042830002
3.6070001 -2.1440001 1.299 150 0 0 0 0.04284
3.8039999 -2.267 1.368 150 0 0 0 0.042849999
4.1539998 -2.4820001 1.4910001 150 0 0 0 0.042860001
4.2969999 -2.5739999 1.539 98 0 0 0 0.04287
4.335 -2.602 1.549 26 0 0 0 0.042879999
4.3530002 -2.619 1.552 24 0 0 0 0.042890001
4.3639998 -2.632 1.552 24 0 0 0 0.0429
4.382 -2.648 1.5549999 24 0 0 0 0.042909998
4.3909998 -2.6589999 1.554 24 0 0 0 0.042920001
4.4060001 -2.6730001 1.556 24 0 0 0 0.04293
4.4200001 -2.687 1.556 24 0 0 0 0.042939998
4.4289999 -2.697 1.5549999 25 0 0 0 0.042950001
4.454 -2.717 1.559 27 0 0 0 0.042959999
4.4650002 -2.7290001 1.559 30 0 0 0 0.042970002
4.4699998 -2.7360001 1.5549999 32 0 0 0 0.04298
4.4770002 -2.744 1.553 33 0 0 0 0.042989999
4.4840002 -2.753 1.55 36 0 0 0 0.043000001
4.4850001 -2.757 1.545 36 0 0 0 0.04301
2.3670001 -1.457 0.81300002 0 0 0 0 0.043019999
4.4879999 -2.766 1.536 33 0 0 0 0.043030001
4.4860001 -2.767 1.529 33 0 0 0 0.04304
4.4850001 -2.77 1.523 33 0 0 0 0.043049999
4.487 -2.7739999 1.518 32 0 0 0 0.043060001
4.4819999 -2.773 1.51 33 0 0 0 0.04307
4.4850001 -2.777 1.505 33 0 0 0 0.043079998
4.487 -2.78 1.499 33 0 0 0 0.043090001
4.493 -2.7850001 1.495 34 0 0 0 0.043099999
4.4840002 -2.7820001 1.4859999 33 0 0 0 0.043110002
4.4850001 -2.783 1.48 33 0 0 0 0.043120001
4.4850001 -2.7850001 1.473 33 0 0 0 0.043129999
2.4790001 -1.539 0.81 0 0 0 0 0.043140002
4.4850001 -2.786 1.459 35 0 0 0 0.04315
4.4790001 -2.783 1.451 33 0 0 0 0.043159999
4.4809999 -2.7839999 1.444 33 0 0 0 0.043170001
4.4819999 -2.7850001 1.438 33 0 0 0 0.04318
4.4819999 -2.7839999 1.4299999 33 0 0 0 0.043189999
2.3659999 -1.469 0.75099999 0 0 0 0 0.043200001
2.2909999 -1.4220001 0.72299999 0 0 0 0 0.04321
2.332 -1.448 0.73299998 0 0 0 0 0.043219998
4.4829998 -2.7809999 1.401 34 0 0 0 0.043230001
4.4840002 -2.7809999 1.3940001 34 0 0 0 0.04324
2.326 -1.441 0.71899998 0 0 0 0 0.043249998
2.3959999 -1.484 0.736 0 0 0 0 0.043260001
2.3599999 -1.46 0.72100002 0 0 0 0 0.043269999
2.378 -1.47 0.722 0 0 0 0 0.043280002
4.4819999 -2.7690001 1.353 33 0 0 0 0.04329
2.365 -1.459 0.70999998 0 0 0 0 0.043299999
4.4829998 -2.7639999 1.3380001 34 0 0 0 0.043310001
4.4809999 -2.7590001 1.329 34 0 0 0 0.04332
4.4819999 -2.757 1.321 34 0 0 0 0.043329999
4.4759998 -2.75 1.311 35 0 0 0 0.043340001
4.4790001 -2.7479999 1.304 34 0 0 0 0.04335
2.3859999 -1.461 0.69 0 0 0 0 0.043359999
2.3429999 -1.433 0.67299998 0 0 0 0 0.043370001
2.362 -1.442 0.67400002 0 0 0 0 0.04338
2.342 -1.428 0.66399997 0 0 0 0 0.043389998
2.3369999 -1.423 0.65799999 0 0 0 0 0.043400001
2.29 -1.391 0.63999999 0 0 0 0 0.043409999
2.369 -1.436 0.65799999 0 0 0 0 0.043419998
2.3610001 -1.429 0.65100002 0 0 0 0 0.043430001
2.388 -1.442 0.65399998 0 0 0 0 0.043439999
4.4439998 -2.678 1.207 150 0 0 0 0.043450002
3.8559999 -2.319 1.04 152 0 0 0 0.04346
3.7030001 -2.2219999 0.99199998 151 0 0 0 0.043469999
3.5139999 -2.1029999 0.93400002 59 0 0 0 0.043480001
3.5150001 -2.099 0.92699999 58 0 0 0 0.04349
3.517 -2.095 0.921 58 0 0 0 0.043499999
3.5209999 -2.092 0.91500002 58 0 0 0 0.043510001
3.517 -2.0840001 0.90700001 58 0 0 0 0.04352
3.52 -2.0810001 0.89999998 58 0 0 0 0.043529999
3.516 -2.073 0.89200002 58 0 0 0 0.043540001
3.5150001 -2.066 0.88499999 58 0 0 0 0.04355
3.5150001 -2.0599999 0.87800002 57 0 0 0 0.043559998
3.517 -2.0550001 0.87099999 58 0 0 0 0.043570001
3.516 -2.0480001 0.86400002 58 0 0 0 0.043579999
3.5139999 -2.0409999 0.85699999 58 0 0 0 0.043590002
3.516 -2.036 0.85000002 58 0 0 0 0.0436
3.5139999 -2.027 0.84200001 58 0 0 0 0.043609999
3.517 -2.023 0.83600003 58 0 0 0 0.043620002
3.516 -2.0150001 0.829 57 0 0 0 0.04363
3.517 -2.0090001 0.82200003 57 0 0 0 0.043639999
3.513 -1.999 0.81400001 57 0 0 0 0.043650001
3.5150001 -1.994 0.80699998 57 0 0 0 0.04366
3.516 -1.987 0.801 57 0 0 0 0.043669999
3.5179999 -1.98 0.79400003 58 0 0 0 0.043680001
3.5190001 -1.974 0.787 58 0 0 0 0.04369
3.5150001 -1.964 0.77899998 56 0 0 0 0.043699998
3.517 -1.957 0.773 40 0 0 0 0.043710001
3.53 -1.957 0.76800001 22 0 0 0 0.043719999
3.556 -1.9630001 0.76700002 13 0 0 0 0.043729998
3.6010001 -1.98 0.76999998 10 0 0 0 0.043740001
3.631 -1.988 0.76899999 10 0 0 0 0.043749999
3.6659999 -1.998 0.76899999 10 0 0 0 0.043760002
3.701 -2.0090001 0.76899999 10 0 0 0 0.04377
3.7320001 -2.017 0.76800001 10 0 0 0 0.043779999
3.7679999 -2.027 0.76800001 10 0 0 0 0.043790001
3.8010001 -2.036 0.76800001 10 0 0 0 0.0438
3.8380001 -2.046 0.76800001 10 0 0 0 0.043809999
3.8710001 -2.0550001 0.76700002 10 0 0 0 0.043820001
3.9119999 -2.0669999 0.76800001 10 0 0 0 0.04383
3.9579999 -2.0810001 0.76899999 10 0 0 0 0.043839999
4 -2.0929999 0.76999998 11 0 0 0 0.043850001
4.0939999 -2.132 0.77999997 14 0 0 0 0.04386
2.806 -1.454 0.52899998 0 0 0 0 0.043869998
0 0 0 0 0 0 0 0.043880001
0 0 0 0 0 0 0 0.043889999
0 0 0 0 0 0 0 0.043900002
2.763 -1.402 0.5 0 0 0 0 0.04391
2.342 -1.183 0.41999999 0 0 0 0 0.043919999
2.296 -1.153 0.40700001 0 0 0 0 0.043930002
2.3329999 -1.165 0.40900001 0 0 0 0 0.04394
0 0 0 0 0 0 0 0.043949999
0 0 0 0 0 0 0 0.043960001
0 0 0 0 0 0 0 0.04397
0 0 0 0 0 0 0 0.043979999
0 0 0 0 0 0 0 0.043990001
0 0 0 0 0 0 0 0.044
0 0 0 0 0 0 0 0.044009998
0 0 0 0 0 0 0 0.044020001
0 0 0 0 0 0 0 0.04403
0 0 0 0 0 0 0 0.044039998
2.332 -1.0930001 0.36300001 0 0 0 0 0.044050001
0 0 0 0 0 0 0 0.044059999
2.813 -1.303 0.42899999 0 0 0 0 0.044070002
0 0 0 0 0 0 0 0.04408
2.349 -1.074 0.34999999 0 0 0 0 0.044089999
2.3329999 -1.0599999 0.34400001 0 0 0 0 0.044100001
2.3210001 -1.048 0.338 0 0 0 0 0.04411
0 0 0 0 0 0 0 0.044119999
0 0 0 0 0 0 0 0.044130001
2.3099999 -1.023 0.32499999 0 0 0 0 0.04414
0 0 0 0 0 0 0 0.044149999
0 0 0 0 0 0 0 0.044160001
0 0 0 0 0 0 0 0.04417
0 0 0 0 0 0 0 0.044179998
2.806 -1.2 0.37200001 0 0 0 0 0.044190001
2.362 -1.003 0.30899999 0 0 0 0 0.044199999
0 0 0 0 0 0 0 0.044210002
0 0 0 0 0 0 0 0.044220001
0 0 0 0 0 0 0 0.044229999
2.6619999 -1.098 0.33199999 0 0 0 0 0.044240002
0 0 0 0 0 0 0 0.04425
0 0 0 0 0 0 0 0.044259999
0 0 0 0 0 0 0 0.044270001
0 0 0 0 0 0 0 0.04428
0 0 0 0 0 0 0 0.044289999
0 0 0 0 0 0 0 0.044300001
0 0 0 0 0 0 0 0.04431
0 0 0 0 0 0 0 0.044319998
0 0 0 0 0 0 0 0.044330001
0 0 0 0 0 0 0 0.04434
0 0 0 0 0 0 0 0.044349998
0 0 0 0 0 0 0 0.044360001
0 0 0 0 0 0 0 0.044369999
0 0 0 0 0 0 0 0.044380002
0 0 0 0 0 0 0 0.04439
0 0 0 0 0 0 0 0.044399999
0 0 0 0 0 0 0 0.044410001
0 0 0 0 0 0 0 0.04442
0 0 0 0 0 0 0 0.044429999
0 0 0 0 0 0 0 0.044440001
0 0 0 0 0 0 0 0.04445
0 0 0 0 0 0 0 0.044459999
0 0 0 0 0 0 0 0.044470001
0 0 0 0 0 0 0 0.04448
0 0 0 0 0 0 0 0.044489998
0 0 0 0 0 0 0 0.044500001
0 0 0 0 0 0 0 0.044509999
0 0 0 0 0 0 0 0.044520002
0 0 0 0 0 0 0 0.044530001
0 0 0 0 0 0 0 0.044539999
0 0 0 0 0 0 0 0.044550002
0 0 0 0 0 0 0 0.04456
0 0 0 0 0 0 0 0.044569999
0 0 0 0 0 0 0 0.044580001
0 0 0 0 0 0 0 0.04459
0 0 0 0 0 0 0 0.044599999
0 0 0 0 0 0 0 0.044610001
0 0 0 0 0 0 0 0.04462
0 0 0 0 0 0 0 0.044629999
0 0 0 0 0 0 0 0.044640001
0 0 0 0 0 0 0 0.04465
0 0 0 0 0 0 0 0.044659998
0 0 0 0 0 0 0 0.044670001
0 0 0 0 0 0 0 0.044679999
0 0 0 0 0 0 0 0.044690002
0 0 0 0 0 0 0 0.0447
2.3570001 -0.625 0.15099999 0 0 0 0 0.044709999
0 0 0 0 0 0 0 0.044720002
0 0 0 0 0 0 0 0.04473
0 0 0 0 0 0 0 0.044739999
2.3429999 -0.59100002 0.14 0 0 0 0 0.044750001
2.372 -0.59100002 0.139 0 0 0 0 0.04476
2.3540001 -0.579 0.13600001 1 0 0 0 0.044769999
2.3410001 -0.56800002 0.133 6 0 0 0 0.044780001
2.3369999 -0.56 0.13 10 0 0 0 0.04479
2.322 -0.54900002 0.127 14 0 0 0 0.044799998
2.3280001 -0.54299998 0.125 16 0 0 0 0.044810001
2.3239999 -0.53399998 0.122 19 0 0 0 0.044819999
2.3299999 -0.528 0.12 20 0 0 0 0.044829998
2.352 -0.52600002 0.119 16 0 0 0 0.044840001
2.404 -0.52999997 0.12 18 0 0 0 0.044849999
2.454 -0.53299999 0.12 23 0 0 0 0.044860002
2.5020001 -0.53500003 0.12 26 0 0 0 0.04487
2.563 -0.54000002 0.12 26 0 0 0 0.044879999
2.9319999 -0.60900003 0.13500001 150 0 0 0 0.044890001
3.1689999 -0.648 0.14300001 150 0 0 0 0.0449
3.168 -0.63800001 0.14 150 0 0 0 0.044909999
3.1689999 -0.62800002 0.13699999 150 0 0 0 0.044920001
3.164 -0.61699998 0.134 150 0 0 0 0.04493
3.1659999 -0.60699999 0.131 150 0 0 0 0.044939999
3.1860001 -0.60000002 0.12899999 150 0 0 0 0.044950001
3.197 -0.59200001 0.127 151 0 0 0 0.04496
3.1949999 -0.58200002 0.124 150 0 0 0 0.044969998
3.1960001 -0.57200003 0.121 150 0 0 0 0.044980001
3.194 -0.56099999 0.119 150 0 0 0 0.044989999
3.198 -0.55199999 0.116 151 0 0 0 0.045000002
3.2160001 -0.54400003 0.114 150 0 0 0 0.04501
3.3039999 -0.54900002 0.114 150 0 0 0 0.045019999
3.3110001 -0.54000002 0.112 151 0 0 0 0.045030002
3.309 -0.52899998 0.109 150 0 0 0 0.04504
3.3080001 -0.51800001 0.106 151 0 0 0 0.045049999
3.309 -0.50800002 0.104 150 0 0 0 0.045060001
3.3410001 -0.50199997 0.102 151 0 0 0 0.04507
3.345 -0.49200001 0.098999999 151 0 0 0 0.045079999
3.3380001 -0.47999999 0.097000003 150 0 0 0 0.045090001
3.3929999 -0.477 0.096000001 152 0 0 0 0.0451
3.4089999 -0.46900001 0.093000002 152 0 0 0 0.045109998
3.411 -0.458 0.090999998 150 0 0 0 0.045120001
3.4100001 -0.447 0.088 150 0 0 0 0.04513
3.4070001 -0.43599999 0.086000003 150 0 0 0 0.045139998
3.4119999 -0.426 0.082999997 150 0 0 0 0.045150001
3.4100001 -0.41499999 0.081 150 0 0 0 0.045159999
3.405 -0.403 0.078000002 150 0 0 0 0.045170002
3.4070001 -0.39199999 0.075999998 150 0 0 0 0.04518
3.4119999 -0.382 0.072999999 150 0 0 0 0.045189999
3.4089999 -0.37099999 0.071000002 150 0 0 0 0.045200001
3.4119999 -0.36000001 0.068000004 150 0 0 0 0.04521
3.4059999 -0.34900001 0.066 150 0 0 0 0.045219999
3.4130001 -0.33899999 0.063000001 150 0 0 0 0.045230001
3.4119999 -0.32800001 0.061000001 150 0 0 0 0.04524
3.4089999 -0.317 0.059 150 0 0 0 0.045249999
3.405 -0.30599999 0.056000002 150 0 0 0 0.045260001
3.411 -0.29499999 0.054000001 151 0 0 0 0.04527
3.4059999 -0.28400001 0.052000001 151 0 0 0 0.045279998
3.4089999 -0.273 0.050000001 151 0 0 0 0.045290001
3.408 -0.26199999 0.046999998 151 0 0 0 0.045299999
3.414 -0.252 0.045000002 151 0 0 0 0.045310002
3.4130001 -0.241 0.043000001 152 0 0 0 0.04532
3.4100001 -0.23 0.041000001 153 0 0 0 0.045329999
3.4000001 -0.21799999 0.037999999 153 0 0 0 0.045340002
3.401 -0.208 0.035999998 153 0 0 0 0.04535
3.3970001 -0.197 0.034000002 153 0 0 0 0.045359999
3.3859999 -0.185 0.032000002 154 0 0 0 0.045370001
3.382 -0.17399999 0.029999999 154 0 0 0 0.04538
3.3789999 -0.163 0.028000001 154 0 0 0 0.045389999
3.3800001 -0.152 0.026000001 156 0 0 0 0.045400001
3.3710001 -0.141 0.024 157 0 0 0 0.04541
3.3670001 -0.13 0.022 157 0 0 0 0.045419998
3.368 -0.12 0.02 157 0 0 0 0.045430001
3.369 -0.109 0.017999999 158 0 0 0 0.04544
3.3670001 -0.097999997 0.016000001 159 0 0 0 0.045449998
3.368 -0.086999997 0.014 159 0 0 0 0.045460001
3.3670001 -0.077 0.012 160 0 0 0 0.045469999
3.362 -0.066 0.0099999998 160 0 0 0 0.045480002
3.368 -0.055 0.0080000004 161 0 0 0 0.04549
3.3670001 -0.044 0.0060000001 161 0 0 0 0.045499999
3.3670001 -0.034000002 0.0049999999 162 0 0 0 0.045510001
3.3610001 -0.023 0.003 163 0 0 0 0.04552
3.3670001 -0.012 0.001 162 0 0 0 0.045529999
3.365 -0.0020000001 0 161 0 0 0 0.045540001
3.3659999 0.0080000004 -0.001 160 0 0 0 0.04555
3.3670001 0.018999999 -0.003 159 0 0 0 0.045559999
3.368 0.029999999 -0.0049999999 158 0 0 0 0.045570001
3.368 0.039999999 -0.0060000001 160 0 0 0 0.04558
3.365 0.050999999 -0.0080000004 160 0 0 0 0.045589998
3.372 0.061999999 -0.0099999998 158 0 0 0 0.045600001
3.3729999 0.072999999 -0.011 157 0 0 0 0.045609999
3.3789999 0.083999999 -0.013 156 0 0 0 0.045620002
3.3859999 0.094999999 -0.015 155 0 0 0 0.045630001
3.385 0.106 -0.016000001 154 0 0 0 0.045639999
3.3970001 0.117 -0.017999999 154 0 0 0 0.045650002
3.4100001 0.12800001 -0.02 153 0 0 0 0.04566
3.4159999 0.14 -0.021 153 0 0 0 0.045669999
3.4089999 0.15000001 -0.023 153 0 0 0 0.045680001
3.4170001 0.162 -0.024 152 0 0 0 0.04569
3.418 0.17299999 -0.026000001 152 0 0 0 0.045699999
3.4170001 0.184 -0.027000001 152 0 0 0 0.045710001
3.4159999 0.19400001 -0.028999999 152 0 0 0 0.04572
3.3959999 0.204 -0.029999999 154 0 0 0 0.045729998
3.368 0.213 -0.030999999 152 0 0 0 0.045740001
3.3469999 0.223 -0.032000002 153 0 0 0 0.04575
3.3540001 0.234 -0.034000002 152 0 0 0 0.045759998
3.3239999 0.243 -0.035 152 0 0 0 0.045770001
3.313 0.25299999 -0.035999998 153 0 0 0 0.045779999
3.322 0.264 -0.037 152 0 0 0 0.045790002
3.3110001 0.27399999 -0.037999999 153 0 0 0 0.0458
3.3150001 0.285 -0.039999999 150 0 0 0 0.045809999
3.2820001 0.29300001 -0.039999999 24 0 0 0 0.045820002
3.2349999 0.29899999 -0.041000001 24 0 0 0 0.04583
3.175 0.30399999 -0.041000001 25 0 0 0 0.045839999
3.1240001 0.30899999 -0.041999999 26 0 0 0 0.045850001
3.052 0.31200001 -0.041999999 27 0 0 0 0.04586
3.006 0.317 -0.041999999 28 0 0 0 0.045869999
2.9360001 0.31900001 -0.041999999 30 0 0 0 0.045880001
2.7920001 0.31200001 -0.041000001 26 0 0 0 0.04589
2.6789999 0.308 -0.039999999 24 0 0 0 0.045899998
2.5929999 0.30700001 -0.039999999 22 0 0 0 0.045910001
2.523 0.30700001 -0.039000001 20 0 0 0 0.045919999
2.461 0.30700001 -0.039000001 20 0 0 0 0.045929998
2.4059999 0.308 -0.039000001 21 0 0 0 0.045940001
2.3110001 0.30399999 -0.037999999 150 0 0 0 0.045949999
2.286 0.308 -0.037999999 151 0 0 0 0.045960002
2.2750001 0.31400001 -0.039000001 151 0 0 0 0.04597
2.283 0.322 -0.039999999 151 0 0 0 0.045979999
2.267 0.32699999 -0.039999999 150 0 0 0 0.045990001
2.266 0.33500001 -0.039999999 151 0 0 0 0.046
2.2709999 0.34299999 -0.041000001 150 0 0 0 0.046009999
2.27 0.34999999 -0.041999999 150 0 0 0 0.046020001
2.27 0.35699999 -0.041999999 150 0 0 0 0.04603
2.27 0.36500001 -0.043000001 150 0 0 0 0.046039999
2.2750001 0.373 -0.043000001 151 0 0 0 0.046050001
2.2739999 0.38100001 -0.044 150 0 0 0 0.04606
2.273 0.38800001 -0.044 150 0 0 0 0.046069998
2.2809999 0.39700001 -0.045000002 151 0 0 0 0.046080001
2.2809999 0.40400001 -0.045000002 151 0 0 0 0.046089999
2.2820001 0.412 -0.046 151 0 0 0 0.046100002
2.28 0.419 -0.046 151 0 0 0 0.04611
2.28 0.42699999 -0.046999998 151 0 0 0 0.046119999
2.3210001 0.442 -0.048 150 0 0 0 0.046130002
2.4790001 0.47999999 -0.052000001 150 0 0 0 0.04614
2.5420001 0.50099999 -0.054000001 150 0 0 0 0.046149999
2.5380001 0.509 -0.054000001 150 0 0 0 0.046160001
2.543 0.51800001 -0.054000001 150 0 0 0 0.04617
2.4749999 0.51200002 -0.052999999 150 0 0 0 0.046179999
2.3570001 0.49599999 -0.050999999 150 0 0 0 0.046190001
0 0 0 0 0 0 0 0.0462
1.516 0.329 -0.033 1 0 0 0 0.046209998
1.4960001 0.329 -0.033 1 0 0 0 0.046220001
1.478 0.33000001 -0.032000002 1 0 0 0 0.04623
1.433 0.32499999 -0.032000002 0 0 0 0 0.046239998
1.4119999 0.32499999 -0.030999999 0 0 0 0 0.046250001
1.404 0.32800001 -0.030999999 0 0 0 0 0.046259999
1.3789999 0.32699999 -0.030999999 0 0 0 0 0.046270002
1.365 0.32800001 -0.030999999 4 0 0 0 0.04628
1.341 0.32600001 -0.029999999 20 0 0 0 0.046289999
1.33 0.32800001 -0.029999999 98 0 0 0 0.046300001
1.3279999 0.33199999 -0.029999999 132 0 0 0 0.04631
1.326 0.336 -0.029999999 117 0 0 0 0.046319999
1.331 0.34200001 -0.029999999 116 0 0 0 0.046330001
1.331 0.34599999 -0.029999999 113 0 0 0 0.04634
1.326 0.34900001 -0.029999999 106 0 0 0 0.046349999
1.3279999 0.354 -0.029999999 103 0 0 0 0.046360001
1.327 0.359 -0.029999999 100 0 0 0 0.04637
1.335 0.36500001 -0.029999999 108 0 0 0 0.046379998
1.33 0.368 -0.029999999 96 0 0 0 0.046390001
1.335 0.37400001 -0.029999999 15 0 0 0 0.046399999
1.331 0.37799999 -0.029999999 5 0 0 0 0.046410002
1.2970001 0.37200001 -0.028999999 0 0 0 0 0.04642
3.411 0.991 -0.077 1 0 0 0 0.046429999
3.4189999 1.005 -0.077 4 0 0 0 0.046440002
3.4189999 1.017 -0.077 5 0 0 0 0.04645
3.431 1.0319999 -0.077 8 0 0 0 0.046459999
3.4260001 1.0420001 -0.075999998 9 0 0 0 0.046470001
3.398 1.045 -0.075999998 4 0 0 0 0.04648
3.382 1.052 -0.075000003 2 0 0 0 0.046489999
3.3499999 1.053 -0.074000001 4 0 0 0 0.046500001
3.358 1.067 -0.072999999 4 0 0 0 0.04651
3.342 1.073 -0.072999999 4 0 0 0 0.046519998
3.336 1.0829999 -0.071999997 3 0 0 0 0.046530001
3.3269999 1.091 -0.071000002 4 0 0 0 0.04654
3.325 1.102 -0.071000002 5 0 0 0 0.046549998
3.3210001 1.1109999 -0.07 5 0 0 0 0.046560001
3.319 1.122 -0.07 2 0 0 0 0.046569999
3.2839999 1.122 -0.068000004 1 0 0 0 0.046580002
3.256 1.123 -0.067000002 1 0 0 0 0.04659
3.2249999 1.123 -0.066 2 0 0 0 0.046599999
3.2309999 1.136 -0.064999998 2 0 0 0 0.046610001
3.2219999 1.1440001 -0.064000003 2 0 0 0 0.04662
3.227 1.1569999 -0.063000001 2 0 0 0 0.046629999
3.223 1.166 -0.061999999 4 0 0 0 0.046640001
3.2160001 1.175 -0.061000001 4 0 0 0 0.04665
3.2130001 1.1849999 -0.059999999 2 0 0 0 0.046659999
3.191 1.187 -0.059 2 0 0 0 0.046670001
3.204 1.2029999 -0.057999998 2 0 0 0 0.04668
3.1919999 1.209 -0.057 2 0 0 0 0.046689998
3.194 1.221 -0.056000002 2 0 0 0 0.046700001
3.1919999 1.2309999 -0.055 1 0 0 0 0.046709999
0.954 0.37099999 -0.016000001 0 0 0 0 0.046720002
0.954 0.37400001 -0.016000001 0 0 0 0 0.046730001
0.949 0.375 -0.015 4 0 0 0 0.046739999
0.96399999 0.38499999 -0.015 6 0 0 0 0.046750002
0.95899999 0.38600001 -0.015 6 0 0 0 0.04676
0.95200002 0.38600001 -0.014 4 0 0 0 0.046769999
0.95499998 0.391 -0.014 1 0 0 0 0.046780001
0.97000003 0.40000001 -0.013 0 0 0 0 0.04679
0 0 0 0 0 0 0 0.046799999
0 0 0 0 0 0 0 0.046810001
0 0 0 0 0 0 0 0.04682
0 0 0 0 0 0 0 0.046829998
0 0 0 0 0 0 0 0.046840001
0 0 0 0 0 0 0 0.04685
0 0 0 0 0 0 0 0.046859998
0 0 0 0 0 0 0 0.046870001
0 0 0 0 0 0 0 0.046879999
0 0 0 0 0 0 0 0.046890002
0 0 0 0 0 0 0 0.0469
0 0 0 0 0 0 0 0.046909999
0 0 0 0 0 0 0 0.046920002
0 0 0 0 0 0 0 0.04693
0 0 0 0 0 0 0 0.046939999
0 0 0 0 0 0 0 0.046950001
0 0 0 0 0 0 0 0.04696
3.2539999 1.54 -0.015 0 0 0 0 0.046969999
0 0 0 0 0 0 0 0.046980001
0 0 0 0 0 0 0 0.04699
0 0 0 0 0 0 0 0.046999998
0 0 0 0 0 0 0 0.047010001
0 0 0 0 0 0 0 0.047019999
3.2739999 1.614 -0.001 0 0 0 0 0.047029998
3.3110001 1.643 0 0 0 0 0 0.047040001
3.368 1.682 0.0020000001 0 0 0 0 0.047049999
3.3570001 1.688 0.0049999999 0 0 0 0 0.047060002
3.378 1.71 0.0080000004 1 0 0 0 0.04707
1.554 0.79100001 0.0049999999 0 0 0 0 0.047079999
0 0 0 0 0 0 0 0.047090001
1.456 0.75099999 0.0070000002 151 0 0 0 0.0471
1.284 0.66600001 0.0070000002 150 0 0 0 0.047109999
1.171 0.611 0.0070000002 150 0 0 0 0.047120001
1.153 0.60500002 0.0080000004 150 0 0 0 0.04713
1.153 0.60900003 0.0089999996 12 0 0 0 0.047139999
3.329 1.77 0.029999999 0 0 0 0 0.047150001
3.2839999 1.756 0.033 4 0 0 0 0.04716
1.35 0.72600001 0.014 0 0 0 0 0.047169998
1.391 0.75199997 0.016000001 0 0 0 0 0.047180001
1.418 0.77100003 0.017999999 0 0 0 0 0.047189999
1.462 0.80000001 0.02 1 0 0 0 0.047200002
1.442 0.79299998 0.021 1 0 0 0 0.04721
1.4859999 0.82200003 0.023 0 0 0 0 0.047219999
1.484 0.82499999 0.024 0 0 0 0 0.047230002
1.455 0.81400001 0.025 0 0 0 0 0.04724
1.48 0.83200002 0.027000001 0 0 0 0 0.047249999
1.479 0.83600003 0.028999999 1 0 0 0 0.047260001
1.483 0.84200001 0.029999999 2 0 0 0 0.04727
3.2219999 1.84 0.07 6 0 0 0 0.047279999
3.2149999 1.845 0.074000001 6 0 0 0 0.047290001
3.211 1.852 0.077 5 0 0 0 0.0473
3.2119999 1.862 0.081 5 0 0 0 0.047309998
3.237 1.886 0.085000001 5 0 0 0 0.047320001
3.2179999 1.8839999 0.088 5 0 0 0 0.04733
3.217 1.892 0.092 4 0 0 0 0.047339998
3.221 1.903 0.094999999 5 0 0 0 0.047350001
1.4349999 0.852 0.044 3 0 0 0 0.047359999
1.431 0.85299999 0.046 3 0 0 0 0.047370002
1.421 0.85100001 0.046999998 2 0 0 0 0.04738
1.416 0.852 0.048 2 0 0 0 0.047389999
1.404 0.84899998 0.050000001 1 0 0 0 0.047400001
1.411 0.85699999 0.052000001 0 0 0 0 0.04741
1.381 0.84200001 0.052000001 0 0 0 0 0.047419999
1.374 0.84100002 0.054000001 0 0 0 0 0.047430001
1.367 0.83999997 0.055 0 0 0 0 0.04744
1.355 0.83600003 0.056000002 0 0 0 0 0.047449999
1.3609999 0.84399998 0.057999998 0 0 0 0 0.047460001
1.3559999 0.84399998 0.059999999 1 0 0 0 0.04747
0 0 0 0 0 0 0 0.047479998
1.363 0.85500002 0.064000003 9 0 0 0 0.047490001
0 0 0 0 0 0 0 0.047499999
0 0 0 0 0 0 0 0.047510002
0 0 0 0 0 0 0 0.04752
0 0 0 0 0 0 0 0.047529999
0 0 0 0 0 0 0 0.047540002
0 0 0 0 0 0 0 0.04755
0 0 0 0 0 0 0 0.047559999
0 0 0 0 0 0 0 0.047570001
1.272 0.82300001 0.075000003 9 0 0 0 0.04758
1.277 0.829 0.077 8 0 0 0 0.047589999
1.286 0.83700001 0.079999998 8 0 0 0 0.047600001
0 0 0 0 0 0 0 0.04761
1.2359999 0.80900002 0.079999998 143 0 0 0 0.047619998
1.242 0.81599998 0.082000002 39 0 0 0 0.047630001
1.251 0.824 0.085000001 48 0 0 0 0.04764
0 0 0 0 0 0 0 0.047649998
0 0 0 0 0 0 0 0.047660001
0 0 0 0 0 0 0 0.047669999
0 0 0 0 0 0 0 0.047680002
0 0 0 0 0 0 0 0.04769
0 0 0 0 0 0 0 0.047699999
0 0 0 0 0 0 0 0.047710001
1.2640001 0.84899998 0.101 44 0 0 0 0.04772
1.262 0.85000002 0.102 32 0 0 0 0.047729999
1.257 0.84799999 0.104 23 0 0 0 0.047740001
1.255 0.84899998 0.106 18 0 0 0 0.04775
1.251 0.84799999 0.107 18 0 0 0 0.047759999
1.253 0.85000002 0.109 17 0 0 0 0.047770001
1.25 0.85000002 0.111 18 0 0 0 0.04778
1.2460001 0.84899998 0.113 17 0 0 0 0.047789998
1.243 0.84799999 0.114 18 0 0 0 0.047800001
1.244 0.85000002 0.116 16 0 0 0 0.047809999
1.243 0.85100001 0.118 16 0 0 0 0.047820002
1.24 0.85000002 0.119 16 0 0 0 0.047830001
1.239 0.85000002 0.121 16 0 0 0 0.047839999
1.24 0.852 0.123 16 0 0 0 0.047850002
1.239 0.852 0.125 17 0 0 0 0.04786
1.235 0.85100001 0.126 16 0 0 0 0.047869999
1.233 0.85000002 0.12800001 16 0 0 0 0.047880001
1.234 0.852 0.13 16 0 0 0 0.04789
1.232 0.85100001 0.132 16 0 0 0 0.047899999
1.229 0.85000002 0.133 15 0 0 0 0.047910001
1.229 0.85000002 0.13500001 15 0 0 0 0.04792
1.229 0.85000002 0.13699999 15 0 0 0 0.047929998
1.224 0.847 0.138 16 0 0 0 0.047940001
1.228 0.85100001 0.14 15 0 0 0 0.04795
1.232 0.85299999 0.14300001 16 0 0 0 0.047959998
1.226 0.85000002 0.14399999 16 0 0 0 0.047970001
1.227 0.85100001 0.146 16 0 0 0 0.047979999
1.225 0.85000002 0.147 16 0 0 0 0.047990002
1.228 0.852 0.15000001 17 0 0 0 0.048
1.227 0.85100001 0.15099999 16 0 0 0 0.048009999
1.226 0.85000002 0.153 16 0 0 0 0.048020002
1.226 0.85000002 0.155 16 0 0 0 0.04803
1.226 0.85000002 0.156 16 0 0 0 0.048039999
1.226 0.84899998 0.15800001 16 0 0 0 0.048050001
1.226 0.84899998 0.16 16 0 0 0 0.04806
