# .PCD v0.7 - Point Cloud Data file format
VERSION 0.7
FIELDS x y z intensity normal_x normal_y normal_z curvature
SIZE 4 4 4 4 4 4 4 4
TYPE F F F F F F F F
COUNT 1 1 1 1 1 1 1 1
WIDTH 1019
HEIGHT 1
VIEWPOINT 0 0 0 1 0 0 0
POINTS 1019
DATA ascii
1.23 0.063000001 -0.081 50 0 0 0 0.03799
1.23 0.066 -0.083999999 60 0 0 0 0.037999999
1.23 0.068000004 -0.086999997 58 0 0 0 0.038010001
1.229 0.071000002 -0.090000004 51 0 0 0 0.03802
1.23 0.072999999 -0.093000002 59 0 0 0 0.038029999
1.227 0.075999998 -0.096000001 73 0 0 0 0.038040001
1.228 0.078000002 -0.098999999 81 0 0 0 0.03805
1.228 0.081 -0.102 80 0 0 0 0.038059998
1.227 0.082999997 -0.105 1 0 0 0 0.038070001
1.226 0.086000003 -0.108 70 0 0 0 0.038079999
1.222 0.088 -0.111 89 0 0 0 0.038090002
1.223 0.090999998 -0.114 82 0 0 0 0.0381
1.221 0.093000002 -0.117 81 0 0 0 0.038109999
1.22 0.096000001 -0.12 95 0 0 0 0.038120002
1.221 0.098999999 -0.123 95 0 0 0 0.03813
1.221 0.101 -0.126 101 0 0 0 0.038139999
1.222 0.104 -0.12899999 109 0 0 0 0.038150001
1.22 0.106 -0.132 90 0 0 0 0.03816
1.222 0.109 -0.13500001 86 0 0 0 0.038169999
1.221 0.112 -0.138 97 0 0 0 0.038180001
1.2180001 0.114 -0.141 93 0 0 0 0.03819
1.219 0.117 -0.14399999 115 0 0 0 0.038199998
1.219 0.12 -0.147 120 0 0 0 0.038210001
1.22 0.122 -0.15000001 99 0 0 0 0.03822
1.221 0.125 -0.153 97 0 0 0 0.038229998
1.217 0.127 -0.155 111 0 0 0 0.038240001
1.216 0.13 -0.15800001 120 0 0 0 0.038249999
1.216 0.133 -0.161 102 0 0 0 0.038260002
1.216 0.13500001 -0.164 117 0 0 0 0.03827
1.214 0.138 -0.167 104 0 0 0 0.038279999
1.2130001 0.14 -0.17 103 0 0 0 0.038290001
1.214 0.14300001 -0.17299999 113 0 0 0 0.0383
1.2130001 0.146 -0.176 122 0 0 0 0.038309999
1.2130001 0.149 -0.17900001 112 0 0 0 0.038320001
1.2130001 0.15099999 -0.18099999 103 0 0 0 0.03833
1.215 0.154 -0.185 93 0 0 0 0.038339999
1.2130001 0.15700001 -0.18700001 96 0 0 0 0.038350001
1.212 0.15899999 -0.19 99 0 0 0 0.03836
1.211 0.162 -0.193 109 0 0 0 0.038369998
1.211 0.16500001 -0.19599999 96 0 0 0 0.038380001
1.21 0.168 -0.198 102 0 0 0 0.038389999
1.1210001 0.66500002 -0.42300001 150 0 0 0 0.040320002
1.1210001 0.66600001 -0.421 150 0 0 0 0.04033
1.1210001 0.66600001 -0.41999999 150 0 0 0 0.040339999
1.122 0.667 -0.41800001 150 0 0 0 0.040350001
1.122 0.667 -0.41600001 150 0 0 0 0.04036
1.122 0.667 -0.41499999 150 0 0 0 0.040369999
1.12 0.66600001 -0.412 150 0 0 0 0.040380001
1.122 0.66799998 -0.41100001 150 0 0 0 0.04039
1.12 0.667 -0.40900001 150 0 0 0 0.040399998
1.118 0.66500002 -0.40599999 8 0 0 0 0.040410001
1.124 0.66799998 -0.40599999 150 0 0 0 0.04042
1.123 0.66799998 -0.40400001 150 0 0 0 0.040429998
1.123 0.66799998 -0.40200001 150 0 0 0 0.040440001
1.124 0.66799998 -0.40000001 150 0 0 0 0.040449999
1.1210001 0.66600001 -0.398 150 0 0 0 0.040460002
1.1160001 0.66299999 -0.39399999 150 0 0 0 0.04047
1.1210001 0.66600001 -0.39399999 150 0 0 0 0.040479999
1.123 0.66600001 -0.39199999 150 0 0 0 0.040490001
1.127 0.66799998 -0.391 150 0 0 0 0.0405
1.123 0.66500002 -0.38800001 150 0 0 0 0.040509999
1.124 0.66500002 -0.38600001 150 0 0 0 0.040520001
1.124 0.66500002 -0.384 150 0 0 0 0.04053
1.127 0.66600001 -0.38299999 150 0 0 0 0.040539999
1.126 0.66399997 -0.38 150 0 0 0 0.040550001
1.12 0.66000003 -0.37599999 150 0 0 0 0.04056
1.1210001 0.65899998 -0.37400001 150 0 0 0 0.040569998
1.122 0.66000003 -0.373 150 0 0 0 0.040580001
1.122 0.65899998 -0.37099999 150 0 0 0 0.040589999
1.123 0.65799999 -0.36899999 150 0 0 0 0.040600002
1.124 0.65799999 -0.36700001 150 0 0 0 0.04061
1.125 0.65700001 -0.36500001 150 0 0 0 0.040619999
1.125 0.65600002 -0.36300001 150 0 0 0 0.040630002
1.123 0.65399998 -0.359 150 0 0 0 0.04064
1.124 0.653 -0.35800001 150 0 0 0 0.040649999
1.125 0.65200001 -0.35600001 150 0 0 0 0.040660001
1.126 0.65200001 -0.354 150 0 0 0 0.04067
1.127 0.65100002 -0.352 150 0 0 0 0.040679999
1.128 0.64999998 -0.34999999 150 0 0 0 0.040690001
1.1289999 0.64899999 -0.34799999 150 0 0 0 0.0407
1.128 0.64700001 -0.345 150 0 0 0 0.040709998
1.127 0.64399999 -0.34200001 150 0 0 0 0.040720001
1.127 0.64300001 -0.34 150 0 0 0 0.04073
1.1289999 0.64300001 -0.338 150 0 0 0 0.040739998
1.128 0.63999999 -0.33500001 150 0 0 0 0.040750001
1.13 0.63999999 -0.333 150 0 0 0 0.040759999
1.13 0.63800001 -0.331 150 0 0 0 0.040770002
1.13 0.63599998 -0.32800001 150 0 0 0 0.04078
1.132 0.63499999 -0.32699999 150 0 0 0 0.040789999
1.131 0.63300002 -0.324 150 0 0 0 0.040800001
1.132 0.63099998 -0.322 150 0 0 0 0.04081
1.133 0.63 -0.31999999 150 0 0 0 0.040819999
1.136 0.63 -0.31799999 150 0 0 0 0.040830001
1.135 0.62699997 -0.315 150 0 0 0 0.04084
1.137 0.62599999 -0.31299999 150 0 0 0 0.040849999
1.131 0.62099999 -0.30899999 150 0 0 0 0.040860001
1.133 0.62 -0.30700001 150 0 0 0 0.04087
1.14 0.62199998 -0.30700001 150 0 0 0 0.040879998
1.135 0.616 -0.303 150 0 0 0 0.040890001
1.135 0.61400002 -0.301 150 0 0 0 0.040899999
1.137 0.61299998 -0.29899999 150 0 0 0 0.040910002
1.1390001 0.61199999 -0.29699999 150 0 0 0 0.040920001
1.135 0.60699999 -0.29300001 150 0 0 0 0.040929999
1.14 0.60799998 -0.292 150 0 0 0 0.040940002
1.138 0.60399997 -0.289 150 0 0 0 0.04095
1.137 0.602 -0.287 150 0 0 0 0.040959999
1.141 0.60100001 -0.285 150 0 0 0 0.040970001
1.135 0.59500003 -0.28099999 150 0 0 0 0.04098
1.143 0.597 -0.28099999 150 0 0 0 0.040989999
1.143 0.59500003 -0.278 150 0 0 0 0.041000001
1.1390001 0.58999997 -0.27500001 150 0 0 0 0.04101
1.138 0.58700001 -0.27200001 150 0 0 0 0.041019998
1.147 0.588 -0.27200001 150 0 0 0 0.041030001
1.141 0.583 -0.26800001 150 0 0 0 0.04104
1.143 0.58099997 -0.266 150 0 0 0 0.041049998
1.143 0.579 -0.264 150 0 0 0 0.041060001
1.146 0.57700002 -0.26199999 143 0 0 0 0.041069999
1.146 0.57499999 -0.25999999 150 0 0 0 0.041080002
1.149 0.57300001 -0.25799999 150 0 0 0 0.04109
1.147 0.56999999 -0.255 150 0 0 0 0.041099999
1.145 0.565 -0.252 141 0 0 0 0.041110002
1.15 0.565 -0.25099999 150 0 0 0 0.04112
1.146 0.56 -0.248 150 0 0 0 0.041129999
1.147 0.55800003 -0.24600001 150 0 0 0 0.041140001
1.149 0.55599999 -0.244 150 0 0 0 0.04115
1.149 0.55299997 -0.242 139 0 0 0 0.041159999
1.151 0.551 -0.23899999 150 0 0 0 0.041170001
1.152 0.54799998 -0.237 150 0 0 0 0.04118
1.151 0.54500002 -0.235 150 0 0 0 0.041189998
1.15 0.54100001 -0.23199999 150 0 0 0 0.041200001
1.154 0.54000002 -0.23100001 150 0 0 0 0.041209999
1.154 0.537 -0.229 150 0 0 0 0.041219998
1.152 0.53299999 -0.226 141 0 0 0 0.041230001
1.156 0.53200001 -0.22400001 150 0 0 0 0.041239999
1.159 0.52999997 -0.223 143 0 0 0 0.041250002
1.158 0.52700001 -0.22 150 0 0 0 0.04126
1.16 0.52399999 -0.21799999 150 0 0 0 0.041269999
1.158 0.51999998 -0.21600001 150 0 0 0 0.041280001
1.158 0.51700002 -0.214 150 0 0 0 0.04129
1.158 0.514 -0.211 150 0 0 0 0.041299999
1.159 0.51099998 -0.20999999 148 0 0 0 0.041310001
1.151 0.50400001 -0.206 147 0 0 0 0.04132
1.1619999 0.50599998 -0.206 150 0 0 0 0.041329999
1.16 0.50199997 -0.20299999 148 0 0 0 0.041340001
1.1619999 0.49900001 -0.20100001 150 0 0 0 0.04135
1.163 0.49599999 -0.199 150 0 0 0 0.041359998
1.158 0.491 -0.19599999 150 0 0 0 0.041370001
1.159 0.48800001 -0.19400001 150 0 0 0 0.041379999
1.159 0.48500001 -0.192 150 0 0 0 0.041390002
1.163 0.48300001 -0.191 150 0 0 0 0.0414
1.163 0.47999999 -0.189 101 0 0 0 0.041409999
1.168 0.47799999 -0.18700001 80 0 0 0 0.041420002
1.166 0.47400001 -0.185 100 0 0 0 0.04143
1.165 0.47 -0.183 86 0 0 0 0.041439999
1.168 0.46799999 -0.18099999 86 0 0 0 0.041450001
1.168 0.46399999 -0.17900001 68 0 0 0 0.04146
1.169 0.46200001 -0.177 81 0 0 0 0.041469999
1.17 0.45899999 -0.175 86 0 0 0 0.041480001
1.171 0.45500001 -0.17299999 79 0 0 0 0.04149
1.1670001 0.44999999 -0.171 107 0 0 0 0.041499998
1.174 0.44999999 -0.17 76 0 0 0 0.041510001
1.174 0.44600001 -0.168 76 0 0 0 0.04152
1.176 0.44299999 -0.16599999 108 0 0 0 0.041529998
1.173 0.43900001 -0.164 95 0 0 0 0.041540001
1.171 0.435 -0.162 86 0 0 0 0.041549999
1.1720001 0.43200001 -0.16 89 0 0 0 0.041560002
1.174 0.428 -0.15800001 88 0 0 0 0.04157
1.174 0.42500001 -0.156 72 0 0 0 0.041579999
1.176 0.42199999 -0.155 98 0 0 0 0.041590001
1.178 0.419 -0.153 73 0 0 0 0.0416
1.179 0.41600001 -0.15099999 79 0 0 0 0.041609999
1.179 0.41299999 -0.149 92 0 0 0 0.041620001
1.181 0.41 -0.148 78 0 0 0 0.04163
1.173 0.40400001 -0.145 85 0 0 0 0.041639999
1.177 0.40200001 -0.14399999 77 0 0 0 0.041650001
1.1849999 0.40099999 -0.14300001 73 0 0 0 0.04166
1.177 0.39399999 -0.14 96 0 0 0 0.041669998
1.1849999 0.39300001 -0.139 98 0 0 0 0.041680001
1.184 0.38999999 -0.13699999 62 0 0 0 0.041689999
1.181 0.38499999 -0.13500001 88 0 0 0 0.041700002
1.186 0.38299999 -0.134 73 0 0 0 0.04171
1.186 0.37900001 -0.132 79 0 0 0 0.041719999
1.184 0.375 -0.13 69 0 0 0 0.041730002
1.183 0.37099999 -0.12800001 61 0 0 0 0.04174
1.184 0.368 -0.127 63 0 0 0 0.041749999
1.187 0.36500001 -0.125 56 0 0 0 0.041760001
1.1849999 0.361 -0.123 71 0 0 0 0.04177
1.188 0.35800001 -0.122 68 0 0 0 0.041779999
1.186 0.354 -0.12 76 0 0 0 0.041790001
1.1900001 0.35100001 -0.119 71 0 0 0 0.0418
1.188 0.347 -0.117 62 0 0 0 0.041809998
1.188 0.34299999 -0.115 86 0 0 0 0.041820001
1.189 0.34 -0.114 71 0 0 0 0.04183
1.193 0.338 -0.112 71 0 0 0 0.041839998
1.192 0.333 -0.11 75 0 0 0 0.041850001
1.193 0.33000001 -0.109 85 0 0 0 0.041859999
1.188 0.32499999 -0.107 118 0 0 0 0.041870002
1.189 0.322 -0.105 130 0 0 0 0.04188
1.188 0.31799999 -0.104 104 0 0 0 0.041889999
1.191 0.315 -0.102 103 0 0 0 0.041900001
1.188 0.31 -0.101 98 0 0 0 0.04191
1.194 0.308 -0.098999999 129 0 0 0 0.041919999
1.191 0.30399999 -0.097999997 120 0 0 0 0.041930001
1.189 0.30000001 -0.096000001 122 0 0 0 0.04194
1.191 0.296 -0.094999999 134 0 0 0 0.041949999
1.192 0.29300001 -0.093000002 147 0 0 0 0.041960001
1.1950001 0.28999999 -0.092 150 0 0 0 0.04197
1.191 0.285 -0.090000004 150 0 0 0 0.041979998
1.192 0.28200001 -0.089000002 150 0 0 0 0.041990001
1.187 0.27700001 -0.086999997 150 0 0 0 0.041999999
1.191 0.27399999 -0.086000003 150 0 0 0 0.042010002
1.196 0.27200001 -0.083999999 150 0 0 0 0.042020001
1.1900001 0.26699999 -0.082999997 150 0 0 0 0.042029999
1.1900001 0.26300001 -0.081 150 0 0 0 0.042040002
1.192 0.25999999 -0.079999998 150 0 0 0 0.04205
1.196 0.257 -0.079000004 150 0 0 0 0.042059999
1.196 0.25299999 -0.077 150 0 0 0 0.042070001
1.194 0.249 -0.075999998 150 0 0 0 0.04208
1.194 0.245 -0.074000001 150 0 0 0 0.042089999
1.197 0.242 -0.072999999 150 0 0 0 0.042100001
1.198 0.23800001 -0.071999997 150 0 0 0 0.04211
1.192 0.234 -0.07 150 0 0 0 0.042119998
1.199 0.23100001 -0.068999998 150 0 0 0 0.042130001
1.193 0.226 -0.067000002 150 0 0 0 0.04214
1.197 0.223 -0.066 150 0 0 0 0.042149998
1.198 0.22 -0.064999998 150 0 0 0 0.042160001
1.193 0.215 -0.063000001 150 0 0 0 0.042169999
1.196 0.212 -0.061999999 150 0 0 0 0.042180002
1.2 0.20900001 -0.061000001 150 0 0 0 0.04219
1.2 0.205 -0.059999999 150 0 0 0 0.042199999
1.196 0.20100001 -0.057999998 150 0 0 0 0.042210001
1.204 0.198 -0.057 150 0 0 0 0.04222
1.206 0.19499999 -0.056000002 150 0 0 0 0.042229999
1.201 0.191 -0.055 150 0 0 0 0.042240001
1.2 0.18700001 -0.052999999 150 0 0 0 0.04225
1.204 0.184 -0.052000001 150 0 0 0 0.042259999
1.2 0.17900001 -0.050999999 150 0 0 0 0.042270001
1.202 0.176 -0.050000001 150 0 0 0 0.04228
1.201 0.17200001 -0.048 150 0 0 0 0.042289998
1.202 0.168 -0.046999998 150 0 0 0 0.042300001
1.2029999 0.16500001 -0.046 150 0 0 0 0.042309999
1.199 0.16 -0.045000002 150 0 0 0 0.042319998
1.205 0.15700001 -0.044 150 0 0 0 0.042330001
1.202 0.153 -0.041999999 150 0 0 0 0.042339999
1.204 0.15000001 -0.041000001 150 0 0 0 0.042350002
1.2 0.145 -0.039999999 150 0 0 0 0.04236
1.201 0.142 -0.039000001 150 0 0 0 0.042369999
1.21 0.139 -0.037999999 150 0 0 0 0.042380001
1.2079999 0.13500001 -0.037 150 0 0 0 0.04239
1.2130001 0.132 -0.035999998 150 0 0 0 0.042399999
1.216 0.12800001 -0.035 150 0 0 0 0.042410001
1.216 0.125 -0.033 150 0 0 0 0.04242
1.216 0.121 -0.032000002 150 0 0 0 0.042429999
1.2130001 0.117 -0.030999999 150 0 0 0 0.042440001
1.216 0.113 -0.029999999 150 0 0 0 0.04245
1.217 0.11 -0.028999999 150 0 0 0 0.042459998
1.219 0.106 -0.028000001 150 0 0 0 0.042470001
1.222 0.102 -0.027000001 150 0 0 0 0.042479999
1.219 0.097999997 -0.026000001 150 0 0 0 0.042490002
1.223 0.094999999 -0.024 150 0 0 0 0.0425
1.223 0.090999998 -0.023 150 0 0 0 0.042509999
1.222 0.086999997 -0.022 150 0 0 0 0.042520002
1.223 0.082999997 -0.021 150 0 0 0 0.04253
1.229 0.079999998 -0.02 150 0 0 0 0.042539999
1.224 0.075999998 -0.018999999 148 0 0 0 0.042550001
1.226 0.071999997 -0.017999999 150 0 0 0 0.04256
1.226 0.068000004 -0.017000001 149 0 0 0 0.042569999
1.232 0.064999998 -0.016000001 150 0 0 0 0.042580001
1.23 0.061000001 -0.015 140 0 0 0 0.04259
1.23 0.057 -0.014 121 0 0 0 0.042599998
1.232 0.052999999 -0.013 118 0 0 0 0.042610001
1.232 0.048999999 -0.012 133 0 0 0 0.042619999
1.233 0.045000002 -0.011 137 0 0 0 0.042629998
1.232 0.041999999 -0.0099999998 119 0 0 0 0.042640001
1.234 0.037999999 -0.0089999996 110 0 0 0 0.042649999
1.234 0.034000002 -0.0080000004 121 0 0 0 0.042660002
1.233 0.029999999 -0.0070000002 95 0 0 0 0.04267
1.234 0.026000001 -0.0060000001 119 0 0 0 0.042679999
1.2359999 0.022 -0.0049999999 104 0 0 0 0.042690001
1.234 0.017999999 -0.0040000002 129 0 0 0 0.0427
1.237 0.014 -0.003 135 0 0 0 0.042709999
1.2359999 0.011 -0.0020000001 115 0 0 0 0.042720001
1.237 0.0070000002 -0.001 109 0 0 0 0.04273
1.24 0.003 0 108 0 0 0 0.042739999
1.237 0 0 85 0 0 0 0.042750001
1.2359999 -0.0040000002 0.001 76 0 0 0 0.04276
1.24 -0.0080000004 0.0020000001 99 0 0 0 0.042769998
1.244 -0.012 0.003 85 0 0 0 0.042780001
1.244 -0.016000001 0.0040000002 78 0 0 0 0.042789999
1.248 -0.02 0.0040000002 75 0 0 0 0.042800002
1.244 -0.024 0.0049999999 76 0 0 0 0.04281
1.248 -0.028000001 0.0060000001 87 0 0 0 0.042819999
1.2460001 -0.032000002 0.0070000002 73 0 0 0 0.042830002
1.2460001 -0.035 0.0080000004 80 0 0 0 0.04284
1.248 -0.039000001 0.0089999996 86 0 0 0 0.042849999
1.248 -0.043000001 0.0099999998 77 0 0 0 0.042860001
1.248 -0.046999998 0.011 76 0 0 0 0.04287
1.25 -0.050999999 0.012 85 0 0 0 0.042879999
1.252 -0.055 0.012 69 0 0 0 0.042890001
1.251 -0.059 0.013 84 0 0 0 0.0429
1.252 -0.063000001 0.014 79 0 0 0 0.042909998
1.2589999 -0.068000004 0.015 76 0 0 0 0.042920001
1.253 -0.071000002 0.016000001 79 0 0 0 0.04293
1.26 -0.075999998 0.017000001 83 0 0 0 0.042939998
1.253 -0.079000004 0.017999999 83 0 0 0 0.042950001
1.26 -0.083999999 0.017999999 85 0 0 0 0.042959999
1.262 -0.088 0.018999999 85 0 0 0 0.042970002
1.26 -0.092 0.02 110 0 0 0 0.04298
1.2589999 -0.096000001 0.021 88 0 0 0 0.042989999
1.261 -0.1 0.022 92 0 0 0 0.043000001
1.261 -0.104 0.022 79 0 0 0 0.04301
1.2589999 -0.108 0.023 88 0 0 0 0.043019999
1.261 -0.112 0.024 93 0 0 0 0.043030001
1.262 -0.116 0.025 98 0 0 0 0.04304
1.263 -0.12 0.026000001 83 0 0 0 0.043049999
1.2640001 -0.124 0.026000001 89 0 0 0 0.043060001
1.266 -0.12899999 0.027000001 100 0 0 0 0.04307
1.266 -0.133 0.028000001 47 0 0 0 0.043079998
1.263 -0.13699999 0.028999999 17 0 0 0 0.043090001
1.238 -0.138 0.028999999 6 0 0 0 0.043099999
1.165 -0.133 0.028000001 4 0 0 0 0.043110002
1.155 -0.13600001 0.028000001 5 0 0 0 0.043120001
1.147 -0.139 0.028000001 7 0 0 0 0.043129999
1.1440001 -0.142 0.028999999 9 0 0 0 0.043140002
1.137 -0.145 0.028999999 14 0 0 0 0.04315
1.131 -0.148 0.029999999 18 0 0 0 0.043159999
1.13 -0.15099999 0.029999999 21 0 0 0 0.043170001
1.127 -0.155 0.030999999 24 0 0 0 0.04318
1.1339999 -0.15899999 0.032000002 27 0 0 0 0.043189999
1.127 -0.162 0.032000002 25 0 0 0 0.043200001
1.127 -0.16500001 0.033 32 0 0 0 0.04321
1.126 -0.169 0.033 30 0 0 0 0.043219998
1.128 -0.17299999 0.034000002 26 0 0 0 0.043230001
1.128 -0.177 0.034000002 20 0 0 0 0.04324
1.128 -0.18000001 0.035 21 0 0 0 0.043249998
1.138 -0.186 0.035999998 13 0 0 0 0.043260001
1.1390001 -0.189 0.035999998 9 0 0 0 0.043269999
1.1390001 -0.193 0.037 6 0 0 0 0.043280002
1.147 -0.198 0.037999999 5 0 0 0 0.04329
1.1900001 -0.20999999 0.039999999 6 0 0 0 0.043299999
1.253 -0.22499999 0.041999999 9 0 0 0 0.043310001
1.28 -0.234 0.044 25 0 0 0 0.04332
1.2819999 -0.23800001 0.044 119 0 0 0 0.043329999
1.281 -0.242 0.045000002 128 0 0 0 0.043340001
1.28 -0.24600001 0.046 122 0 0 0 0.04335
1.284 -0.25099999 0.046 118 0 0 0 0.043359999
1.281 -0.255 0.046999998 146 0 0 0 0.043370001
1.284 -0.25999999 0.046999998 129 0 0 0 0.04338
1.284 -0.264 0.048 138 0 0 0 0.043389998
1.285 -0.26800001 0.048 126 0 0 0 0.043400001
1.284 -0.273 0.048999999 135 0 0 0 0.043409999
1.281 -0.27599999 0.048999999 119 0 0 0 0.043419998
1.285 -0.28099999 0.050000001 137 0 0 0 0.043430001
1.29 -0.287 0.050000001 131 0 0 0 0.043439999
1.291 -0.29100001 0.050999999 132 0 0 0 0.043450002
1.293 -0.296 0.050999999 144 0 0 0 0.04346
1.294 -0.30000001 0.052000001 141 0 0 0 0.043469999
1.294 -0.30500001 0.052000001 147 0 0 0 0.043480001
1.295 -0.30899999 0.052999999 129 0 0 0 0.04349
1.295 -0.31400001 0.052999999 141 0 0 0 0.043499999
1.294 -0.31799999 0.052999999 150 0 0 0 0.043510001
1.294 -0.322 0.054000001 150 0 0 0 0.04352
1.296 -0.32699999 0.054000001 150 0 0 0 0.043529999
1.2970001 -0.331 0.055 150 0 0 0 0.043540001
1.2970001 -0.336 0.055 150 0 0 0 0.04355
1.2970001 -0.34 0.055 150 0 0 0 0.043559998
1.2970001 -0.345 0.056000002 150 0 0 0 0.043570001
1.2970001 -0.34900001 0.056000002 150 0 0 0 0.043579999
1.296 -0.35299999 0.056000002 150 0 0 0 0.043590002
1.2970001 -0.35699999 0.057 150 0 0 0 0.0436
1.302 -0.36300001 0.057 150 0 0 0 0.043609999
1.296 -0.366 0.057 150 0 0 0 0.043620002
1.3 -0.37099999 0.057999998 150 0 0 0 0.04363
1.299 -0.37599999 0.057999998 150 0 0 0 0.043639999
1.304 -0.38100001 0.057999998 150 0 0 0 0.043650001
1.308 -0.38699999 0.059 150 0 0 0 0.04366
1.307 -0.391 0.059 150 0 0 0 0.043669999
1.308 -0.396 0.059 150 0 0 0 0.043680001
1.308 -0.40000001 0.059 150 0 0 0 0.04369
1.309 -0.405 0.059999999 150 0 0 0 0.043699998
1.3049999 -0.40799999 0.059999999 150 0 0 0 0.043710001
1.307 -0.41299999 0.059999999 150 0 0 0 0.043719999
1.308 -0.41800001 0.059999999 150 0 0 0 0.043729998
1.309 -0.42300001 0.059999999 150 0 0 0 0.043740001
1.309 -0.42699999 0.059999999 6 0 0 0 0.043749999
1.308 -0.43099999 0.061000001 150 0 0 0 0.043760002
1.308 -0.43599999 0.061000001 150 0 0 0 0.04377
1.311 -0.44100001 0.061000001 150 0 0 0 0.043779999
1.309 -0.44499999 0.061000001 150 0 0 0 0.043790001
1.308 -0.449 0.061000001 150 0 0 0 0.0438
1.313 -0.45500001 0.061000001 150 0 0 0 0.043809999
1.3150001 -0.46000001 0.061000001 150 0 0 0 0.043820001
1.312 -0.46399999 0.061000001 150 0 0 0 0.04383
1.312 -0.46799999 0.061000001 150 0 0 0 0.043839999
1.314 -0.47400001 0.061000001 150 0 0 0 0.043850001
1.318 -0.47999999 0.061000001 150 0 0 0 0.04386
1.317 -0.484 0.061000001 150 0 0 0 0.043869998
1.316 -0.48800001 0.061000001 150 0 0 0 0.043880001
1.318 -0.493 0.061000001 150 0 0 0 0.043889999
1.319 -0.498 0.061000001 150 0 0 0 0.043900002
1.321 -0.50300002 0.061000001 150 0 0 0 0.04391
1.323 -0.50800002 0.061000001 150 0 0 0 0.043919999
1.324 -0.51300001 0.061000001 150 0 0 0 0.043930002
1.327 -0.51899999 0.061000001 150 0 0 0 0.04394
1.324 -0.52200001 0.061000001 150 0 0 0 0.043949999
1.3150001 -0.523 0.059999999 29 0 0 0 0.043960001
1.289 -0.51700002 0.059 9 0 0 0 0.04397
1.275 -0.51599997 0.057999998 11 0 0 0 0.043979999
1.263 -0.51599997 0.057 13 0 0 0 0.043990001
1.258 -0.51800001 0.057 14 0 0 0 0.044
1.245 -0.51700002 0.056000002 15 0 0 0 0.044009998
1.238 -0.51800001 0.056000002 16 0 0 0 0.044020001
1.2359999 -0.52100003 0.055 16 0 0 0 0.04403
1.228 -0.52200001 0.055 16 0 0 0 0.044039998
1.216 -0.52100003 0.054000001 15 0 0 0 0.044050001
1.214 -0.52399999 0.052999999 16 0 0 0 0.044059999
1.207 -0.52499998 0.052999999 16 0 0 0 0.044070002
1.2029999 -0.528 0.052000001 15 0 0 0 0.04408
1.192 -0.52700001 0.052000001 16 0 0 0 0.044089999
1.1849999 -0.528 0.050999999 18 0 0 0 0.044100001
1.175 -0.528 0.050000001 20 0 0 0 0.04411
1.174 -0.53100002 0.050000001 24 0 0 0 0.044119999
1.1720001 -0.53399998 0.048999999 24 0 0 0 0.044130001
1.163 -0.53399998 0.048 33 0 0 0 0.04414
1.159 -0.53600001 0.048 37 0 0 0 0.044149999
1.156 -0.53899997 0.046999998 60 0 0 0 0.044160001
1.151 -0.54000002 0.046999998 103 0 0 0 0.04417
1.147 -0.542 0.046 79 0 0 0 0.044179998
1.149 -0.54699999 0.046 55 0 0 0 0.044190001
1.148 -0.55000001 0.045000002 55 0 0 0 0.044199999
1.147 -0.55400002 0.045000002 41 0 0 0 0.044210002
1.146 -0.55699998 0.044 36 0 0 0 0.044220001
1.147 -0.56099999 0.044 40 0 0 0 0.044229999
1.143 -0.56300002 0.043000001 36 0 0 0 0.044240002
1.146 -0.56800002 0.041999999 38 0 0 0 0.04425
1.148 -0.57300001 0.041999999 38 0 0 0 0.044259999
1.1440001 -0.57499999 0.041000001 34 0 0 0 0.044270001
1.143 -0.57800001 0.041000001 37 0 0 0 0.04428
1.143 -0.58200002 0.039999999 33 0 0 0 0.044289999
1.148 -0.588 0.039000001 33 0 0 0 0.044300001
1.151 -0.59299999 0.039000001 32 0 0 0 0.04431
1.15 -0.597 0.037999999 30 0 0 0 0.044319998
1.151 -0.60100001 0.037 36 0 0 0 0.044330001
1.152 -0.60500002 0.037 32 0 0 0 0.04434
1.151 -0.60799998 0.035999998 31 0 0 0 0.044349998
1.149 -0.611 0.035 34 0 0 0 0.044360001
1.152 -0.616 0.034000002 35 0 0 0 0.044369999
1.15 -0.61900002 0.034000002 34 0 0 0 0.044380002
1.153 -0.62400001 0.033 32 0 0 0 0.04439
1.152 -0.62699997 0.032000002 34 0 0 0 0.044399999
1.15 -0.63 0.030999999 34 0 0 0 0.044410001
1.153 -0.63499999 0.029999999 37 0 0 0 0.04442
1.151 -0.63700002 0.029999999 40 0 0 0 0.044429999
1.15 -0.63999999 0.028999999 40 0 0 0 0.044440001
1.155 -0.64700001 0.028000001 38 0 0 0 0.04445
1.155 -0.64999998 0.027000001 37 0 0 0 0.044459999
1.158 -0.65499997 0.026000001 36 0 0 0 0.044470001
1.156 -0.65799999 0.025 37 0 0 0 0.04448
1.158 -0.662 0.024 33 0 0 0 0.044489998
1.1569999 -0.66500002 0.023 36 0 0 0 0.044500001
1.155 -0.66799998 0.022 40 0 0 0 0.044509999
1.155 -0.671 0.021 34 0 0 0 0.044520002
1.154 -0.67400002 0.02 34 0 0 0 0.044530001
1.159 -0.68000001 0.018999999 42 0 0 0 0.044539999
1.158 -0.68300003 0.017999999 36 0 0 0 0.044550002
1.1569999 -0.685 0.017000001 39 0 0 0 0.04456
1.1569999 -0.68900001 0.016000001 37 0 0 0 0.044569999
1.155 -0.69099998 0.015 38 0 0 0 0.044580001
1.155 -0.69400001 0.013 39 0 0 0 0.04459
1.16 -0.69999999 0.012 36 0 0 0 0.044599999
1.159 -0.70300001 0.011 38 0 0 0 0.044610001
1.158 -0.70599997 0.0099999998 37 0 0 0 0.04462
1.156 -0.70700002 0.0089999996 34 0 0 0 0.044629999
1.145 -0.70300001 0.0070000002 42 0 0 0 0.044640001
1.101 -0.68000001 0.0060000001 49 0 0 0 0.04465
1.051 -0.65100002 0.0040000002 47 0 0 0 0.044659998
1.006 -0.62599999 0.003 32 0 0 0 0.044670001
0.98400003 -0.61500001 0.0020000001 26 0 0 0 0.044679999
0.98500001 -0.61799997 0.001 29 0 0 0 0.044690002
0.97799999 -0.616 0 49 0 0 0 0.0447
0.98100001 -0.62 0 60 0 0 0 0.044709999
0.98100001 -0.62199998 -0.0020000001 30 0 0 0 0.044720002
0.98400003 -0.62699997 -0.003 11 0 0 0 0.04473
0.98000002 -0.62699997 -0.0040000002 7 0 0 0 0.044739999
0.97799999 -0.62800002 -0.0049999999 6 0 0 0 0.044750001
0.96399999 -0.62099999 -0.0060000001 6 0 0 0 0.04476
0.96100003 -0.62099999 -0.0070000002 6 0 0 0 0.044769999
0.95599997 -0.62 -0.0080000004 6 0 0 0 0.044780001
0.95899999 -0.62400001 -0.0099999998 6 0 0 0 0.04479
0.94800001 -0.61900002 -0.011 6 0 0 0 0.044799998
0.94599998 -0.61900002 -0.012 6 0 0 0 0.044810001
0.94599998 -0.62199998 -0.013 7 0 0 0 0.044819999
0.94199997 -0.62099999 -0.014 7 0 0 0 0.044829998
0.94 -0.62099999 -0.016000001 7 0 0 0 0.044840001
0.93199998 -0.61799997 -0.017000001 7 0 0 0 0.044849999
0.93400002 -0.62099999 -0.017999999 8 0 0 0 0.044860002
0.935 -0.62300003 -0.018999999 8 0 0 0 0.04487
0.93300003 -0.62300003 -0.02 8 0 0 0 0.044879999
0.93099999 -0.62300003 -0.022 9 0 0 0 0.044890001
0.92400002 -0.62099999 -0.023 9 0 0 0 0.0449
0.926 -0.62300003 -0.024 9 0 0 0 0.044909999
0.92400002 -0.62400001 -0.025 9 0 0 0 0.044920001
0.92400002 -0.625 -0.027000001 9 0 0 0 0.04493
0.91900003 -0.62300003 -0.028000001 0 0 0 0 0.044939999
0.92000002 -0.62599999 -0.028999999 11 0 0 0 0.044950001
0.91600001 -0.62400001 -0.029999999 10 0 0 0 0.04496
0.921 -0.62800002 -0.032000002 11 0 0 0 0.044969998
0.91799998 -0.62800002 -0.033 11 0 0 0 0.044980001
0.91600001 -0.62800002 -0.034000002 12 0 0 0 0.044989999
0.91799998 -0.63 -0.035 14 0 0 0 0.045000002
0.91799998 -0.63200003 -0.037 14 0 0 0 0.04501
0.91299999 -0.62900001 -0.037999999 17 0 0 0 0.045019999
0.912 -0.62900001 -0.039000001 16 0 0 0 0.045030002
0.912 -0.63 -0.039999999 17 0 0 0 0.04504
0.91100001 -0.63 -0.041999999 17 0 0 0 0.045049999
0.91000003 -0.63099998 -0.043000001 19 0 0 0 0.045060001
0.90700001 -0.63 -0.044 18 0 0 0 0.04507
0.90700001 -0.63 -0.046 18 0 0 0 0.045079999
0.90700001 -0.63099998 -0.046999998 20 0 0 0 0.045090001
0.90700001 -0.63099998 -0.048 19 0 0 0 0.0451
0.90799999 -0.63300002 -0.050000001 16 0 0 0 0.045109998
0.90799999 -0.63300002 -0.050999999 17 0 0 0 0.045120001
0.91299999 -0.63700002 -0.052000001 15 0 0 0 0.04513
0.91299999 -0.63800001 -0.054000001 13 0 0 0 0.045139998
0.91299999 -0.63800001 -0.055 12 0 0 0 0.045150001
0.90799999 -0.63499999 -0.056000002 10 0 0 0 0.045159999
0.90799999 -0.63599998 -0.057 10 0 0 0 0.045170002
0.90799999 -0.63599998 -0.059 9 0 0 0 0.04518
0.91500002 -0.64099997 -0.061000001 11 0 0 0 0.045189999
0.912 -0.639 -0.061999999 13 0 0 0 0.045200001
0.917 -0.64200002 -0.063000001 15 0 0 0 0.04521
0.91799998 -0.64300001 -0.064999998 17 0 0 0 0.045219999
0.91900003 -0.64399999 -0.066 19 0 0 0 0.045230001
0.91500002 -0.64099997 -0.067000002 30 0 0 0 0.04524
0.91000003 -0.63800001 -0.068000004 32 0 0 0 0.045249999
0.91600001 -0.64200002 -0.07 35 0 0 0 0.045260001
0.91600001 -0.64099997 -0.071000002 40 0 0 0 0.04527
0.91299999 -0.639 -0.071999997 35 0 0 0 0.045279998
0.90899998 -0.63599998 -0.072999999 32 0 0 0 0.045290001
0.91000003 -0.63700002 -0.074000001 37 0 0 0 0.045299999
0.91000003 -0.63599998 -0.075999998 26 0 0 0 0.045310002
0.91500002 -0.639 -0.077 26 0 0 0 0.04532
0.91600001 -0.639 -0.079000004 26 0 0 0 0.045329999
0.91600001 -0.639 -0.079999998 25 0 0 0 0.045340002
0.91600001 -0.63800001 -0.081 21 0 0 0 0.04535
0.91600001 -0.63800001 -0.082000002 27 0 0 0 0.045359999
0.91600001 -0.63700002 -0.083999999 39 0 0 0 0.045370001
0.91600001 -0.63599998 -0.085000001 45 0 0 0 0.04538
0.91799998 -0.63700002 -0.086000003 40 0 0 0 0.045389999
0.921 -0.63800001 -0.088 35 0 0 0 0.045400001
0.91600001 -0.634 -0.088 36 0 0 0 0.04541
0.91900003 -0.63499999 -0.090000004 38 0 0 0 0.045419998
0.91299999 -0.63 -0.090000004 32 0 0 0 0.045430001
0.91900003 -0.63300002 -0.092 25 0 0 0 0.04544
0.91900003 -0.63200003 -0.093000002 18 0 0 0 0.045449998
0.92400002 -0.634 -0.094999999 10 0 0 0 0.045460001
0.92000002 -0.63 -0.096000001 7 0 0 0 0.045469999
0.92500001 -0.63300002 -0.097000003 6 0 0 0 0.045480002
0.92199999 -0.62900001 -0.097999997 5 0 0 0 0.04549
0.91299999 -0.62199998 -0.097999997 5 0 0 0 0.045499999
0.90200001 -0.61299998 -0.097999997 4 0 0 0 0.045510001
0.89499998 -0.60600001 -0.097999997 4 0 0 0 0.04552
0.89600003 -0.60600001 -0.098999999 4 0 0 0 0.045529999
0.89099997 -0.60100001 -0.1 4 0 0 0 0.045540001
0.88599998 -0.59600002 -0.1 4 0 0 0 0.04555
0.88200003 -0.59200001 -0.101 4 0 0 0 0.045559999
0.87199998 -0.58399999 -0.1 1 0 0 0 0.045570001
0.86199999 -0.57599998 -0.1 1 0 0 0 0.04558
0.852 -0.56699997 -0.1 0 0 0 0 0.045589998
0.83999997 -0.55800003 -0.098999999 0 0 0 0 0.045600001
0.83700001 -0.55400002 -0.1 0 0 0 0 0.045609999
0.833 -0.55000001 -0.1 0 0 0 0 0.045620002
0.82599998 -0.54400003 -0.1 0 0 0 0 0.045630001
0.815 -0.53500003 -0.098999999 0 0 0 0 0.045639999
0.81900001 -0.53500003 -0.101 0 0 0 0 0.045650002
0.81599998 -0.53200001 -0.101 0 0 0 0 0.04566
0.81099999 -0.52700001 -0.101 0 0 0 0 0.045669999
0.81400001 -0.52700001 -0.102 0 0 0 0 0.045680001
0.80900002 -0.52200001 -0.102 0 0 0 0 0.04569
0.80599999 -0.51800001 -0.102 0 0 0 0 0.045699999
0.80199999 -0.514 -0.103 0 0 0 0 0.045710001
0.801 -0.51200002 -0.103 0 0 0 0 0.04572
0.796 -0.50599998 -0.103 0 0 0 0 0.045729998
0.79699999 -0.505 -0.104 0 0 0 0 0.045740001
0.79799998 -0.50400001 -0.105 0 0 0 0 0.04575
0.79400003 -0.5 -0.105 0 0 0 0 0.045759998
0.79400003 -0.49700001 -0.105 0 0 0 0 0.045770001
0.79299998 -0.49399999 -0.105 0 0 0 0 0.045779999
0.792 -0.49200001 -0.106 0 0 0 0 0.045790002
0.792 -0.49000001 -0.106 0 0 0 0 0.0458
0.79000002 -0.48699999 -0.107 0 0 0 0 0.045809999
0.78899997 -0.484 -0.107 0 0 0 0 0.045820002
0.787 -0.47999999 -0.107 0 0 0 0 0.04583
0.78299999 -0.47600001 -0.107 0 0 0 0 0.045839999
0.78500003 -0.47499999 -0.108 0 0 0 0 0.045850001
0.77600002 -0.46700001 -0.107 0 0 0 0 0.04586
0.77700001 -0.46599999 -0.107 1 0 0 0 0.045869999
0.778 -0.46399999 -0.108 1 0 0 0 0.045880001
0.76899999 -0.45699999 -0.107 1 0 0 0 0.04589
0.76899999 -0.454 -0.107 2 0 0 0 0.045899998
0.76899999 -0.45199999 -0.108 2 0 0 0 0.045910001
0.76999998 -0.44999999 -0.108 2 0 0 0 0.045919999
0.77899998 -0.454 -0.11 2 0 0 0 0.045929998
0.778 -0.44999999 -0.11 2 0 0 0 0.045940001
0.78399998 -0.45199999 -0.111 3 0 0 0 0.045949999
0.78500003 -0.44999999 -0.111 3 0 0 0 0.045960002
0.79299998 -0.45300001 -0.113 3 0 0 0 0.04597
0.79699999 -0.45199999 -0.113 3 0 0 0 0.045979999
0.80199999 -0.45300001 -0.114 3 0 0 0 0.045990001
0.80900002 -0.454 -0.116 3 0 0 0 0.046
0.81400001 -0.454 -0.116 3 0 0 0 0.046009999
0.81599998 -0.45300001 -0.117 4 0 0 0 0.046020001
0.81800002 -0.45199999 -0.117 4 0 0 0 0.04603
0.81999999 -0.44999999 -0.118 4 0 0 0 0.046039999
0.82099998 -0.44800001 -0.118 4 0 0 0 0.046050001
0.82599998 -0.44800001 -0.119 4 0 0 0 0.04606
0.82700002 -0.44600001 -0.119 4 0 0 0 0.046069998
0.833 -0.447 -0.12 4 0 0 0 0.046080001
0.83399999 -0.44499999 -0.12 4 0 0 0 0.046089999
0.83600003 -0.44299999 -0.121 0 0 0 0 0.046100002
0.84100002 -0.44299999 -0.121 4 0 0 0 0.04611
0.84600002 -0.44299999 -0.122 4 0 0 0 0.046119999
0.84899998 -0.442 -0.123 4 0 0 0 0.046130002
0.85299999 -0.44100001 -0.123 4 0 0 0 0.04614
0.85699999 -0.44 -0.124 4 0 0 0 0.046149999
0.85699999 -0.43799999 -0.124 4 0 0 0 0.046160001
0.86400002 -0.43799999 -0.125 4 0 0 0 0.04617
0.86500001 -0.43599999 -0.125 4 0 0 0 0.046179999
0.87099999 -0.43599999 -0.125 4 0 0 0 0.046190001
0.87199998 -0.43399999 -0.126 4 0 0 0 0.0462
0.88700002 -0.43799999 -0.12800001 5 0 0 0 0.046209998
0.89300001 -0.43799999 -0.12800001 5 0 0 0 0.046220001
0.89300001 -0.435 -0.12800001 5 0 0 0 0.04623
0.898 -0.435 -0.12899999 5 0 0 0 0.046239998
0.90799999 -0.43599999 -0.13 5 0 0 0 0.046250001
0.91000003 -0.43399999 -0.13 5 0 0 0 0.046259999
0.91299999 -0.433 -0.13 5 0 0 0 0.046270002
0.91600001 -0.43099999 -0.13 5 0 0 0 0.04628
0.91900003 -0.42899999 -0.131 5 0 0 0 0.046289999
0.92400002 -0.42899999 -0.131 5 0 0 0 0.046300001
0.93199998 -0.42899999 -0.132 5 0 0 0 0.04631
0.94099998 -0.43000001 -0.133 5 0 0 0 0.046319999
0.94499999 -0.42899999 -0.133 5 0 0 0 0.046330001
0.94599998 -0.426 -0.133 5 0 0 0 0.04634
0.94700003 -0.42399999 -0.133 5 0 0 0 0.046349999
0.954 -0.42399999 -0.134 5 0 0 0 0.046360001
0.96600002 -0.426 -0.13500001 6 0 0 0 0.04637
0.97000003 -0.42399999 -0.13500001 6 0 0 0 0.046379998
0.972 -0.42199999 -0.13500001 6 0 0 0 0.046390001
0.97899997 -0.421 -0.13600001 5 0 0 0 0.046399999
0.98400003 -0.41999999 -0.13600001 6 0 0 0 0.046410002
0.98699999 -0.41800001 -0.13600001 6 0 0 0 0.04642
0.99299997 -0.41800001 -0.13600001 6 0 0 0 0.046429999
1 -0.417 -0.13699999 6 0 0 0 0.046440002
1.002 -0.41499999 -0.13699999 6 0 0 0 0.04645
1.007 -0.41299999 -0.13699999 6 0 0 0 0.046459999
1.016 -0.41299999 -0.13699999 7 0 0 0 0.046470001
1.02 -0.412 -0.13699999 7 0 0 0 0.04648
1.027 -0.41100001 -0.138 6 0 0 0 0.046489999
1.031 -0.40900001 -0.138 7 0 0 0 0.046500001
1.038 -0.40799999 -0.138 7 0 0 0 0.04651
1.048 -0.40900001 -0.139 7 0 0 0 0.046519998
1.052 -0.40700001 -0.139 7 0 0 0 0.046530001
1.056 -0.405 -0.139 7 0 0 0 0.04654
1.057 -0.40200001 -0.138 7 0 0 0 0.046549998
1.072 -0.40400001 -0.14 7 0 0 0 0.046560001
1.077 -0.40200001 -0.14 7 0 0 0 0.046569999
1.086 -0.40200001 -0.14 7 0 0 0 0.046580002
1.0930001 -0.40000001 -0.14 7 0 0 0 0.04659
1.096 -0.398 -0.14 6 0 0 0 0.046599999
1.0880001 -0.391 -0.138 5 0 0 0 0.046610001
1.057 -0.377 -0.133 4 0 0 0 0.04662
1.001 -0.354 -0.126 2 0 0 0 0.046629999
0.98400003 -0.34400001 -0.123 3 0 0 0 0.046640001
0.97799999 -0.33899999 -0.121 3 0 0 0 0.04665
0.99199998 -0.34 -0.122 3 0 0 0 0.046659999
0.98900002 -0.336 -0.121 3 0 0 0 0.046670001
0.99199998 -0.33399999 -0.121 3 0 0 0 0.04668
0.99000001 -0.33000001 -0.12 3 0 0 0 0.046689998
0.98900002 -0.32600001 -0.119 4 0 0 0 0.046700001
0.98900002 -0.32300001 -0.118 4 0 0 0 0.046709999
0.98799998 -0.31900001 -0.117 3 0 0 0 0.046720002
0.99699998 -0.31900001 -0.118 3 0 0 0 0.046730001
1.0089999 -0.31900001 -0.118 3 0 0 0 0.046739999
1.045 -0.32699999 -0.122 3 0 0 0 0.046750002
1.072 -0.33199999 -0.124 3 0 0 0 0.04676
1.077 -0.33000001 -0.124 3 0 0 0 0.046769999
1.091 -0.331 -0.124 4 0 0 0 0.046780001
1.137 -0.34099999 -0.12899999 4 0 0 0 0.04679
1.177 -0.34900001 -0.132 5 0 0 0 0.046799999
1.196 -0.35100001 -0.133 8 0 0 0 0.046810001
1.22 -0.354 -0.13500001 24 0 0 0 0.04682
1.233 -0.354 -0.13500001 36 0 0 0 0.046829998
1.284 -0.36399999 -0.14 43 0 0 0 0.046840001
1.303 -0.36500001 -0.141 102 0 0 0 0.04685
1.2970001 -0.36000001 -0.139 150 0 0 0 0.046859998
1.298 -0.35499999 -0.138 150 0 0 0 0.046870001
1.3 -0.352 -0.13699999 150 0 0 0 0.046879999
1.3 -0.34799999 -0.13600001 150 0 0 0 0.046890002
1.2970001 -0.34299999 -0.134 149 0 0 0 0.0469
1.298 -0.33899999 -0.133 150 0 0 0 0.046909999
1.296 -0.33399999 -0.131 146 0 0 0 0.046920002
1.299 -0.33000001 -0.131 150 0 0 0 0.04693
1.293 -0.32499999 -0.12899999 145 0 0 0 0.046939999
1.294 -0.32100001 -0.12800001 150 0 0 0 0.046950001
1.295 -0.317 -0.126 150 0 0 0 0.04696
1.296 -0.31299999 -0.125 150 0 0 0 0.046969999
1.2920001 -0.308 -0.124 150 0 0 0 0.046980001
1.291 -0.30399999 -0.122 150 0 0 0 0.04699
1.295 -0.301 -0.121 150 0 0 0 0.046999998
1.296 -0.29699999 -0.12 146 0 0 0 0.047010001
1.295 -0.292 -0.119 149 0 0 0 0.047019999
1.293 -0.28799999 -0.117 147 0 0 0 0.047029998
1.2920001 -0.28299999 -0.116 134 0 0 0 0.047040001
1.29 -0.27900001 -0.114 150 0 0 0 0.047049999
1.291 -0.27500001 -0.113 132 0 0 0 0.047060002
1.29 -0.271 -0.111 143 0 0 0 0.04707
1.285 -0.266 -0.11 130 0 0 0 0.047079999
1.29 -0.26300001 -0.109 104 0 0 0 0.047090001
1.2869999 -0.25799999 -0.107 0 0 0 0 0.0471
1.26 -0.248 -0.103 7 0 0 0 0.047109999
1.193 -0.23199999 -0.097000003 5 0 0 0 0.047120001
1.147 -0.219 -0.092 4 0 0 0 0.04713
1.14 -0.214 -0.090000004 5 0 0 0 0.047139999
1.138 -0.20999999 -0.088 7 0 0 0 0.047150001
1.131 -0.205 -0.086999997 6 0 0 0 0.04716
1.1339999 -0.20200001 -0.086000003 7 0 0 0 0.047169998
1.1339999 -0.199 -0.083999999 6 0 0 0 0.047180001
1.128 -0.19400001 -0.082999997 6 0 0 0 0.047189999
1.126 -0.19 -0.081 10 0 0 0 0.047200002
1.119 -0.186 -0.079000004 16 0 0 0 0.04721
1.118 -0.182 -0.078000002 18 0 0 0 0.047219999
1.1210001 -0.17900001 -0.077 19 0 0 0 0.047230002
1.1210001 -0.176 -0.075999998 18 0 0 0 0.04724
1.122 -0.17200001 -0.074000001 15 0 0 0 0.047249999
1.1210001 -0.169 -0.072999999 9 0 0 0 0.047260001
1.123 -0.16599999 -0.071999997 14 0 0 0 0.04727
1.124 -0.162 -0.071000002 19 0 0 0 0.047279999
1.117 -0.15800001 -0.068999998 11 0 0 0 0.047290001
1.135 -0.15700001 -0.068999998 8 0 0 0 0.0473
1.128 -0.153 -0.067000002 9 0 0 0 0.047309998
1.125 -0.149 -0.064999998 9 0 0 0 0.047320001
1.136 -0.147 -0.064999998 8 0 0 0 0.04733
1.137 -0.14300001 -0.063000001 6 0 0 0 0.047339998
1.141 -0.14 -0.061999999 5 0 0 0 0.047350001
1.147 -0.138 -0.061000001 4 0 0 0 0.047359999
1.146 -0.134 -0.059999999 4 0 0 0 0.047370002
1.151 -0.131 -0.057999998 3 0 0 0 0.04738
1.159 -0.12800001 -0.057 4 0 0 0 0.047389999
1.164 -0.126 -0.056000002 3 0 0 0 0.047400001
1.202 -0.126 -0.057 3 0 0 0 0.04741
1.251 -0.127 -0.057 8 0 0 0 0.047419999
1.2640001 -0.125 -0.056000002 24 0 0 0 0.047430001
1.272 -0.122 -0.055 47 0 0 0 0.04744
1.266 -0.117 -0.052999999 71 0 0 0 0.047449999
1.262 -0.113 -0.052000001 56 0 0 0 0.047460001
1.2640001 -0.11 -0.050000001 54 0 0 0 0.04747
1.263 -0.106 -0.048 60 0 0 0 0.047479998
1.262 -0.102 -0.046999998 70 0 0 0 0.047490001
1.2640001 -0.097999997 -0.045000002 68 0 0 0 0.047499999
1.261 -0.093999997 -0.043000001 58 0 0 0 0.047510002
1.2640001 -0.090999998 -0.041999999 66 0 0 0 0.04752
1.26 -0.086999997 -0.039999999 56 0 0 0 0.047529999
1.2640001 -0.082999997 -0.039000001 50 0 0 0 0.047540002
1.261 -0.079000004 -0.037 46 0 0 0 0.04755
1.261 -0.075999998 -0.035 53 0 0 0 0.047559999
1.2589999 -0.071999997 -0.033 44 0 0 0 0.047570001
1.261 -0.068000004 -0.032000002 59 0 0 0 0.04758
1.256 -0.064000003 -0.029999999 57 0 0 0 0.047589999
1.257 -0.059999999 -0.028000001 54 0 0 0 0.047600001
1.258 -0.057 -0.027000001 40 0 0 0 0.04761
1.253 -0.052999999 -0.025 41 0 0 0 0.047619998
1.258 -0.048999999 -0.023 37 0 0 0 0.047630001
1.256 -0.046 -0.022 40 0 0 0 0.04764
1.2589999 -0.041999999 -0.02 37 0 0 0 0.047649998
1.255 -0.037999999 -0.017999999 42 0 0 0 0.047660001
1.253 -0.034000002 -0.016000001 42 0 0 0 0.047669999
1.253 -0.030999999 -0.015 49 0 0 0 0.047680002
1.2539999 -0.027000001 -0.013 52 0 0 0 0.04769
1.253 -0.023 -0.011 45 0 0 0 0.047699999
1.255 -0.02 -0.0089999996 43 0 0 0 0.047710001
1.251 -0.016000001 -0.0080000004 39 0 0 0 0.04772
1.2539999 -0.012 -0.0060000001 44 0 0 0 0.047729999
1.245 -0.0089999996 -0.0040000002 48 0 0 0 0.047740001
1.253 -0.0049999999 -0.0020000001 43 0 0 0 0.04775
1.248 -0.001 -0.001 46 0 0 0 0.047759999
1.243 0.001 0 56 0 0 0 0.047770001
1.244 0.0049999999 0.0020000001 66 0 0 0 0.04778
1.2460001 0.0080000004 0.0040000002 62 0 0 0 0.047789998
1.243 0.012 0.0049999999 61 0 0 0 0.047800001
1.243 0.016000001 0.0070000002 55 0 0 0 0.047809999
1.242 0.018999999 0.0089999996 50 0 0 0 0.047820002
1.242 0.023 0.011 65 0 0 0 0.047830001
1.2460001 0.026000001 0.013 58 0 0 0 0.047839999
1.242 0.029999999 0.014 58 0 0 0 0.047850002
1.242 0.034000002 0.016000001 55 0 0 0 0.04786
1.24 0.037 0.017999999 57 0 0 0 0.047869999
1.235 0.041000001 0.02 100 0 0 0 0.047880001
1.234 0.044 0.022 79 0 0 0 0.04789
1.234 0.048 0.023 90 0 0 0 0.047899999
1.234 0.050999999 0.025 67 0 0 0 0.047910001
1.234 0.055 0.027000001 79 0 0 0 0.04792
1.234 0.057999998 0.028999999 82 0 0 0 0.047929998
1.234 0.061999999 0.030999999 83 0 0 0 0.047940001
1.229 0.064999998 0.033 119 0 0 0 0.04795
1.229 0.068999998 0.034000002 122 0 0 0 0.047959998
1.229 0.071999997 0.035999998 120 0 0 0 0.047970001
1.229 0.075999998 0.037999999 112 0 0 0 0.047979999
1.228 0.079000004 0.039999999 125 0 0 0 0.047990002
1.229 0.082999997 0.041999999 150 0 0 0 0.048
1.223 0.086000003 0.044 150 0 0 0 0.048009999
1.225 0.089000002 0.046 131 0 0 0 0.048020002
1.222 0.093000002 0.046999998 137 0 0 0 0.04803
1.22 0.096000001 0.048999999 149 0 0 0 0.048039999
1.221 0.1 0.050999999 150 0 0 0 0.048050001
1.221 0.103 0.052999999 139 0 0 0 0.04806
1.221 0.107 0.055 142 0 0 0 0.048069999
1.22 0.11 0.057 150 0 0 0 0.048080001
1.2180001 0.113 0.059 150 0 0 0 0.04809
1.219 0.117 0.061000001 150 0 0 0 0.048099998
1.2180001 0.12 0.063000001 150 0 0 0 0.048110001
1.2180001 0.124 0.064999998 150 0 0 0 0.048119999
1.216 0.127 0.067000002 150 0 0 0 0.048129998
1.2180001 0.13 0.068999998 150 0 0 0 0.048140001
1.217 0.134 0.071000002 150 0 0 0 0.048149999
1.217 0.13699999 0.072999999 147 0 0 0 0.048160002
1.214 0.14 0.074000001 150 0 0 0 0.04817
1.216 0.14399999 0.075999998 150 0 0 0 0.048179999
1.215 0.147 0.078000002 150 0 0 0 0.048190001
1.214 0.15099999 0.079999998 150 0 0 0 0.0482
1.214 0.154 0.082000002 150 0 0 0 0.048209999
1.2130001 0.15700001 0.083999999 143 0 0 0 0.048220001
1.2130001 0.161 0.086000003 139 0 0 0 0.04823
1.212 0.164 0.088 150 0 0 0 0.048239999
1.216 0.168 0.090999998 127 0 0 0 0.048250001
1.216 0.17200001 0.093000002 121 0 0 0 0.04826
1.2130001 0.175 0.094999999 141 0 0 0 0.048269998
1.214 0.178 0.097000003 112 0 0 0 0.048280001
1.2130001 0.18099999 0.098999999 116 0 0 0 0.048289999
1.2130001 0.185 0.101 121 0 0 0 0.048300002
1.2130001 0.18799999 0.103 124 0 0 0 0.04831
1.211 0.191 0.105 119 0 0 0 0.048319999
1.21 0.19400001 0.107 120 0 0 0 0.048330002
1.2079999 0.197 0.109 101 0 0 0 0.04834
1.21 0.20100001 0.111 129 0 0 0 0.048349999
1.2079999 0.204 0.113 109 0 0 0 0.048360001
1.2079999 0.208 0.115 119 0 0 0 0.04837
1.207 0.211 0.117 140 0 0 0 0.048379999
1.206 0.214 0.119 119 0 0 0 0.048390001
1.202 0.21699999 0.121 110 0 0 0 0.0484
1.204 0.22 0.123 117 0 0 0 0.048409998
1.206 0.22400001 0.126 108 0 0 0 0.048420001
1.204 0.227 0.12800001 101 0 0 0 0.04843
1.205 0.23100001 0.13 93 0 0 0 0.048439998
1.205 0.234 0.132 102 0 0 0 0.048450001
1.204 0.237 0.134 74 0 0 0 0.048459999
1.204 0.241 0.13699999 83 0 0 0 0.048470002
1.2029999 0.244 0.139 83 0 0 0 0.04848
1.201 0.24699999 0.141 86 0 0 0 0.048489999
1.201 0.25 0.14300001 95 0 0 0 0.048500001
1.204 0.25400001 0.146 65 0 0 0 0.04851
1.206 0.25799999 0.148 66 0 0 0 0.048519999
1.205 0.26100001 0.15000001 62 0 0 0 0.048530001
1.204 0.264 0.153 54 0 0 0 0.04854
1.202 0.26699999 0.155 62 0 0 0 0.048549999
1.201 0.27000001 0.15700001 68 0 0 0 0.048560001
1.202 0.273 0.15899999 65 0 0 0 0.04857
1.2 0.27599999 0.161 66 0 0 0 0.048579998
1.199 0.27900001 0.163 58 0 0 0 0.048590001
1.199 0.28299999 0.16599999 55 0 0 0 0.048599999
1.2 0.28600001 0.168 66 0 0 0 0.048610002
1.197 0.289 0.17 70 0 0 0 0.04862
1.198 0.292 0.17299999 53 0 0 0 0.048629999
1.197 0.29499999 0.175 56 0 0 0 0.048640002
1.199 0.29899999 0.177 63 0 0 0 0.04865
1.196 0.301 0.17900001 65 0 0 0 0.048659999
1.1950001 0.30399999 0.182 62 0 0 0 0.048670001
1.2 0.30899999 0.185 56 0 0 0 0.04868
1.199 0.31200001 0.18700001 57 0 0 0 0.048689999
1.198 0.315 0.189 65 0 0 0 0.048700001
1.197 0.31799999 0.192 57 0 0 0 0.04871
1.194 0.31999999 0.19400001 48 0 0 0 0.048719998
1.196 0.324 0.19599999 52 0 0 0 0.048730001
1.1950001 0.32699999 0.199 56 0 0 0 0.04874
1.193 0.33000001 0.20100001 55 0 0 0 0.048749998
1.191 0.33199999 0.20299999 49 0 0 0 0.048760001
1.192 0.336 0.206 52 0 0 0 0.048769999
1.191 0.33899999 0.208 58 0 0 0 0.048780002
1.189 0.34099999 0.20999999 56 0 0 0 0.04879
1.188 0.34400001 0.213 55 0 0 0 0.048799999
1.187 0.347 0.215 61 0 0 0 0.048810001
1.191 0.35100001 0.21799999 48 0 0 0 0.04882
1.1849999 0.35299999 0.219 53 0 0 0 0.048829999
1.183 0.35499999 0.222 124 0 0 0 0.048840001
1.186 0.359 0.22499999 121 0 0 0 0.04885
1.189 0.36300001 0.228 128 0 0 0 0.048859999
1.183 0.36500001 0.229 108 0 0 0 0.048870001
1.187 0.36899999 0.233 110 0 0 0 0.04888
1.184 0.37099999 0.235 1 0 0 0 0.048889998
1.184 0.37400001 0.237 120 0 0 0 0.048900001
1.183 0.377 0.23999999 93 0 0 0 0.048909999
1.181 0.38 0.242 92 0 0 0 0.048920002
1.184 0.38299999 0.245 117 0 0 0 0.048930001
1.179 0.38499999 0.24699999 109 0 0 0 0.048939999
1.181 0.389 0.25 120 0 0 0 0.048950002
1.179 0.391 0.252 100 0 0 0 0.04896
1.179 0.39399999 0.255 107 0 0 0 0.048969999
1.178 0.39700001 0.257 114 0 0 0 0.048980001
1.177 0.39899999 0.25999999 115 0 0 0 0.04899
1.175 0.40200001 0.26199999 94 0 0 0 0.048999999
1.174 0.40400001 0.264 104 0 0 0 0.049010001
1.175 0.40799999 0.26699999 106 0 0 0 0.04902
1.174 0.41 0.27000001 110 0 0 0 0.049029998
1.179 0.41499999 0.27399999 101 0 0 0 0.049040001
1.171 0.41499999 0.27500001 111 0 0 0 0.04905
1.17 0.41800001 0.27700001 107 0 0 0 0.049059998
1.168 0.41999999 0.27900001 116 0 0 0 0.049070001
1.168 0.42199999 0.28200001 108 0 0 0 0.049079999
1.173 0.42699999 0.28600001 124 0 0 0 0.049090002
1.171 0.42899999 0.28799999 108 0 0 0 0.0491
1.174 0.433 0.292 136 0 0 0 0.049109999
1.1720001 0.435 0.294 132 0 0 0 0.049120001
1.1670001 0.43599999 0.296 117 0 0 0 0.04913
1.17 0.44 0.29899999 132 0 0 0 0.049139999
1.17 0.44299999 0.30199999 133 0 0 0 0.049150001
1.166 0.44400001 0.30399999 150 0 0 0 0.04916
1.1670001 0.44800001 0.30700001 121 0 0 0 0.049169999
1.169 0.45100001 0.31099999 135 0 0 0 0.049180001
1.169 0.454 0.31299999 150 0 0 0 0.04919
1.1670001 0.456 0.31600001 133 0 0 0 0.049199998
1.166 0.458 0.31799999 142 0 0 0 0.049210001
1.164 0.46000001 0.32100001 129 0 0 0 0.049219999
1.16 0.461 0.322 127 0 0 0 0.049229998
1.161 0.46399999 0.32600001 130 0 0 0 0.049240001
1.16 0.46599999 0.32800001 138 0 0 0 0.049249999
1.1619999 0.47 0.331 138 0 0 0 0.049260002
1.159 0.47099999 0.33399999 150 0 0 0 0.04927
1.159 0.47400001 0.336 140 0 0 0 0.049279999
1.1569999 0.47600001 0.33899999 137 0 0 0 0.049290001
1.156 0.477 0.34099999 148 0 0 0 0.0493
1.1569999 0.47999999 0.345 146 0 0 0 0.049309999
1.155 0.48199999 0.347 147 0 0 0 0.049320001
1.156 0.48500001 0.34999999 150 0 0 0 0.04933
1.154 0.48699999 0.352 150 0 0 0 0.049339999
1.155 0.49000001 0.35600001 150 0 0 0 0.049350001
1.154 0.491 0.35800001 142 0 0 0 0.04936
1.154 0.49399999 0.361 147 0 0 0 0.049369998
1.151 0.495 0.36300001 150 0 0 0 0.049380001
1.153 0.498 0.36700001 150 0 0 0 0.049389999
1.149 0.498 0.368 150 0 0 0 0.049400002
1.147 0.5 0.37099999 150 0 0 0 0.04941
1.147 0.50199997 0.373 150 0 0 0 0.049419999
1.147 0.50400001 0.37599999 150 0 0 0 0.049430002
1.1440001 0.505 0.37799999 147 0 0 0 0.04944
1.1440001 0.50800002 0.38100001 150 0 0 0 0.049449999
1.145 0.50999999 0.38499999 150 0 0 0 0.049460001
1.1440001 0.51200002 0.38699999 150 0 0 0 0.04947
1.143 0.51300001 0.38999999 150 0 0 0 0.049479999
1.141 0.51499999 0.39199999 150 0 0 0 0.049490001
1.14 0.51599997 0.39500001 150 0 0 0 0.0495
1.141 0.51899999 0.398 150 0 0 0 0.049509998
1.137 0.51899999 0.39899999 150 0 0 0 0.049520001
1.142 0.523 0.40400001 150 0 0 0 0.049529999
1.141 0.52499998 0.40700001 150 0 0 0 0.049539998
1.135 0.52399999 0.40799999 150 0 0 0 0.049550001
1.138 0.52700001 0.412 150 0 0 0 0.049559999
1.138 0.52899998 0.414 150 0 0 0 0.049570002
1.137 0.52999997 0.417 150 0 0 0 0.04958
1.136 0.53100002 0.419 150 0 0 0 0.049589999
1.138 0.53399998 0.42300001 150 0 0 0 0.049600001
1.136 0.53500003 0.42500001 150 0 0 0 0.04961
1.1339999 0.53600001 0.42699999 150 0 0 0 0.049619999
1.133 0.537 0.43000001 150 0 0 0 0.049630001
1.131 0.53799999 0.43200001 150 0 0 0 0.04964
1.13 0.53899997 0.43399999 150 0 0 0 0.049649999
1.138 0.54400003 0.44 150 0 0 0 0.049660001
1.137 0.54500002 0.44299999 150 0 0 0 0.04967
1.135 0.54500002 0.44499999 150 0 0 0 0.049679998
1.133 0.546 0.447 150 0 0 0 0.049690001
1.135 0.54799998 0.44999999 150 0 0 0 0.049699999
1.132 0.54799998 0.45199999 150 0 0 0 0.049710002
1.13 0.54900002 0.454 150 0 0 0 0.04972
1.131 0.55000001 0.45699999 150 0 0 0 0.049729999
1.1339999 0.55299997 0.461 150 0 0 0 0.049740002
1.1339999 0.55500001 0.46399999 150 0 0 0 0.04975
1.1339999 0.55599999 0.46700001 150 0 0 0 0.049759999
1.13 0.55500001 0.46799999 150 0 0 0 0.049770001
1.132 0.55699998 0.47099999 150 0 0 0 0.04978
1.13 0.55699998 0.47299999 150 0 0 0 0.049789999
1.127 0.55599999 0.47400001 150 0 0 0 0.049800001
1.128 0.55800003 0.47799999 150 0 0 0 0.04981
1.1289999 0.55900002 0.47999999 150 0 0 0 0.049819998
1.128 0.56 0.48300001 150 0 0 0 0.049830001
1.127 0.56 0.48500001 150 0 0 0 0.04984
1.125 0.56 0.486 150 0 0 0 0.049849998
1.126 0.56099999 0.49000001 150 0 0 0 0.049860001
1.126 0.56199998 0.49200001 150 0 0 0 0.049869999
1.127 0.56300002 0.495 150 0 0 0 0.049880002
1.124 0.56199998 0.49599999 150 0 0 0 0.04989
1.122 0.56199998 0.498 150 0 0 0 0.049899999
1.124 0.56300002 0.50099999 150 0 0 0 0.049910001
1.1210001 0.56199998 0.50199997 150 0 0 0 0.04992
1.122 0.56300002 0.505 150 0 0 0 0.049929999
1.126 0.56599998 0.509 150 0 0 0 0.049940001
1.125 0.56599998 0.51099998 150 0 0 0 0.04995
1.122 0.56400001 0.51200002 150 0 0 0 0.049959999
1.124 0.565 0.51499999 150 0 0 0 0.049970001
1.123 0.565 0.51700002 150 0 0 0 0.04998
1.125 0.56699997 0.51999998 150 0 0 0 0.049989998
1.13 0.56900001 0.52499998 150 0 0 0 0.050000001
1.127 0.56800002 0.52600002 150 0 0 0 0.050009999
1.126 0.56800002 0.52700001 150 0 0 0 0.050020002
1.128 0.56900001 0.52999997 150 0 0 0 0.050030001
1.125 0.56699997 0.53100002 150 0 0 0 0.050039999
1.125 0.56699997 0.53299999 150 0 0 0 0.050050002
1.126 0.56699997 0.53500003 150 0 0 0 0.05006
1.128 0.56800002 0.53799999 150 0 0 0 0.050069999
1.1289999 0.56800002 0.54000002 150 0 0 0 0.050080001
1.13 0.56800002 0.54299998 150 0 0 0 0.05009
