# .PCD v0.7 - Point Cloud Data file format
VERSION 0.7
FIELDS x y z intensity normal_x normal_y normal_z curvature
SIZE 4 4 4 4 4 4 4 4
TYPE F F F F F F F F
COUNT 1 1 1 1 1 1 1 1
WIDTH 1030
HEIGHT 1
VIEWPOINT 0 0 0 1 0 0 0
POINTS 1030
DATA ascii
0.546 0.162 -0.083999999 0 0 0 0 0.051100001
0.54299998 0.163 -0.083999999 0 0 0 0 0.051109999
0.56099999 0.171 -0.086999997 0 0 0 0 0.051120002
0.56099999 0.17200001 -0.088 0 0 0 0 0.051130001
0.55699998 0.17299999 -0.088 0 0 0 0 0.051139999
0.55699998 0.175 -0.089000002 0 0 0 0 0.051150002
0.55900002 0.177 -0.090000004 0 0 0 0 0.05116
0.57800001 0.185 -0.093000002 0 0 0 0 0.051169999
0.57200003 0.185 -0.093000002 0 0 0 0 0.051180001
0.565 0.184 -0.092 0 0 0 0 0.05119
0.579 0.191 -0.094999999 0 0 0 0 0.051199999
0.56400001 0.18799999 -0.093000002 0 0 0 0 0.051210001
0.57200003 0.192 -0.096000001 0 0 0 0 0.05122
0.56599998 0.192 -0.094999999 0 0 0 0 0.051229998
0.56400001 0.193 -0.094999999 0 0 0 0 0.051240001
0.56999999 0.197 -0.097000003 0 0 0 0 0.05125
0.56699997 0.198 -0.097000003 0 0 0 0 0.051259998
0.55699998 0.19599999 -0.096000001 0 0 0 0 0.051270001
0.56199998 0.2 -0.097000003 0 0 0 0 0.051279999
0.57800001 0.207 -0.101 0 0 0 0 0.051290002
0.61000001 0.221 -0.107 0 0 0 0 0.0513
0.65100002 0.23800001 -0.115 0 0 0 0 0.051309999
0.68000001 0.25099999 -0.121 0 0 0 0 0.051320001
0.70599997 0.26300001 -0.126 0 0 0 0 0.05133
0.773 0.28999999 -0.139 0 0 0 0 0.051339999
0.87800002 0.333 -0.15800001 0 0 0 0 0.051350001
1.017 0.389 -0.185 2 0 0 0 0.05136
0 0 0 0 0 0 0 0.051369999
1.546 0.60100001 -0.28299999 48 0 0 0 0.051380001
1.549 0.60699999 -0.28600001 59 0 0 0 0.05139
1.525 0.60299999 -0.28200001 56 0 0 0 0.051399998
1.512 0.60299999 -0.28099999 47 0 0 0 0.051410001
1.512 0.60799998 -0.28299999 39 0 0 0 0.051419999
1.5039999 0.61000001 -0.28200001 30 0 0 0 0.051430002
1.49 0.60900003 -0.28099999 17 0 0 0 0.051440001
1.4910001 0.61400002 -0.28200001 13 0 0 0 0.051449999
1.467 0.60900003 -0.27900001 11 0 0 0 0.051460002
1.462 0.61199999 -0.27900001 10 0 0 0 0.05147
1.439 0.60699999 -0.27599999 10 0 0 0 0.051479999
1.438 0.611 -0.27700001 20 0 0 0 0.051490001
1.442 0.61799997 -0.27900001 18 0 0 0 0.0515
3.477 1.501 -0.67500001 1 0 0 0 0.051509999
3.477 1.513 -0.67799997 3 0 0 0 0.051520001
3.52 1.543 -0.68900001 5 0 0 0 0.05153
3.507 1.549 -0.68900001 6 0 0 0 0.051539999
3.5050001 1.5599999 -0.69099998 6 0 0 0 0.051550001
3.506 1.572 -0.69300002 7 0 0 0 0.05156
3.516 1.5880001 -0.69800001 9 0 0 0 0.051569998
3.5139999 1.598 -0.699 9 0 0 0 0.051580001
3.516 1.61 -0.70200002 9 0 0 0 0.051589999
3.5239999 1.626 -0.70599997 9 0 0 0 0.051600002
3.5369999 1.643 -0.70999998 10 0 0 0 0.05161
3.5899999 1.6799999 -0.72299999 16 0 0 0 0.051619999
3.6270001 1.709 -0.73299998 66 0 0 0 0.051630002
3.6110001 1.7130001 -0.73100001 69 0 0 0 0.05164
3.596 1.7180001 -0.73000002 71 0 0 0 0.051649999
3.5780001 1.721 -0.72799999 71 0 0 0 0.051660001
3.569 1.728 -0.72799999 72 0 0 0 0.05167
3.5539999 1.733 -0.727 72 0 0 0 0.051679999
3.54 1.737 -0.72500002 71 0 0 0 0.051690001
3.5280001 1.743 -0.72399998 71 0 0 0 0.0517
3.5150001 1.747 -0.72299999 73 0 0 0 0.051709998
3.51 1.756 -0.72399998 74 0 0 0 0.051720001
3.5120001 1.7690001 -0.72500002 70 0 0 0 0.051729999
3.513 1.78 -0.72600001 72 0 0 0 0.051739998
3.52 1.795 -0.72899997 81 0 0 0 0.051750001
3.527 1.8099999 -0.73199999 80 0 0 0 0.051759999
3.5309999 1.823 -0.73400003 84 0 0 0 0.051770002
3.5350001 1.836 -0.736 83 0 0 0 0.05178
3.5409999 1.851 -0.73799998 86 0 0 0 0.051789999
3.5409999 1.862 -0.73799998 83 0 0 0 0.051800001
3.55 1.878 -0.741 83 0 0 0 0.05181
3.5510001 1.8890001 -0.74199998 82 0 0 0 0.051819999
3.5539999 1.902 -0.74299997 80 0 0 0 0.051830001
3.566 1.919 -0.74699998 30 0 0 0 0.05184
3.572 1.934 -0.74800003 13 0 0 0 0.051849999
3.5439999 1.929 -0.74299997 3 0 0 0 0.051860001
3.5439999 1.9400001 -0.74299997 3 0 0 0 0.05187
3.517 1.936 -0.73799998 4 0 0 0 0.051879998
3.53 1.954 -0.741 12 0 0 0 0.051890001
3.517 1.957 -0.73799998 1 0 0 0 0.051899999
3.517 1.967 -0.73799998 1 0 0 0 0.051910002
3.5190001 1.979 -0.73900002 1 0 0 0 0.05192
3.5339999 1.998 -0.74199998 1 0 0 0 0.051929999
3.5339999 2.0079999 -0.74199998 1 0 0 0 0.051940002
3.536 2.02 -0.74199998 1 0 0 0 0.05195
3.5339999 2.0280001 -0.741 1 0 0 0 0.051959999
3.536 2.04 -0.741 1 0 0 0 0.051970001
3.546 2.0550001 -0.74199998 1 0 0 0 0.05198
1.233 0.71799999 -0.25799999 0 0 0 0 0.051989999
0 0 0 0 0 0 0 0.052000001
0 0 0 0 0 0 0 0.05201
1.249 0.73799998 -0.25999999 10 0 0 0 0.052019998
1.245 0.73900002 -0.259 11 0 0 0 0.052030001
1.243 0.741 -0.25799999 13 0 0 0 0.05204
1.242 0.74400002 -0.25799999 13 0 0 0 0.052049998
1.237 0.74400002 -0.25600001 15 0 0 0 0.052060001
1.237 0.74800003 -0.25600001 20 0 0 0 0.052069999
1.234 0.74800003 -0.255 0 0 0 0 0.052080002
1.2309999 0.75 -0.25400001 17 0 0 0 0.05209
1.237 0.75700003 -0.25400001 14 0 0 0 0.052099999
1.2309999 0.75599998 -0.25299999 12 0 0 0 0.052110001
1.229 0.75800002 -0.252 11 0 0 0 0.05212
1.227 0.75999999 -0.25099999 11 0 0 0 0.052129999
1.224 0.76099998 -0.25 11 0 0 0 0.052140001
1.221 0.76200002 -0.248 11 0 0 0 0.05215
1.2180001 0.76300001 -0.24699999 11 0 0 0 0.052159999
1.215 0.764 -0.24600001 11 0 0 0 0.052170001
1.214 0.76599997 -0.245 11 0 0 0 0.05218
1.2130001 0.76800001 -0.244 11 0 0 0 0.052189998
1.21 0.76899999 -0.242 11 0 0 0 0.052200001
1.209 0.77100003 -0.241 11 0 0 0 0.052209999
1.207 0.77200001 -0.23999999 11 0 0 0 0.052220002
1.204 0.773 -0.23899999 11 0 0 0 0.05223
1.205 0.77600002 -0.23800001 11 0 0 0 0.052239999
1.198 0.77399999 -0.236 10 0 0 0 0.052250002
1.1950001 0.77399999 -0.234 11 0 0 0 0.05226
1.194 0.77600002 -0.233 11 0 0 0 0.052269999
1.188 0.77399999 -0.23100001 11 0 0 0 0.052280001
1.1849999 0.77399999 -0.229 11 0 0 0 0.05229
1.187 0.778 -0.229 11 0 0 0 0.052299999
1.181 0.77600002 -0.227 10 0 0 0 0.052310001
1.1720001 0.77200001 -0.22400001 9 0 0 0 0.05232
1.171 0.773 -0.223 7 0 0 0 0.052329998
1.173 0.77700001 -0.222 7 0 0 0 0.052340001
1.151 0.764 -0.21600001 7 0 0 0 0.05235
1.173 0.77999997 -0.22 7 0 0 0 0.052359998
1.158 0.77200001 -0.215 8 0 0 0 0.052370001
1.176 0.78600001 -0.21799999 9 0 0 0 0.052379999
1.17 0.78299999 -0.215 9 0 0 0 0.052390002
1.178 0.79000002 -0.21600001 9 0 0 0 0.0524
1.182 0.79400003 -0.215 9 0 0 0 0.052409999
1.165 0.78399998 -0.211 7 0 0 0 0.052420001
1.085 0.73199999 -0.19499999 3 0 0 0 0.05243
0.94599998 0.639 -0.169 1 0 0 0 0.052439999
0.79799998 0.54000002 -0.141 0 0 0 0 0.052450001
0.74299997 0.50400001 -0.131 0 0 0 0 0.05246
0.70200002 0.47600001 -0.123 0 0 0 0 0.052469999
0.69099998 0.47 -0.12 0 0 0 0 0.052480001
0.64899999 0.442 -0.112 0 0 0 0 0.05249
0.64399999 0.43900001 -0.11 0 0 0 0 0.052499998
0.64399999 0.43900001 -0.109 0 0 0 0 0.052510001
0.64399999 0.44 -0.108 0 0 0 0 0.052519999
0.63599998 0.43399999 -0.106 0 0 0 0 0.052530002
0.639 0.43700001 -0.106 0 0 0 0 0.052540001
0.64600003 0.442 -0.106 0 0 0 0 0.052549999
0.64600003 0.44299999 -0.105 0 0 0 0 0.052560002
0.64099997 0.44 -0.104 0 0 0 0 0.05257
0.64099997 0.44 -0.103 0 0 0 0 0.052579999
0.64399999 0.442 -0.102 0 0 0 0 0.052590001
0.639 0.43900001 -0.101 0 0 0 0 0.0526
0.64099997 0.44 -0.1 0 0 0 0 0.052609999
0.639 0.43900001 -0.098999999 0 0 0 0 0.052620001
0.63099998 0.43399999 -0.097000003 0 0 0 0 0.05263
0.63599998 0.43700001 -0.097000003 0 0 0 0 0.052639998
0.64600003 0.44400001 -0.097000003 0 0 0 0 0.052650001
0.62400001 0.42899999 -0.093000002 0 0 0 0 0.05266
0.63200003 0.43399999 -0.093000002 0 0 0 0 0.052669998
0.625 0.42899999 -0.090999998 0 0 0 0 0.052680001
0.625 0.42899999 -0.090000004 0 0 0 0 0.052689999
0.63200003 0.43399999 -0.090000004 0 0 0 0 0.052700002
0.63200003 0.43399999 -0.090000004 0 0 0 0 0.05271
0.625 0.42899999 -0.088 0 0 0 0 0.052719999
0.625 0.42899999 -0.086999997 0 0 0 0 0.052730002
0.63599998 0.435 -0.086999997 0 0 0 0 0.05274
0.61900002 0.42300001 -0.083999999 0 0 0 0 0.052749999
0.62400001 0.42699999 -0.083999999 0 0 0 0 0.052760001
0.62599999 0.428 -0.082999997 0 0 0 0 0.05277
0.62400001 0.426 -0.082000002 0 0 0 0 0.052779999
0.63200003 0.43099999 -0.082000002 0 0 0 0 0.052790001
0.62 0.42199999 -0.079000004 0 0 0 0 0.0528
0.62300003 0.42399999 -0.079000004 0 0 0 0 0.052809998
0.62099999 0.42199999 -0.077 0 0 0 0 0.052820001
0.62800002 0.426 -0.077 0 0 0 0 0.052829999
0.62099999 0.421 -0.075000003 0 0 0 0 0.052839998
0.63200003 0.42699999 -0.075999998 0 0 0 0 0.052850001
0.63599998 0.43000001 -0.075000003 0 0 0 0 0.052859999
0.65100002 0.43900001 -0.075999998 0 0 0 0 0.052870002
0.64700001 0.435 -0.075000003 0 0 0 0 0.05288
0.71200001 0.47799999 -0.081 0 0 0 0 0.052889999
0.99900001 0.67000002 -0.112 0 0 0 0 0.052900001
1.101 0.73699999 -0.122 0 0 0 0 0.05291
1.176 0.78600001 -0.12800001 1 0 0 0 0.052919999
1.199 0.79900002 -0.12899999 2 0 0 0 0.052930001
1.2130001 0.80699998 -0.12899999 2 0 0 0 0.05294
1.184 0.78600001 -0.124 1 0 0 0 0.052949999
1.135 0.75099999 -0.117 0 0 0 0 0.052960001
1.053 0.69499999 -0.107 0 0 0 0 0.05297
1.069 0.704 -0.107 0 0 0 0 0.052979998
0.94099998 0.61799997 -0.092 0 0 0 0 0.052990001
0.88099998 0.57700002 -0.085000001 0 0 0 0 0.052999999
0.90600002 0.59200001 -0.086000003 0 0 0 0 0.053010002
0.95999998 0.62599999 -0.090000004 0 0 0 0 0.05302
0.986 0.64099997 -0.090999998 0 0 0 0 0.053029999
1.045 0.67699999 -0.094999999 0 0 0 0 0.053040002
1.171 0.75700003 -0.104 1 0 0 0 0.05305
1.217 0.78399998 -0.107 6 0 0 0 0.053059999
1.245 0.79900002 -0.107 7 0 0 0 0.053070001
1.239 0.79299998 -0.105 8 0 0 0 0.05308
1.244 0.79400003 -0.104 10 0 0 0 0.053089999
1.248 0.79299998 -0.102 12 0 0 0 0.053100001
1.253 0.79400003 -0.101 14 0 0 0 0.05311
1.258 0.79400003 -0.098999999 14 0 0 0 0.053119998
1.263 0.79500002 -0.097999997 13 0 0 0 0.053130001
1.263 0.792 -0.096000001 12 0 0 0 0.05314
1.263 0.78899997 -0.093999997 11 0 0 0 0.053149998
1.265 0.787 -0.092 10 0 0 0 0.053160001
2.52 1.562 -0.18099999 150 0 0 0 0.053169999
2.5120001 1.551 -0.177 151 0 0 0 0.053180002
2.5339999 1.559 -0.175 150 0 0 0 0.05319
2.585 1.5829999 -0.175 18 0 0 0 0.053199999
2.6010001 1.587 -0.17200001 28 0 0 0 0.053210001
3.5929999 2.184 -0.233 45 0 0 0 0.05322
3.6170001 2.1889999 -0.23 1 0 0 0 0.053229999
3.622 2.1819999 -0.22499999 3 0 0 0 0.053240001
3.6240001 2.174 -0.22 2 0 0 0 0.05325
3.6400001 2.174 -0.21699999 0 0 0 0 0.053259999
3.651 2.171 -0.213 0 0 0 0 0.053270001
3.6459999 2.158 -0.208 0 0 0 0 0.05328
3.6389999 2.1440001 -0.20200001 0 0 0 0 0.053289998
3.6240001 2.1259999 -0.197 0 0 0 0 0.053300001
3.618 2.112 -0.192 1 0 0 0 0.053309999
3.6240001 2.105 -0.18799999 1 0 0 0 0.053320002
3.609 2.086 -0.183 1 0 0 0 0.05333
3.5999999 2.0710001 -0.178 3 0 0 0 0.053339999
3.595 2.0580001 -0.17299999 9 0 0 0 0.053350002
4.1370001 2.3570001 -0.19400001 36 0 0 0 0.05336
4.1700001 2.3640001 -0.191 70 0 0 0 0.053369999
4.1820002 2.358 -0.186 72 0 0 0 0.053380001
4.1300001 2.3169999 -0.17900001 101 0 0 0 0.05339
3.9949999 2.2290001 -0.169 150 0 0 0 0.053399999
3.8699999 2.148 -0.15899999 150 0 0 0 0.053410001
3.7679999 2.0799999 -0.15099999 150 0 0 0 0.05342
3.618 1.987 -0.141 70 0 0 0 0.053429998
3.5899999 1.96 -0.13600001 52 0 0 0 0.053440001
3.5799999 1.944 -0.131 53 0 0 0 0.05345
3.5739999 1.9299999 -0.127 55 0 0 0 0.053459998
3.5699999 1.9170001 -0.123 57 0 0 0 0.053470001
3.563 1.902 -0.119 56 0 0 0 0.053479999
3.5739999 1.897 -0.116 58 0 0 0 0.053490002
3.6070001 1.904 -0.113 63 0 0 0 0.0535
3.6359999 1.9069999 -0.111 65 0 0 0 0.053509999
3.6500001 1.903 -0.107 64 0 0 0 0.053520001
3.582 1.857 -0.102 42 0 0 0 0.05353
3.6440001 1.877 -0.1 51 0 0 0 0.053539999
3.73 1.91 -0.098999999 56 0 0 0 0.053550001
3.7809999 1.924 -0.097000003 55 0 0 0 0.05356
3.819 1.931 -0.093999997 24 0 0 0 0.053569999
3.812 1.915 -0.090000004 7 0 0 0 0.053580001
3.8770001 1.9349999 -0.088 12 0 0 0 0.05359
3.8889999 1.929 -0.085000001 11 0 0 0 0.053599998
3.9590001 1.951 -0.082999997 40 0 0 0 0.053610001
3.7360001 1.829 -0.075000003 5 0 0 0 0.053619999
3.902 1.897 -0.075000003 11 0 0 0 0.053630002
3.783 1.827 -0.07 7 0 0 0 0.053640001
1.476 0.708 -0.026000001 1 0 0 0 0.053649999
1.473 0.70200002 -0.024 9 0 0 0 0.053660002
1.483 0.70099998 -0.023 2 0 0 0 0.05367
1.488 0.699 -0.022 7 0 0 0 0.053679999
1.5 0.69999999 -0.021 7 0 0 0 0.053690001
1.499 0.69400001 -0.02 1 0 0 0 0.0537
1.521 0.69999999 -0.018999999 7 0 0 0 0.053709999
1.525 0.69599998 -0.017999999 1 0 0 0 0.053720001
1.541 0.699 -0.017000001 1 0 0 0 0.05373
1.554 0.699 -0.016000001 1 0 0 0 0.053739998
1.568 0.69999999 -0.015 1 0 0 0 0.053750001
1.573 0.69700003 -0.014 1 0 0 0 0.05376
1.581 0.69599998 -0.013 1 0 0 0 0.053769998
1.591 0.69499999 -0.012 1 0 0 0 0.053780001
1.601 0.69300002 -0.011 1 0 0 0 0.053789999
1.603 0.68900001 -0.0099999998 1 0 0 0 0.053800002
1.615 0.68900001 -0.0089999996 1 0 0 0 0.05381
1.6210001 0.68599999 -0.0080000004 1 0 0 0 0.053819999
1.63 0.68400002 -0.0080000004 1 0 0 0 0.053830002
1.637 0.68199998 -0.0070000002 1 0 0 0 0.05384
0 0 0 0 0 0 0 0.053849999
4.2080002 1.725 -0.013 0 0 0 0 0.053860001
4.1589999 1.691 -0.011 3 0 0 0 0.05387
4.184 1.687 -0.0080000004 5 0 0 0 0.053879999
4.1799998 1.671 -0.0060000001 8 0 0 0 0.053890001
0 0 0 0 0 0 0 0.0539
3.8399999 1.5089999 -0.0020000001 0 0 0 0 0.053909998
3.7950001 1.479 0 1 0 0 0 0.053920001
3.7939999 1.466 0.001 1 0 0 0 0.053929999
3.7820001 1.448 0.003 2 0 0 0 0.053939998
3.7909999 1.439 0.0049999999 1 0 0 0 0.053950001
0 0 0 0 0 0 0 0.053959999
1.28 0.477 0.0020000001 1 0 0 0 0.053970002
1.278 0.472 0.003 2 0 0 0 0.05398
1.291 0.472 0.0040000002 7 0 0 0 0.053989999
1.255 0.45500001 0.0040000002 150 0 0 0 0.054000001
1.245 0.447 0.0049999999 150 0 0 0 0.05401
1.27 0.45199999 0.0049999999 25 0 0 0 0.054019999
1.289 0.454 0.0060000001 4 0 0 0 0.054030001
1.285 0.44800001 0.0060000001 1 0 0 0 0.05404
3.651 1.262 0.02 0 0 0 0 0.054049999
3.546 1.214 0.02 155 0 0 0 0.054060001
0 0 0 0 0 0 0 0.05407
1.822 0.611 0.011 2 0 0 0 0.054079998
1.822 0.60500002 0.012 2 0 0 0 0.054090001
1.829 0.60100001 0.013 3 0 0 0 0.054099999
1.837 0.597 0.013 3 0 0 0 0.054110002
1.8430001 0.59299999 0.014 1 0 0 0 0.05412
3.7750001 1.2029999 0.029999999 4 0 0 0 0.054129999
3.6040001 1.136 0.029999999 4 0 0 0 0.054140002
3.589 1.119 0.029999999 5 0 0 0 0.05415
4.0310001 1.243 0.035 50 0 0 0 0.054159999
4.027 1.229 0.035999998 43 0 0 0 0.054170001
4.0419998 1.22 0.037 114 0 0 0 0.05418
4.0380001 1.205 0.037999999 150 0 0 0 0.054189999
4.0359998 1.1900001 0.039000001 150 0 0 0 0.054200001
4.033 1.176 0.039999999 89 0 0 0 0.05421
4.0300002 1.1619999 0.041000001 79 0 0 0 0.054219998
4.0209999 1.145 0.041000001 75 0 0 0 0.054230001
4.0180001 1.131 0.041999999 75 0 0 0 0.05424
4.013 1.1160001 0.043000001 72 0 0 0 0.054249998
1.936 0.53200001 0.021 1 0 0 0 0.054260001
0 0 0 0 0 0 0 0.054269999
1.946 0.52100003 0.021 151 0 0 0 0.054280002
1.899 0.50199997 0.021 150 0 0 0 0.05429
1.845 0.48199999 0.021 119 0 0 0 0.054299999
1.692 0.43599999 0.018999999 3 0 0 0 0.054310001
1.683 0.428 0.018999999 4 0 0 0 0.05432
1.677 0.421 0.018999999 7 0 0 0 0.054329999
1.678 0.41600001 0.02 7 0 0 0 0.054340001
1.682 0.41100001 0.02 7 0 0 0 0.05435
1.674 0.40400001 0.02 8 0 0 0 0.054359999
1.6670001 0.396 0.02 8 0 0 0 0.054370001
1.668 0.391 0.02 9 0 0 0 0.05438
1.668 0.38600001 0.02 8 0 0 0 0.054389998
1.669 0.38 0.02 8 0 0 0 0.054400001
1.67 0.375 0.02 7 0 0 0 0.054409999
1.661 0.36700001 0.02 5 0 0 0 0.054420002
1.661 0.36199999 0.02 4 0 0 0 0.05443
1.66 0.35600001 0.02 8 0 0 0 0.054439999
1.651 0.34900001 0.02 11 0 0 0 0.054450002
1.654 0.34400001 0.02 12 0 0 0 0.05446
1.738 0.35600001 0.021 61 0 0 0 0.054469999
1.816 0.36500001 0.022 150 0 0 0 0.054480001
1.895 0.375 0.023 150 0 0 0 0.05449
1.893 0.368 0.023 150 0 0 0 0.054499999
1.891 0.36199999 0.023 150 0 0 0 0.054510001
1.829 0.34400001 0.022 150 0 0 0 0.05452
1.714 0.317 0.021 150 0 0 0 0.054529998
1.564 0.28400001 0.018999999 36 0 0 0 0.054540001
1.579 0.28099999 0.018999999 30 0 0 0 0.05455
1.6210001 0.28299999 0.018999999 11 0 0 0 0.054559998
1.623 0.278 0.018999999 8 0 0 0 0.054570001
1.608 0.27000001 0.018999999 6 0 0 0 0.054579999
1.554 0.25600001 0.017999999 1 0 0 0 0.054590002
1.528 0.24699999 0.017999999 0 0 0 0 0.0546
1.507 0.23800001 0.017000001 0 0 0 0 0.054609999
1.495 0.23199999 0.017000001 0 0 0 0 0.054620001
1.501 0.228 0.017000001 0 0 0 0 0.05463
1.452 0.21600001 0.016000001 0 0 0 0 0.054639999
1.386 0.20100001 0.015 0 0 0 0 0.054650001
1.375 0.19499999 0.015 0 0 0 0 0.05466
1.38 0.191 0.015 1 0 0 0 0.054669999
1.3789999 0.18700001 0.015 4 0 0 0 0.054680001
1.369 0.18099999 0.014 5 0 0 0 0.05469
1.372 0.177 0.014 4 0 0 0 0.054699998
1.373 0.17200001 0.014 1 0 0 0 0.054710001
1.3660001 0.167 0.014 1 0 0 0 0.054719999
1.3789999 0.164 0.014 0 0 0 0 0.054730002
1.439 0.16599999 0.014 0 0 0 0 0.054740001
1.543 0.17299999 0.015 0 0 0 0 0.054749999
1.605 0.175 0.015 0 0 0 0 0.054760002
1.617 0.171 0.015 0 0 0 0 0.05477
1.612 0.16599999 0.015 0 0 0 0 0.054779999
1.5930001 0.15800001 0.014 1 0 0 0 0.054790001
1.589 0.153 0.014 6 0 0 0 0.0548
1.589 0.148 0.013 5 0 0 0 0.054809999
1.594 0.14300001 0.013 1 0 0 0 0.054820001
1.656 0.14300001 0.013 0 0 0 0 0.05483
1.679 0.14 0.013 0 0 0 0 0.054839998
1.65 0.132 0.012 0 0 0 0 0.054850001
1.63 0.125 0.012 0 0 0 0 0.05486
1.622 0.119 0.011 0 0 0 0 0.054869998
1.618 0.114 0.011 0 0 0 0 0.054880001
1.608 0.108 0.0099999998 0 0 0 0 0.054889999
1.613 0.103 0.0099999998 1 0 0 0 0.054900002
1.608 0.097000003 0.0099999998 5 0 0 0 0.05491
1.608 0.092 0.0089999996 6 0 0 0 0.054919999
1.598 0.086000003 0.0089999996 7 0 0 0 0.054930001
1.595 0.081 0.0080000004 9 0 0 0 0.05494
1.598 0.075999998 0.0080000004 12 0 0 0 0.054949999
1.604 0.071000002 0.0070000002 8 0 0 0 0.054960001
1.579 0.064999998 0.0070000002 6 0 0 0 0.05497
1.553 0.059 0.0060000001 9 0 0 0 0.054979999
1.516 0.052999999 0.0049999999 13 0 0 0 0.054990001
1.471 0.046 0.0049999999 8 0 0 0 0.055
1.459 0.041000001 0.0040000002 7 0 0 0 0.055009998
1.452 0.035999998 0.0040000002 9 0 0 0 0.055020001
1.45 0.032000002 0.003 11 0 0 0 0.055029999
1.461 0.027000001 0.003 9 0 0 0 0.055039998
1.461 0.022 0.0020000001 9 0 0 0 0.055050001
1.46 0.017999999 0.0020000001 10 0 0 0 0.055059999
1.471 0.013 0.001 8 0 0 0 0.055070002
1.472 0.0080000004 0.001 6 0 0 0 0.05508
1.467 0.0040000002 0 9 0 0 0 0.055089999
1.478 0 0 8 0 0 0 0.055100001
1.479 -0.0049999999 0 9 0 0 0 0.05511
1.573 -0.0099999998 -0.001 36 0 0 0 0.055119999
1.604 -0.016000001 -0.001 15 0 0 0 0.055130001
1.714 -0.022 -0.0020000001 10 0 0 0 0.05514
1.747 -0.028000001 -0.003 28 0 0 0 0.055149999
1.751 -0.034000002 -0.003 62 0 0 0 0.055160001
1.7539999 -0.039999999 -0.0040000002 13 0 0 0 0.05517
1.752 -0.045000002 -0.0049999999 10 0 0 0 0.055179998
1.744 -0.050999999 -0.0060000001 50 0 0 0 0.055190001
1.743 -0.056000002 -0.0060000001 34 0 0 0 0.055199999
1.757 -0.061999999 -0.0070000002 1 0 0 0 0.055210002
0 0 0 0 0 0 0 0.05522
0 0 0 0 0 0 0 0.055229999
1.441 -0.064999998 -0.0080000004 0 0 0 0 0.055240002
1.416 -0.068000004 -0.0080000004 0 0 0 0 0.05525
1.396 -0.071999997 -0.0089999996 12 0 0 0 0.055259999
1.359 -0.074000001 -0.0089999996 150 0 0 0 0.055270001
1.355 -0.078000002 -0.0099999998 150 0 0 0 0.05528
1.411 -0.086000003 -0.011 1 0 0 0 0.055289999
1.416 -0.090999998 -0.012 0 0 0 0 0.055300001
1.4220001 -0.096000001 -0.012 0 0 0 0 0.05531
0 0 0 0 0 0 0 0.055319998
0 0 0 0 0 0 0 0.055330001
1.506 -0.116 -0.015 2 0 0 0 0.055339999
1.465 -0.118 -0.016000001 150 0 0 0 0.055349998
1.45 -0.121 -0.016000001 150 0 0 0 0.055360001
1.494 -0.13 -0.017999999 11 0 0 0 0.055369999
1.497 -0.13500001 -0.018999999 0 0 0 0 0.055380002
1.4910001 -0.139 -0.018999999 0 0 0 0 0.05539
1.508 -0.145 -0.02 0 0 0 0 0.055399999
1.624 -0.162 -0.023 0 0 0 0 0.055410001
1.715 -0.176 -0.025 7 0 0 0 0.05542
1.7029999 -0.18099999 -0.026000001 57 0 0 0 0.055429999
1.688 -0.185 -0.027000001 150 0 0 0 0.055440001
1.688 -0.19 -0.027000001 150 0 0 0 0.05545
1.681 -0.19400001 -0.028000001 150 0 0 0 0.055459999
1.681 -0.2 -0.028999999 150 0 0 0 0.055470001
1.681 -0.205 -0.029999999 150 0 0 0 0.05548
1.676 -0.20999999 -0.030999999 150 0 0 0 0.055489998
1.678 -0.21600001 -0.032000002 150 0 0 0 0.055500001
1.678 -0.221 -0.033 150 0 0 0 0.055509999
1.674 -0.226 -0.034000002 150 0 0 0 0.055520002
1.673 -0.23100001 -0.035 150 0 0 0 0.05553
1.668 -0.236 -0.035999998 150 0 0 0 0.055539999
1.666 -0.241 -0.037 150 0 0 0 0.055550002
1.664 -0.24600001 -0.037999999 150 0 0 0 0.05556
1.648 -0.249 -0.039000001 150 0 0 0 0.055569999
1.628 -0.25099999 -0.039999999 150 0 0 0 0.055580001
1.6160001 -0.255 -0.039999999 109 0 0 0 0.05559
1.628 -0.26199999 -0.041999999 39 0 0 0 0.055599999
1.661 -0.27200001 -0.044 14 0 0 0 0.055610001
0.57499999 -0.096000001 -0.015 0 0 0 0 0.05562
0.56099999 -0.094999999 -0.015 0 0 0 0 0.055629998
0.58200002 -0.101 -0.016000001 0 0 0 0 0.055640001
0.60500002 -0.107 -0.017000001 0 0 0 0 0.05565
0.579 -0.104 -0.017000001 0 0 0 0 0.055659998
0.597 -0.109 -0.017999999 0 0 0 0 0.055670001
0.59899998 -0.111 -0.017999999 0 0 0 0 0.055679999
0.58499998 -0.111 -0.017999999 0 0 0 0 0.055690002
0.59899998 -0.115 -0.018999999 0 0 0 0 0.0557
0.61199999 -0.12 -0.02 0 0 0 0 0.055709999
0.62300003 -0.124 -0.021 0 0 0 0 0.055720001
0.61500001 -0.124 -0.021 0 0 0 0 0.05573
0.62699997 -0.12899999 -0.022 0 0 0 0 0.055739999
0.64200002 -0.134 -0.023 0 0 0 0 0.055750001
0.66500002 -0.141 -0.025 0 0 0 0 0.05576
0.66600001 -0.14300001 -0.025 0 0 0 0 0.055769999
0.65899998 -0.14399999 -0.025 0 0 0 0 0.055780001
0.67000002 -0.148 -0.026000001 0 0 0 0 0.05579
0.67799997 -0.152 -0.027000001 0 0 0 0 0.055799998
0.69700003 -0.15899999 -0.028999999 0 0 0 0 0.055810001
0.699 -0.162 -0.028999999 0 0 0 0 0.055819999
0.70599997 -0.16599999 -0.029999999 0 0 0 0 0.055830002
0.833 -0.198 -0.035999998 0 0 0 0 0.055840001
1.631 -0.39399999 -0.072999999 7 0 0 0 0.055849999
1.617 -0.39500001 -0.074000001 24 0 0 0 0.055860002
1.598 -0.396 -0.075000003 121 0 0 0 0.05587
1.59 -0.39899999 -0.075999998 150 0 0 0 0.055879999
1.521 -0.38699999 -0.074000001 150 0 0 0 0.055890001
1.475 -0.38 -0.072999999 61 0 0 0 0.0559
1.193 -0.31099999 -0.059999999 0 0 0 0 0.055909999
1.178 -0.31099999 -0.059999999 0 0 0 0 0.055920001
1.188 -0.317 -0.061999999 0 0 0 0 0.05593
1.2359999 -0.33399999 -0.064999998 0 0 0 0 0.055939998
1.3099999 -0.359 -0.071000002 0 0 0 0 0.055950001
1.582 -0.43799999 -0.086999997 10 0 0 0 0.05596
1.589 -0.44499999 -0.089000002 150 0 0 0 0.055969998
1.585 -0.449 -0.090000004 150 0 0 0 0.055980001
1.581 -0.45300001 -0.090999998 151 0 0 0 0.055989999
1.58 -0.458 -0.093000002 151 0 0 0 0.056000002
1.576 -0.46200001 -0.093999997 151 0 0 0 0.05601
1.575 -0.46700001 -0.096000001 151 0 0 0 0.056019999
1.575 -0.472 -0.097000003 151 0 0 0 0.056030001
1.572 -0.47600001 -0.098999999 151 0 0 0 0.05604
1.572 -0.48100001 -0.1 150 0 0 0 0.056049999
1.568 -0.48500001 -0.102 151 0 0 0 0.056060001
1.567 -0.49000001 -0.103 151 0 0 0 0.05607
1.568 -0.495 -0.105 151 0 0 0 0.056079999
1.566 -0.49900001 -0.107 151 0 0 0 0.056090001
1.5650001 -0.50400001 -0.108 151 0 0 0 0.0561
1.563 -0.50800002 -0.11 151 0 0 0 0.056109998
1.5599999 -0.51200002 -0.111 151 0 0 0 0.056120001
1.556 -0.51599997 -0.113 151 0 0 0 0.056129999
1.5549999 -0.52100003 -0.114 151 0 0 0 0.056139998
1.5549999 -0.52600002 -0.116 151 0 0 0 0.056150001
1.5549999 -0.53100002 -0.118 151 0 0 0 0.056159999
1.551 -0.53500003 -0.119 151 0 0 0 0.056170002
1.552 -0.54000002 -0.121 151 0 0 0 0.05618
1.548 -0.54299998 -0.123 151 0 0 0 0.056189999
1.546 -0.54799998 -0.124 151 0 0 0 0.056200001
1.545 -0.55199999 -0.126 151 0 0 0 0.05621
1.545 -0.55699998 -0.12800001 151 0 0 0 0.056219999
1.545 -0.56199998 -0.13 151 0 0 0 0.056230001
1.539 -0.565 -0.131 151 0 0 0 0.05624
1.543 -0.57099998 -0.134 151 0 0 0 0.056249999
1.541 -0.57499999 -0.13500001 151 0 0 0 0.056260001
1.543 -0.58099997 -0.13699999 151 0 0 0 0.05627
1.535 -0.583 -0.139 151 0 0 0 0.056279998
1.5369999 -0.58899999 -0.141 151 0 0 0 0.056290001
1.533 -0.59200001 -0.142 151 0 0 0 0.056299999
1.531 -0.59600002 -0.14399999 151 0 0 0 0.056310002
1.535 -0.602 -0.147 151 0 0 0 0.05632
1.531 -0.60600001 -0.148 151 0 0 0 0.056329999
1.536 -0.61199999 -0.15099999 151 0 0 0 0.056340002
1.529 -0.61400002 -0.152 151 0 0 0 0.05635
1.525 -0.61699998 -0.154 151 0 0 0 0.056359999
1.528 -0.62300003 -0.156 150 0 0 0 0.056370001
1.528 -0.62800002 -0.15800001 150 0 0 0 0.05638
1.526 -0.63200003 -0.16 151 0 0 0 0.056389999
1.524 -0.63599998 -0.162 151 0 0 0 0.056400001
1.525 -0.64099997 -0.164 151 0 0 0 0.05641
1.523 -0.64499998 -0.16599999 151 0 0 0 0.056419998
1.518 -0.648 -0.168 150 0 0 0 0.056430001
1.5190001 -0.653 -0.17 150 0 0 0 0.056439999
1.516 -0.65600002 -0.17200001 150 0 0 0 0.056449998
1.515 -0.66100001 -0.17399999 150 0 0 0 0.056460001
1.5140001 -0.66399997 -0.176 151 0 0 0 0.056469999
1.515 -0.67000002 -0.17900001 150 0 0 0 0.056480002
1.51 -0.67199999 -0.18000001 150 0 0 0 0.05649
1.508 -0.676 -0.182 150 0 0 0 0.056499999
1.51 -0.68099999 -0.185 150 0 0 0 0.056510001
1.512 -0.68699998 -0.18700001 150 0 0 0 0.05652
1.512 -0.69099998 -0.19 150 0 0 0 0.056529999
1.508 -0.69400001 -0.191 150 0 0 0 0.056540001
1.508 -0.699 -0.19400001 150 0 0 0 0.05655
1.5039999 -0.70099998 -0.19599999 151 0 0 0 0.056559999
1.5039999 -0.70599997 -0.198 150 0 0 0 0.056570001
1.5039999 -0.70999998 -0.2 150 0 0 0 0.05658
1.507 -0.71600002 -0.20299999 150 0 0 0 0.056589998
1.505 -0.71899998 -0.205 150 0 0 0 0.056600001
1.503 -0.72299999 -0.207 150 0 0 0 0.056609999
1.498 -0.72500002 -0.20900001 150 0 0 0 0.056620002
1.499 -0.72899997 -0.212 150 0 0 0 0.05663
1.5 -0.73500001 -0.215 150 0 0 0 0.056639999
1.498 -0.73799998 -0.21699999 150 0 0 0 0.056650002
1.498 -0.74199998 -0.219 150 0 0 0 0.05666
1.495 -0.74400002 -0.221 150 0 0 0 0.056669999
1.494 -0.74900001 -0.22400001 150 0 0 0 0.056680001
1.492 -0.75199997 -0.226 150 0 0 0 0.05669
1.49 -0.755 -0.228 150 0 0 0 0.056699999
1.4910001 -0.759 -0.23100001 150 0 0 0 0.056710001
1.483 -0.759 -0.23199999 150 0 0 0 0.05672
1.489 -0.76700002 -0.236 150 0 0 0 0.056729998
1.489 -0.77100003 -0.23800001 150 0 0 0 0.056740001
1.487 -0.77399999 -0.241 150 0 0 0 0.05675
1.483 -0.77600002 -0.243 150 0 0 0 0.056759998
1.483 -0.77999997 -0.245 150 0 0 0 0.056770001
1.483 -0.78299999 -0.248 150 0 0 0 0.056779999
1.4809999 -0.78600001 -0.25 150 0 0 0 0.056790002
1.482 -0.79000002 -0.25299999 150 0 0 0 0.0568
1.477 -0.792 -0.255 150 0 0 0 0.056809999
1.48 -0.79699999 -0.25799999 150 0 0 0 0.056820001
1.479 -0.80000001 -0.25999999 150 0 0 0 0.05683
1.48 -0.80500001 -0.26300001 150 0 0 0 0.056839999
1.476 -0.80599999 -0.26499999 150 0 0 0 0.056850001
1.473 -0.80800003 -0.26800001 150 0 0 0 0.05686
1.474 -0.81199998 -0.27000001 150 0 0 0 0.056869999
1.474 -0.81599998 -0.273 150 0 0 0 0.056880001
1.47 -0.81699997 -0.27500001 150 0 0 0 0.05689
1.4680001 -0.81999999 -0.278 150 0 0 0 0.056899998
1.469 -0.824 -0.28099999 150 0 0 0 0.056910001
1.467 -0.82599998 -0.28299999 150 0 0 0 0.056919999
1.465 -0.82800001 -0.285 150 0 0 0 0.056930002
1.465 -0.83200002 -0.28799999 150 0 0 0 0.056940001
1.466 -0.83499998 -0.29100001 150 0 0 0 0.056949999
1.464 -0.838 -0.29300001 150 0 0 0 0.056960002
1.462 -0.83999997 -0.296 150 0 0 0 0.05697
1.461 -0.84200001 -0.29800001 150 0 0 0 0.056979999
1.4630001 -0.847 -0.30199999 150 0 0 0 0.056990001
1.457 -0.84600002 -0.303 150 0 0 0 0.057
1.464 -0.85299999 -0.308 150 0 0 0 0.057009999
1.46 -0.85399997 -0.30899999 150 0 0 0 0.057020001
1.4579999 -0.85600001 -0.31200001 150 0 0 0 0.05703
1.457 -0.85699999 -0.31400001 150 0 0 0 0.057039998
1.455 -0.85900003 -0.317 150 0 0 0 0.057050001
1.454 -0.86199999 -0.31900001 150 0 0 0 0.05706
1.4529999 -0.86299998 -0.322 150 0 0 0 0.057069998
1.457 -0.86900002 -0.32600001 150 0 0 0 0.057080001
1.4529999 -0.86900002 -0.32800001 150 0 0 0 0.057089999
1.456 -0.87300003 -0.331 150 0 0 0 0.057100002
1.454 -0.875 -0.333 150 0 0 0 0.05711
1.455 -0.87800002 -0.33700001 150 0 0 0 0.057119999
1.451 -0.87800002 -0.338 150 0 0 0 0.057130001
1.45 -0.87900001 -0.34099999 150 0 0 0 0.05714
1.452 -0.88300002 -0.34400001 150 0 0 0 0.057149999
1.452 -0.88499999 -0.347 150 0 0 0 0.057160001
1.454 -0.88800001 -0.34999999 150 0 0 0 0.05717
1.452 -0.88999999 -0.35299999 150 0 0 0 0.057179999
1.451 -0.89099997 -0.35499999 150 0 0 0 0.057190001
1.45 -0.89200002 -0.35699999 150 0 0 0 0.0572
1.449 -0.89399999 -0.36000001 150 0 0 0 0.057209998
1.448 -0.89499998 -0.36300001 150 0 0 0 0.057220001
1.45 -0.898 -0.366 150 0 0 0 0.057229999
1.4450001 -0.89600003 -0.36700001 150 0 0 0 0.057240002
1.45 -0.90100002 -0.37099999 150 0 0 0 0.057250001
1.447 -0.90100002 -0.373 150 0 0 0 0.057259999
1.446 -0.90200001 -0.37599999 150 0 0 0 0.057270002
1.447 -0.90399998 -0.37900001 150 0 0 0 0.05728
1.444 -0.903 -0.38 150 0 0 0 0.057289999
1.4450001 -0.90499997 -0.38299999 150 0 0 0 0.057300001
1.444 -0.90600002 -0.38600001 150 0 0 0 0.05731
1.446 -0.90799999 -0.389 150 0 0 0 0.057319999
1.444 -0.90799999 -0.391 150 0 0 0 0.057330001
1.4450001 -0.91000003 -0.39399999 150 0 0 0 0.05734
1.446 -0.912 -0.39700001 150 0 0 0 0.057349999
1.4450001 -0.912 -0.39899999 150 0 0 0 0.057360001
1.442 -0.91100001 -0.40099999 150 0 0 0 0.05737
1.444 -0.91299999 -0.40400001 150 0 0 0 0.057379998
1.443 -0.91299999 -0.40599999 150 0 0 0 0.057390001
1.442 -0.91299999 -0.40799999 150 0 0 0 0.057399999
1.442 -0.91299999 -0.41 150 0 0 0 0.057410002
1.443 -0.91500002 -0.41299999 150 0 0 0 0.05742
1.442 -0.91399997 -0.41499999 150 0 0 0 0.057429999
1.443 -0.91500002 -0.41800001 150 0 0 0 0.057440002
1.443 -0.91600001 -0.41999999 150 0 0 0 0.05745
1.442 -0.91500002 -0.42199999 150 0 0 0 0.057459999
1.442 -0.91500002 -0.42500001 150 0 0 0 0.057470001
1.442 -0.91500002 -0.42699999 150 0 0 0 0.05748
1.443 -0.91600001 -0.42899999 150 0 0 0 0.057489999
1.441 -0.91399997 -0.43099999 150 0 0 0 0.057500001
1.441 -0.91399997 -0.433 150 0 0 0 0.05751
1.4400001 -0.91399997 -0.435 150 0 0 0 0.057519998
1.442 -0.91399997 -0.43799999 150 0 0 0 0.057530001
1.441 -0.91399997 -0.44 150 0 0 0 0.057539999
1.441 -0.91299999 -0.442 150 0 0 0 0.057549998
1.439 -0.91100001 -0.44299999 150 0 0 0 0.057560001
1.441 -0.912 -0.44600001 150 0 0 0 0.057569999
1.441 -0.91100001 -0.44800001 150 0 0 0 0.057580002
1.442 -0.91100001 -0.44999999 150 0 0 0 0.05759
1.441 -0.90899998 -0.45100001 150 0 0 0 0.057599999
1.442 -0.90899998 -0.454 150 0 0 0 0.057610001
1.441 -0.90700001 -0.45500001 150 0 0 0 0.05762
1.439 -0.90499997 -0.456 150 0 0 0 0.057629999
1.442 -0.90600002 -0.45899999 150 0 0 0 0.057640001
1.442 -0.90499997 -0.461 150 0 0 0 0.05765
1.443 -0.90399998 -0.46200001 150 0 0 0 0.057659999
1.443 -0.903 -0.46399999 150 0 0 0 0.057670001
1.443 -0.90200001 -0.46599999 150 0 0 0 0.05768
1.442 -0.89899999 -0.46700001 150 0 0 0 0.057689998
1.442 -0.898 -0.46799999 150 0 0 0 0.057700001
1.442 -0.89700001 -0.47 150 0 0 0 0.057709999
1.444 -0.89600003 -0.472 150 0 0 0 0.057720002
1.446 -0.89499998 -0.47400001 150 0 0 0 0.05773
1.4450001 -0.89300001 -0.47499999 150 0 0 0 0.057739999
1.449 -0.89399999 -0.47799999 150 0 0 0 0.057750002
1.446 -0.88999999 -0.47799999 150 0 0 0 0.05776
1.447 -0.88800001 -0.479 150 0 0 0 0.057769999
1.447 -0.88700002 -0.48100001 150 0 0 0 0.057780001
1.448 -0.88499999 -0.48199999 150 0 0 0 0.05779
1.449 -0.88300002 -0.48300001 150 0 0 0 0.057799999
1.451 -0.88200003 -0.48500001 150 0 0 0 0.057810001
1.45 -0.87900001 -0.486 150 0 0 0 0.05782
1.451 -0.87800002 -0.48699999 150 0 0 0 0.057829998
1.452 -0.87599999 -0.48800001 150 0 0 0 0.057840001
1.452 -0.87400001 -0.48899999 150 0 0 0 0.05785
1.4529999 -0.87099999 -0.491 150 0 0 0 0.057859998
1.454 -0.86900002 -0.49200001 150 0 0 0 0.057870001
1.452 -0.86500001 -0.49200001 150 0 0 0 0.057879999
1.454 -0.86400002 -0.493 150 0 0 0 0.057890002
1.4529999 -0.86000001 -0.493 150 0 0 0 0.0579
1.454 -0.85799998 -0.49399999 150 0 0 0 0.057909999
1.455 -0.85600001 -0.495 150 0 0 0 0.057920001
1.457 -0.85399997 -0.49599999 150 0 0 0 0.05793
1.461 -0.85399997 -0.498 150 0 0 0 0.057939999
1.459 -0.84899998 -0.498 150 0 0 0 0.057950001
1.46 -0.847 -0.49900001 150 0 0 0 0.05796
1.459 -0.84299999 -0.49900001 150 0 0 0 0.057969999
1.462 -0.84100002 -0.5 150 0 0 0 0.057980001
1.4630001 -0.83899999 -0.50099999 150 0 0 0 0.05799
1.464 -0.83600003 -0.50099999 150 0 0 0 0.057999998
1.466 -0.83399999 -0.50199997 150 0 0 0 0.058010001
1.467 -0.83099997 -0.50199997 150 0 0 0 0.058019999
1.4680001 -0.82800001 -0.50300002 150 0 0 0 0.058030002
1.4680001 -0.82499999 -0.50300002 150 0 0 0 0.05804
1.469 -0.82200003 -0.50300002 150 0 0 0 0.058049999
1.471 -0.81900001 -0.50400001 150 0 0 0 0.058060002
1.474 -0.81699997 -0.505 150 0 0 0 0.05807
1.469 -0.81099999 -0.50300002 150 0 0 0 0.058079999
1.475 -0.81 -0.505 150 0 0 0 0.058090001
1.476 -0.80699998 -0.505 150 0 0 0 0.0581
1.475 -0.80299997 -0.50400001 30 0 0 0 0.058109999
1.475 -0.79900002 -0.50400001 150 0 0 0 0.058120001
1.478 -0.79699999 -0.505 150 0 0 0 0.05813
1.478 -0.79299998 -0.50400001 150 0 0 0 0.058139998
1.48 -0.79000002 -0.50400001 150 0 0 0 0.058150001
1.4809999 -0.787 -0.50400001 150 0 0 0 0.05816
1.483 -0.78399998 -0.50400001 150 0 0 0 0.058169998
1.484 -0.77999997 -0.50400001 150 0 0 0 0.058180001
1.484 -0.77600002 -0.50400001 150 0 0 0 0.058189999
1.4809999 -0.76999998 -0.50199997 150 0 0 0 0.058200002
1.487 -0.76899999 -0.50300002 150 0 0 0 0.05821
1.484 -0.764 -0.50099999 150 0 0 0 0.058219999
1.4859999 -0.76099998 -0.50099999 150 0 0 0 0.058230001
1.488 -0.75700003 -0.50099999 150 0 0 0 0.05824
1.4910001 -0.755 -0.50099999 150 0 0 0 0.058249999
1.489 -0.74900001 -0.5 150 0 0 0 0.058260001
1.493 -0.74699998 -0.5 150 0 0 0 0.05827
1.494 -0.74400002 -0.49900001 150 0 0 0 0.058279999
1.4960001 -0.74000001 -0.49900001 150 0 0 0 0.058290001
1.492 -0.73400003 -0.49700001 150 0 0 0 0.0583
1.495 -0.73100001 -0.49599999 150 0 0 0 0.058309998
1.4960001 -0.727 -0.49599999 150 0 0 0 0.058320001
1.498 -0.72299999 -0.495 150 0 0 0 0.058329999
1.5 -0.72000003 -0.495 150 0 0 0 0.058340002
1.5 -0.71600002 -0.493 150 0 0 0 0.058350001
1.501 -0.71200001 -0.493 150 0 0 0 0.058359999
1.503 -0.708 -0.49200001 150 0 0 0 0.058370002
1.505 -0.70499998 -0.491 150 0 0 0 0.05838
1.507 -0.70099998 -0.49000001 14 0 0 0 0.058389999
1.5089999 -0.69800001 -0.49000001 150 0 0 0 0.058400001
1.511 -0.69400001 -0.48899999 150 0 0 0 0.05841
1.51 -0.68900001 -0.48699999 150 0 0 0 0.058419999
1.515 -0.68699998 -0.48699999 150 0 0 0 0.058430001
1.512 -0.68099999 -0.484 150 0 0 0 0.05844
1.516 -0.67799997 -0.484 150 0 0 0 0.058449998
1.515 -0.67299998 -0.48199999 150 0 0 0 0.058460001
1.517 -0.66900003 -0.48100001 150 0 0 0 0.05847
1.5190001 -0.66500002 -0.47999999 150 0 0 0 0.058479998
1.521 -0.662 -0.479 150 0 0 0 0.058490001
1.521 -0.65700001 -0.477 150 0 0 0 0.058499999
1.525 -0.65399998 -0.477 150 0 0 0 0.058510002
1.524 -0.64899999 -0.47499999 150 0 0 0 0.05852
1.522 -0.64399999 -0.472 150 0 0 0 0.058529999
1.529 -0.64200002 -0.472 150 0 0 0 0.058540002
1.526 -0.63599998 -0.47 150 0 0 0 0.05855
1.528 -0.63200003 -0.46799999 14 0 0 0 0.058559999
1.53 -0.62900001 -0.46700001 150 0 0 0 0.058570001
1.5319999 -0.625 -0.46599999 150 0 0 0 0.05858
1.535 -0.62099999 -0.46399999 150 0 0 0 0.058589999
1.536 -0.61699998 -0.463 150 0 0 0 0.058600001
1.538 -0.61299998 -0.461 150 0 0 0 0.05861
1.539 -0.60799998 -0.45899999 150 0 0 0 0.058619998
1.539 -0.60399997 -0.45699999 150 0 0 0 0.058630001
1.544 -0.60100001 -0.45699999 150 0 0 0 0.058639999
1.543 -0.59600002 -0.454 150 0 0 0 0.058649998
1.545 -0.59200001 -0.45300001 150 0 0 0 0.058660001
1.549 -0.58899999 -0.45199999 150 0 0 0 0.058669999
1.551 -0.58499998 -0.44999999 150 0 0 0 0.058680002
1.551 -0.57999998 -0.44800001 150 0 0 0 0.05869
1.551 -0.57599998 -0.44499999 150 0 0 0 0.058699999
1.55 -0.57099998 -0.44299999 150 0 0 0 0.058710001
1.552 -0.56699997 -0.44100001 150 0 0 0 0.05872
1.554 -0.56300002 -0.43900001 150 0 0 0 0.058729999
1.556 -0.55900002 -0.43700001 150 0 0 0 0.058740001
1.554 -0.55299997 -0.43399999 150 0 0 0 0.05875
1.556 -0.54900002 -0.433 150 0 0 0 0.058759999
1.558 -0.54500002 -0.43099999 150 0 0 0 0.058770001
1.5599999 -0.54100001 -0.42899999 150 0 0 0 0.05878
1.562 -0.537 -0.42699999 150 0 0 0 0.058789998
1.564 -0.53299999 -0.42500001 150 0 0 0 0.058800001
1.566 -0.52899998 -0.42300001 150 0 0 0 0.058809999
1.568 -0.52499998 -0.421 150 0 0 0 0.058820002
1.5700001 -0.52100003 -0.419 150 0 0 0 0.05883
1.572 -0.51700002 -0.41600001 150 0 0 0 0.058839999
1.574 -0.51300001 -0.414 150 0 0 0 0.058850002
1.575 -0.509 -0.412 150 0 0 0 0.05886
1.577 -0.505 -0.41 150 0 0 0 0.058869999
1.5779999 -0.50099999 -0.40700001 150 0 0 0 0.058880001
1.576 -0.495 -0.40400001 150 0 0 0 0.05889
1.582 -0.493 -0.403 150 0 0 0 0.058899999
1.576 -0.486 -0.39899999 150 0 0 0 0.058910001
1.577 -0.48199999 -0.396 150 0 0 0 0.05892
1.579 -0.47799999 -0.39399999 150 0 0 0 0.058929998
1.589 -0.47600001 -0.39399999 150 0 0 0 0.058940001
1.5829999 -0.46900001 -0.389 150 0 0 0 0.05895
1.59 -0.46700001 -0.38800001 150 0 0 0 0.058959998
1.586 -0.461 -0.384 150 0 0 0 0.058970001
1.5880001 -0.45699999 -0.382 150 0 0 0 0.058979999
1.59 -0.45300001 -0.38 150 0 0 0 0.058990002
1.592 -0.449 -0.377 150 0 0 0 0.059
1.5930001 -0.44499999 -0.375 150 0 0 0 0.059009999
1.594 -0.44100001 -0.37200001 150 0 0 0 0.059020001
1.597 -0.43700001 -0.36899999 150 0 0 0 0.05903
1.598 -0.43200001 -0.36700001 150 0 0 0 0.059039999
1.599 -0.428 -0.36399999 150 0 0 0 0.059050001
1.599 -0.42399999 -0.361 150 0 0 0 0.05906
1.603 -0.41999999 -0.359 150 0 0 0 0.059069999
1.605 -0.41600001 -0.35600001 150 0 0 0 0.059080001
1.608 -0.412 -0.354 150 0 0 0 0.05909
1.5650001 -0.39700001 -0.34099999 46 0 0 0 0.059099998
1.4529999 -0.36399999 -0.31400001 9 0 0 0 0.059110001
1.279 -0.317 -0.27399999 4 0 0 0 0.059119999
1.2029999 -0.29499999 -0.255 0 0 0 0 0.059130002
1.1950001 -0.28999999 -0.252 1 0 0 0 0.05914
1.194 -0.28600001 -0.249 1 0 0 0 0.059149999
1.191 -0.28200001 -0.24600001 2 0 0 0 0.059160002
1.187 -0.278 -0.243 3 0 0 0 0.05917
1.274 -0.29499999 -0.25799999 8 0 0 0 0.059179999
1.477 -0.338 -0.29699999 105 0 0 0 0.059190001
1.53 -0.345 -0.30399999 150 0 0 0 0.0592
1.599 -0.35699999 -0.315 150 0 0 0 0.059209999
1.529 -0.33700001 -0.29800001 150 0 0 0 0.059220001
1.4680001 -0.31900001 -0.28299999 150 0 0 0 0.05923
1.454 -0.31299999 -0.278 144 0 0 0 0.059239998
1.464 -0.31099999 -0.27700001 28 0 0 0 0.059250001
1.589 -0.333 -0.29699999 7 0 0 0 0.05926
0.90200001 -0.186 -0.167 0 0 0 0 0.059269998
0.88099998 -0.18000001 -0.161 0 0 0 0 0.059280001
0.77899998 -0.15700001 -0.141 0 0 0 0 0.059289999
0.73799998 -0.147 -0.132 0 0 0 0 0.059300002
0.74599999 -0.146 -0.132 0 0 0 0 0.05931
0.69199997 -0.134 -0.121 0 0 0 0 0.059319999
0.69999999 -0.133 -0.121 0 0 0 0 0.059330001
0.65899998 -0.124 -0.112 0 0 0 0 0.05934
0.66500002 -0.123 -0.112 0 0 0 0 0.059349999
0.653 -0.119 -0.108 0 0 0 0 0.059360001
0.66299999 -0.119 -0.109 0 0 0 0 0.05937
0.64200002 -0.114 -0.104 0 0 0 0 0.059379999
0.639 -0.111 -0.102 0 0 0 0 0.059390001
0.63700002 -0.11 -0.101 0 0 0 0 0.0594
0.63800001 -0.108 -0.098999999 0 0 0 0 0.059409998
0.616 -0.103 -0.094999999 0 0 0 0 0.059420001
0.60299999 -0.098999999 -0.090999998 0 0 0 0 0.059429999
0.60399997 -0.097000003 -0.090000004 0 0 0 0 0.059440002
0.59600002 -0.094999999 -0.088 0 0 0 0 0.059450001
0.58899999 -0.092 -0.086000003 0 0 0 0 0.059459999
0.57599998 -0.088 -0.082000002 0 0 0 0 0.059470002
0.56400001 -0.085000001 -0.079999998 0 0 0 0 0.05948
0.56599998 -0.083999999 -0.079000004 0 0 0 0 0.059489999
0.574 -0.083999999 -0.079000004 0 0 0 0 0.059500001
0.574 -0.082000002 -0.077 0 0 0 0 0.05951
0.58200002 -0.082000002 -0.077 0 0 0 0 0.059519999
1.671 -0.23199999 -0.219 16 0 0 0 0.059530001
1.626 -0.222 -0.20900001 48 0 0 0 0.05954
1.626 -0.21799999 -0.206 100 0 0 0 0.059549998
1.63 -0.214 -0.20299999 150 0 0 0 0.059560001
1.641 -0.211 -0.20100001 150 0 0 0 0.05957
1.658 -0.20900001 -0.199 150 0 0 0 0.059579998
1.669 -0.207 -0.197 150 0 0 0 0.059590001
1.6799999 -0.204 -0.19499999 150 0 0 0 0.059599999
1.682 -0.2 -0.191 150 0 0 0 0.059610002
1.684 -0.19599999 -0.18799999 150 0 0 0 0.05962
1.694 -0.193 -0.186 73 0 0 0 0.059629999
1.6670001 -0.186 -0.17900001 47 0 0 0 0.059640002
1.658 -0.18099999 -0.17399999 11 0 0 0 0.05965
1.6569999 -0.176 -0.171 1 0 0 0 0.059659999
1.456 -0.15099999 -0.147 0 0 0 0 0.059670001
1.3710001 -0.139 -0.13500001 0 0 0 0 0.05968
1.327 -0.131 -0.12800001 0 0 0 0 0.059689999
1.252 -0.121 -0.118 0 0 0 0 0.059700001
1.132 -0.106 -0.104 0 0 0 0 0.05971
1.0089999 -0.093000002 -0.090000004 0 0 0 0 0.059719998
0.98900002 -0.088 -0.086000003 0 0 0 0 0.059730001
1.39 -0.121 -0.119 0 0 0 0 0.059739999
1.6619999 -0.141 -0.138 0 0 0 0 0.059749998
1.663 -0.13699999 -0.13500001 0 0 0 0 0.059760001
1.675 -0.134 -0.132 0 0 0 0 0.059769999
1.5930001 -0.123 -0.122 0 0 0 0 0.059780002
1.2920001 -0.097000003 -0.096000001 0 0 0 0 0.05979
0.93900001 -0.068000004 -0.067000002 0 0 0 0 0.059799999
0.87 -0.061000001 -0.061000001 0 0 0 0 0.059810001
1.03 -0.07 -0.068999998 0 0 0 0 0.05982
1.401 -0.092 -0.092 0 0 0 0 0.059829999
1.382 -0.086999997 -0.086999997 22 0 0 0 0.059840001
1.36 -0.082999997 -0.082999997 15 0 0 0 0.05985
1.2819999 -0.075000003 -0.075000003 28 0 0 0 0.059859999
1.274 -0.071000002 -0.071999997 6 0 0 0 0.059870001
1.38 -0.074000001 -0.075000003 1 0 0 0 0.05988
1.375 -0.071000002 -0.071000002 0 0 0 0 0.059889998
1.395 -0.068000004 -0.068999998 2 0 0 0 0.059900001
1.403 -0.066 -0.066 4 0 0 0 0.059909999
1.424 -0.063000001 -0.064000003 2 0 0 0 0.059920002
1.416 -0.059999999 -0.061000001 0 0 0 0 0.05993
1.498 -0.059999999 -0.061000001 0 0 0 0 0.059939999
1.744 -0.064999998 -0.067000002 1 0 0 0 0.059950002
1.752 -0.061999999 -0.063000001 14 0 0 0 0.05996
1.74 -0.057 -0.059 140 0 0 0 0.059969999
1.738 -0.052999999 -0.055 150 0 0 0 0.059980001
1.675 -0.046999998 -0.048999999 150 0 0 0 0.05999
1.66 -0.043000001 -0.045000002 15 0 0 0 0.059999999
1.7 -0.039999999 -0.041999999 10 0 0 0 0.060010001
1.73 -0.037 -0.039000001 24 0 0 0 0.06002
1.739 -0.033 -0.035 12 0 0 0 0.060029998
1.724 -0.028999999 -0.029999999 55 0 0 0 0.060040001
1.717 -0.025 -0.026000001 150 0 0 0 0.06005
1.738 -0.022 -0.023 33 0 0 0 0.060059998
1.6849999 -0.017000001 -0.017999999 8 0 0 0 0.060070001
1.613 -0.013 -0.013 8 0 0 0 0.060079999
1.546 -0.0089999996 -0.0089999996 11 0 0 0 0.060090002
1.495 -0.0049999999 -0.0049999999 9 0 0 0 0.0601
1.4809999 -0.0020000001 -0.0020000001 7 0 0 0 0.060109999
1.473 0.001 0.001 7 0 0 0 0.060120001
1.475 0.0040000002 0.0040000002 6 0 0 0 0.06013
1.476 0.0070000002 0.0070000002 5 0 0 0 0.060139999
1.469 0.011 0.011 5 0 0 0 0.060150001
1.4680001 0.014 0.014 6 0 0 0 0.06016
1.507 0.017999999 0.017999999 23 0 0 0 0.060169999
1.658 0.023 0.024 146 0 0 0 0.060180001
1.7359999 0.028000001 0.028999999 150 0 0 0 0.06019
1.7690001 0.032000002 0.034000002 150 0 0 0 0.060199998
1.763 0.035999998 0.037999999 49 0 0 0 0.060210001
1.778 0.039999999 0.043000001 87 0 0 0 0.060219999
1.7690001 0.044 0.046999998 150 0 0 0 0.060230002
1.783 0.048 0.050999999 22 0 0 0 0.06024
1.788 0.052000001 0.056000002 16 0 0 0 0.060249999
1.78 0.056000002 0.059999999 117 0 0 0 0.060260002
1.777 0.059999999 0.064000003 150 0 0 0 0.06027
1.777 0.064000003 0.068000004 150 0 0 0 0.060279999
1.777 0.068000004 0.071999997 150 0 0 0 0.060290001
1.776 0.071000002 0.077 150 0 0 0 0.0603
1.776 0.075000003 0.081 150 0 0 0 0.060309999
1.779 0.079000004 0.085000001 150 0 0 0 0.060320001
1.784 0.082999997 0.090000004 150 0 0 0 0.06033
1.784 0.086999997 0.093999997 150 0 0 0 0.060339998
1.785 0.090999998 0.098999999 150 0 0 0 0.060350001
1.783 0.094999999 0.103 150 0 0 0 0.06036
1.785 0.098999999 0.107 150 0 0 0 0.060369998
1.7869999 0.103 0.112 150 0 0 0 0.060380001
1.789 0.107 0.116 150 0 0 0 0.060389999
1.789 0.11 0.121 150 0 0 0 0.060400002
1.7920001 0.114 0.126 150 0 0 0 0.06041
1.794 0.118 0.13 150 0 0 0 0.060419999
1.794 0.122 0.134 150 0 0 0 0.060430001
1.7970001 0.126 0.139 150 0 0 0 0.06044
1.796 0.13 0.14399999 150 0 0 0 0.060449999
1.798 0.134 0.148 150 0 0 0 0.060460001
1.7970001 0.13699999 0.153 150 0 0 0 0.06047
1.8 0.142 0.15700001 150 0 0 0 0.060479999
1.799 0.145 0.162 150 0 0 0 0.060490001
1.8049999 0.149 0.167 150 0 0 0 0.0605
1.809 0.154 0.17200001 150 0 0 0 0.060509998
1.8150001 0.15800001 0.177 17 0 0 0 0.060520001
1.791 0.16 0.17900001 8 0 0 0 0.060529999
1.77 0.161 0.18099999 2 0 0 0 0.060540002
1.77 0.16500001 0.186 3 0 0 0 0.060550001
1.774 0.169 0.191 7 0 0 0 0.060559999
1.8279999 0.178 0.20100001 8 0 0 0 0.060570002
1.872 0.186 0.211 14 0 0 0 0.06058
1.875 0.19 0.21600001 10 0 0 0 0.060589999
1.881 0.19499999 0.222 3 0 0 0 0.060600001
1.933 0.204 0.233 1 0 0 0 0.06061
1.959 0.211 0.241 1 0 0 0 0.060619999
1.959 0.215 0.24600001 1 0 0 0 0.060630001
1.993 0.223 0.255 1 0 0 0 0.06064
1.924 0.219 0.25099999 2 0 0 0 0.060649998
1.88 0.21799999 0.25099999 4 0 0 0 0.060660001
1.8839999 0.222 0.25600001 6 0 0 0 0.06067
1.938 0.23199999 0.26800001 4 0 0 0 0.060679998
1.942 0.237 0.27399999 3 0 0 0 0.060690001
1.92 0.23800001 0.27599999 5 0 0 0 0.060699999
1.892 0.23800001 0.27700001 17 0 0 0 0.060710002
1.888 0.242 0.28099999 13 0 0 0 0.06072
1.893 0.24600001 0.287 58 0 0 0 0.060729999
1.901 0.25099999 0.29300001 63 0 0 0 0.060740001
1.91 0.25600001 0.30000001 40 0 0 0 0.06075
1.925 0.26199999 0.30700001 33 0 0 0 0.060759999
0 0 0 0 0 0 0 0.060770001
0 0 0 0 0 0 0 0.06078
0 0 0 0 0 0 0 0.060789999
3.6040001 0.51899999 0.61400002 26 0 0 0 0.060800001
0 0 0 0 0 0 0 0.06081
0 0 0 0 0 0 0 0.060819998
1.928 0.289 0.34400001 2 0 0 0 0.060830001
1.913 0.28999999 0.34599999 8 0 0 0 0.060839999
1.9119999 0.294 0.35100001 31 0 0 0 0.060849998
1.9220001 0.29899999 0.35800001 39 0 0 0 0.060860001
1.933 0.30500001 0.366 24 0 0 0 0.060869999
0 0 0 0 0 0 0 0.060880002
0 0 0 0 0 0 0 0.06089
2.0079999 0.32800001 0.396 111 0 0 0 0.060899999
1.997 0.33000001 0.40000001 11 0 0 0 0.060910001
1.9960001 0.33399999 0.405 11 0 0 0 0.06092
1.993 0.33700001 0.41 11 0 0 0 0.060929999
1.98 0.33899999 0.41299999 4 0 0 0 0.060940001
1.939 0.33500001 0.41 3 0 0 0 0.06095
1.939 0.33899999 0.41499999 14 0 0 0 0.060959999
1.946 0.34400001 0.42199999 43 0 0 0 0.060970001
1.955 0.34900001 0.42899999 30 0 0 0 0.06098
0 0 0 0 0 0 0 0.060989998
2.0880001 0.38100001 0.47 151 0 0 0 0.061000001
0 0 0 0 0 0 0 0.061009999
0 0 0 0 0 0 0 0.061020002
3.474 0.653 0.81199998 150 0 0 0 0.06103
3.474 0.66000003 0.82200003 150 0 0 0 0.061039999
3.4809999 0.667 0.833 150 0 0 0 0.061050002
3.4849999 0.67400002 0.84399998 150 0 0 0 0.06106
3.484 0.68099999 0.85399997 150 0 0 0 0.061069999
3.4890001 0.68800002 0.86500001 150 0 0 0 0.061080001
3.494 0.69499999 0.87599999 150 0 0 0 0.06109
3.4949999 0.70200002 0.88700002 150 0 0 0 0.061099999
3.4949999 0.708 0.89700001 150 0 0 0 0.061110001
3.4979999 0.71499997 0.90700001 150 0 0 0 0.06112
3.5020001 0.722 0.91900003 150 0 0 0 0.061129998
3.503 0.72799999 0.92900002 150 0 0 0 0.061140001
3.5020001 0.73400003 0.93900001 150 0 0 0 0.061149999
3.5009999 0.74000001 0.949 150 0 0 0 0.061159998
3.506 0.74800003 0.96100003 150 0 0 0 0.061170001
3.506 0.75400001 0.97100002 150 0 0 0 0.061179999
3.5090001 0.75999999 0.98199999 150 0 0 0 0.061190002
3.5139999 0.76700002 0.99299997 150 0 0 0 0.0612
3.513 0.773 1.0039999 150 0 0 0 0.061209999
3.5150001 0.77999997 1.015 150 0 0 0 0.061220001
3.52 0.787 1.027 150 0 0 0 0.06123
3.5220001 0.79299998 1.0369999 150 0 0 0 0.061239999
3.5190001 0.79799998 1.0470001 150 0 0 0 0.061250001
3.523 0.80500001 1.059 150 0 0 0 0.06126
3.5280001 0.81199998 1.071 150 0 0 0 0.061269999
3.428 0.79500002 1.051 152 0 0 0 0.061280001
2.4289999 0.56699997 0.75199997 151 0 0 0 0.06129
2.313 0.54400003 0.72299999 151 0 0 0 0.061299998
0 0 0 0 0 0 0 0.061310001
2.1359999 0.509 0.68000001 38 0 0 0 0.061319999
2.1140001 0.50700003 0.68000001 39 0 0 0 0.061330002
2.102 0.50800002 0.68199998 39 0 0 0 0.06134
2.076 0.505 0.68000001 46 0 0 0 0.061349999
2.059 0.50400001 0.68099999 46 0 0 0 0.061360002
2.04 0.50199997 0.68000001 48 0 0 0 0.06137
2.0250001 0.50199997 0.68099999 51 0 0 0 0.061379999
2.0079999 0.50099999 0.68199998 51 0 0 0 0.061390001
