# .PCD v0.7 - Point Cloud Data file format
VERSION 0.7
FIELDS x y z intensity normal_x normal_y normal_z curvature
SIZE 4 4 4 4 4 4 4 4
TYPE F F F F F F F F
COUNT 1 1 1 1 1 1 1 1
WIDTH 1028
HEIGHT 1
VIEWPOINT 0 0 0 1 0 0 0
POINTS 1028
DATA ascii
1.026 -0.69300002 -0.17299999 150 0 0 0 0.03114
1.028 -0.69400001 -0.175 150 0 0 0 0.03115
1.034 -0.699 -0.177 150 0 0 0 0.031160001
1.0319999 -0.69800001 -0.17900001 150 0 0 0 0.031169999
1.025 -0.69400001 -0.17900001 150 0 0 0 0.03118
1.031 -0.69800001 -0.182 150 0 0 0 0.03119
1.034 -0.69999999 -0.184 150 0 0 0 0.031199999
1.033 -0.69999999 -0.185 150 0 0 0 0.03121
1.033 -0.69999999 -0.18700001 150 0 0 0 0.03122
1.033 -0.69999999 -0.18799999 150 0 0 0 0.031230001
1.029 -0.69800001 -0.189 150 0 0 0 0.031239999
1.033 -0.69999999 -0.191 150 0 0 0 0.03125
1.031 -0.699 -0.192 8 0 0 0 0.031259999
1.0319999 -0.69999999 -0.19400001 150 0 0 0 0.031270001
1.0319999 -0.69999999 -0.19599999 150 0 0 0 0.03128
1.0319999 -0.69999999 -0.197 150 0 0 0 0.031289998
1.03 -0.69800001 -0.198 150 0 0 0 0.031300001
1.0319999 -0.699 -0.2 150 0 0 0 0.03131
1.03 -0.69700003 -0.20100001 150 0 0 0 0.031319998
1.0319999 -0.69800001 -0.20299999 150 0 0 0 0.031330001
1.03 -0.69700003 -0.204 150 0 0 0 0.031339999
1.03 -0.69599998 -0.205 150 0 0 0 0.031350002
1.03 -0.69599998 -0.207 150 0 0 0 0.03136
1.035 -0.69800001 -0.20900001 150 0 0 0 0.031369999
1.025 -0.69099998 -0.208 150 0 0 0 0.031380001
1.031 -0.69400001 -0.211 150 0 0 0 0.03139
1.031 -0.69300002 -0.212 150 0 0 0 0.031399999
1.028 -0.69 -0.213 150 0 0 0 0.031410001
1.026 -0.68800002 -0.214 150 0 0 0 0.03142
1.028 -0.68900001 -0.215 150 0 0 0 0.031429999
1.026 -0.68599999 -0.21600001 150 0 0 0 0.031440001
1.03 -0.68800002 -0.21799999 150 0 0 0 0.03145
1.03 -0.68699998 -0.219 150 0 0 0 0.031459998
1.03 -0.68599999 -0.221 150 0 0 0 0.031470001
1.031 -0.685 -0.222 150 0 0 0 0.031479999
1.028 -0.68199998 -0.222 150 0 0 0 0.031490002
1.036 -0.68599999 -0.22499999 150 0 0 0 0.031500001
1.035 -0.68400002 -0.226 150 0 0 0 0.031509999
1.04 -0.68599999 -0.228 150 0 0 0 0.031520002
1.039 -0.68300003 -0.229 81 0 0 0 0.03153
1.044 -0.685 -0.23100001 56 0 0 0 0.031539999
1.043 -0.68300003 -0.23199999 32 0 0 0 0.031550001
1.0470001 -0.68400002 -0.234 17 0 0 0 0.03156
1.043 -0.68000001 -0.234 10 0 0 0 0.031569999
1.041 -0.67699999 -0.234 8 0 0 0 0.031580001
1.0319999 -0.66900003 -0.233 6 0 0 0 0.03159
1.022 -0.66100001 -0.23199999 5 0 0 0 0.031599998
1.02 -0.65799999 -0.23199999 5 0 0 0 0.031610001
1.01 -0.64999998 -0.23 4 0 0 0 0.03162
1.0039999 -0.64399999 -0.23 4 0 0 0 0.031629998
1.0039999 -0.64200002 -0.23 3 0 0 0 0.031640001
0.99400002 -0.634 -0.229 2 0 0 0 0.031649999
0.99299997 -0.63099998 -0.229 2 0 0 0 0.031660002
0.99400002 -0.63 -0.23 2 0 0 0 0.03167
0.991 -0.62599999 -0.23 2 0 0 0 0.031679999
0.99199998 -0.62400001 -0.23100001 2 0 0 0 0.031690001
0.99000001 -0.62099999 -0.23100001 2 0 0 0 0.0317
0.98799998 -0.61699998 -0.23100001 3 0 0 0 0.031709999
0.99000001 -0.61699998 -0.23199999 2 0 0 0 0.031720001
0.986 -0.61199999 -0.23199999 3 0 0 0 0.03173
0.98799998 -0.611 -0.233 4 0 0 0 0.031739999
0.98699999 -0.60799998 -0.233 4 0 0 0 0.031750001
0.991 -0.60799998 -0.234 4 0 0 0 0.03176
1 -0.611 -0.237 5 0 0 0 0.031769998
1.0039999 -0.611 -0.23800001 5 0 0 0 0.031780001
1.023 -0.62 -0.243 7 0 0 0 0.031789999
1.035 -0.625 -0.24600001 8 0 0 0 0.031800002
1.0470001 -0.63 -0.25 13 0 0 0 0.031810001
1.05 -0.62900001 -0.25099999 29 0 0 0 0.031819999
1.051 -0.62699997 -0.25099999 65 0 0 0 0.031830002
1.057 -0.62800002 -0.25299999 138 0 0 0 0.03184
1.056 -0.62400001 -0.25299999 150 0 0 0 0.031849999
1.058 -0.62199998 -0.25299999 150 0 0 0 0.031860001
1.061 -0.62199998 -0.25400001 150 0 0 0 0.03187
1.058 -0.61699998 -0.25400001 150 0 0 0 0.031879999
1.064 -0.61699998 -0.255 150 0 0 0 0.031890001
1.062 -0.61400002 -0.255 150 0 0 0 0.0319
1.066 -0.61299998 -0.25600001 150 0 0 0 0.031909999
1.063 -0.60799998 -0.255 150 0 0 0 0.031920001
1.066 -0.60699999 -0.25600001 150 0 0 0 0.03193
1.068 -0.60500002 -0.257 150 0 0 0 0.031939998
1.069 -0.602 -0.257 150 0 0 0 0.031950001
1.068 -0.59899998 -0.257 150 0 0 0 0.031959999
1.072 -0.59799999 -0.257 150 0 0 0 0.031970002
1.071 -0.59399998 -0.257 150 0 0 0 0.03198
1.072 -0.59200001 -0.257 150 0 0 0 0.031989999
1.073 -0.58899999 -0.257 150 0 0 0 0.032000002
1.076 -0.58700001 -0.25799999 150 0 0 0 0.03201
1.076 -0.58399999 -0.25799999 150 0 0 0 0.032019999
1.081 -0.58399999 -0.25799999 150 0 0 0 0.032030001
1.079 -0.579 -0.25799999 150 0 0 0 0.03204
1.079 -0.57599998 -0.25799999 150 0 0 0 0.032049999
1.081 -0.574 -0.25799999 150 0 0 0 0.032060001
1.084 -0.57300001 -0.25799999 150 0 0 0 0.03207
1.084 -0.56900001 -0.25799999 150 0 0 0 0.032079998
1.086 -0.56599998 -0.25799999 150 0 0 0 0.032090001
1.086 -0.56300002 -0.25799999 150 0 0 0 0.032099999
1.0880001 -0.56099999 -0.25799999 150 0 0 0 0.032109998
1.089 -0.55800003 -0.257 150 0 0 0 0.032120001
1.091 -0.55599999 -0.257 150 0 0 0 0.032129999
1.095 -0.55400002 -0.25799999 150 0 0 0 0.032140002
1.0930001 -0.55000001 -0.257 150 0 0 0 0.03215
1.095 -0.54799998 -0.257 150 0 0 0 0.032159999
1.097 -0.54500002 -0.257 150 0 0 0 0.032170001
1.1 -0.54299998 -0.257 150 0 0 0 0.03218
1.101 -0.54000002 -0.25600001 150 0 0 0 0.032189999
1.104 -0.53799999 -0.257 150 0 0 0 0.032200001
1.105 -0.53500003 -0.25600001 150 0 0 0 0.03221
1.104 -0.53100002 -0.255 150 0 0 0 0.032219999
1.107 -0.52899998 -0.255 150 0 0 0 0.032230001
1.1059999 -0.52499998 -0.25400001 150 0 0 0 0.03224
1.107 -0.52200001 -0.25400001 150 0 0 0 0.032249998
1.109 -0.51899999 -0.25400001 150 0 0 0 0.032260001
1.113 -0.51700002 -0.25400001 150 0 0 0 0.032269999
1.11 -0.51200002 -0.252 150 0 0 0 0.032280002
1.1160001 -0.51099998 -0.25299999 150 0 0 0 0.03229
1.115 -0.50700003 -0.252 150 0 0 0 0.032299999
1.118 -0.505 -0.252 150 0 0 0 0.032310002
1.119 -0.50199997 -0.25099999 150 0 0 0 0.03232
1.123 -0.5 -0.25099999 150 0 0 0 0.032329999
1.12 -0.495 -0.25 150 0 0 0 0.032340001
1.122 -0.49200001 -0.249 150 0 0 0 0.03235
1.126 -0.491 -0.249 150 0 0 0 0.032359999
1.126 -0.48699999 -0.248 150 0 0 0 0.032370001
1.123 -0.48199999 -0.24600001 150 0 0 0 0.03238
1.13 -0.48100001 -0.24699999 150 0 0 0 0.032389998
1.1289999 -0.477 -0.24600001 150 0 0 0 0.032400001
1.133 -0.47499999 -0.24600001 150 0 0 0 0.03241
1.1339999 -0.472 -0.245 150 0 0 0 0.032419998
1.1339999 -0.46799999 -0.244 150 0 0 0 0.032430001
1.135 -0.465 -0.243 150 0 0 0 0.032439999
1.138 -0.463 -0.242 150 0 0 0 0.032450002
1.14 -0.45899999 -0.242 150 0 0 0 0.03246
1.145 -0.458 -0.242 150 0 0 0 0.032469999
1.141 -0.45199999 -0.23999999 150 0 0 0 0.032480001
1.142 -0.449 -0.23899999 150 0 0 0 0.03249
1.1440001 -0.44600001 -0.23800001 150 0 0 0 0.032499999
1.145 -0.44299999 -0.237 150 0 0 0 0.032510001
1.146 -0.44 -0.236 150 0 0 0 0.03252
1.148 -0.43700001 -0.235 150 0 0 0 0.032529999
1.15 -0.43399999 -0.234 150 0 0 0 0.032540001
1.153 -0.43099999 -0.234 150 0 0 0 0.03255
1.148 -0.426 -0.23100001 150 0 0 0 0.032559998
1.1569999 -0.42500001 -0.23199999 150 0 0 0 0.032570001
1.1569999 -0.42199999 -0.23100001 150 0 0 0 0.032579999
1.152 -0.41600001 -0.228 150 0 0 0 0.032590002
1.159 -0.41499999 -0.228 150 0 0 0 0.032600001
1.1619999 -0.412 -0.227 150 0 0 0 0.032609999
1.163 -0.40900001 -0.226 150 0 0 0 0.032620002
1.166 -0.40599999 -0.226 150 0 0 0 0.03263
1.165 -0.40200001 -0.22400001 150 0 0 0 0.032639999
1.166 -0.39899999 -0.223 150 0 0 0 0.032650001
1.1670001 -0.39500001 -0.222 150 0 0 0 0.03266
1.1720001 -0.39300001 -0.221 150 0 0 0 0.032669999
1.174 -0.38999999 -0.22 150 0 0 0 0.032680001
1.173 -0.38600001 -0.21799999 150 0 0 0 0.03269
1.175 -0.38299999 -0.21699999 150 0 0 0 0.032699998
1.175 -0.37900001 -0.21600001 150 0 0 0 0.032710001
1.1799999 -0.377 -0.215 150 0 0 0 0.03272
1.181 -0.37400001 -0.214 150 0 0 0 0.032729998
1.1799999 -0.36899999 -0.212 150 0 0 0 0.032740001
1.183 -0.36700001 -0.211 150 0 0 0 0.032749999
1.181 -0.36300001 -0.20900001 150 0 0 0 0.032760002
1.186 -0.36000001 -0.20900001 150 0 0 0 0.03277
1.187 -0.35699999 -0.207 150 0 0 0 0.032779999
1.189 -0.354 -0.206 150 0 0 0 0.032790001
1.189 -0.34999999 -0.204 150 0 0 0 0.0328
1.199 -0.34900001 -0.204 150 0 0 0 0.032809999
1.193 -0.34400001 -0.20200001 150 0 0 0 0.032820001
1.194 -0.34 -0.2 150 0 0 0 0.03283
1.204 -0.34 -0.2 150 0 0 0 0.032839999
1.2029999 -0.33500001 -0.198 150 0 0 0 0.032850001
1.207 -0.333 -0.197 150 0 0 0 0.03286
1.2079999 -0.329 -0.19599999 150 0 0 0 0.032869998
1.206 -0.32499999 -0.19400001 150 0 0 0 0.032880001
1.209 -0.322 -0.193 150 0 0 0 0.032889999
1.211 -0.31900001 -0.191 150 0 0 0 0.032900002
1.2130001 -0.31600001 -0.19 150 0 0 0 0.032910001
1.214 -0.31200001 -0.18799999 150 0 0 0 0.032919999
1.21 -0.308 -0.186 150 0 0 0 0.032930002
1.215 -0.30500001 -0.185 150 0 0 0 0.03294
1.216 -0.30199999 -0.183 150 0 0 0 0.032949999
1.2180001 -0.29899999 -0.182 150 0 0 0 0.032960001
1.2180001 -0.29499999 -0.18000001 150 0 0 0 0.03297
1.222 -0.292 -0.17900001 150 0 0 0 0.032979999
1.223 -0.289 -0.177 150 0 0 0 0.032990001
1.225 -0.28600001 -0.175 150 0 0 0 0.033
1.225 -0.28200001 -0.17399999 150 0 0 0 0.033009999
1.227 -0.27900001 -0.17200001 150 0 0 0 0.033020001
1.232 -0.27599999 -0.171 144 0 0 0 0.03303
1.228 -0.27200001 -0.168 150 0 0 0 0.033039998
1.237 -0.27000001 -0.168 150 0 0 0 0.033050001
1.238 -0.266 -0.16599999 150 0 0 0 0.033059999
1.239 -0.26300001 -0.164 150 0 0 0 0.033070002
1.239 -0.259 -0.162 150 0 0 0 0.03308
1.245 -0.257 -0.161 150 0 0 0 0.033089999
1.242 -0.252 -0.15899999 150 0 0 0 0.033100002
1.249 -0.25 -0.15800001 150 0 0 0 0.03311
1.244 -0.245 -0.155 143 0 0 0 0.033119999
1.251 -0.243 -0.154 150 0 0 0 0.033130001
1.25 -0.23899999 -0.152 150 0 0 0 0.03314
1.249 -0.235 -0.15000001 149 0 0 0 0.033149999
1.255 -0.233 -0.148 4 0 0 0 0.033160001
1.256 -0.23 -0.147 144 0 0 0 0.03317
1.255 -0.226 -0.14399999 150 0 0 0 0.033179998
1.263 -0.223 -0.14300001 119 0 0 0 0.033190001
1.256 -0.21799999 -0.14 134 0 0 0 0.033199999
1.263 -0.21600001 -0.139 137 0 0 0 0.033209998
1.266 -0.213 -0.138 124 0 0 0 0.033220001
1.267 -0.20900001 -0.13600001 119 0 0 0 0.033229999
1.27 -0.206 -0.134 134 0 0 0 0.033240002
1.273 -0.20299999 -0.132 128 0 0 0 0.03325
1.273 -0.2 -0.13 127 0 0 0 0.033259999
1.272 -0.19599999 -0.12800001 123 0 0 0 0.033270001
1.275 -0.192 -0.126 120 0 0 0 0.03328
1.278 -0.189 -0.124 119 0 0 0 0.033289999
1.277 -0.186 -0.122 118 0 0 0 0.033300001
1.28 -0.182 -0.12 110 0 0 0 0.03331
1.2819999 -0.17900001 -0.118 103 0 0 0 0.033319999
1.278 -0.175 -0.116 124 0 0 0 0.033330001
1.2819999 -0.17200001 -0.114 115 0 0 0 0.03334
1.284 -0.168 -0.112 112 0 0 0 0.033349998
1.286 -0.16500001 -0.11 102 0 0 0 0.033360001
1.289 -0.162 -0.108 104 0 0 0 0.033369999
1.294 -0.15899999 -0.106 113 0 0 0 0.033380002
1.295 -0.155 -0.104 108 0 0 0 0.03339
1.2920001 -0.15099999 -0.101 86 0 0 0 0.033399999
1.2970001 -0.148 -0.1 108 0 0 0 0.033410002
1.293 -0.14399999 -0.097000003 79 0 0 0 0.03342
1.293 -0.141 -0.094999999 80 0 0 0 0.033429999
1.3049999 -0.138 -0.093000002 84 0 0 0 0.033440001
1.306 -0.13500001 -0.090999998 85 0 0 0 0.03345
1.306 -0.131 -0.089000002 76 0 0 0 0.033459999
1.3099999 -0.12800001 -0.086999997 62 0 0 0 0.033470001
1.308 -0.124 -0.085000001 65 0 0 0 0.03348
1.311 -0.121 -0.082000002 3 0 0 0 0.033489998
1.3150001 -0.118 -0.079999998 75 0 0 0 0.033500001
1.314 -0.114 -0.078000002 69 0 0 0 0.03351
1.3150001 -0.11 -0.075999998 78 0 0 0 0.033519998
1.318 -0.107 -0.074000001 68 0 0 0 0.033530001
1.319 -0.104 -0.071000002 66 0 0 0 0.033539999
1.319 -0.1 -0.068999998 78 0 0 0 0.033550002
1.319 -0.096000001 -0.067000002 65 0 0 0 0.03356
1.322 -0.093000002 -0.064000003 73 0 0 0 0.033569999
1.321 -0.089000002 -0.061999999 58 0 0 0 0.033580001
1.327 -0.086000003 -0.059999999 66 0 0 0 0.03359
1.3279999 -0.082999997 -0.057 54 0 0 0 0.033599999
1.327 -0.079000004 -0.055 1 0 0 0 0.033610001
1.3279999 -0.075000003 -0.052999999 54 0 0 0 0.03362
1.336 -0.071999997 -0.050999999 50 0 0 0 0.033629999
1.332 -0.068000004 -0.048 63 0 0 0 0.033640001
1.34 -0.064999998 -0.046 63 0 0 0 0.03365
1.341 -0.061999999 -0.043000001 55 0 0 0 0.033659998
1.341 -0.057999998 -0.041000001 57 0 0 0 0.033670001
1.344 -0.055 -0.039000001 55 0 0 0 0.033679999
1.341 -0.050999999 -0.035999998 54 0 0 0 0.033690002
1.349 -0.048 -0.034000002 64 0 0 0 0.0337
1.354 -0.044 -0.030999999 62 0 0 0 0.033709999
1.353 -0.041000001 -0.028999999 56 0 0 0 0.033720002
1.355 -0.037 -0.026000001 65 0 0 0 0.03373
1.353 -0.033 -0.024 53 0 0 0 0.033739999
1.355 -0.029999999 -0.021 61 0 0 0 0.033750001
1.3559999 -0.026000001 -0.018999999 58 0 0 0 0.03376
1.3609999 -0.023 -0.016000001 60 0 0 0 0.033769999
1.3609999 -0.018999999 -0.014 61 0 0 0 0.033780001
1.362 -0.016000001 -0.011 54 0 0 0 0.03379
1.362 -0.012 -0.0089999996 54 0 0 0 0.033799998
1.367 -0.0080000004 -0.0060000001 44 0 0 0 0.033810001
1.362 -0.0049999999 -0.0040000002 55 0 0 0 0.03382
1.367 -0.001 -0.001 44 0 0 0 0.033829998
1.367 0.001 0.001 47 0 0 0 0.033840001
1.373 0.0049999999 0.003 50 0 0 0 0.033849999
1.373 0.0080000004 0.0060000001 52 0 0 0 0.033860002
1.377 0.012 0.0080000004 52 0 0 0 0.03387
1.377 0.016000001 0.011 39 0 0 0 0.033879999
1.381 0.018999999 0.014 54 0 0 0 0.033890001
1.381 0.023 0.016000001 48 0 0 0 0.0339
1.381 0.026000001 0.018999999 51 0 0 0 0.033909999
1.386 0.029999999 0.022 48 0 0 0 0.033920001
1.386 0.034000002 0.025 54 0 0 0 0.03393
1.3839999 0.037 0.027000001 57 0 0 0 0.033939999
1.3890001 0.041000001 0.029999999 51 0 0 0 0.033950001
1.385 0.045000002 0.033 62 0 0 0 0.03396
1.392 0.048 0.035999998 60 0 0 0 0.033969998
1.395 0.052000001 0.037999999 63 0 0 0 0.033980001
1.395 0.056000002 0.041000001 52 0 0 0 0.033989999
1.397 0.059 0.044 58 0 0 0 0.034000002
1.397 0.063000001 0.046999998 59 0 0 0 0.034010001
1.4 0.067000002 0.050000001 54 0 0 0 0.034019999
1.405 0.07 0.052999999 57 0 0 0 0.034030002
1.404 0.074000001 0.055 64 0 0 0 0.03404
1.404 0.078000002 0.057999998 52 0 0 0 0.034049999
1.405 0.081 0.061000001 51 0 0 0 0.034060001
1.4069999 0.085000001 0.064000003 62 0 0 0 0.03407
1.4119999 0.089000002 0.067000002 59 0 0 0 0.034079999
1.409 0.092 0.07 51 0 0 0 0.034090001
1.415 0.096000001 0.072999999 1 0 0 0 0.0341
1.415 0.1 0.075999998 53 0 0 0 0.034109998
1.415 0.103 0.079000004 57 0 0 0 0.034120001
1.421 0.108 0.082000002 74 0 0 0 0.03413
1.4170001 0.111 0.085000001 65 0 0 0 0.034139998
1.4220001 0.115 0.088 66 0 0 0 0.034150001
1.4220001 0.118 0.090999998 63 0 0 0 0.034159999
1.421 0.122 0.093999997 65 0 0 0 0.034170002
1.4220001 0.125 0.097000003 2 0 0 0 0.03418
1.427 0.13 0.1 56 0 0 0 0.034189999
1.428 0.133 0.103 59 0 0 0 0.034200002
1.427 0.13699999 0.106 54 0 0 0 0.03421
1.432 0.141 0.109 55 0 0 0 0.034219999
1.437 0.145 0.113 56 0 0 0 0.034230001
1.439 0.149 0.116 64 0 0 0 0.03424
1.438 0.152 0.119 62 0 0 0 0.034249999
1.4400001 0.156 0.122 65 0 0 0 0.034260001
1.441 0.16 0.125 67 0 0 0 0.03427
1.441 0.163 0.12800001 61 0 0 0 0.034279998
1.442 0.167 0.131 69 0 0 0 0.034290001
1.448 0.171 0.13500001 79 0 0 0 0.034299999
1.4450001 0.175 0.138 111 0 0 0 0.034309998
1.444 0.178 0.141 150 0 0 0 0.034320001
1.4400001 0.18099999 0.14399999 150 0 0 0 0.034329999
1.441 0.185 0.147 150 0 0 0 0.034340002
1.438 0.18799999 0.15000001 150 0 0 0 0.03435
1.4400001 0.192 0.153 150 0 0 0 0.034359999
1.439 0.19499999 0.156 150 0 0 0 0.034370001
1.438 0.199 0.15899999 150 0 0 0 0.03438
1.437 0.20200001 0.162 150 0 0 0 0.034389999
1.434 0.205 0.16500001 150 0 0 0 0.034400001
1.433 0.208 0.168 150 0 0 0 0.03441
1.432 0.212 0.171 150 0 0 0 0.034419999
1.431 0.215 0.17399999 150 0 0 0 0.034430001
1.431 0.219 0.177 150 0 0 0 0.03444
1.432 0.222 0.18099999 150 0 0 0 0.034449998
1.425 0.22499999 0.183 150 0 0 0 0.034460001
1.424 0.228 0.186 150 0 0 0 0.034469999
1.429 0.23199999 0.19 150 0 0 0 0.034480002
1.4220001 0.235 0.192 150 0 0 0 0.03449
1.425 0.23899999 0.19599999 150 0 0 0 0.034499999
1.424 0.242 0.199 150 0 0 0 0.034510002
1.425 0.24600001 0.20200001 150 0 0 0 0.03452
1.418 0.248 0.205 150 0 0 0 0.034529999
1.423 0.252 0.20900001 150 0 0 0 0.034540001
1.4220001 0.255 0.212 150 0 0 0 0.03455
1.421 0.259 0.215 150 0 0 0 0.034559999
1.416 0.26100001 0.21699999 150 0 0 0 0.034570001
1.42 0.26499999 0.221 150 0 0 0 0.03458
1.416 0.26800001 0.22400001 150 0 0 0 0.034589998
1.418 0.27200001 0.227 150 0 0 0 0.034600001
1.4170001 0.27500001 0.23100001 150 0 0 0 0.03461
1.415 0.278 0.234 150 0 0 0 0.034619998
1.414 0.28099999 0.237 150 0 0 0 0.034630001
1.413 0.28400001 0.23999999 150 0 0 0 0.034639999
1.4119999 0.287 0.243 150 0 0 0 0.034650002
1.411 0.28999999 0.24600001 6 0 0 0 0.03466
1.409 0.29300001 0.249 150 0 0 0 0.034669999
1.408 0.29699999 0.25299999 150 0 0 0 0.034680001
1.406 0.29899999 0.25600001 150 0 0 0 0.03469
1.405 0.30199999 0.259 150 0 0 0 0.034699999
1.405 0.30599999 0.26199999 150 0 0 0 0.034710001
1.402 0.308 0.26499999 150 0 0 0 0.03472
1.405 0.31200001 0.26899999 150 0 0 0 0.034729999
1.402 0.315 0.27200001 150 0 0 0 0.034740001
1.404 0.31900001 0.27599999 150 0 0 0 0.03475
1.405 0.322 0.28 73 0 0 0 0.034759998
1.403 0.32499999 0.28299999 53 0 0 0 0.034770001
1.3940001 0.32600001 0.28400001 86 0 0 0 0.034779999
1.391 0.32800001 0.287 150 0 0 0 0.034790002
1.388 0.331 0.28999999 150 0 0 0 0.0348
1.385 0.33399999 0.29300001 150 0 0 0 0.034809999
1.385 0.33700001 0.296 150 0 0 0 0.034820002
1.3839999 0.34 0.29899999 150 0 0 0 0.03483
1.383 0.34200001 0.303 150 0 0 0 0.034839999
1.381 0.345 0.30599999 150 0 0 0 0.034850001
1.38 0.34799999 0.30899999 150 0 0 0 0.03486
1.3789999 0.35100001 0.31200001 150 0 0 0 0.034869999
1.375 0.35299999 0.315 150 0 0 0 0.034880001
1.376 0.35600001 0.31900001 150 0 0 0 0.03489
1.374 0.359 0.322 150 0 0 0 0.034899998
1.376 0.36199999 0.32600001 150 0 0 0 0.034910001
1.376 0.366 0.329 150 0 0 0 0.03492
1.382 0.37 0.33399999 111 0 0 0 0.034929998
1.387 0.375 0.33899999 114 0 0 0 0.034940001
1.388 0.37799999 0.34299999 100 0 0 0 0.034949999
1.392 0.382 0.34799999 141 0 0 0 0.034960002
1.393 0.38499999 0.352 150 0 0 0 0.03497
1.387 0.38699999 0.354 150 0 0 0 0.034979999
1.383 0.389 0.35600001 150 0 0 0 0.034990001
1.3789999 0.38999999 0.359 150 0 0 0 0.035
1.3789999 0.39399999 0.36300001 150 0 0 0 0.035009999
1.376 0.39500001 0.36500001 150 0 0 0 0.035020001
1.377 0.39899999 0.36899999 150 0 0 0 0.03503
1.375 0.40099999 0.373 150 0 0 0 0.035039999
1.376 0.40400001 0.37599999 150 0 0 0 0.035050001
1.374 0.40700001 0.38 150 0 0 0 0.03506
1.372 0.40900001 0.38299999 150 0 0 0 0.035069998
1.376 0.41299999 0.38800001 150 0 0 0 0.035080001
1.374 0.41499999 0.391 150 0 0 0 0.035089999
1.372 0.41800001 0.39399999 150 0 0 0 0.035100002
1.372 0.41999999 0.398 150 0 0 0 0.035110001
1.37 0.42199999 0.40099999 150 0 0 0 0.035119999
1.368 0.42500001 0.40400001 150 0 0 0 0.035130002
1.368 0.428 0.40799999 150 0 0 0 0.03514
1.3660001 0.43000001 0.41100001 150 0 0 0 0.035149999
1.368 0.433 0.41499999 150 0 0 0 0.035160001
1.368 0.43599999 0.419 150 0 0 0 0.03517
1.3660001 0.43799999 0.42199999 150 0 0 0 0.035179999
1.364 0.44 0.42500001 150 0 0 0 0.035190001
1.363 0.442 0.42899999 150 0 0 0 0.0352
1.3609999 0.44400001 0.43200001 150 0 0 0 0.035209998
1.365 0.44800001 0.43700001 150 0 0 0 0.035220001
1.363 0.44999999 0.44 150 0 0 0 0.03523
1.364 0.45300001 0.44400001 150 0 0 0 0.035239998
1.362 0.45500001 0.44800001 150 0 0 0 0.035250001
1.362 0.458 0.45100001 150 0 0 0 0.035259999
1.36 0.46000001 0.45500001 150 0 0 0 0.035270002
1.359 0.46200001 0.458 150 0 0 0 0.03528
1.3609999 0.465 0.46200001 150 0 0 0 0.035289999
1.359 0.46700001 0.46599999 150 0 0 0 0.035300002
1.357 0.46799999 0.46900001 150 0 0 0 0.03531
1.3559999 0.47099999 0.472 150 0 0 0 0.035319999
1.355 0.47299999 0.47600001 150 0 0 0 0.035330001
1.354 0.47400001 0.479 150 0 0 0 0.03534
1.352 0.47600001 0.48199999 150 0 0 0 0.035349999
1.35 0.47799999 0.486 150 0 0 0 0.035360001
1.355 0.48199999 0.491 150 0 0 0 0.03537
1.352 0.48300001 0.49399999 150 0 0 0 0.035379998
1.35 0.48500001 0.49700001 150 0 0 0 0.035390001
1.35 0.48699999 0.50099999 150 0 0 0 0.035399999
1.35 0.48899999 0.505 150 0 0 0 0.035409998
1.348 0.491 0.50800002 150 0 0 0 0.035420001
1.349 0.493 0.51200002 150 0 0 0 0.035429999
1.347 0.495 0.51499999 150 0 0 0 0.035440002
1.346 0.49599999 0.51899999 150 0 0 0 0.03545
1.348 0.49900001 0.52399999 150 0 0 0 0.035459999
1.347 0.50099999 0.52700001 150 0 0 0 0.035470001
1.345 0.50199997 0.52999997 150 0 0 0 0.03548
1.3430001 0.50400001 0.53299999 150 0 0 0 0.035489999
1.3430001 0.50599998 0.537 150 0 0 0 0.035500001
1.341 0.50700003 0.54000002 150 0 0 0 0.03551
1.342 0.509 0.54400003 150 0 0 0 0.035519999
1.344 0.51200002 0.54900002 150 0 0 0 0.035530001
1.327 0.50700003 0.546 150 0 0 0 0.03554
1.326 0.50800002 0.54900002 150 0 0 0 0.035549998
1.3279999 0.51099998 0.55400002 150 0 0 0 0.035560001
1.322 0.51099998 0.55500001 150 0 0 0 0.035569999
1.3150001 0.50999999 0.55599999 150 0 0 0 0.035580002
1.323 0.514 0.56300002 150 0 0 0 0.03559
1.317 0.514 0.56400001 150 0 0 0 0.035599999
1.323 0.51700002 0.56999999 150 0 0 0 0.035610002
1.321 0.51800001 0.57300001 150 0 0 0 0.03562
1.322 0.51999998 0.57700002 150 0 0 0 0.035629999
1.318 0.51999998 0.579 150 0 0 0 0.035640001
1.321 0.523 0.58399999 150 0 0 0 0.03565
1.3200001 0.52399999 0.58700001 150 0 0 0 0.035659999
1.318 0.52399999 0.58999997 150 0 0 0 0.035670001
1.316 0.52499998 0.59299999 150 0 0 0 0.03568
1.3150001 0.52600002 0.59600002 150 0 0 0 0.035689998
1.318 0.52899998 0.60100001 150 0 0 0 0.035700001
1.317 0.52899998 0.60399997 150 0 0 0 0.03571
1.3200001 0.53200001 0.60900003 150 0 0 0 0.035719998
1.316 0.53200001 0.611 150 0 0 0 0.035730001
1.317 0.53299999 0.61500001 150 0 0 0 0.035739999
1.316 0.53399998 0.61699998 150 0 0 0 0.035750002
1.314 0.53399998 0.62 150 0 0 0 0.03576
1.313 0.53399998 0.62300003 150 0 0 0 0.035769999
1.319 0.53799999 0.62900001 150 0 0 0 0.035780001
1.317 0.53799999 0.63200003 150 0 0 0 0.03579
1.316 0.53899997 0.63499999 150 0 0 0 0.035799999
1.314 0.53899997 0.63800001 150 0 0 0 0.035810001
1.313 0.53899997 0.63999999 150 0 0 0 0.03582
1.312 0.53899997 0.64300001 150 0 0 0 0.035829999
1.3099999 0.54000002 0.64600003 150 0 0 0 0.035840001
1.313 0.542 0.64999998 150 0 0 0 0.03585
1.3150001 0.54299998 0.65499997 150 0 0 0 0.035859998
1.3150001 0.54400003 0.65799999 150 0 0 0 0.035870001
1.314 0.54400003 0.66100001 150 0 0 0 0.035879999
1.313 0.54400003 0.66299999 150 0 0 0 0.035890002
1.317 0.546 0.66799998 150 0 0 0 0.0359
1.3150001 0.546 0.671 150 0 0 0 0.035909999
1.309 0.54400003 0.671 150 0 0 0 0.035920002
1.3150001 0.54699999 0.67699999 150 0 0 0 0.03593
1.307 0.54299998 0.676 150 0 0 0 0.035939999
1.311 0.54500002 0.68099999 150 0 0 0 0.035950001
1.314 0.54699999 0.68599999 150 0 0 0 0.03596
1.313 0.54699999 0.68800002 150 0 0 0 0.035969999
1.317 0.54799998 0.69300002 150 0 0 0 0.035980001
1.316 0.54799998 0.69499999 150 0 0 0 0.03599
1.3150001 0.54799998 0.69800001 150 0 0 0 0.035999998
1.317 0.54799998 0.70099998 150 0 0 0 0.036010001
1.316 0.54799998 0.70300001 150 0 0 0 0.03602
1.3150001 0.54699999 0.70499998 150 0 0 0 0.036029998
1.314 0.54699999 0.708 150 0 0 0 0.036040001
1.317 0.54799998 0.71200001 150 0 0 0 0.036049999
1.317 0.54799998 0.71499997 150 0 0 0 0.036060002
1.3200001 0.54900002 0.71899998 150 0 0 0 0.03607
1.319 0.54799998 0.72100002 150 0 0 0 0.036079999
1.318 0.54699999 0.72299999 150 0 0 0 0.036090001
1.318 0.54699999 0.72500002 150 0 0 0 0.0361
1.317 0.546 0.727 150 0 0 0 0.036109999
1.324 0.54799998 0.73299998 150 0 0 0 0.036120001
1.323 0.54699999 0.73500001 150 0 0 0 0.03613
1.3200001 0.54500002 0.73500001 150 0 0 0 0.036139999
1.324 0.546 0.74000001 150 0 0 0 0.036150001
1.323 0.546 0.74199998 150 0 0 0 0.03616
1.323 0.54500002 0.74299997 150 0 0 0 0.036169998
1.322 0.54400003 0.745 150 0 0 0 0.036180001
1.327 0.54400003 0.75 150 0 0 0 0.036189999
1.329 0.54400003 0.75300002 150 0 0 0 0.036200002
1.326 0.542 0.75300002 150 0 0 0 0.036210001
1.3279999 0.542 0.75599998 150 0 0 0 0.036219999
1.327 0.54100001 0.75700003 150 0 0 0 0.036230002
1.327 0.54000002 0.759 150 0 0 0 0.03624
1.327 0.53799999 0.75999999 150 0 0 0 0.036249999
1.326 0.537 0.76200002 150 0 0 0 0.036260001
1.326 0.53600001 0.76300001 150 0 0 0 0.03627
1.326 0.53399998 0.76499999 150 0 0 0 0.036279999
1.332 0.53600001 0.76999998 150 0 0 0 0.036290001
1.335 0.53500003 0.77200001 150 0 0 0 0.0363
1.334 0.53399998 0.77399999 150 0 0 0 0.036309998
1.334 0.53200001 0.77499998 150 0 0 0 0.036320001
1.334 0.53100002 0.77600002 150 0 0 0 0.03633
1.334 0.52899998 0.77700001 150 0 0 0 0.036339998
1.334 0.528 0.778 150 0 0 0 0.036350001
1.334 0.52600002 0.77899998 150 0 0 0 0.036359999
1.334 0.52399999 0.77999997 150 0 0 0 0.036370002
1.334 0.523 0.78100002 150 0 0 0 0.03638
1.335 0.52100003 0.78200001 150 0 0 0 0.036389999
1.342 0.52200001 0.787 150 0 0 0 0.036400001
1.342 0.51999998 0.78799999 150 0 0 0 0.03641
1.345 0.51999998 0.79000002 150 0 0 0 0.036419999
1.3430001 0.51700002 0.78899997 150 0 0 0 0.036430001
1.346 0.51599997 0.792 150 0 0 0 0.03644
1.3430001 0.51300001 0.79100001 150 0 0 0 0.036449999
1.344 0.51099998 0.79100001 150 0 0 0 0.036460001
1.347 0.50999999 0.79299998 150 0 0 0 0.03647
1.347 0.50800002 0.79400003 150 0 0 0 0.036479998
1.348 0.50599998 0.79400003 150 0 0 0 0.036490001
1.348 0.50400001 0.79500002 150 0 0 0 0.036499999
1.349 0.50300002 0.79500002 150 0 0 0 0.036509998
1.349 0.50099999 0.79500002 150 0 0 0 0.036520001
1.35 0.498 0.796 150 0 0 0 0.036529999
1.348 0.495 0.79400003 150 0 0 0 0.036540002
1.351 0.49399999 0.796 150 0 0 0 0.03655
1.349 0.491 0.79500002 150 0 0 0 0.036559999
1.3430001 0.486 0.79000002 150 0 0 0 0.036570001
1.353 0.48800001 0.796 150 0 0 0 0.03658
1.354 0.486 0.796 150 0 0 0 0.036589999
1.355 0.484 0.796 150 0 0 0 0.036600001
1.3559999 0.48100001 0.796 150 0 0 0 0.03661
1.357 0.479 0.796 150 0 0 0 0.036619999
1.355 0.47600001 0.79400003 150 0 0 0 0.036630001
1.348 0.47099999 0.79000002 150 0 0 0 0.03664
1.359 0.472 0.79500002 150 0 0 0 0.036649998
1.358 0.46900001 0.79400003 150 0 0 0 0.036660001
1.359 0.46700001 0.79299998 150 0 0 0 0.036669999
1.36 0.465 0.79299998 150 0 0 0 0.036680002
1.3609999 0.46200001 0.792 150 0 0 0 0.03669
1.362 0.46000001 0.792 150 0 0 0 0.036699999
1.363 0.458 0.79100001 150 0 0 0 0.036710002
1.364 0.45500001 0.79100001 150 0 0 0 0.03672
1.358 0.44999999 0.78600001 150 0 0 0 0.036729999
1.359 0.44800001 0.78500003 150 0 0 0 0.036740001
1.368 0.44800001 0.78899997 150 0 0 0 0.03675
1.369 0.44600001 0.78799999 150 0 0 0 0.036759999
1.363 0.44100001 0.78299999 150 0 0 0 0.036770001
1.364 0.43799999 0.78200001 150 0 0 0 0.03678
1.363 0.435 0.77999997 150 0 0 0 0.036789998
1.367 0.433 0.77999997 150 0 0 0 0.036800001
1.3660001 0.43000001 0.778 150 0 0 0 0.036809999
1.368 0.428 0.77700001 150 0 0 0 0.036819998
1.3710001 0.426 0.77700001 150 0 0 0 0.036830001
1.363 0.421 0.77100003 150 0 0 0 0.036839999
1.364 0.41800001 0.76899999 150 0 0 0 0.036850002
1.3660001 0.41600001 0.76800001 150 0 0 0 0.03686
1.367 0.41299999 0.76700002 150 0 0 0 0.036869999
1.369 0.41100001 0.76599997 150 0 0 0 0.036880001
1.378 0.41 0.76899999 150 0 0 0 0.03689
1.381 0.40799999 0.76800001 150 0 0 0 0.036899999
1.383 0.40599999 0.76700002 150 0 0 0 0.036910001
1.391 0.405 0.76899999 150 0 0 0 0.03692
1.383 0.40000001 0.76200002 150 0 0 0 0.036929999
1.377 0.39500001 0.75700003 150 0 0 0 0.036940001
1.369 0.38999999 0.75 150 0 0 0 0.03695
1.364 0.38499999 0.745 150 0 0 0 0.036959998
1.363 0.382 0.741 150 0 0 0 0.036970001
1.362 0.37900001 0.73799998 150 0 0 0 0.036979999
1.359 0.375 0.73400003 150 0 0 0 0.036990002
1.36 0.373 0.73199999 150 0 0 0 0.037
1.36 0.36899999 0.72899997 150 0 0 0 0.037009999
1.357 0.366 0.72500002 150 0 0 0 0.037020002
1.359 0.36300001 0.72299999 150 0 0 0 0.03703
1.359 0.36000001 0.72100002 150 0 0 0 0.037039999
1.362 0.35800001 0.71899998 150 0 0 0 0.037050001
1.363 0.35499999 0.71700001 150 0 0 0 0.03706
1.365 0.35299999 0.71499997 150 0 0 0 0.037069999
1.3660001 0.34999999 0.713 150 0 0 0 0.037080001
1.368 0.34799999 0.71100003 150 0 0 0 0.03709
1.377 0.347 0.71200001 150 0 0 0 0.037099998
1.386 0.34599999 0.71399999 150 0 0 0 0.037110001
1.391 0.34400001 0.713 150 0 0 0 0.03712
1.39 0.34099999 0.70999998 150 0 0 0 0.037129998
1.399 0.34099999 0.71100003 150 0 0 0 0.037140001
1.399 0.338 0.708 150 0 0 0 0.037149999
1.385 0.331 0.69800001 150 0 0 0 0.037160002
1.4 0.33199999 0.70200002 150 0 0 0 0.03717
1.4 0.329 0.699 150 0 0 0 0.037179999
1.404 0.32699999 0.69700003 150 0 0 0 0.037190001
1.402 0.324 0.69300002 150 0 0 0 0.0372
1.401 0.31999999 0.68900001 150 0 0 0 0.037209999
1.402 0.31799999 0.68599999 150 0 0 0 0.037220001
1.403 0.315 0.68300003 150 0 0 0 0.03723
1.403 0.31200001 0.68000001 150 0 0 0 0.037239999
1.4069999 0.31 0.67799997 150 0 0 0 0.037250001
1.404 0.30599999 0.67299998 150 0 0 0 0.03726
1.406 0.30399999 0.67000002 150 0 0 0 0.037269998
1.4069999 0.301 0.667 150 0 0 0 0.037280001
1.408 0.29899999 0.66399997 150 0 0 0 0.037289999
1.408 0.296 0.66000003 150 0 0 0 0.037300002
1.41 0.29300001 0.65700001 150 0 0 0 0.037310001
1.413 0.29100001 0.65499997 150 0 0 0 0.037319999
1.414 0.28799999 0.65200001 150 0 0 0 0.037330002
1.414 0.285 0.648 150 0 0 0 0.03734
1.414 0.28299999 0.64399999 150 0 0 0 0.037349999
1.416 0.28 0.64099997 150 0 0 0 0.037360001
1.415 0.27700001 0.63700002 150 0 0 0 0.03737
1.415 0.27399999 0.63300002 150 0 0 0 0.037379999
1.418 0.27200001 0.63099998 150 0 0 0 0.037390001
1.419 0.27000001 0.62699997 150 0 0 0 0.0374
1.411 0.26499999 0.62 150 0 0 0 0.037409998
1.413 0.26300001 0.61699998 150 0 0 0 0.037420001
1.415 0.26100001 0.61400002 150 0 0 0 0.03743
1.4170001 0.25799999 0.611 150 0 0 0 0.037439998
1.419 0.25600001 0.60699999 150 0 0 0 0.037450001
1.418 0.25299999 0.60299999 150 0 0 0 0.037459999
1.421 0.25099999 0.60100001 150 0 0 0 0.037470002
1.419 0.248 0.59500003 150 0 0 0 0.03748
1.421 0.24600001 0.59200001 150 0 0 0 0.037489999
1.4220001 0.243 0.58899999 150 0 0 0 0.037500001
1.421 0.23999999 0.58399999 150 0 0 0 0.03751
1.426 0.23800001 0.58200002 150 0 0 0 0.037519999
1.4220001 0.235 0.57599998 150 0 0 0 0.037530001
1.429 0.234 0.57499999 150 0 0 0 0.03754
1.427 0.23100001 0.56999999 21 0 0 0 0.037549999
1.426 0.228 0.56599998 150 0 0 0 0.037560001
1.423 0.22499999 0.56099999 150 0 0 0 0.03757
1.425 0.223 0.55699998 150 0 0 0 0.037579998
1.427 0.221 0.55400002 150 0 0 0 0.037590001
1.427 0.21799999 0.54900002 150 0 0 0 0.037599999
1.428 0.21600001 0.546 150 0 0 0 0.037610002
1.4299999 0.214 0.542 150 0 0 0 0.037620001
1.4299999 0.211 0.53799999 150 0 0 0 0.037629999
1.432 0.20900001 0.53399998 150 0 0 0 0.037640002
1.429 0.206 0.52899998 150 0 0 0 0.03765
1.4299999 0.204 0.52499998 150 0 0 0 0.037659999
1.432 0.20200001 0.52200001 150 0 0 0 0.037670001
1.434 0.2 0.51800001 150 0 0 0 0.03768
1.4299999 0.197 0.51300001 150 0 0 0 0.037689999
1.433 0.19499999 0.509 150 0 0 0 0.037700001
1.429 0.192 0.50400001 150 0 0 0 0.03771
1.433 0.19 0.50099999 150 0 0 0 0.037719999
1.432 0.18799999 0.49599999 150 0 0 0 0.037730001
1.434 0.185 0.49200001 150 0 0 0 0.03774
1.4299999 0.183 0.48699999 150 0 0 0 0.037749998
1.426 0.18000001 0.48100001 150 0 0 0 0.037760001
1.425 0.177 0.477 150 0 0 0 0.037769999
1.424 0.175 0.472 150 0 0 0 0.037780002
1.428 0.17299999 0.46900001 150 0 0 0 0.03779
1.421 0.17 0.46200001 150 0 0 0 0.037799999
1.423 0.168 0.45899999 150 0 0 0 0.037810002
1.424 0.16599999 0.45500001 150 0 0 0 0.03782
1.423 0.164 0.44999999 150 0 0 0 0.037829999
1.419 0.161 0.44400001 150 0 0 0 0.037840001
1.4170001 0.15899999 0.44 150 0 0 0 0.03785
1.416 0.15700001 0.435 150 0 0 0 0.037859999
1.418 0.155 0.43099999 150 0 0 0 0.037870001
1.413 0.152 0.42500001 150 0 0 0 0.03788
1.414 0.15000001 0.421 150 0 0 0 0.037889998
1.405 0.147 0.414 150 0 0 0 0.037900001
1.4119999 0.146 0.412 150 0 0 0 0.037909999
1.411 0.14399999 0.40700001 150 0 0 0 0.037919998
1.41 0.141 0.403 150 0 0 0 0.037930001
1.41 0.139 0.39899999 150 0 0 0 0.037939999
1.408 0.13699999 0.39399999 150 0 0 0 0.037950002
1.406 0.13500001 0.389 150 0 0 0 0.03796
1.406 0.133 0.38499999 150 0 0 0 0.037969999
1.405 0.131 0.38 150 0 0 0 0.037980001
1.401 0.12899999 0.375 150 0 0 0 0.03799
1.401 0.127 0.37 150 0 0 0 0.037999999
1.4 0.125 0.366 150 0 0 0 0.038010001
1.401 0.123 0.36199999 150 0 0 0 0.03802
1.393 0.12 0.35499999 150 0 0 0 0.038029999
1.3940001 0.119 0.35100001 150 0 0 0 0.038040001
1.395 0.117 0.347 150 0 0 0 0.03805
1.396 0.115 0.34299999 150 0 0 0 0.038059998
1.396 0.113 0.33899999 150 0 0 0 0.038070001
1.397 0.111 0.33500001 150 0 0 0 0.038079999
1.399 0.11 0.331 150 0 0 0 0.038090002
1.395 0.108 0.32600001 150 0 0 0 0.0381
1.398 0.106 0.322 150 0 0 0 0.038109999
1.393 0.104 0.317 150 0 0 0 0.038120002
1.395 0.102 0.31299999 150 0 0 0 0.03813
1.393 0.1 0.308 150 0 0 0 0.038139999
1.3940001 0.098999999 0.30399999 150 0 0 0 0.038150001
1.3940001 0.097000003 0.30000001 150 0 0 0 0.03816
1.392 0.094999999 0.29499999 150 0 0 0 0.038169999
1.39 0.093000002 0.28999999 150 0 0 0 0.038180001
1.3890001 0.090999998 0.28600001 150 0 0 0 0.03819
1.3839999 0.089000002 0.28 150 0 0 0 0.038199998
1.385 0.088 0.27599999 150 0 0 0 0.038210001
1.386 0.086000003 0.27200001 150 0 0 0 0.03822
1.387 0.085000001 0.26800001 150 0 0 0 0.038229998
1.386 0.082999997 0.264 150 0 0 0 0.038240001
1.381 0.081 0.25799999 150 0 0 0 0.038249999
1.3789999 0.079000004 0.25400001 150 0 0 0 0.038260002
1.3789999 0.078000002 0.249 150 0 0 0 0.03827
1.38 0.075999998 0.245 150 0 0 0 0.038279999
1.38 0.075000003 0.241 150 0 0 0 0.038290001
1.377 0.072999999 0.236 150 0 0 0 0.0383
1.378 0.071000002 0.23199999 150 0 0 0 0.038309999
1.378 0.07 0.228 150 0 0 0 0.038320001
1.3789999 0.068000004 0.22400001 150 0 0 0 0.03833
1.374 0.066 0.219 150 0 0 0 0.038339999
1.375 0.064999998 0.215 150 0 0 0 0.038350001
1.374 0.063000001 0.20999999 150 0 0 0 0.03836
1.3660001 0.061999999 0.205 150 0 0 0 0.038369998
1.372 0.059999999 0.20200001 150 0 0 0 0.038380001
1.373 0.059 0.197 150 0 0 0 0.038389999
1.347 -0.061999999 -0.65200001 150 0 0 0 0.040320002
1.35 -0.061000001 -0.65799999 150 0 0 0 0.04033
1.349 -0.061000001 -0.662 150 0 0 0 0.040339999
1.35 -0.059999999 -0.667 150 0 0 0 0.040350001
1.352 -0.059999999 -0.67199999 150 0 0 0 0.04036
1.351 -0.059 -0.676 150 0 0 0 0.040369999
1.355 -0.059 -0.68300003 150 0 0 0 0.040380001
1.355 -0.057999998 -0.68699998 150 0 0 0 0.04039
1.354 -0.057 -0.69099998 150 0 0 0 0.040399998
1.359 -0.057 -0.69800001 150 0 0 0 0.040410001
1.355 -0.056000002 -0.69999999 150 0 0 0 0.04042
1.359 -0.055 -0.70700002 150 0 0 0 0.040429998
1.359 -0.054000001 -0.71100003 150 0 0 0 0.040440001
1.359 -0.054000001 -0.71600002 150 0 0 0 0.040449999
1.358 -0.052999999 -0.71899998 150 0 0 0 0.040460002
1.358 -0.052000001 -0.72399998 150 0 0 0 0.04047
1.36 -0.050999999 -0.72899997 150 0 0 0 0.040479999
1.36 -0.050000001 -0.73400003 150 0 0 0 0.040490001
1.3609999 -0.048999999 -0.73799998 150 0 0 0 0.0405
1.36 -0.048 -0.74199998 150 0 0 0 0.040509999
1.365 -0.048 -0.74900001 150 0 0 0 0.040520001
1.364 -0.046999998 -0.75300002 150 0 0 0 0.04053
1.365 -0.046 -0.75800002 150 0 0 0 0.040539999
1.363 -0.045000002 -0.76099998 150 0 0 0 0.040550001
1.373 -0.044 -0.77100003 124 0 0 0 0.04056
1.381 -0.043000001 -0.77899998 19 0 0 0 0.040569998
1.393 -0.043000001 -0.79000002 10 0 0 0 0.040580001
1.391 -0.041000001 -0.79400003 5 0 0 0 0.040589999
1.3940001 -0.039999999 -0.79900002 3 0 0 0 0.040600002
1.393 -0.039000001 -0.80299997 4 0 0 0 0.04061
1.396 -0.037999999 -0.80800003 9 0 0 0 0.040619999
1.391 -0.037 -0.81 11 0 0 0 0.040630002
1.381 -0.035 -0.80800003 13 0 0 0 0.04064
1.382 -0.034000002 -0.81300002 14 0 0 0 0.040649999
1.377 -0.033 -0.81300002 14 0 0 0 0.040660001
1.367 -0.030999999 -0.81199998 13 0 0 0 0.04067
1.36 -0.029999999 -0.81199998 14 0 0 0 0.040679999
1.355 -0.028000001 -0.81199998 13 0 0 0 0.040690001
1.351 -0.027000001 -0.81400001 14 0 0 0 0.0407
1.346 -0.026000001 -0.81400001 14 0 0 0 0.040709998
1.3380001 -0.024 -0.81300002 14 0 0 0 0.040720001
1.335 -0.023 -0.815 14 0 0 0 0.04073
1.325 -0.021 -0.81199998 14 0 0 0 0.040739998
1.318 -0.02 -0.81199998 15 0 0 0 0.040750001
1.317 -0.017999999 -0.81400001 14 0 0 0 0.040759999
1.312 -0.017000001 -0.815 14 0 0 0 0.040770002
1.307 -0.016000001 -0.815 14 0 0 0 0.04078
1.303 -0.014 -0.81599998 14 0 0 0 0.040789999
1.296 -0.013 -0.81400001 13 0 0 0 0.040800001
1.2920001 -0.011 -0.81599998 13 0 0 0 0.04081
1.29 -0.0099999998 -0.81699997 14 0 0 0 0.040819999
1.281 -0.0080000004 -0.815 14 0 0 0 0.040830001
1.28 -0.0070000002 -0.81699997 15 0 0 0 0.04084
1.275 -0.0049999999 -0.81699997 15 0 0 0 0.040849999
1.2690001 -0.0040000002 -0.81599998 15 0 0 0 0.040860001
1.262 -0.0020000001 -0.815 15 0 0 0 0.04087
1.2589999 0 -0.815 15 0 0 0 0.040879998
1.2539999 0 -0.815 15 0 0 0 0.040890001
1.2539999 0.0020000001 -0.81800002 14 0 0 0 0.040899999
1.25 0.003 -0.81699997 15 0 0 0 0.040910002
1.245 0.0049999999 -0.81699997 14 0 0 0 0.040920001
1.242 0.0060000001 -0.81699997 15 0 0 0 0.040929999
1.237 0.0080000004 -0.81699997 15 0 0 0 0.040940002
1.2359999 0.0089999996 -0.81800002 15 0 0 0 0.04095
1.23 0.011 -0.81699997 16 0 0 0 0.040959999
1.229 0.013 -0.81800002 16 0 0 0 0.040970001
1.222 0.014 -0.81599998 16 0 0 0 0.04098
1.222 0.016000001 -0.81800002 15 0 0 0 0.040989999
1.2180001 0.017000001 -0.81800002 16 0 0 0 0.041000001
1.215 0.018999999 -0.81800002 16 0 0 0 0.04101
1.21 0.02 -0.81699997 16 0 0 0 0.041019998
1.209 0.022 -0.81800002 16 0 0 0 0.041030001
1.206 0.023 -0.81800002 16 0 0 0 0.04104
1.2029999 0.025 -0.81699997 15 0 0 0 0.041049998
1.2029999 0.027000001 -0.81999999 17 0 0 0 0.041060001
1.201 0.028000001 -0.81999999 16 0 0 0 0.041069999
1.197 0.029999999 -0.81800002 16 0 0 0 0.041080002
1.194 0.032000002 -0.81800002 16 0 0 0 0.04109
1.191 0.033 -0.81800002 16 0 0 0 0.041099999
1.191 0.035 -0.81900001 16 0 0 0 0.041110002
1.1900001 0.037 -0.81999999 16 0 0 0 0.04112
1.188 0.037999999 -0.81999999 16 0 0 0 0.041129999
1.187 0.039999999 -0.81999999 17 0 0 0 0.041140001
1.184 0.041000001 -0.81900001 17 0 0 0 0.04115
1.181 0.043000001 -0.81800002 17 0 0 0 0.041159999
1.1799999 0.045000002 -0.81900001 17 0 0 0 0.041170001
1.1799999 0.046 -0.81999999 18 0 0 0 0.04118
1.177 0.048 -0.81900001 17 0 0 0 0.041189998
1.176 0.050000001 -0.81900001 17 0 0 0 0.041200001
1.174 0.050999999 -0.81900001 18 0 0 0 0.041209999
1.174 0.052999999 -0.81900001 17 0 0 0 0.041219998
1.173 0.055 -0.81999999 17 0 0 0 0.041230001
1.173 0.056000002 -0.81999999 19 0 0 0 0.041239999
1.1720001 0.057999998 -0.81999999 19 0 0 0 0.041250002
1.1720001 0.059999999 -0.82099998 18 0 0 0 0.04126
1.1720001 0.061000001 -0.82099998 19 0 0 0 0.041269999
1.168 0.063000001 -0.81900001 20 0 0 0 0.041280001
1.1720001 0.064999998 -0.82099998 18 0 0 0 0.04129
1.17 0.066 -0.82099998 19 0 0 0 0.041299999
1.171 0.068000004 -0.82200003 18 0 0 0 0.041310001
1.17 0.07 -0.82099998 19 0 0 0 0.04132
1.17 0.071000002 -0.82099998 19 0 0 0 0.041329999
1.17 0.072999999 -0.82099998 19 0 0 0 0.041340001
1.171 0.075000003 -0.82200003 19 0 0 0 0.04135
1.171 0.075999998 -0.82200003 19 0 0 0 0.041359998
1.1720001 0.078000002 -0.82200003 19 0 0 0 0.041370001
1.171 0.079999998 -0.82099998 18 0 0 0 0.041379999
1.171 0.081 -0.82099998 19 0 0 0 0.041390002
1.171 0.082999997 -0.82099998 19 0 0 0 0.0414
1.171 0.085000001 -0.81999999 18 0 0 0 0.041409999
1.174 0.086000003 -0.82200003 18 0 0 0 0.041420002
1.176 0.088 -0.82300001 18 0 0 0 0.04143
1.179 0.090000004 -0.824 16 0 0 0 0.041439999
1.183 0.092 -0.82599998 13 0 0 0 0.041450001
1.187 0.093999997 -0.82800001 11 0 0 0 0.04146
1.188 0.096000001 -0.82800001 9 0 0 0 0.041469999
1.189 0.097000003 -0.82800001 9 0 0 0 0.041480001
1.192 0.098999999 -0.829 10 0 0 0 0.04149
1.194 0.101 -0.829 11 0 0 0 0.041499998
1.1900001 0.102 -0.82499999 13 0 0 0 0.041510001
1.191 0.104 -0.82499999 15 0 0 0 0.04152
1.1900001 0.105 -0.82300001 17 0 0 0 0.041529998
1.1950001 0.107 -0.82499999 18 0 0 0 0.041540001
1.196 0.109 -0.82499999 18 0 0 0 0.041549999
1.197 0.11 -0.824 17 0 0 0 0.041560002
1.198 0.112 -0.82300001 16 0 0 0 0.04157
1.201 0.113 -0.82300001 16 0 0 0 0.041579999
1.202 0.115 -0.82300001 1 0 0 0 0.041590001
1.207 0.117 -0.824 16 0 0 0 0.0416
1.209 0.119 -0.824 16 0 0 0 0.041609999
1.212 0.12 -0.824 17 0 0 0 0.041620001
1.215 0.122 -0.824 16 0 0 0 0.04163
1.216 0.123 -0.82300001 16 0 0 0 0.041639999
1.224 0.126 -0.82700002 16 0 0 0 0.041650001
1.226 0.127 -0.82599998 16 0 0 0 0.04166
1.229 0.12899999 -0.82599998 16 0 0 0 0.041669998
1.2309999 0.13 -0.82499999 15 0 0 0 0.041680001
1.237 0.132 -0.82700002 16 0 0 0 0.041689999
1.24 0.134 -0.82700002 16 0 0 0 0.041700002
1.2410001 0.13500001 -0.82499999 16 0 0 0 0.04171
1.247 0.13699999 -0.82700002 16 0 0 0 0.041719999
1.248 0.138 -0.82499999 16 0 0 0 0.041730002
1.255 0.14 -0.82700002 16 0 0 0 0.04174
1.26 0.142 -0.82800001 16 0 0 0 0.041749999
1.262 0.14399999 -0.82599998 16 0 0 0 0.041760001
1.266 0.145 -0.82599998 16 0 0 0 0.04177
1.27 0.147 -0.82599998 16 0 0 0 0.041779999
1.276 0.149 -0.82700002 15 0 0 0 0.041790001
1.279 0.15000001 -0.82599998 16 0 0 0 0.0418
1.286 0.152 -0.82800001 15 0 0 0 0.041809998
1.288 0.153 -0.82599998 16 0 0 0 0.041820001
1.295 0.155 -0.82700002 16 0 0 0 0.04183
1.298 0.15700001 -0.82700002 16 0 0 0 0.041839998
1.3 0.15800001 -0.824 16 0 0 0 0.041850001
1.309 0.16 -0.82700002 16 0 0 0 0.041859999
1.313 0.161 -0.82700002 16 0 0 0 0.041870002
1.318 0.163 -0.82599998 15 0 0 0 0.04188
1.326 0.16500001 -0.82800001 15 0 0 0 0.041889999
1.335 0.167 -0.82999998 16 0 0 0 0.041900001
1.339 0.168 -0.829 1 0 0 0 0.04191
1.3430001 0.169 -0.82800001 16 0 0 0 0.041919999
1.35 0.171 -0.829 15 0 0 0 0.041930001
1.3559999 0.17299999 -0.829 15 0 0 0 0.04194
1.3609999 0.17399999 -0.82800001 16 0 0 0 0.041949999
1.365 0.176 -0.82700002 16 0 0 0 0.041960001
1.373 0.177 -0.82800001 15 0 0 0 0.04197
1.38 0.17900001 -0.82800001 15 0 0 0 0.041979998
1.3890001 0.18099999 -0.82999998 16 0 0 0 0.041990001
1.393 0.182 -0.82800001 15 0 0 0 0.041999999
1.404 0.184 -0.82999998 15 0 0 0 0.042010002
1.408 0.185 -0.829 15 0 0 0 0.042020001
1.416 0.18700001 -0.829 16 0 0 0 0.042029999
1.423 0.18799999 -0.829 15 0 0 0 0.042040002
1.4299999 0.19 -0.829 17 0 0 0 0.04205
1.434 0.191 -0.82700002 19 0 0 0 0.042059999
1.4349999 0.192 -0.82300001 23 0 0 0 0.042070001
1.442 0.193 -0.82300001 23 0 0 0 0.04208
1.4450001 0.19400001 -0.82099998 15 0 0 0 0.042089999
1.447 0.19499999 -0.81699997 13 0 0 0 0.042100001
1.4450001 0.19499999 -0.81199998 13 0 0 0 0.04211
1.446 0.19499999 -0.80800003 15 0 0 0 0.042119998
1.4450001 0.19499999 -0.80299997 17 0 0 0 0.042130001
1.431 0.19400001 -0.79100001 37 0 0 0 0.04214
1.42 0.193 -0.77999997 150 0 0 0 0.042149998
1.415 0.192 -0.773 150 0 0 0 0.042160001
1.416 0.193 -0.76899999 150 0 0 0 0.042169999
1.416 0.193 -0.764 150 0 0 0 0.042180002
1.4170001 0.193 -0.76099998 150 0 0 0 0.04219
1.4170001 0.193 -0.75599998 150 0 0 0 0.042199999
1.418 0.19400001 -0.75199997 10 0 0 0 0.042210001
1.419 0.19400001 -0.74800003 150 0 0 0 0.04222
1.42 0.19400001 -0.74400002 150 0 0 0 0.042229999
1.414 0.193 -0.736 150 0 0 0 0.042240001
1.413 0.193 -0.73100001 150 0 0 0 0.04225
1.415 0.193 -0.727 150 0 0 0 0.042259999
1.416 0.19400001 -0.72299999 150 0 0 0 0.042270001
1.416 0.19400001 -0.71899998 150 0 0 0 0.04228
1.4170001 0.19400001 -0.71499997 150 0 0 0 0.042289998
1.415 0.193 -0.70899999 150 0 0 0 0.042300001
1.4170001 0.193 -0.70499998 150 0 0 0 0.042309999
1.419 0.19400001 -0.70099998 150 0 0 0 0.042319998
1.415 0.193 -0.69499999 150 0 0 0 0.042330001
1.414 0.193 -0.69 150 0 0 0 0.042339999
1.419 0.193 -0.68699998 150 0 0 0 0.042350002
1.4170001 0.193 -0.68199998 150 0 0 0 0.04236
1.419 0.193 -0.67799997 150 0 0 0 0.042369999
1.419 0.192 -0.67299998 150 0 0 0 0.042380001
1.418 0.192 -0.66799998 150 0 0 0 0.04239
1.42 0.192 -0.66399997 150 0 0 0 0.042399999
1.421 0.192 -0.66000003 150 0 0 0 0.042410001
1.421 0.191 -0.65499997 150 0 0 0 0.04242
1.419 0.191 -0.64899999 150 0 0 0 0.042429999
1.4170001 0.19 -0.64399999 150 0 0 0 0.042440001
1.416 0.19 -0.63800001 150 0 0 0 0.04245
1.4170001 0.189 -0.634 150 0 0 0 0.042459998
1.4170001 0.189 -0.63 150 0 0 0 0.042470001
1.419 0.189 -0.62599999 150 0 0 0 0.042479999
1.418 0.18799999 -0.62 150 0 0 0 0.042490002
1.419 0.18799999 -0.616 150 0 0 0 0.0425
1.419 0.18700001 -0.611 150 0 0 0 0.042509999
1.423 0.18700001 -0.60799998 150 0 0 0 0.042520002
1.419 0.186 -0.602 150 0 0 0 0.04253
1.421 0.186 -0.597 150 0 0 0 0.042539999
1.419 0.185 -0.59200001 150 0 0 0 0.042550001
1.42 0.184 -0.58700001 150 0 0 0 0.04256
1.4170001 0.183 -0.58099997 150 0 0 0 0.042569999
1.42 0.183 -0.57800001 150 0 0 0 0.042580001
1.42 0.182 -0.57300001 150 0 0 0 0.04259
1.4220001 0.182 -0.56900001 150 0 0 0 0.042599998
1.419 0.18099999 -0.56300002 150 0 0 0 0.042610001
1.421 0.18000001 -0.55900002 150 0 0 0 0.042619999
1.427 0.18000001 -0.55699998 150 0 0 0 0.042629998
1.424 0.17900001 -0.551 150 0 0 0 0.042640001
1.424 0.178 -0.546 150 0 0 0 0.042649999
1.424 0.178 -0.54100001 150 0 0 0 0.042660002
1.423 0.177 -0.53600001 150 0 0 0 0.04267
1.425 0.176 -0.53200001 150 0 0 0 0.042679999
1.421 0.175 -0.52600002 150 0 0 0 0.042690001
1.4220001 0.17399999 -0.52100003 150 0 0 0 0.0427
1.426 0.17399999 -0.51800001 150 0 0 0 0.042709999
1.425 0.17299999 -0.51300001 150 0 0 0 0.042720001
1.427 0.17200001 -0.509 150 0 0 0 0.04273
1.425 0.171 -0.50300002 150 0 0 0 0.042739999
1.427 0.17 -0.49900001 150 0 0 0 0.042750001
1.428 0.169 -0.495 11 0 0 0 0.04276
1.427 0.168 -0.49000001 150 0 0 0 0.042769998
1.427 0.167 -0.48500001 150 0 0 0 0.042780001
1.429 0.16599999 -0.47999999 150 0 0 0 0.042789999
1.428 0.16500001 -0.47600001 150 0 0 0 0.042800002
1.429 0.164 -0.47099999 150 0 0 0 0.04281
1.428 0.163 -0.46599999 150 0 0 0 0.042819999
1.432 0.163 -0.46200001 150 0 0 0 0.042830002
1.433 0.162 -0.458 150 0 0 0 0.04284
1.428 0.16 -0.45199999 150 0 0 0 0.042849999
1.434 0.16 -0.449 150 0 0 0 0.042860001
1.427 0.15800001 -0.442 150 0 0 0 0.04287
1.4349999 0.15800001 -0.44 150 0 0 0 0.042879999
1.434 0.156 -0.435 150 0 0 0 0.042890001
1.431 0.155 -0.42899999 150 0 0 0 0.0429
1.433 0.154 -0.42500001 150 0 0 0 0.042909998
1.431 0.153 -0.41999999 150 0 0 0 0.042920001
1.431 0.15099999 -0.41499999 150 0 0 0 0.04293
1.431 0.15000001 -0.41 150 0 0 0 0.042939998
1.433 0.149 -0.40599999 150 0 0 0 0.042950001
1.434 0.148 -0.40200001 150 0 0 0 0.042959999
1.4349999 0.147 -0.39700001 150 0 0 0 0.042970002
1.436 0.146 -0.39300001 150 0 0 0 0.04298
1.438 0.145 -0.389 150 0 0 0 0.042989999
1.439 0.14399999 -0.384 150 0 0 0 0.043000001
1.438 0.142 -0.38 150 0 0 0 0.04301
1.439 0.141 -0.375 150 0 0 0 0.043019999
1.437 0.14 -0.37 150 0 0 0 0.043030001
1.437 0.138 -0.36500001 150 0 0 0 0.04304
1.441 0.13699999 -0.36199999 150 0 0 0 0.043049999
1.439 0.13600001 -0.35600001 150 0 0 0 0.043060001
1.444 0.13500001 -0.35299999 150 0 0 0 0.04307
1.4400001 0.133 -0.347 150 0 0 0 0.043079998
1.438 0.132 -0.34200001 147 0 0 0 0.043090001
1.439 0.13 -0.338 149 0 0 0 0.043099999
1.434 0.12899999 -0.33199999 5 0 0 0 0.043110002
1.433 0.127 -0.32699999 140 0 0 0 0.043120001
1.436 0.126 -0.32300001 150 0 0 0 0.043129999
1.433 0.124 -0.31799999 133 0 0 0 0.043140002
1.429 0.123 -0.31299999 150 0 0 0 0.04315
1.437 0.122 -0.31 150 0 0 0 0.043159999
1.431 0.12 -0.30399999 150 0 0 0 0.043170001
1.433 0.119 -0.30000001 149 0 0 0 0.04318
1.433 0.117 -0.29499999 135 0 0 0 0.043189999
1.429 0.115 -0.28999999 137 0 0 0 0.043200001
1.425 0.113 -0.285 150 0 0 0 0.04321
1.4299999 0.112 -0.28099999 142 0 0 0 0.043219998
1.427 0.111 -0.27599999 145 0 0 0 0.043230001
1.428 0.109 -0.27200001 147 0 0 0 0.04324
1.426 0.108 -0.26699999 141 0 0 0 0.043249998
1.427 0.106 -0.26300001 129 0 0 0 0.043260001
1.425 0.105 -0.25799999 145 0 0 0 0.043269999
1.426 0.103 -0.25400001 142 0 0 0 0.043280002
1.426 0.102 -0.249 137 0 0 0 0.04329
1.4220001 0.1 -0.244 140 0 0 0 0.043299999
1.42 0.097999997 -0.23899999 145 0 0 0 0.043310001
1.421 0.097000003 -0.235 138 0 0 0 0.04332
1.421 0.094999999 -0.23100001 130 0 0 0 0.043329999
