# .PCD v0.7 - Point Cloud Data file format
VERSION 0.7
FIELDS x y z intensity normal_x normal_y normal_z curvature
SIZE 4 4 4 4 4 4 4 4
TYPE F F F F F F F F
COUNT 1 1 1 1 1 1 1 1
WIDTH 1082
HEIGHT 1
VIEWPOINT 0 0 0 1 0 0 0
POINTS 1082
DATA ascii
1.603 -0.977 0.52899998 0 0 0 0 0.047800001
1.762 -1.074 0.57800001 0 0 0 0 0.047809999
0 0 0 0 0 0 0 0.047820002
0 0 0 0 0 0 0 0.047830001
2.3469999 -1.428 0.75800002 7 0 0 0 0.047839999
2.3239999 -1.4119999 0.74599999 7 0 0 0 0.047850002
2.3329999 -1.416 0.745 5 0 0 0 0.04786
2.332 -1.414 0.74000001 5 0 0 0 0.047869999
2.336 -1.415 0.73699999 4 0 0 0 0.047880001
2.348 -1.421 0.73699999 3 0 0 0 0.04789
2.358 -1.425 0.73500001 3 0 0 0 0.047899999
2.3800001 -1.437 0.73799998 3 0 0 0 0.047910001
2.382 -1.436 0.73400003 2 0 0 0 0.04792
2.3840001 -1.4349999 0.73000002 2 0 0 0 0.047929998
2.385 -1.434 0.72600001 2 0 0 0 0.047940001
2.3840001 -1.431 0.72100002 2 0 0 0 0.04795
2.391 -1.432 0.71799999 2 0 0 0 0.047959998
2.3929999 -1.431 0.71399999 2 0 0 0 0.047970001
2.395 -1.4299999 0.70999998 2 0 0 0 0.047979999
2.3970001 -1.428 0.70599997 2 0 0 0 0.047990002
2.4030001 -1.429 0.70300001 2 0 0 0 0.048
2.402 -1.425 0.69700003 2 0 0 0 0.048009999
2.3989999 -1.42 0.69199997 2 0 0 0 0.048020002
2.408 -1.4220001 0.69 2 0 0 0 0.04803
2.4100001 -1.421 0.685 2 0 0 0 0.048039999
2.4059999 -1.415 0.67900002 2 0 0 0 0.048050001
2.3929999 -1.404 0.671 2 0 0 0 0.04806
2.414 -1.4119999 0.67199999 2 0 0 0 0.048069999
2.4130001 -1.408 0.667 2 0 0 0 0.048080001
2.4189999 -1.408 0.66299999 2 0 0 0 0.04809
2.418 -1.404 0.65799999 2 0 0 0 0.048099998
2.4200001 -1.401 0.65399998 2 0 0 0 0.048110001
2.408 -1.39 0.64499998 2 0 0 0 0.048119999
2.4319999 -1.4 0.64700001 2 0 0 0 0.048129998
2.4319999 -1.396 0.64200002 2 0 0 0 0.048140001
2.434 -1.393 0.63700002 2 0 0 0 0.048149999
2.437 -1.39 0.63300002 2 0 0 0 0.048160002
2.4489999 -1.392 0.63099998 2 0 0 0 0.04817
2.444 -1.385 0.625 2 0 0 0 0.048179999
2.447 -1.382 0.62 2 0 0 0 0.048190001
2.6059999 -1.467 0.65499997 3 0 0 0 0.0482
2.8469999 -1.597 0.70999998 28 0 0 0 0.048209999
2.931 -1.638 0.72500002 27 0 0 0 0.048220001
2.964 -1.651 0.72600001 27 0 0 0 0.04823
2.9890001 -1.659 0.727 25 0 0 0 0.048239999
3.02 -1.669 0.72799999 25 0 0 0 0.048250001
3.0480001 -1.679 0.72799999 26 0 0 0 0.04826
3.073 -1.686 0.72799999 25 0 0 0 0.048269998
3.1010001 -1.6950001 0.72799999 24 0 0 0 0.048280001
3.122 -1.699 0.727 26 0 0 0 0.048289999
3.154 -1.71 0.72799999 34 0 0 0 0.048300002
3.175 -1.714 0.72600001 50 0 0 0 0.04831
3.1930001 -1.716 0.72399998 76 0 0 0 0.048319999
3.197 -1.711 0.71799999 92 0 0 0 0.048330002
3.2060001 -1.709 0.71399999 98 0 0 0 0.04834
3.214 -1.706 0.70899999 89 0 0 0 0.048349999
3.2160001 -1.699 0.70300001 87 0 0 0 0.048360001
3.2219999 -1.6950001 0.69800001 91 0 0 0 0.04837
3.22 -1.686 0.69099998 66 0 0 0 0.048379999
0 0 0 0 0 0 0 0.048390001
1.678 -0.87 0.35299999 0 0 0 0 0.0484
1.6440001 -0.84799999 0.34299999 0 0 0 0 0.048409998
1.6390001 -0.84200001 0.338 0 0 0 0 0.048420001
1.646 -0.84100002 0.33700001 1 0 0 0 0.04843
1.6440001 -0.83600003 0.333 0 0 0 0 0.048439998
1.648 -0.83399999 0.331 0 0 0 0 0.048450001
1.635 -0.82300001 0.32499999 2 0 0 0 0.048459999
1.633 -0.81800002 0.32100001 1 0 0 0 0.048470002
1.6289999 -0.81199998 0.317 4 0 0 0 0.04848
1.635 -0.81099999 0.315 2 0 0 0 0.048489999
1.637 -0.80699998 0.31200001 2 0 0 0 0.048500001
1.633 -0.801 0.30899999 3 0 0 0 0.04851
1.628 -0.79400003 0.30500001 10 0 0 0 0.048519999
1.635 -0.79299998 0.303 10 0 0 0 0.048530001
1.6339999 -0.78799999 0.29899999 9 0 0 0 0.04854
1.649 -0.79100001 0.29899999 4 0 0 0 0.048549999
1.661 -0.792 0.29800001 4 0 0 0 0.048560001
1.659 -0.78600001 0.29499999 1 0 0 0 0.04857
1.726 -0.81400001 0.303 0 0 0 0 0.048579998
1.836 -0.86000001 0.31900001 0 0 0 0 0.048590001
0 0 0 0 0 0 0 0.048599999
1.743 -0.80699998 0.29699999 0 0 0 0 0.048610002
1.799 -0.82800001 0.303 0 0 0 0 0.04862
1.8099999 -0.82800001 0.30199999 1 0 0 0 0.048629999
1.829 -0.83099997 0.30199999 2 0 0 0 0.048640002
1.8099999 -0.81699997 0.29499999 2 0 0 0 0.04865
1.721 -0.77200001 0.27700001 4 0 0 0 0.048659999
1.698 -0.75700003 0.271 29 0 0 0 0.048670001
1.6950001 -0.75099999 0.26699999 64 0 0 0 0.04868
1.702 -0.74900001 0.266 13 0 0 0 0.048689999
1.7130001 -0.74900001 0.264 2 0 0 0 0.048700001
1.725 -0.74900001 0.26300001 1 0 0 0 0.04871
1.725 -0.74400002 0.25999999 5 0 0 0 0.048719998
1.724 -0.73900002 0.257 16 0 0 0 0.048730001
1.72 -0.73199999 0.25400001 19 0 0 0 0.04874
1.688 -0.713 0.24600001 10 0 0 0 0.048749998
1.663 -0.69800001 0.23999999 9 0 0 0 0.048760001
1.6569999 -0.69 0.236 1 0 0 0 0.048769999
1.655 -0.685 0.233 11 0 0 0 0.048780002
1.654 -0.67900002 0.23 12 0 0 0 0.04879
1.66 -0.67699999 0.228 16 0 0 0 0.048799999
1.658 -0.671 0.22499999 16 0 0 0 0.048810001
1.665 -0.66900003 0.22400001 16 0 0 0 0.04882
1.67 -0.66600001 0.222 16 0 0 0 0.048829999
1.677 -0.66399997 0.22 14 0 0 0 0.048840001
1.6900001 -0.66299999 0.219 20 0 0 0 0.04885
1.7029999 -0.66299999 0.21799999 39 0 0 0 0.048859999
1.73 -0.66799998 0.219 14 0 0 0 0.048870001
1.737 -0.66600001 0.21699999 25 0 0 0 0.04888
1.744 -0.66299999 0.215 95 0 0 0 0.048889998
1.7410001 -0.65700001 0.212 150 0 0 0 0.048900001
1.7640001 -0.66000003 0.212 150 0 0 0 0.048909999
1.745 -0.648 0.207 150 0 0 0 0.048920002
1.768 -0.65100002 0.207 150 0 0 0 0.048930001
1.76 -0.64200002 0.204 150 0 0 0 0.048939999
1.7640001 -0.63800001 0.20100001 150 0 0 0 0.048950002
1.766 -0.634 0.199 150 0 0 0 0.04896
1.7869999 -0.63599998 0.199 150 0 0 0 0.048969999
1.7819999 -0.62800002 0.19599999 150 0 0 0 0.048980001
1.785 -0.62400001 0.19400001 150 0 0 0 0.04899
1.788 -0.62 0.191 150 0 0 0 0.048999999
1.789 -0.61400002 0.189 150 0 0 0 0.049010001
1.8 -0.61199999 0.18700001 150 0 0 0 0.04902
1.814 -0.61199999 0.186 150 0 0 0 0.049029998
1.8049999 -0.60299999 0.183 150 0 0 0 0.049040001
1.806 -0.59799999 0.18099999 150 0 0 0 0.04905
1.822 -0.597 0.18000001 150 0 0 0 0.049059998
1.818 -0.58999997 0.177 150 0 0 0 0.049070001
1.829 -0.588 0.175 150 0 0 0 0.049079999
1.83 -0.583 0.17299999 150 0 0 0 0.049090002
1.835 -0.579 0.171 150 0 0 0 0.0491
1.842 -0.57499999 0.169 150 0 0 0 0.049109999
1.841 -0.56900001 0.167 150 0 0 0 0.049120001
1.852 -0.56699997 0.16500001 150 0 0 0 0.04913
1.853 -0.56099999 0.163 150 0 0 0 0.049139999
1.869 -0.56 0.162 150 0 0 0 0.049150001
1.864 -0.55299997 0.15899999 150 0 0 0 0.04916
1.88 -0.55199999 0.15800001 150 0 0 0 0.049169999
1.883 -0.54699999 0.156 150 0 0 0 0.049180001
1.8789999 -0.54000002 0.154 150 0 0 0 0.04919
1.892 -0.537 0.152 150 0 0 0 0.049199998
1.895 -0.53200001 0.15000001 150 0 0 0 0.049210001
1.897 -0.52700001 0.148 150 0 0 0 0.049219999
1.892 -0.51899999 0.145 150 0 0 0 0.049229998
1.9 -0.51599997 0.14399999 144 0 0 0 0.049240001
1.919 -0.51499999 0.14300001 150 0 0 0 0.049249999
1.923 -0.50999999 0.141 150 0 0 0 0.049260002
1.929 -0.505 0.139 150 0 0 0 0.04927
1.931 -0.5 0.13699999 150 0 0 0 0.049279999
1.937 -0.495 0.13500001 150 0 0 0 0.049290001
1.944 -0.491 0.133 150 0 0 0 0.0493
1.946 -0.48500001 0.131 150 0 0 0 0.049309999
0 0 0 0 0 0 0 0.049320001
1.9529999 -0.47499999 0.127 17 0 0 0 0.04933
4.0279999 -0.96700001 0.259 73 0 0 0 0.049339999
4.0409999 -0.95700002 0.255 73 0 0 0 0.049350001
4.0580001 -0.94800001 0.252 75 0 0 0 0.04936
4.0679998 -0.93800002 0.248 72 0 0 0 0.049369998
4.0770001 -0.92699999 0.244 73 0 0 0 0.049380001
4.0900002 -0.917 0.23999999 74 0 0 0 0.049389999
4.0999999 -0.90600002 0.236 85 0 0 0 0.049400002
4.1079998 -0.89499998 0.233 114 0 0 0 0.04941
4.119 -0.884 0.229 116 0 0 0 0.049419999
4.1290002 -0.87300003 0.22499999 103 0 0 0 0.049430002
4.1430001 -0.86299998 0.221 95 0 0 0 0.04944
4.1589999 -0.85399997 0.21799999 93 0 0 0 0.049449999
4.1729999 -0.84299999 0.215 74 0 0 0 0.049460001
4.1760001 -0.83099997 0.20999999 73 0 0 0 0.04947
4.1939998 -0.82099998 0.207 72 0 0 0 0.049479999
4.2049999 -0.81 0.20299999 71 0 0 0 0.049490001
4.2189999 -0.79900002 0.2 70 0 0 0 0.0495
4.2259998 -0.787 0.19599999 55 0 0 0 0.049509998
4.2379999 -0.77600002 0.193 46 0 0 0 0.049520001
4.2270002 -0.76099998 0.18799999 20 0 0 0 0.049529999
4.0929999 -0.72399998 0.178 1 0 0 0 0.049539998
4.0320001 -0.69999999 0.17200001 1 0 0 0 0.049550001
4.0180001 -0.685 0.167 1 0 0 0 0.049559999
4.0320001 -0.67500001 0.164 1 0 0 0 0.049570002
4.006 -0.65799999 0.15899999 1 0 0 0 0.04958
4.007 -0.64499998 0.155 1 0 0 0 0.049589999
1.353 -0.213 0.050999999 0 0 0 0 0.049600001
1.351 -0.20900001 0.050000001 0 0 0 0 0.04961
4.0640001 -0.616 0.147 1 0 0 0 0.049619999
3.9820001 -0.59100002 0.14 2 0 0 0 0.049630001
4.0250001 -0.58499998 0.138 4 0 0 0 0.04964
4.0580001 -0.57700002 0.13500001 6 0 0 0 0.049649999
4.0669999 -0.565 0.132 4 0 0 0 0.049660001
4.0679998 -0.55199999 0.12899999 3 0 0 0 0.04967
4.0879998 -0.542 0.126 3 0 0 0 0.049679998
4.1040001 -0.53100002 0.123 1 0 0 0 0.049690001
4.454 -0.56300002 0.12899999 10 0 0 0 0.049699999
4.4840002 -0.55199999 0.126 60 0 0 0 0.049710002
0 0 0 0 0 0 0 0.04972
0 0 0 0 0 0 0 0.049729999
0 0 0 0 0 0 0 0.049740002
1.779 -0.19599999 0.044 0 0 0 0 0.04975
4.4029999 -0.47299999 0.106 17 0 0 0 0.049759999
4.3270001 -0.45100001 0.1 14 0 0 0 0.049770001
4.3119998 -0.43599999 0.097000003 10 0 0 0 0.04978
4.2919998 -0.41999999 0.093000002 3 0 0 0 0.049789999
0 0 0 0 0 0 0 0.049800001
1.7079999 -0.156 0.034000002 1 0 0 0 0.04981
1.7 -0.15000001 0.032000002 1 0 0 0 0.049819998
1.707 -0.145 0.030999999 1 0 0 0 0.049830001
1.6900001 -0.138 0.029999999 1 0 0 0 0.04984
1.669 -0.131 0.028000001 1 0 0 0 0.049849998
1.67 -0.126 0.027000001 1 0 0 0 0.049860001
1.676 -0.121 0.026000001 1 0 0 0 0.049869999
1.637 -0.113 0.024 1 0 0 0 0.049880002
1.647 -0.109 0.023 1 0 0 0 0.04989
4.1890001 -0.264 0.055 5 0 0 0 0.049899999
4.1789999 -0.25099999 0.052000001 10 0 0 0 0.049910001
4.177 -0.237 0.048999999 11 0 0 0 0.04992
4.2470002 -0.228 0.046999998 40 0 0 0 0.049929999
4.164 -0.20999999 0.043000001 12 0 0 0 0.049940001
4.316 -0.204 0.041999999 48 0 0 0 0.04995
4.2329998 -0.18700001 0.037999999 16 0 0 0 0.049959999
4.2870002 -0.175 0.035 11 0 0 0 0.049970001
4.2309999 -0.16 0.032000002 32 0 0 0 0.04998
4.2930002 -0.148 0.028999999 27 0 0 0 0.049989998
4.2750001 -0.134 0.026000001 31 0 0 0 0.050000001
4.2800002 -0.121 0.024 19 0 0 0 0.050009999
4.2509999 -0.107 0.021 13 0 0 0 0.050020002
4.2729998 -0.093999997 0.017999999 70 0 0 0 0.050030001
4.2800002 -0.079999998 0.015 110 0 0 0 0.050039999
4.2800002 -0.067000002 0.012 112 0 0 0 0.050050002
4.2820001 -0.052999999 0.0099999998 105 0 0 0 0.05006
4.2810001 -0.039000001 0.0070000002 93 0 0 0 0.050069999
4.2880001 -0.026000001 0.0040000002 75 0 0 0 0.050080001
4.2909999 -0.012 0.001 56 0 0 0 0.05009
4.336 0 0 44 0 0 0 0.050099999
4.362 0.014 -0.003 91 0 0 0 0.050110001
4.3429999 0.028000001 -0.0060000001 23 0 0 0 0.05012
4.2010002 0.041000001 -0.0080000004 6 0 0 0 0.050129998
4.2820001 0.055 -0.011 90 0 0 0 0.050140001
4.1849999 0.067000002 -0.013 12 0 0 0 0.05015
4.191 0.079999998 -0.015 16 0 0 0 0.050159998
4.2610002 0.094999999 -0.017999999 42 0 0 0 0.050170001
4.263 0.109 -0.021 43 0 0 0 0.050179999
4.2490001 0.122 -0.023 41 0 0 0 0.050190002
4.2820001 0.13699999 -0.026000001 45 0 0 0 0.0502
4.2620001 0.15000001 -0.028000001 42 0 0 0 0.050209999
4.3010001 0.16500001 -0.030999999 48 0 0 0 0.050220001
3.3050001 0.13699999 -0.025 151 0 0 0 0.05023
2.99 0.134 -0.024 37 0 0 0 0.050239999
2.9319999 0.14 -0.026000001 150 0 0 0 0.050250001
1.506 0.077 -0.014 11 0 0 0 0.05026
1.505 0.081 -0.014 2 0 0 0 0.050269999
1.499 0.086000003 -0.015 2 0 0 0 0.050280001
1.502 0.090999998 -0.016000001 2 0 0 0 0.05029
1.498 0.094999999 -0.017000001 1 0 0 0 0.050299998
1.492 0.1 -0.017000001 1 0 0 0 0.050310001
1.4960001 0.105 -0.017999999 1 0 0 0 0.050319999
1.49 0.109 -0.018999999 1 0 0 0 0.050330002
1.487 0.114 -0.02 1 0 0 0 0.050340001
1.484 0.118 -0.02 1 0 0 0 0.050349999
1.4859999 0.123 -0.021 1 0 0 0 0.050360002
1.477 0.127 -0.022 1 0 0 0 0.05037
1.479 0.132 -0.022 1 0 0 0 0.050379999
1.475 0.13699999 -0.023 1 0 0 0 0.050390001
1.469 0.141 -0.024 1 0 0 0 0.0504
1.466 0.145 -0.024 1 0 0 0 0.050409999
1.465 0.15000001 -0.025 1 0 0 0 0.050420001
1.461 0.154 -0.025 1 0 0 0 0.05043
1.4579999 0.15899999 -0.026000001 1 0 0 0 0.050439999
1.454 0.163 -0.026000001 1 0 0 0 0.050450001
1.452 0.167 -0.027000001 1 0 0 0 0.05046
1.442 0.171 -0.027000001 1 0 0 0 0.050469998
1.442 0.175 -0.028000001 1 0 0 0 0.050480001
1.439 0.18000001 -0.028999999 1 0 0 0 0.050489999
1.433 0.184 -0.028999999 1 0 0 0 0.050500002
1.433 0.18799999 -0.029999999 1 0 0 0 0.05051
1.428 0.192 -0.029999999 1 0 0 0 0.050519999
1.426 0.197 -0.030999999 1 0 0 0 0.050530002
1.4220001 0.20100001 -0.030999999 1 0 0 0 0.05054
1.419 0.205 -0.030999999 1 0 0 0 0.050549999
1.414 0.20900001 -0.032000002 1 0 0 0 0.050560001
1.413 0.213 -0.032000002 1 0 0 0 0.05057
1.403 0.21699999 -0.033 1 0 0 0 0.050579999
1.403 0.221 -0.033 1 0 0 0 0.050590001
1.398 0.22499999 -0.033 1 0 0 0 0.0506
1.3940001 0.229 -0.034000002 1 0 0 0 0.050609998
1.391 0.233 -0.034000002 1 0 0 0 0.050620001
1.385 0.236 -0.034000002 1 0 0 0 0.050629999
1.382 0.23999999 -0.035 1 0 0 0 0.050639998
1.3789999 0.244 -0.035 1 0 0 0 0.050650001
1.376 0.248 -0.035999998 1 0 0 0 0.050659999
1.374 0.252 -0.035999998 1 0 0 0 0.050670002
1.3710001 0.25600001 -0.035999998 1 0 0 0 0.05068
1.363 0.25999999 -0.035999998 1 0 0 0 0.050689999
1.358 0.26300001 -0.037 1 0 0 0 0.050700001
1.355 0.26699999 -0.037 1 0 0 0 0.05071
1.353 0.271 -0.037 1 0 0 0 0.050719999
1.35 0.27500001 -0.037 1 0 0 0 0.050730001
1.347 0.27900001 -0.037999999 1 0 0 0 0.05074
1.34 0.28200001 -0.037999999 1 0 0 0 0.050749999
1.339 0.28600001 -0.037999999 1 0 0 0 0.050760001
1.329 0.28799999 -0.037999999 1 0 0 0 0.05077
1.325 0.292 -0.037999999 0 0 0 0 0.050779998
1.322 0.29499999 -0.039000001 0 0 0 0 0.050790001
1.3200001 0.29899999 -0.039000001 0 0 0 0 0.050799999
1.317 0.303 -0.039000001 1 0 0 0 0.050810002
1.313 0.30599999 -0.039000001 1 0 0 0 0.05082
1.308 0.31 -0.039000001 1 0 0 0 0.050829999
1.304 0.31299999 -0.039000001 1 0 0 0 0.050840002
1.295 0.315 -0.039000001 1 0 0 0 0.05085
1.2869999 0.31799999 -0.039000001 0 0 0 0 0.050859999
1.2869999 0.322 -0.039000001 0 0 0 0 0.050870001
1.28 0.324 -0.039000001 0 0 0 0 0.05088
1.262 0.324 -0.039000001 0 0 0 0 0.050889999
1.249 0.32499999 -0.039000001 0 0 0 0 0.050900001
1.242 0.32699999 -0.039000001 0 0 0 0 0.05091
1.262 0.33700001 -0.039000001 1 0 0 0 0.050919998
1.261 0.34099999 -0.039000001 1 0 0 0 0.050930001
2.53 0.69300002 -0.079999998 150 0 0 0 0.05094
2.5380001 0.70300001 -0.079999998 150 0 0 0 0.050949998
2.527 0.70899999 -0.079999998 17 0 0 0 0.050960001
2.5079999 0.71200001 -0.079999998 18 0 0 0 0.050969999
2.5050001 0.72000003 -0.079999998 21 0 0 0 0.050980002
2.5039999 0.72799999 -0.079999998 16 0 0 0 0.05099
2.4960001 0.73400003 -0.079999998 20 0 0 0 0.050999999
2.487 0.74000001 -0.079999998 20 0 0 0 0.051010001
2.4809999 0.74599999 -0.079000004 16 0 0 0 0.05102
2.474 0.75199997 -0.079000004 16 0 0 0 0.051029999
2.4719999 0.75999999 -0.079000004 16 0 0 0 0.051040001
2.4619999 0.76499999 -0.079000004 14 0 0 0 0.05105
2.4560001 0.77200001 -0.079000004 13 0 0 0 0.051059999
2.4519999 0.77899998 -0.079000004 15 0 0 0 0.051070001
2.447 0.78600001 -0.078000002 16 0 0 0 0.05108
2.4419999 0.792 -0.078000002 18 0 0 0 0.051089998
2.434 0.79799998 -0.078000002 21 0 0 0 0.051100001
2.427 0.80400002 -0.077 21 0 0 0 0.051109999
2.4260001 0.81199998 -0.077 19 0 0 0 0.051120002
2.4189999 0.81800002 -0.077 17 0 0 0 0.051130001
2.411 0.82300001 -0.075999998 18 0 0 0 0.051139999
2.4070001 0.82999998 -0.075999998 18 0 0 0 0.051150002
2.3970001 0.83499998 -0.075000003 19 0 0 0 0.05116
2.3959999 0.84299999 -0.075000003 18 0 0 0 0.051169999
2.3859999 0.847 -0.074000001 20 0 0 0 0.051180001
2.3840001 0.85399997 -0.074000001 21 0 0 0 0.05119
2.3770001 0.86000001 -0.072999999 19 0 0 0 0.051199999
2.3699999 0.866 -0.072999999 19 0 0 0 0.051210001
2.3670001 0.87300003 -0.071999997 21 0 0 0 0.05122
2.3640001 0.88 -0.071999997 20 0 0 0 0.051229998
2.3570001 0.88499999 -0.071000002 19 0 0 0 0.051240001
2.3499999 0.89099997 -0.07 18 0 0 0 0.05125
2.3410001 0.89499998 -0.07 16 0 0 0 0.051259998
2.3369999 0.90100002 -0.068999998 16 0 0 0 0.051270001
2.329 0.90600002 -0.068000004 15 0 0 0 0.051279999
2.3310001 0.91500002 -0.068000004 16 0 0 0 0.051290002
2.3269999 0.921 -0.067000002 17 0 0 0 0.0513
2.3169999 0.92500001 -0.066 18 0 0 0 0.051309999
2.313 0.93199998 -0.064999998 19 0 0 0 0.051320001
2.3039999 0.93599999 -0.064000003 19 0 0 0 0.05133
2.299 0.94199997 -0.063000001 21 0 0 0 0.051339999
2.2950001 0.94800001 -0.063000001 22 0 0 0 0.051350001
2.293 0.95499998 -0.061999999 21 0 0 0 0.05136
2.2839999 0.95899999 -0.061000001 19 0 0 0 0.051369999
2.277 0.96399999 -0.059999999 19 0 0 0 0.051380001
2.2809999 0.97299999 -0.059 16 0 0 0 0.05139
2.273 0.97799999 -0.057999998 15 0 0 0 0.051399998
2.2709999 0.98400003 -0.057 16 0 0 0 0.051410001
2.2609999 0.98699999 -0.056000002 19 0 0 0 0.051419999
2.257 0.99299997 -0.055 20 0 0 0 0.051430002
2.2509999 0.99800003 -0.054000001 21 0 0 0 0.051440001
2.247 1.0039999 -0.052999999 20 0 0 0 0.051449999
2.243 1.01 -0.052000001 18 0 0 0 0.051460002
2.2379999 1.015 -0.050999999 17 0 0 0 0.05147
2.227 1.018 -0.048999999 15 0 0 0 0.051479999
2.2290001 1.026 -0.048 17 0 0 0 0.051490001
2.2260001 1.0319999 -0.046999998 18 0 0 0 0.0515
2.2190001 1.036 -0.046 15 0 0 0 0.051509999
2.214 1.041 -0.044 15 0 0 0 0.051520001
2.2149999 1.049 -0.043000001 18 0 0 0 0.05153
2.2060001 1.052 -0.041999999 19 0 0 0 0.051539999
2.201 1.057 -0.039999999 21 0 0 0 0.051550001
2.198 1.063 -0.039000001 19 0 0 0 0.05156
2.1900001 1.066 -0.037999999 18 0 0 0 0.051569998
2.194 1.075 -0.035999998 15 0 0 0 0.051580001
2.184 1.0779999 -0.035 15 0 0 0 0.051589999
2.1800001 1.0829999 -0.033 16 0 0 0 0.051600002
2.174 1.087 -0.032000002 19 0 0 0 0.05161
2.1670001 1.091 -0.029999999 20 0 0 0 0.051619999
2.168 1.098 -0.028999999 22 0 0 0 0.051630002
2.161 1.102 -0.027000001 20 0 0 0 0.05164
2.1589999 1.108 -0.026000001 19 0 0 0 0.051649999
2.1559999 1.113 -0.024 18 0 0 0 0.051660001
2.1470001 1.115 -0.022 15 0 0 0 0.05167
2.142 1.12 -0.021 11 0 0 0 0.051679999
2.1429999 1.127 -0.018999999 13 0 0 0 0.051690001
2.1359999 1.13 -0.017000001 15 0 0 0 0.0517
2.132 1.135 -0.016000001 15 0 0 0 0.051709998
2.1289999 1.14 -0.014 15 0 0 0 0.051720001
2.125 1.1440001 -0.012 18 0 0 0 0.051729999
2.1170001 1.147 -0.0099999998 17 0 0 0 0.051739998
2.115 1.152 -0.0089999996 19 0 0 0 0.051750001
2.1129999 1.158 -0.0070000002 23 0 0 0 0.051759999
2.1059999 1.16 -0.0049999999 22 0 0 0 0.051770002
2.1010001 1.164 -0.003 20 0 0 0 0.05178
2.099 1.169 -0.001 21 0 0 0 0.051789999
2.096 1.174 0 22 0 0 0 0.051800001
2.092 1.178 0.0020000001 22 0 0 0 0.05181
2.086 1.181 0.0040000002 21 0 0 0 0.051819999
2.0829999 1.186 0.0060000001 20 0 0 0 0.051830001
2.076 1.188 0.0080000004 20 0 0 0 0.05184
2.076 1.194 0.0099999998 20 0 0 0 0.051849999
2.0739999 1.199 0.012 21 0 0 0 0.051860001
2.069 1.202 0.014 19 0 0 0 0.05187
2.066 1.206 0.016000001 16 0 0 0 0.051879998
2.062 1.209 0.017999999 16 0 0 0 0.051890001
2.059 1.214 0.02 19 0 0 0 0.051899999
2.0569999 1.2180001 0.022 19 0 0 0 0.051910002
2.053 1.222 0.025 20 0 0 0 0.05192
2.0469999 1.224 0.027000001 23 0 0 0 0.051929999
2.043 1.227 0.028999999 24 0 0 0 0.051940002
2.0510001 1.237 0.030999999 20 0 0 0 0.05195
2.0580001 1.247 0.034000002 19 0 0 0 0.051959999
2.0769999 1.2640001 0.037 19 0 0 0 0.051970001
2.102 1.285 0.039999999 22 0 0 0 0.05198
2.131 1.308 0.041999999 24 0 0 0 0.051989999
2.1500001 1.326 0.045000002 26 0 0 0 0.052000001
2.1730001 1.345 0.048999999 26 0 0 0 0.05201
2.188 1.36 0.052000001 23 0 0 0 0.052019998
2.3440001 1.4630001 0.057999998 48 0 0 0 0.052030001
2.516 1.577 0.066 150 0 0 0 0.05204
2.7030001 1.7 0.074000001 150 0 0 0 0.052049998
2.737 1.728 0.078000002 150 0 0 0 0.052060001
2.734 1.733 0.082000002 150 0 0 0 0.052069999
2.7309999 1.737 0.085000001 150 0 0 0 0.052080002
2.7279999 1.742 0.089000002 150 0 0 0 0.05209
2.721 1.743 0.092 150 0 0 0 0.052099999
2.7179999 1.747 0.094999999 150 0 0 0 0.052110001
2.7190001 1.7539999 0.098999999 150 0 0 0 0.05212
2.7119999 1.755 0.102 150 0 0 0 0.052129999
2.714 1.762 0.106 150 0 0 0 0.052140001
2.7179999 1.77 0.11 150 0 0 0 0.05215
2.7290001 1.783 0.114 150 0 0 0 0.052159999
2.7260001 1.7869999 0.118 150 0 0 0 0.052170001
2.7249999 1.791 0.121 150 0 0 0 0.05218
2.7219999 1.794 0.125 150 0 0 0 0.052189998
2.717 1.7970001 0.12899999 150 0 0 0 0.052200001
2.7149999 1.8 0.132 150 0 0 0 0.052209999
2.7119999 1.803 0.13600001 150 0 0 0 0.052220002
2.71 1.807 0.14 150 0 0 0 0.05223
2.71 1.811 0.14399999 150 0 0 0 0.052239999
2.707 1.814 0.147 150 0 0 0 0.052250002
2.7049999 1.817 0.15099999 150 0 0 0 0.05226
2.7019999 1.819 0.155 150 0 0 0 0.052269999
2.6989999 1.821 0.15899999 150 0 0 0 0.052280001
2.7 1.826 0.162 150 0 0 0 0.05229
2.694 1.825 0.16599999 96 0 0 0 0.052299999
2.7049999 1.837 0.171 52 0 0 0 0.052310001
2.7349999 1.8609999 0.177 35 0 0 0 0.05232
2.7709999 1.8890001 0.183 36 0 0 0 0.052329998
2.776 1.896 0.18799999 57 0 0 0 0.052340001
2.7739999 1.898 0.192 135 0 0 0 0.05235
2.776 1.902 0.19599999 150 0 0 0 0.052359998
2.7750001 1.904 0.2 150 0 0 0 0.052370001
2.7709999 1.904 0.204 150 0 0 0 0.052379999
2.7720001 1.908 0.208 150 0 0 0 0.052390002
2.7679999 1.908 0.212 150 0 0 0 0.0524
2.7679999 1.91 0.21600001 150 0 0 0 0.052409999
2.767 1.9119999 0.22 150 0 0 0 0.052420001
2.766 1.913 0.22400001 150 0 0 0 0.05243
2.767 1.916 0.228 150 0 0 0 0.052439999
2.766 1.9170001 0.23199999 150 0 0 0 0.052450001
2.7620001 1.916 0.236 150 0 0 0 0.05246
2.7650001 1.92 0.23999999 150 0 0 0 0.052469999
2.7639999 1.92 0.244 150 0 0 0 0.052480001
2.7639999 1.9220001 0.248 150 0 0 0 0.05249
2.76 1.92 0.252 150 0 0 0 0.052499998
2.763 1.923 0.257 150 0 0 0 0.052510001
2.7579999 1.921 0.25999999 150 0 0 0 0.052519999
2.7620001 1.924 0.264 150 0 0 0 0.052530002
2.7609999 1.924 0.26800001 150 0 0 0 0.052540001
2.763 1.926 0.273 150 0 0 0 0.052549999
2.76 1.924 0.27599999 150 0 0 0 0.052560002
2.76 1.924 0.28 150 0 0 0 0.05257
2.763 1.926 0.285 150 0 0 0 0.052579999
2.7620001 1.925 0.289 150 0 0 0 0.052590001
2.763 1.925 0.292 150 0 0 0 0.0526
2.7579999 1.921 0.296 150 0 0 0 0.052609999
2.7650001 1.925 0.301 150 0 0 0 0.052620001
2.763 1.923 0.30399999 150 0 0 0 0.05263
2.763 1.9220001 0.308 150 0 0 0 0.052639998
2.7639999 1.921 0.31200001 150 0 0 0 0.052650001
2.766 1.921 0.31600001 150 0 0 0 0.05266
2.7639999 1.919 0.31900001 150 0 0 0 0.052669998
2.7690001 1.921 0.324 150 0 0 0 0.052680001
2.767 1.918 0.32699999 150 0 0 0 0.052689999
2.773 1.92 0.33199999 150 0 0 0 0.052700002
2.7750001 1.919 0.33500001 150 0 0 0 0.05271
2.773 1.916 0.33899999 150 0 0 0 0.052719999
2.7690001 1.91 0.34200001 150 0 0 0 0.052730002
2.7750001 1.9119999 0.34599999 150 0 0 0 0.05274
2.776 1.91 0.34999999 150 0 0 0 0.052749999
2.7780001 1.909 0.35299999 150 0 0 0 0.052760001
2.7780001 1.905 0.35699999 150 0 0 0 0.05277
2.7809999 1.905 0.36000001 150 0 0 0 0.052779999
2.783 1.903 0.36399999 65 0 0 0 0.052790001
2.776 1.8940001 0.366 37 0 0 0 0.0528
2.763 1.882 0.368 21 0 0 0 0.052809998
2.7249999 1.853 0.366 34 0 0 0 0.052820001
2.707 1.837 0.36700001 55 0 0 0 0.052829999
2.7049999 1.831 0.36899999 119 0 0 0 0.052839998
2.704 1.827 0.37200001 150 0 0 0 0.052850001
2.704 1.823 0.375 150 0 0 0 0.052859999
2.7049999 1.8200001 0.37799999 150 0 0 0 0.052870002
2.7119999 1.8200001 0.382 150 0 0 0 0.05288
2.7119999 1.8150001 0.38499999 150 0 0 0 0.052889999
2.7160001 1.814 0.38800001 150 0 0 0 0.052900001
2.7179999 1.8099999 0.391 150 0 0 0 0.05291
2.72 1.807 0.39399999 150 0 0 0 0.052919999
2.7249999 1.8049999 0.39700001 150 0 0 0 0.052930001
2.7260001 1.8 0.40000001 150 0 0 0 0.05294
2.7349999 1.801 0.40400001 150 0 0 0 0.052949999
2.734 1.795 0.40599999 150 0 0 0 0.052960001
2.73 1.7869999 0.40799999 150 0 0 0 0.05297
2.721 1.776 0.40900001 150 0 0 0 0.052979998
2.7190001 1.7690001 0.41100001 150 0 0 0 0.052990001
2.724 1.766 0.414 150 0 0 0 0.052999999
2.724 1.76 0.41600001 150 0 0 0 0.053010002
2.7290001 1.758 0.419 150 0 0 0 0.05302
2.7309999 1.753 0.421 150 0 0 0 0.053029999
2.737 1.75 0.42399999 150 0 0 0 0.053040002
2.737 1.744 0.426 150 0 0 0 0.05305
2.744 1.742 0.42899999 150 0 0 0 0.053059999
2.7460001 1.737 0.43200001 150 0 0 0 0.053070001
2.6600001 1.676 0.41999999 150 0 0 0 0.05308
2.4890001 1.562 0.39399999 150 0 0 0 0.053089999
2.2520001 1.408 0.35800001 32 0 0 0 0.053100001
2.1919999 1.365 0.34999999 22 0 0 0 0.05311
2.1670001 1.344 0.347 21 0 0 0 0.053119998
2.138 1.3200001 0.34400001 19 0 0 0 0.053130001
2.118 1.303 0.34200001 18 0 0 0 0.05314
2.089 1.279 0.338 16 0 0 0 0.053149998
2.066 1.2589999 0.33500001 23 0 0 0 0.053160001
2.0639999 1.253 0.336 23 0 0 0 0.053169999
2.059 1.244 0.336 8 0 0 0 0.053180002
2.076 1.249 0.34 0 0 0 0 0.05319
0 0 0 0 0 0 0 0.053199999
0 0 0 0 0 0 0 0.053210001
0 0 0 0 0 0 0 0.05322
0 0 0 0 0 0 0 0.053229999
0 0 0 0 0 0 0 0.053240001
0 0 0 0 0 0 0 0.05325
0 0 0 0 0 0 0 0.053259999
0 0 0 0 0 0 0 0.053270001
0 0 0 0 0 0 0 0.05328
0 0 0 0 0 0 0 0.053289998
0 0 0 0 0 0 0 0.053300001
0 0 0 0 0 0 0 0.053309999
0 0 0 0 0 0 0 0.053320002
0 0 0 0 0 0 0 0.05333
0 0 0 0 0 0 0 0.053339999
0 0 0 0 0 0 0 0.053350002
0 0 0 0 0 0 0 0.05336
0 0 0 0 0 0 0 0.053369999
0 0 0 0 0 0 0 0.053380001
0 0 0 0 0 0 0 0.05339
0 0 0 0 0 0 0 0.053399999
0 0 0 0 0 0 0 0.053410001
0 0 0 0 0 0 0 0.05342
0 0 0 0 0 0 0 0.053429998
0 0 0 0 0 0 0 0.053440001
0 0 0 0 0 0 0 0.05345
0 0 0 0 0 0 0 0.053459998
0 0 0 0 0 0 0 0.053470001
0 0 0 0 0 0 0 0.053479999
0 0 0 0 0 0 0 0.053490002
0 0 0 0 0 0 0 0.0535
0 0 0 0 0 0 0 0.053509999
0 0 0 0 0 0 0 0.053520001
0 0 0 0 0 0 0 0.05353
0 0 0 0 0 0 0 0.053539999
0 0 0 0 0 0 0 0.053550001
0 0 0 0 0 0 0 0.05356
0 0 0 0 0 0 0 0.053569999
0 0 0 0 0 0 0 0.053580001
0 0 0 0 0 0 0 0.05359
0 0 0 0 0 0 0 0.053599998
0 0 0 0 0 0 0 0.053610001
0 0 0 0 0 0 0 0.053619999
0 0 0 0 0 0 0 0.053630002
0 0 0 0 0 0 0 0.053640001
0 0 0 0 0 0 0 0.053649999
0 0 0 0 0 0 0 0.053660002
0 0 0 0 0 0 0 0.05367
0 0 0 0 0 0 0 0.053679999
0 0 0 0 0 0 0 0.053690001
0 0 0 0 0 0 0 0.0537
0 0 0 0 0 0 0 0.053709999
0 0 0 0 0 0 0 0.053720001
0 0 0 0 0 0 0 0.05373
0 0 0 0 0 0 0 0.053739998
0 0 0 0 0 0 0 0.053750001
0 0 0 0 0 0 0 0.05376
0 0 0 0 0 0 0 0.053769998
0 0 0 0 0 0 0 0.053780001
0 0 0 0 0 0 0 0.053789999
0 0 0 0 0 0 0 0.053800002
0 0 0 0 0 0 0 0.05381
0 0 0 0 0 0 0 0.053819999
0 0 0 0 0 0 0 0.053830002
0 0 0 0 0 0 0 0.05384
0 0 0 0 0 0 0 0.053849999
0 0 0 0 0 0 0 0.053860001
0 0 0 0 0 0 0 0.05387
0 0 0 0 0 0 0 0.053879999
0 0 0 0 0 0 0 0.053890001
0 0 0 0 0 0 0 0.0539
0 0 0 0 0 0 0 0.053909998
0 0 0 0 0 0 0 0.053920001
0 0 0 0 0 0 0 0.053929999
0 0 0 0 0 0 0 0.053939998
0 0 0 0 0 0 0 0.053950001
0 0 0 0 0 0 0 0.053959999
0 0 0 0 0 0 0 0.053970002
0 0 0 0 0 0 0 0.05398
0 0 0 0 0 0 0 0.053989999
0 0 0 0 0 0 0 0.054000001
0 0 0 0 0 0 0 0.05401
0 0 0 0 0 0 0 0.054019999
0 0 0 0 0 0 0 0.054030001
0 0 0 0 0 0 0 0.05404
0 0 0 0 0 0 0 0.054049999
0 0 0 0 0 0 0 0.054060001
0 0 0 0 0 0 0 0.05407
0 0 0 0 0 0 0 0.054079998
0 0 0 0 0 0 0 0.054090001
0 0 0 0 0 0 0 0.054099999
0 0 0 0 0 0 0 0.054110002
0 0 0 0 0 0 0 0.05412
0 0 0 0 0 0 0 0.054129999
0 0 0 0 0 0 0 0.054140002
0 0 0 0 0 0 0 0.05415
0 0 0 0 0 0 0 0.054159999
0 0 0 0 0 0 0 0.054170001
0 0 0 0 0 0 0 0.05418
0 0 0 0 0 0 0 0.054189999
0 0 0 0 0 0 0 0.054200001
0 0 0 0 0 0 0 0.05421
2.6159999 0.70499998 0.31 0 0 0 0 0.054219998
2.533 0.67400002 0.29699999 0 0 0 0 0.054230001
2.6670001 0.70200002 0.31 0 0 0 0 0.05424
2.602 0.676 0.30000001 0 0 0 0 0.054249998
2.684 0.68900001 0.30599999 0 0 0 0 0.054260001
2.7349999 0.69300002 0.30899999 0 0 0 0 0.054269999
2.596 0.64999998 0.29100001 0 0 0 0 0.054280002
0 0 0 0 0 0 0 0.05429
0 0 0 0 0 0 0 0.054299999
0 0 0 0 0 0 0 0.054310001
0 0 0 0 0 0 0 0.05432
2.6600001 0.62400001 0.28299999 0 0 0 0 0.054329999
0 0 0 0 0 0 0 0.054340001
2.615 0.597 0.27200001 0 0 0 0 0.05435
0 0 0 0 0 0 0 0.054359999
2.654 0.58899999 0.27000001 0 0 0 0 0.054370001
2.661 0.58200002 0.26800001 0 0 0 0 0.05438
2.6630001 0.574 0.26499999 0 0 0 0 0.054389998
2.6919999 0.57200003 0.26499999 0 0 0 0 0.054400001
2.675 0.56 0.25999999 0 0 0 0 0.054409999
2.678 0.55199999 0.257 0 0 0 0 0.054420002
2.6960001 0.54799998 0.255 0 0 0 0 0.05443
2.6789999 0.53600001 0.25 0 0 0 0 0.054439999
2.6819999 0.528 0.24699999 0 0 0 0 0.054450002
2.6989999 0.523 0.24600001 0 0 0 0 0.05446
2.8180001 0.53799999 0.25299999 0 0 0 0 0.054469999
2.7490001 0.51599997 0.244 0 0 0 0 0.054480001
2.733 0.50400001 0.23899999 0 0 0 0 0.05449
2.8050001 0.509 0.242 0 0 0 0 0.054499999
2.7090001 0.48300001 0.23 0 0 0 0 0.054510001
0 0 0 0 0 0 0 0.05452
0 0 0 0 0 0 0 0.054529998
0 0 0 0 0 0 0 0.054540001
0 0 0 0 0 0 0 0.05455
2.753 0.449 0.21600001 0 0 0 0 0.054559998
3.313 0.53100002 0.25600001 0 0 0 0 0.054570001
3.3199999 0.52200001 0.25299999 0 0 0 0 0.054579999
2.7420001 0.42199999 0.205 0 0 0 0 0.054590002
3.573 0.54000002 0.26300001 0 0 0 0 0.0546
3.484 0.51599997 0.252 0 0 0 0 0.054609999
3.375 0.48899999 0.23899999 0 0 0 0 0.054620001
2.8399999 0.403 0.198 0 0 0 0 0.05463
3.523 0.49000001 0.241 0 0 0 0 0.054639999
3.3440001 0.45500001 0.22400001 0 0 0 0 0.054650001
3.493 0.46399999 0.229 0 0 0 0 0.05466
4.336 0.56400001 0.27900001 4 0 0 0 0.054669999
4.4520001 0.565 0.28 4 0 0 0 0.054680001
3.4460001 0.42699999 0.212 0 0 0 0 0.05469
4.6830001 0.56699997 0.28200001 6 0 0 0 0.054699998
4.6680002 0.551 0.27500001 8 0 0 0 0.054710001
4.665 0.537 0.26899999 10 0 0 0 0.054719999
4.6760001 0.52399999 0.26300001 6 0 0 0 0.054730002
4.6890001 0.51200002 0.257 9 0 0 0 0.054740001
3.444 0.36500001 0.184 0 0 0 0 0.054749999
4.7150002 0.486 0.24600001 7 0 0 0 0.054760002
4.7280002 0.47400001 0.23999999 7 0 0 0 0.05477
4.7360001 0.461 0.234 7 0 0 0 0.054779999
4.7449999 0.447 0.228 7 0 0 0 0.054790001
4.7540002 0.43399999 0.221 8 0 0 0 0.0548
4.7639999 0.421 0.215 7 0 0 0 0.054809999
4.77 0.40799999 0.20900001 7 0 0 0 0.054820001
3.573 0.29499999 0.15099999 0 0 0 0 0.05483
4.7930002 0.38100001 0.19599999 7 0 0 0 0.054839998
4.8080001 0.36899999 0.19 8 0 0 0 0.054850001
4.8179998 0.35499999 0.184 7 0 0 0 0.05486
4.8309999 0.34200001 0.177 6 0 0 0 0.054869998
4.8099999 0.32699999 0.17 4 0 0 0 0.054880001
4.8099999 0.31299999 0.163 2 0 0 0 0.054889999
0 0 0 0 0 0 0 0.054900002
1.526 0.090000004 0.046999998 2 0 0 0 0.05491
1.516 0.085000001 0.044 0 0 0 0 0.054919999
4.869 0.25999999 0.13600001 1 0 0 0 0.054930001
4.8330002 0.244 0.12800001 1 0 0 0 0.05494
3.017 0.14300001 0.075999998 3 0 0 0 0.054949999
3.0309999 0.13500001 0.071000002 21 0 0 0 0.054960001
0 0 0 0 0 0 0 0.05497
3.3729999 0.131 0.07 152 0 0 0 0.054979999
4.5040002 0.162 0.086000003 113 0 0 0 0.054990001
4.494 0.149 0.079999998 95 0 0 0 0.055
4.4200001 0.134 0.071999997 99 0 0 0 0.055009998
4.3509998 0.119 0.064000003 150 0 0 0 0.055020001
4.3439999 0.107 0.057 150 0 0 0 0.055029999
4.3509998 0.093999997 0.050999999 150 0 0 0 0.055039998
4.3579998 0.082000002 0.044 39 0 0 0 0.055050001
4.323 0.068999998 0.037 0 0 0 0 0.055059999
4.2950001 0.056000002 0.030999999 7 0 0 0 0.055070002
4.302 0.044 0.024 150 0 0 0 0.05508
4.302 0.032000002 0.017999999 1 0 0 0 0.055089999
4.368 0.02 0.011 5 0 0 0 0.055100001
4.3699999 0.0070000002 0.0040000002 66 0 0 0 0.05511
4.3449998 -0.0040000002 -0.001 83 0 0 0 0.055119999
4.23 -0.016000001 -0.0080000004 57 0 0 0 0.055130001
4.1550002 -0.028000001 -0.014 66 0 0 0 0.05514
4.0679998 -0.039000001 -0.02 58 0 0 0 0.055149999
4.052 -0.050000001 -0.026000001 58 0 0 0 0.055160001
4.0450001 -0.061000001 -0.033 51 0 0 0 0.05517
4.0409999 -0.072999999 -0.039000001 36 0 0 0 0.055179998
4.0419998 -0.083999999 -0.045000002 14 0 0 0 0.055190001
4.0250001 -0.094999999 -0.052000001 6 0 0 0 0.055199999
4.0149999 -0.106 -0.057999998 3 0 0 0 0.055210002
3.9979999 -0.117 -0.064000003 2 0 0 0 0.05522
3.9860001 -0.12800001 -0.07 7 0 0 0 0.055229999
3.9649999 -0.138 -0.075999998 48 0 0 0 0.055240002
3.947 -0.149 -0.082000002 72 0 0 0 0.05525
3.9360001 -0.15899999 -0.088 91 0 0 0 0.055259999
3.95 -0.171 -0.094999999 95 0 0 0 0.055270001
3.96 -0.183 -0.102 92 0 0 0 0.05528
3.97 -0.19400001 -0.109 93 0 0 0 0.055289999
3.9749999 -0.206 -0.115 90 0 0 0 0.055300001
3.9909999 -0.21799999 -0.122 91 0 0 0 0.05531
4.0029998 -0.229 -0.12899999 89 0 0 0 0.055319998
4.0159998 -0.241 -0.13600001 84 0 0 0 0.055330001
4.0180001 -0.25299999 -0.14300001 76 0 0 0 0.055339999
4.0240002 -0.264 -0.15000001 16 0 0 0 0.055349998
4.184 -0.287 -0.163 0 0 0 0 0.055360001
3.8829999 -0.27700001 -0.15800001 2 0 0 0 0.055369999
3.7780001 -0.28 -0.16 2 0 0 0 0.055380002
1.266 -0.097000003 -0.055 0 0 0 0 0.05539
1.212 -0.096000001 -0.055 0 0 0 0 0.055399999
1.456 -0.12 -0.068999998 0 0 0 0 0.055410001
1.518 -0.12899999 -0.074000001 0 0 0 0 0.05542
1.585 -0.139 -0.079999998 0 0 0 0 0.055429999
1.628 -0.147 -0.085000001 1 0 0 0 0.055440001
1.609 -0.15000001 -0.086999997 0 0 0 0 0.05545
0 0 0 0 0 0 0 0.055459999
0 0 0 0 0 0 0 0.055470001
0 0 0 0 0 0 0 0.05548
1.628 -0.17 -0.098999999 0 0 0 0 0.055489998
1.642 -0.176 -0.103 0 0 0 0 0.055500001
1.026 -0.113 -0.066 0 0 0 0 0.055509999
0.66500002 -0.075000003 -0.044 0 0 0 0 0.055520002
0.67799997 -0.078000002 -0.046 0 0 0 0 0.05553
0.64700001 -0.075999998 -0.045000002 0 0 0 0 0.055539999
0.648 -0.078000002 -0.046 0 0 0 0 0.055550002
0.63300002 -0.078000002 -0.046 0 0 0 0 0.05556
0.62800002 -0.079000004 -0.046999998 0 0 0 0 0.055569999
0.616 -0.079000004 -0.046999998 0 0 0 0 0.055580001
0.61799997 -0.081 -0.048 0 0 0 0 0.05559
0.61199999 -0.082000002 -0.048999999 0 0 0 0 0.055599999
0.61500001 -0.083999999 -0.050000001 0 0 0 0 0.055610001
0.60600001 -0.085000001 -0.050999999 0 0 0 0 0.05562
0.60900003 -0.086999997 -0.052000001 0 0 0 0 0.055629998
0.60600001 -0.088 -0.052999999 0 0 0 0 0.055640001
0.60000002 -0.089000002 -0.052999999 0 0 0 0 0.05565
0.58999997 -0.089000002 -0.054000001 0 0 0 0 0.055659998
0.59899998 -0.092 -0.056000002 0 0 0 0 0.055670001
0.59799999 -0.093000002 -0.057 0 0 0 0 0.055679999
0.58899999 -0.093999997 -0.057 0 0 0 0 0.055690002
0.59799999 -0.097000003 -0.059 0 0 0 0 0.0557
0.58899999 -0.097000003 -0.059 0 0 0 0 0.055709999
0.60000002 -0.1 -0.061000001 0 0 0 0 0.055720001
0.59299999 -0.101 -0.061999999 0 0 0 0 0.05573
0.58499998 -0.101 -0.061999999 0 0 0 0 0.055739999
0.58399999 -0.102 -0.063000001 0 0 0 0 0.055750001
0.57599998 -0.102 -0.063000001 0 0 0 0 0.05576
0.58899999 -0.106 -0.066 0 0 0 0 0.055769999
0.597 -0.109 -0.068000004 0 0 0 0 0.055780001
0.597 -0.111 -0.068999998 0 0 0 0 0.05579
0.59399998 -0.112 -0.07 0 0 0 0 0.055799998
0.59899998 -0.115 -0.071999997 0 0 0 0 0.055810001
0.60699999 -0.118 -0.074000001 0 0 0 0 0.055819999
0.59799999 -0.118 -0.074000001 0 0 0 0 0.055830002
0.59200001 -0.118 -0.074000001 0 0 0 0 0.055840001
0.59799999 -0.121 -0.075999998 0 0 0 0 0.055849999
0.57999998 -0.119 -0.075000003 0 0 0 0 0.055860002
0.58200002 -0.121 -0.077 0 0 0 0 0.05587
0.59600002 -0.125 -0.079999998 0 0 0 0 0.055879999
0.611 -0.13 -0.082999997 0 0 0 0 0.055890001
0.65499997 -0.141 -0.090000004 0 0 0 0 0.0559
0.72299999 -0.15800001 -0.101 0 0 0 0 0.055909999
0.85900003 -0.19 -0.122 0 0 0 0 0.055920001
0.93199998 -0.208 -0.134 0 0 0 0 0.05593
0.98100001 -0.222 -0.14300001 0 0 0 0 0.055939998
1.008 -0.23100001 -0.149 0 0 0 0 0.055950001
1.007 -0.233 -0.15099999 0 0 0 0 0.05596
1.006 -0.236 -0.153 0 0 0 0 0.055969998
1.03 -0.244 -0.15899999 0 0 0 0 0.055980001
1.022 -0.245 -0.16 0 0 0 0 0.055989999
1.051 -0.255 -0.167 0 0 0 0 0.056000002
1.057 -0.259 -0.17 0 0 0 0 0.05601
0.99800003 -0.24699999 -0.163 0 0 0 0 0.056019999
0.99800003 -0.25 -0.16500001 0 0 0 0 0.056030001
0.99800003 -0.252 -0.167 0 0 0 0 0.05604
1.0039999 -0.25600001 -0.17 0 0 0 0 0.056049999
1.008 -0.25999999 -0.17299999 0 0 0 0 0.056060001
1.005 -0.26199999 -0.17399999 0 0 0 0 0.05607
1.012 -0.266 -0.178 0 0 0 0 0.056079999
1.024 -0.27200001 -0.182 0 0 0 0 0.056090001
1.026 -0.27500001 -0.185 0 0 0 0 0.0561
1.016 -0.27500001 -0.185 0 0 0 0 0.056109998
1.024 -0.28 -0.189 0 0 0 0 0.056120001
1.036 -0.28600001 -0.193 0 0 0 0 0.056129999
1.034 -0.28799999 -0.19499999 0 0 0 0 0.056139998
1.038 -0.292 -0.198 0 0 0 0 0.056150001
1.04 -0.29499999 -0.20100001 0 0 0 0 0.056159999
1.039 -0.29800001 -0.20299999 0 0 0 0 0.056170002
1.045 -0.30199999 -0.207 0 0 0 0 0.05618
1.051 -0.30599999 -0.20999999 0 0 0 0 0.056189999
1.059 -0.31099999 -0.214 0 0 0 0 0.056200001
1.048 -0.31099999 -0.215 0 0 0 0 0.05621
1.057 -0.31600001 -0.219 0 0 0 0 0.056219999
1.054 -0.31799999 -0.221 1 0 0 0 0.056230001
1.063 -0.32300001 -0.22499999 1 0 0 0 0.05624
1.073 -0.329 -0.23 1 0 0 0 0.056249999
1.074 -0.33199999 -0.23199999 1 0 0 0 0.056260001
1.0829999 -0.338 -0.237 1 0 0 0 0.05627
1.082 -0.34 -0.23899999 1 0 0 0 0.056279998
1.085 -0.34299999 -0.242 1 0 0 0 0.056290001
1.0880001 -0.347 -0.24600001 1 0 0 0 0.056299999
1.092 -0.35100001 -0.249 1 0 0 0 0.056310002
1.094 -0.35499999 -0.252 1 0 0 0 0.05632
1.095 -0.35800001 -0.255 1 0 0 0 0.056329999
1.1 -0.36199999 -0.259 1 0 0 0 0.056340002
1.109 -0.36700001 -0.26300001 1 0 0 0 0.05635
1.104 -0.368 -0.26499999 2 0 0 0 0.056359999
1.11 -0.373 -0.26899999 2 0 0 0 0.056370001
1.11 -0.37599999 -0.27200001 2 0 0 0 0.05638
1.118 -0.38100001 -0.27599999 2 0 0 0 0.056389999
1.12 -0.38499999 -0.28 2 0 0 0 0.056400001
1.124 -0.389 -0.28299999 2 0 0 0 0.05641
1.1210001 -0.38999999 -0.28600001 2 0 0 0 0.056419998
1.122 -0.39300001 -0.28799999 3 0 0 0 0.056430001
1.13 -0.39899999 -0.29300001 4 0 0 0 0.056439999
1.133 -0.40200001 -0.29699999 5 0 0 0 0.056449998
1.1289999 -0.40400001 -0.29899999 7 0 0 0 0.056460001
1.128 -0.40599999 -0.301 9 0 0 0 0.056469999
1.127 -0.40799999 -0.30399999 9 0 0 0 0.056480002
1.127 -0.41100001 -0.30700001 8 0 0 0 0.05649
1.12 -0.41100001 -0.308 7 0 0 0 0.056499999
1.12 -0.41299999 -0.31 7 0 0 0 0.056510001
1.124 -0.417 -0.31400001 8 0 0 0 0.05652
1.1210001 -0.419 -0.31600001 8 0 0 0 0.056529999
1.115 -0.419 -0.317 7 0 0 0 0.056540001
1.114 -0.421 -0.31999999 8 0 0 0 0.05655
1.1059999 -0.421 -0.32100001 8 0 0 0 0.056559999
1.109 -0.42399999 -0.324 8 0 0 0 0.056570001
1.103 -0.42399999 -0.32499999 8 0 0 0 0.05658
1.101 -0.426 -0.32800001 8 0 0 0 0.056589998
1.1 -0.428 -0.33000001 8 0 0 0 0.056600001
1.104 -0.43200001 -0.33399999 8 0 0 0 0.056609999
1.102 -0.433 -0.336 8 0 0 0 0.056620002
1.101 -0.435 -0.33899999 8 0 0 0 0.05663
1.098 -0.43700001 -0.34099999 9 0 0 0 0.056639999
1.097 -0.43799999 -0.34299999 9 0 0 0 0.056650002
1.096 -0.44 -0.34599999 9 0 0 0 0.05666
1.091 -0.44 -0.347 9 0 0 0 0.056669999
1.092 -0.44299999 -0.34999999 9 0 0 0 0.056680001
1.0880001 -0.44299999 -0.352 9 0 0 0 0.05669
1.087 -0.44499999 -0.354 9 0 0 0 0.056699999
1.086 -0.447 -0.35699999 10 0 0 0 0.056710001
1.084 -0.44800001 -0.359 9 0 0 0 0.05672
1.079 -0.44800001 -0.36000001 9 0 0 0 0.056729998
1.082 -0.45100001 -0.36399999 10 0 0 0 0.056740001
1.082 -0.454 -0.36700001 11 0 0 0 0.05675
1.0779999 -0.454 -0.368 11 0 0 0 0.056759998
1.075 -0.45500001 -0.37 10 0 0 0 0.056770001
1.0779999 -0.458 -0.37400001 11 0 0 0 0.056779999
1.068 -0.45500001 -0.373 12 0 0 0 0.056790002
1.067 -0.45699999 -0.37599999 12 0 0 0 0.0568
1.067 -0.45899999 -0.37900001 12 0 0 0 0.056809999
1.064 -0.46000001 -0.38100001 12 0 0 0 0.056820001
1.063 -0.461 -0.38299999 12 0 0 0 0.05683
1.063 -0.463 -0.38600001 12 0 0 0 0.056839999
1.062 -0.46399999 -0.38800001 12 0 0 0 0.056850001
1.059 -0.465 -0.38999999 12 0 0 0 0.05686
1.061 -0.46700001 -0.39300001 12 0 0 0 0.056869999
1.058 -0.46799999 -0.39500001 10 0 0 0 0.056880001
1.054 -0.46700001 -0.396 7 0 0 0 0.05689
1.048 -0.46700001 -0.39700001 6 0 0 0 0.056899998
1.024 -0.45699999 -0.38999999 4 0 0 0 0.056910001
1.021 -0.45699999 -0.39199999 1 0 0 0 0.056919999
0.958 -0.43000001 -0.37 0 0 0 0 0.056930002
0.91500002 -0.41299999 -0.35600001 0 0 0 0 0.056940001
0.90499997 -0.40900001 -0.354 0 0 0 0 0.056949999
0.90100002 -0.40900001 -0.35499999 0 0 0 0 0.056960002
0.90499997 -0.412 -0.359 0 0 0 0 0.05697
0.88800001 -0.405 -0.35499999 0 0 0 0 0.056979999
0.89399999 -0.40900001 -0.36000001 0 0 0 0 0.056990001
0.87800002 -0.403 -0.35499999 0 0 0 0 0.057
0.884 -0.40700001 -0.36000001 0 0 0 0 0.057009999
0.88300002 -0.40799999 -0.36199999 0 0 0 0 0.057020001
0.86199999 -0.39899999 -0.35600001 0 0 0 0 0.05703
0.86000001 -0.39899999 -0.35699999 0 0 0 0 0.057039998
0.85900003 -0.40000001 -0.359 0 0 0 0 0.057050001
0.847 -0.39500001 -0.35600001 0 0 0 0 0.05706
0.85699999 -0.40099999 -0.36199999 0 0 0 0 0.057069998
0.85399997 -0.40000001 -0.36300001 0 0 0 0 0.057080001
0.85000002 -0.39899999 -0.36300001 0 0 0 0 0.057089999
0.847 -0.398 -0.36399999 0 0 0 0 0.057100002
0.84600002 -0.39899999 -0.366 0 0 0 0 0.05711
0.83899999 -0.396 -0.36500001 0 0 0 0 0.057119999
0.83099997 -0.39300001 -0.36300001 0 0 0 0 0.057130001
0.83399999 -0.39500001 -0.36700001 0 0 0 0 0.05714
0.83099997 -0.39399999 -0.36700001 0 0 0 0 0.057149999
0.82499999 -0.39199999 -0.36700001 0 0 0 0 0.057160001
0.81699997 -0.389 -0.36500001 0 0 0 0 0.05717
0.81199998 -0.38699999 -0.36500001 0 0 0 0 0.057179999
0.81199998 -0.38699999 -0.366 0 0 0 0 0.057190001
0.79100001 -0.37799999 -0.359 0 0 0 0 0.0572
0.79699999 -0.38100001 -0.36300001 0 0 0 0 0.057209998
0.78899997 -0.37799999 -0.36199999 0 0 0 0 0.057220001
0.78899997 -0.37799999 -0.36300001 0 0 0 0 0.057229999
0.787 -0.37799999 -0.36399999 0 0 0 0 0.057240002
0.77100003 -0.37 -0.35800001 0 0 0 0 0.057250001
0.787 -0.37799999 -0.368 0 0 0 0 0.057259999
0.76800001 -0.37 -0.36000001 0 0 0 0 0.057270002
0.76700002 -0.36899999 -0.36199999 0 0 0 0 0.05728
0.76200002 -0.36700001 -0.361 0 0 0 0 0.057289999
0.76200002 -0.36700001 -0.36199999 0 0 0 0 0.057300001
0.76700002 -0.37 -0.366 0 0 0 0 0.05731
0.76999998 -0.37099999 -0.36899999 0 0 0 0 0.057319999
0.76599997 -0.37 -0.36899999 0 0 0 0 0.057330001
0.75199997 -0.36300001 -0.36399999 0 0 0 0 0.05734
0.75199997 -0.36300001 -0.36500001 0 0 0 0 0.057349999
0.75999999 -0.36700001 -0.37 0 0 0 0 0.057360001
0.75199997 -0.36300001 -0.368 0 0 0 0 0.05737
0.75099999 -0.36300001 -0.36899999 0 0 0 0 0.057379998
0.764 -0.36899999 -0.377 0 0 0 0 0.057390001
0.764 -0.368 -0.37799999 0 0 0 0 0.057399999
0.76300001 -0.368 -0.37900001 0 0 0 0 0.057410002
0.76300001 -0.368 -0.38 0 0 0 0 0.05742
0.759 -0.366 -0.38 0 0 0 0 0.057429999
0.755 -0.36300001 -0.37900001 0 0 0 0 0.057440002
0.73100001 -0.352 -0.368 0 0 0 0 0.05745
0.73100001 -0.35100001 -0.36899999 0 0 0 0 0.057459999
0.73900002 -0.35499999 -0.37400001 0 0 0 0 0.057470001
0.73000002 -0.34999999 -0.37099999 0 0 0 0 0.05748
0.72899997 -0.34900001 -0.37200001 0 0 0 0 0.057489999
0.72899997 -0.34900001 -0.373 0 0 0 0 0.057500001
0.72899997 -0.34799999 -0.37400001 0 0 0 0 0.05751
0.72799999 -0.347 -0.37400001 0 0 0 0 0.057519998
0.72799999 -0.347 -0.375 0 0 0 0 0.057530001
0.72799999 -0.34599999 -0.37599999 0 0 0 0 0.057539999
0.73100001 -0.347 -0.37799999 0 0 0 0 0.057549998
0.73000002 -0.34599999 -0.37900001 0 0 0 0 0.057560001
0.73000002 -0.34599999 -0.38 0 0 0 0 0.057569999
0.71600002 -0.33899999 -0.37400001 0 0 0 0 0.057580002
0.72299999 -0.34099999 -0.37799999 0 0 0 0 0.05759
0.72299999 -0.34 -0.37900001 0 0 0 0 0.057599999
0.72000003 -0.338 -0.37799999 0 0 0 0 0.057610001
0.72000003 -0.33700001 -0.37799999 0 0 0 0 0.05762
0.72299999 -0.338 -0.38100001 0 0 0 0 0.057629999
0.72100002 -0.33700001 -0.38100001 0 0 0 0 0.057640001
0.71700001 -0.33399999 -0.37900001 0 0 0 0 0.05765
0.71200001 -0.331 -0.377 0 0 0 0 0.057659999
0.70999998 -0.329 -0.37599999 0 0 0 0 0.057670001
0.72500002 -0.33500001 -0.38499999 0 0 0 0 0.05768
0.71799999 -0.33000001 -0.38100001 0 0 0 0 0.057689998
0.71799999 -0.33000001 -0.382 0 0 0 0 0.057700001
0.71799999 -0.329 -0.382 0 0 0 0 0.057709999
0.71799999 -0.32800001 -0.38299999 0 0 0 0 0.057720002
0.70599997 -0.32100001 -0.377 0 0 0 0 0.05773
0.722 -0.32800001 -0.38600001 0 0 0 0 0.057739999
0.71100003 -0.322 -0.38 0 0 0 0 0.057750002
0.70899999 -0.31900001 -0.37900001 0 0 0 0 0.05776
0.713 -0.31999999 -0.382 0 0 0 0 0.057769999
0.70899999 -0.317 -0.38 0 0 0 0 0.057780001
0.71399999 -0.31799999 -0.38299999 0 0 0 0 0.05779
0.71399999 -0.317 -0.38299999 0 0 0 0 0.057799999
0.70999998 -0.31400001 -0.38100001 0 0 0 0 0.057810001
0.71499997 -0.315 -0.384 0 0 0 0 0.05782
0.71499997 -0.31400001 -0.384 0 0 0 0 0.057829998
0.71100003 -0.31099999 -0.382 0 0 0 0 0.057840001
0.708 -0.308 -0.38 0 0 0 0 0.05785
0.71200001 -0.30899999 -0.382 0 0 0 0 0.057859998
0.708 -0.30599999 -0.38 0 0 0 0 0.057870001
0.70899999 -0.30500001 -0.38 0 0 0 0 0.057879999
0.70899999 -0.30399999 -0.38 0 0 0 0 0.057890002
0.70599997 -0.301 -0.37799999 0 0 0 0 0.0579
0.70999998 -0.301 -0.38 0 0 0 0 0.057909999
0.722 -0.30500001 -0.38699999 0 0 0 0 0.057920001
0.72299999 -0.30399999 -0.38699999 0 0 0 0 0.05793
0.71200001 -0.29800001 -0.38 0 0 0 0 0.057939999
0.71200001 -0.29699999 -0.38 0 0 0 0 0.057950001
0.713 -0.29499999 -0.38 0 0 0 0 0.05796
0.71700001 -0.29499999 -0.382 0 0 0 0 0.057969999
0.71399999 -0.29300001 -0.38 0 0 0 0 0.057980001
0.71799999 -0.29300001 -0.382 0 0 0 0 0.05799
0.71499997 -0.28999999 -0.38 0 0 0 0 0.057999998
0.727 -0.294 -0.38600001 0 0 0 0 0.058010001
0.72000003 -0.289 -0.382 0 0 0 0 0.058019999
0.72899997 -0.29100001 -0.38600001 0 0 0 0 0.058030002
0.72600001 -0.28799999 -0.384 0 0 0 0 0.05804
0.71399999 -0.28200001 -0.377 0 0 0 0 0.058049999
0.71899998 -0.28200001 -0.37900001 0 0 0 0 0.058060002
0.73100001 -0.28600001 -0.384 0 0 0 0 0.05807
0.73199999 -0.28400001 -0.384 0 0 0 0 0.058079999
0.72899997 -0.28200001 -0.382 0 0 0 0 0.058090001
0.72600001 -0.27900001 -0.37900001 0 0 0 0 0.0581
0.727 -0.27700001 -0.37900001 0 0 0 0 0.058109999
0.72299999 -0.27399999 -0.37599999 0 0 0 0 0.058120001
0.72799999 -0.27399999 -0.37799999 0 0 0 0 0.05813
0.73100001 -0.27399999 -0.37900001 0 0 0 0 0.058139998
0.73400003 -0.273 -0.37900001 0 0 0 0 0.058150001
0.74000001 -0.27399999 -0.382 0 0 0 0 0.05816
0.736 -0.27000001 -0.37799999 0 0 0 0 0.058169998
0.73900002 -0.27000001 -0.37900001 0 0 0 0 0.058180001
0.73699999 -0.26800001 -0.377 0 0 0 0 0.058189999
0.741 -0.26699999 -0.37799999 0 0 0 0 0.058200002
0.75599998 -0.271 -0.38499999 0 0 0 0 0.05821
0.74599999 -0.26499999 -0.37799999 0 0 0 0 0.058219999
0.74599999 -0.26300001 -0.377 0 0 0 0 0.058230001
0.75199997 -0.264 -0.37900001 0 0 0 0 0.05824
0.75599998 -0.26300001 -0.38 0 0 0 0 0.058249999
0.75300002 -0.26100001 -0.37799999 0 0 0 0 0.058260001
0.75 -0.25799999 -0.375 0 0 0 0 0.05827
0.759 -0.259 -0.37799999 0 0 0 0 0.058279999
0.75999999 -0.257 -0.377 0 0 0 0 0.058290001
0.74800003 -0.252 -0.37 0 0 0 0 0.0583
0.75999999 -0.25400001 -0.375 0 0 0 0 0.058309998
0.76599997 -0.25400001 -0.37599999 0 0 0 0 0.058320001
0.76899999 -0.25299999 -0.377 0 0 0 0 0.058329999
0.76700002 -0.25099999 -0.37400001 0 0 0 0 0.058340002
0.77899998 -0.25299999 -0.37900001 0 0 0 0 0.058350001
0.77100003 -0.248 -0.373 0 0 0 0 0.058359999
0.77100003 -0.24600001 -0.37200001 0 0 0 0 0.058370002
0.773 -0.245 -0.37099999 0 0 0 0 0.05838
0.77700001 -0.244 -0.37200001 0 0 0 0 0.058389999
0.77399999 -0.242 -0.36899999 0 0 0 0 0.058400001
0.78399998 -0.243 -0.37200001 0 0 0 0 0.05841
0.78500003 -0.241 -0.37099999 0 0 0 0 0.058419999
0.80400002 -0.245 -0.37799999 0 0 0 0 0.058430001
0.80500001 -0.244 -0.377 0 0 0 0 0.05844
0.80699998 -0.242 -0.37599999 0 0 0 0 0.058449998
0.815 -0.243 -0.37900001 0 0 0 0 0.058460001
0.81400001 -0.23999999 -0.37599999 0 0 0 0 0.05847
0.80199999 -0.235 -0.36899999 0 0 0 0 0.058479998
0.80699998 -0.234 -0.37 0 0 0 0 0.058490001
0.80699998 -0.23199999 -0.368 0 0 0 0 0.058499999
0.81199998 -0.23199999 -0.368 0 0 0 0 0.058510002
0.80900002 -0.229 -0.36500001 0 0 0 0 0.05852
0.82599998 -0.23199999 -0.37099999 0 0 0 0 0.058529999
0.81900001 -0.228 -0.366 0 0 0 0 0.058540002
0.82300001 -0.227 -0.366 0 0 0 0 0.05855
0.82700002 -0.226 -0.366 0 0 0 0 0.058559999
0.824 -0.223 -0.36199999 0 0 0 0 0.058570001
0.84299999 -0.227 -0.36899999 0 0 0 0 0.05858
0.861 -0.229 -0.375 0 0 0 0 0.058589999
0.87900001 -0.23199999 -0.38 0 0 0 0 0.058600001
0.86500001 -0.226 -0.37200001 0 0 0 0 0.05861
