# .PCD v0.7 - Point Cloud Data file format
VERSION 0.7
FIELDS x y z intensity normal_x normal_y normal_z curvature
SIZE 4 4 4 4 4 4 4 4
TYPE F F F F F F F F
COUNT 1 1 1 1 1 1 1 1
WIDTH 1044
HEIGHT 1
VIEWPOINT 0 0 0 1 0 0 0
POINTS 1044
DATA ascii
1.47 0.003 0.0020000001 150 0 0 0 0.00691
1.471 0.0070000002 0.0040000002 145 0 0 0 0.0069200001
1.472 0.011 0.0070000002 150 0 0 0 0.0069300001
1.477 0.015 0.0099999998 150 0 0 0 0.0069400002
1.478 0.018999999 0.012 150 0 0 0 0.0069499998
1.478 0.023 0.015 150 0 0 0 0.0069599999
1.478 0.027000001 0.017999999 150 0 0 0 0.00697
1.478 0.030999999 0.021 150 0 0 0 0.0069800001
1.478 0.034000002 0.023 150 0 0 0 0.0069900001
1.478 0.037999999 0.026000001 147 0 0 0 0.0070000002
1.48 0.041999999 0.028999999 150 0 0 0 0.0070099998
1.487 0.046 0.032000002 148 0 0 0 0.0070199999
1.479 0.050000001 0.034000002 150 0 0 0 0.00703
1.487 0.054000001 0.037 148 0 0 0 0.0070400001
1.487 0.057999998 0.039999999 150 0 0 0 0.0070500001
1.49 0.061999999 0.043000001 150 0 0 0 0.0070600002
1.489 0.066 0.046 150 0 0 0 0.0070699998
1.492 0.07 0.048999999 150 0 0 0 0.0070799999
1.493 0.074000001 0.052000001 150 0 0 0 0.00709
1.494 0.078000002 0.055 150 0 0 0 0.0071
1.4960001 0.082000002 0.057999998 150 0 0 0 0.0071100001
1.497 0.086000003 0.059999999 150 0 0 0 0.0071200002
1.497 0.090000004 0.063000001 150 0 0 0 0.0071299998
1.497 0.093999997 0.066 150 0 0 0 0.0071399999
1.499 0.097999997 0.068999998 150 0 0 0 0.00715
1.501 0.102 0.071999997 150 0 0 0 0.00716
1.501 0.106 0.075000003 150 0 0 0 0.0071700001
1.501 0.11 0.078000002 150 0 0 0 0.0071800002
1.5 0.114 0.081 150 0 0 0 0.0071899998
1.5039999 0.118 0.083999999 150 0 0 0 0.0071999999
1.5039999 0.122 0.086999997 150 0 0 0 0.00721
1.5039999 0.126 0.090000004 150 0 0 0 0.00722
1.508 0.13 0.093000002 150 0 0 0 0.0072300001
1.507 0.134 0.096000001 150 0 0 0 0.0072400002
1.5089999 0.138 0.098999999 148 0 0 0 0.0072499998
1.5089999 0.142 0.102 150 0 0 0 0.0072599999
1.512 0.146 0.106 150 0 0 0 0.0072699999
1.511 0.15000001 0.109 150 0 0 0 0.00728
1.511 0.154 0.112 150 0 0 0 0.0072900001
1.5140001 0.15800001 0.115 150 0 0 0 0.0073000002
1.512 0.162 0.118 150 0 0 0 0.0073099998
1.518 0.16599999 0.121 150 0 0 0 0.0073199999
1.517 0.17 0.124 150 0 0 0 0.0073299999
1.52 0.17399999 0.12800001 150 0 0 0 0.00734
1.5190001 0.178 0.131 150 0 0 0 0.0073500001
1.515 0.18099999 0.133 150 0 0 0 0.0073600002
1.518 0.186 0.13699999 150 0 0 0 0.0073699998
1.526 0.19 0.141 150 0 0 0 0.0073799998
1.521 0.19400001 0.14300001 150 0 0 0 0.0073899999
1.525 0.198 0.147 150 0 0 0 0.0074
1.53 0.20299999 0.15099999 150 0 0 0 0.0074100001
1.529 0.206 0.154 150 0 0 0 0.0074200002
1.528 0.20999999 0.15700001 150 0 0 0 0.0074300002
1.53 0.214 0.16 150 0 0 0 0.0074399998
1.529 0.21799999 0.163 150 0 0 0 0.0074499999
1.534 0.223 0.167 150 0 0 0 0.00746
1.529 0.226 0.17 150 0 0 0 0.0074700001
1.533 0.23 0.17399999 150 0 0 0 0.0074800001
1.536 0.235 0.177 150 0 0 0 0.0074900002
1.536 0.23800001 0.18000001 150 0 0 0 0.0074999998
1.535 0.242 0.184 150 0 0 0 0.0075099999
1.536 0.24600001 0.18700001 150 0 0 0 0.00752
1.5369999 0.25 0.191 150 0 0 0 0.0075300001
1.541 0.255 0.19400001 5 0 0 0 0.0075400001
1.5369999 0.25799999 0.197 150 0 0 0 0.0075500002
1.536 0.26199999 0.20100001 150 0 0 0 0.0075599998
1.543 0.26699999 0.205 150 0 0 0 0.0075699999
1.5420001 0.27000001 0.208 150 0 0 0 0.00758
1.546 0.27500001 0.212 150 0 0 0 0.0075900001
1.545 0.278 0.215 150 0 0 0 0.0076000001
1.549 0.28299999 0.219 150 0 0 0 0.0076100002
1.549 0.287 0.223 150 0 0 0 0.0076199998
1.561 0.29300001 0.228 21 0 0 0 0.0076299999
1.564 0.29699999 0.23199999 7 0 0 0 0.00764
0 0 0 0 0 0 0 0.00765
0 0 0 0 0 0 0 0.0076600001
0 0 0 0 0 0 0 0.0076700002
1.5369999 0.308 0.242 0 0 0 0 0.0076799998
1.571 0.31799999 0.25099999 8 0 0 0 0.0076899999
1.556 0.31900001 0.252 47 0 0 0 0.0077
1.549 0.32100001 0.25400001 150 0 0 0 0.00771
1.554 0.32600001 0.259 150 0 0 0 0.0077200001
1.554 0.33000001 0.26199999 150 0 0 0 0.0077300002
1.553 0.33399999 0.266 150 0 0 0 0.0077399998
1.557 0.338 0.27000001 150 0 0 0 0.0077499999
1.5599999 0.34299999 0.27399999 150 0 0 0 0.0077599999
1.557 0.34599999 0.27700001 150 0 0 0 0.00777
1.556 0.34900001 0.28099999 150 0 0 0 0.0077800001
1.559 0.354 0.285 150 0 0 0 0.0077900002
1.559 0.35699999 0.289 150 0 0 0 0.0077999998
1.561 0.36199999 0.29300001 150 0 0 0 0.0078099999
1.562 0.366 0.29699999 7 0 0 0 0.0078199999
1.5650001 0.37 0.301 150 0 0 0 0.0078299996
1.566 0.37400001 0.30500001 137 0 0 0 0.0078400001
1.5650001 0.37799999 0.308 128 0 0 0 0.0078499997
1.566 0.382 0.31200001 133 0 0 0 0.0078600002
1.572 0.38699999 0.317 77 0 0 0 0.0078699999
1.574 0.391 0.322 65 0 0 0 0.0078800004
1.577 0.39500001 0.32600001 138 0 0 0 0.00789
1.571 0.398 0.329 150 0 0 0 0.0078999996
1.5700001 0.40099999 0.33199999 150 0 0 0 0.0079100002
1.567 0.40400001 0.33500001 150 0 0 0 0.0079199998
1.566 0.40700001 0.33899999 150 0 0 0 0.0079300003
1.564 0.41100001 0.34299999 150 0 0 0 0.0079399999
1.567 0.41499999 0.347 150 0 0 0 0.0079500005
1.5650001 0.41800001 0.35100001 150 0 0 0 0.0079600001
1.566 0.42199999 0.35499999 150 0 0 0 0.0079699997
1.572 0.42699999 0.36000001 150 0 0 0 0.0079800002
1.572 0.43099999 0.36399999 150 0 0 0 0.0079899998
1.5700001 0.43399999 0.368 150 0 0 0 0.0080000004
1.575 0.43900001 0.373 150 0 0 0 0.00801
1.572 0.442 0.37599999 150 0 0 0 0.0080199996
1.575 0.44600001 0.38100001 150 0 0 0 0.0080300001
1.58 0.45100001 0.38600001 150 0 0 0 0.0080399998
1.5880001 0.45699999 0.39199999 150 0 0 0 0.0080500003
1.592 0.46200001 0.39700001 150 0 0 0 0.0080599999
1.5880001 0.46399999 0.40000001 150 0 0 0 0.0080700004
1.5930001 0.46900001 0.405 150 0 0 0 0.0080800001
1.589 0.472 0.40900001 150 0 0 0 0.0080899997
1.592 0.47600001 0.41299999 150 0 0 0 0.0081000002
1.591 0.479 0.417 150 0 0 0 0.0081099998
1.5930001 0.48300001 0.42199999 150 0 0 0 0.0081200004
1.596 0.48800001 0.42699999 150 0 0 0 0.00813
1.597 0.49200001 0.43200001 150 0 0 0 0.0081399996
1.596 0.495 0.435 150 0 0 0 0.0081500001
1.597 0.49900001 0.44 150 0 0 0 0.0081599997
1.598 0.50199997 0.44400001 150 0 0 0 0.0081700003
1.597 0.505 0.44800001 150 0 0 0 0.0081799999
1.598 0.509 0.45300001 150 0 0 0 0.0081900004
1.599 0.51300001 0.45699999 150 0 0 0 0.0082
1.601 0.51700002 0.46200001 150 0 0 0 0.0082099997
1.599 0.51899999 0.46599999 150 0 0 0 0.0082200002
1.605 0.52499998 0.472 150 0 0 0 0.0082299998
1.61 0.52999997 0.47799999 150 0 0 0 0.0082400003
1.612 0.53399998 0.48300001 150 0 0 0 0.00825
1.617 0.53899997 0.48899999 150 0 0 0 0.0082599996
1.615 0.54100001 0.49200001 150 0 0 0 0.0082700001
1.619 0.546 0.498 150 0 0 0 0.0082799997
1.614 0.54799998 0.50099999 150 0 0 0 0.0082900003
1.614 0.551 0.505 150 0 0 0 0.0082999999
1.619 0.55599999 0.51099998 150 0 0 0 0.0083100004
1.619 0.55900002 0.51599997 150 0 0 0 0.00832
1.624 0.56400001 0.52200001 150 0 0 0 0.0083299996
1.622 0.56599998 0.52600002 150 0 0 0 0.0083400002
1.6210001 0.56900001 0.52999997 150 0 0 0 0.0083499998
1.6210001 0.57200003 0.53399998 150 0 0 0 0.0083600003
1.624 0.57700002 0.54000002 150 0 0 0 0.0083699999
1.625 0.57999998 0.54500002 150 0 0 0 0.0083799995
1.626 0.58399999 0.55000001 150 0 0 0 0.0083900001
1.624 0.58600003 0.55299997 150 0 0 0 0.0083999997
1.626 0.58899999 0.55800003 150 0 0 0 0.0084100002
1.625 0.59200001 0.56300002 150 0 0 0 0.0084199999
1.626 0.59500003 0.56800002 150 0 0 0 0.0084300004
1.63 0.60000002 0.574 150 0 0 0 0.00844
1.6289999 0.602 0.57800001 150 0 0 0 0.0084499996
1.628 0.60500002 0.58200002 150 0 0 0 0.0084600002
1.633 0.60900003 0.588 150 0 0 0 0.0084699998
1.63 0.611 0.59200001 150 0 0 0 0.0084800003
1.6339999 0.61500001 0.59799999 150 0 0 0 0.0084899999
1.63 0.61699998 0.60100001 150 0 0 0 0.0085000005
1.6289999 0.61900002 0.60500002 150 0 0 0 0.0085100001
1.627 0.62099999 0.60900003 150 0 0 0 0.0085199997
1.627 0.62400001 0.61299998 150 0 0 0 0.0085300002
1.626 0.62599999 0.61799997 150 0 0 0 0.0085399998
1.624 0.62800002 0.62099999 150 0 0 0 0.0085500004
1.6210001 0.62900001 0.625 150 0 0 0 0.00856
1.619 0.63099998 0.62900001 150 0 0 0 0.0085699996
1.617 0.63300002 0.63200003 150 0 0 0 0.0085800001
1.62 0.63700002 0.63800001 150 0 0 0 0.0085899998
1.612 0.63599998 0.63999999 150 0 0 0 0.0086000003
1.614 0.639 0.64499998 150 0 0 0 0.0086099999
1.612 0.63999999 0.64899999 150 0 0 0 0.0086200004
1.612 0.64300001 0.653 150 0 0 0 0.0086300001
1.61 0.64399999 0.65700001 150 0 0 0 0.0086399997
1.61 0.64600003 0.66100001 150 0 0 0 0.0086500002
1.61 0.64899999 0.66600001 150 0 0 0 0.0086599998
1.607 0.64899999 0.66900003 150 0 0 0 0.0086700004
1.605 0.65100002 0.67299998 150 0 0 0 0.00868
1.609 0.65399998 0.67799997 150 0 0 0 0.0086899996
1.6059999 0.65499997 0.68199998 150 0 0 0 0.0087000001
1.604 0.65600002 0.68599999 150 0 0 0 0.0087099997
1.609 0.66000003 0.69199997 150 0 0 0 0.0087200003
1.6059999 0.66100001 0.69499999 150 0 0 0 0.0087299999
1.605 0.662 0.699 150 0 0 0 0.0087400004
1.603 0.66399997 0.70300001 150 0 0 0 0.00875
1.601 0.66399997 0.70599997 150 0 0 0 0.0087599996
1.6 0.66500002 0.70999998 150 0 0 0 0.0087700002
1.598 0.66600001 0.713 150 0 0 0 0.0087799998
1.598 0.66799998 0.71700001 150 0 0 0 0.0087900003
1.597 0.66900003 0.72100002 150 0 0 0 0.0088
1.595 0.67000002 0.72399998 150 0 0 0 0.0088099996
1.595 0.671 0.72899997 150 0 0 0 0.0088200001
1.5930001 0.67199999 0.73199999 150 0 0 0 0.0088299997
1.5930001 0.67299998 0.736 150 0 0 0 0.0088400003
1.591 0.67400002 0.73900002 150 0 0 0 0.0088499999
1.589 0.67400002 0.74299997 150 0 0 0 0.0088600004
1.597 0.67900002 0.75 150 0 0 0 0.00887
1.594 0.67900002 0.75300002 150 0 0 0 0.0088799996
1.592 0.67900002 0.75700003 150 0 0 0 0.0088900002
1.591 0.68000001 0.75999999 150 0 0 0 0.0088999998
1.587 0.67900002 0.76200002 150 0 0 0 0.0089100003
1.5880001 0.68000001 0.76599997 150 0 0 0 0.0089199999
1.59 0.68199998 0.77100003 150 0 0 0 0.0089299995
1.589 0.68300003 0.77499998 150 0 0 0 0.0089400001
1.5880001 0.68300003 0.778 150 0 0 0 0.0089499997
1.589 0.68400002 0.78299999 150 0 0 0 0.0089600002
1.5880001 0.68400002 0.78600001 150 0 0 0 0.0089699998
1.5829999 0.68300003 0.787 150 0 0 0 0.0089800004
1.589 0.68599999 0.79400003 150 0 0 0 0.00899
1.586 0.685 0.796 150 0 0 0 0.0089999996
1.589 0.68699998 0.801 150 0 0 0 0.0090100002
1.587 0.68699998 0.80400002 150 0 0 0 0.0090199998
1.5880001 0.68699998 0.80699998 150 0 0 0 0.0090300003
1.586 0.68699998 0.81 150 0 0 0 0.0090399999
1.589 0.68900001 0.815 150 0 0 0 0.0090500005
1.589 0.68900001 0.81900001 150 0 0 0 0.0090600001
1.587 0.68800002 0.82099998 150 0 0 0 0.0090699997
1.585 0.68699998 0.82300001 150 0 0 0 0.0090800002
1.586 0.68800002 0.82700002 150 0 0 0 0.0090899998
1.587 0.68800002 0.83099997 150 0 0 0 0.0091000004
1.586 0.68800002 0.83399999 150 0 0 0 0.00911
1.587 0.68800002 0.83700001 150 0 0 0 0.0091199996
1.591 0.69 0.84299999 150 0 0 0 0.0091300001
1.59 0.68900001 0.84500003 150 0 0 0 0.0091399997
1.589 0.68800002 0.84799999 150 0 0 0 0.0091500003
1.589 0.68800002 0.85100001 150 0 0 0 0.0091599999
1.5880001 0.68699998 0.85299999 150 0 0 0 0.0091700004
1.5880001 0.68599999 0.85600001 150 0 0 0 0.0091800001
1.592 0.68699998 0.861 150 0 0 0 0.0091899997
1.592 0.68699998 0.86400002 150 0 0 0 0.0092000002
1.591 0.68599999 0.866 150 0 0 0 0.0092099998
1.594 0.68599999 0.87 150 0 0 0 0.0092200004
1.595 0.68599999 0.87300003 150 0 0 0 0.00923
1.594 0.685 0.875 150 0 0 0 0.0092399996
1.595 0.68400002 0.87800002 150 0 0 0 0.0092500001
1.598 0.68400002 0.88200003 150 0 0 0 0.0092599997
1.599 0.68400002 0.88499999 150 0 0 0 0.0092700003
1.596 0.68099999 0.88599998 150 0 0 0 0.0092799999
1.6 0.68199998 0.88999999 150 0 0 0 0.0092900004
1.6 0.68099999 0.89200002 150 0 0 0 0.0093
1.599 0.67900002 0.89399999 150 0 0 0 0.0093099996
1.599 0.67799997 0.89600003 150 0 0 0 0.0093200002
1.603 0.67799997 0.89999998 150 0 0 0 0.0093299998
1.605 0.67799997 0.903 150 0 0 0 0.0093400003
1.602 0.67500001 0.903 150 0 0 0 0.0093499999
1.607 0.67500001 0.90799999 150 0 0 0 0.0093599996
1.607 0.67400002 0.90899998 150 0 0 0 0.0093700001
1.61 0.67299998 0.912 150 0 0 0 0.0093799997
1.61 0.67199999 0.91399997 150 0 0 0 0.0093900003
1.6059999 0.66799998 0.91399997 150 0 0 0 0.0093999999
1.61 0.66799998 0.917 150 0 0 0 0.0094100004
1.6109999 0.66600001 0.91900003 150 0 0 0 0.00942
1.6109999 0.66500002 0.92000002 150 0 0 0 0.0094299996
1.6160001 0.66500002 0.92400002 150 0 0 0 0.0094400002
1.6160001 0.66299999 0.92500001 150 0 0 0 0.0094499998
1.618 0.66100001 0.92699999 150 0 0 0 0.0094600003
1.619 0.66000003 0.92900002 150 0 0 0 0.0094699999
1.62 0.65799999 0.93000001 150 0 0 0 0.0094799995
1.62 0.65600002 0.93099999 150 0 0 0 0.0094900001
1.6210001 0.65399998 0.93300003 150 0 0 0 0.0094999997
1.6210001 0.65200001 0.93300003 150 0 0 0 0.0095100002
1.622 0.64899999 0.93400002 150 0 0 0 0.0095199998
1.626 0.648 0.93699998 150 0 0 0 0.0095300004
1.625 0.64600003 0.93699998 150 0 0 0 0.00954
1.628 0.64399999 0.93900001 150 0 0 0 0.0095499996
1.631 0.64300001 0.94099998 150 0 0 0 0.0095600002
1.633 0.64099997 0.94199997 150 0 0 0 0.0095699998
1.633 0.639 0.94300002 150 0 0 0 0.0095800003
1.636 0.63700002 0.94400001 150 0 0 0 0.0095899999
1.637 0.634 0.94499999 150 0 0 0 0.0096000005
1.64 0.63300002 0.94599998 150 0 0 0 0.0096100001
1.635 0.62800002 0.94300002 150 0 0 0 0.0096199997
1.637 0.62599999 0.94499999 150 0 0 0 0.0096300002
1.636 0.62300003 0.94300002 150 0 0 0 0.0096399998
1.636 0.62 0.94300002 150 0 0 0 0.0096500004
1.6339999 0.616 0.94199997 150 0 0 0 0.00966
1.635 0.61299998 0.94199997 150 0 0 0 0.0096699996
1.632 0.60900003 0.93900001 150 0 0 0 0.0096800001
1.63 0.60500002 0.93699998 150 0 0 0 0.0096899997
1.632 0.60299999 0.93699998 150 0 0 0 0.0097000003
1.632 0.60000002 0.93699998 150 0 0 0 0.0097099999
1.6289999 0.59600002 0.93400002 150 0 0 0 0.0097200004
1.628 0.59200001 0.93199998 150 0 0 0 0.00973
1.625 0.588 0.93000001 150 0 0 0 0.0097399997
1.628 0.58600003 0.93000001 150 0 0 0 0.0097500002
1.623 0.58099997 0.926 150 0 0 0 0.0097599998
1.625 0.57800001 0.926 150 0 0 0 0.0097700004
1.624 0.574 0.92400002 150 0 0 0 0.00978
1.623 0.57099998 0.92199999 150 0 0 0 0.0097899996
1.62 0.56599998 0.91900003 150 0 0 0 0.0098000001
1.6210001 0.56300002 0.91799998 150 0 0 0 0.0098099997
1.62 0.55900002 0.91600001 150 0 0 0 0.0098200003
1.6210001 0.55699998 0.91500002 150 0 0 0 0.0098299999
1.62 0.55299997 0.91299999 150 0 0 0 0.0098400004
1.618 0.54799998 0.90899998 150 0 0 0 0.00985
1.614 0.54400003 0.90499997 150 0 0 0 0.0098599996
1.615 0.54100001 0.90399998 150 0 0 0 0.0098700002
1.609 0.53500003 0.89899999 150 0 0 0 0.0098799998
1.608 0.53100002 0.89600003 150 0 0 0 0.0098900003
1.6059999 0.52700001 0.89300001 150 0 0 0 0.0098999999
1.6059999 0.523 0.88999999 150 0 0 0 0.0099099996
1.6109999 0.52200001 0.89099997 150 0 0 0 0.0099200001
1.603 0.51599997 0.88499999 150 0 0 0 0.0099299997
1.602 0.51200002 0.88200003 150 0 0 0 0.0099400003
1.604 0.509 0.88 150 0 0 0 0.0099499999
1.601 0.50400001 0.87599999 150 0 0 0 0.0099600004
1.602 0.50099999 0.87400001 150 0 0 0 0.00997
1.601 0.49700001 0.87099999 150 0 0 0 0.0099799996
1.6 0.493 0.86799997 150 0 0 0 0.0099900002
1.602 0.49000001 0.86699998 150 0 0 0 0.0099999998
1.595 0.48500001 0.86000001 150 0 0 0 0.01001
1.587 0.479 0.85299999 150 0 0 0 0.01002
1.584 0.47400001 0.84799999 150 0 0 0 0.01003
1.584 0.47099999 0.84600002 150 0 0 0 0.01004
1.581 0.46599999 0.84100002 150 0 0 0 0.01005
1.5779999 0.46200001 0.83700001 150 0 0 0 0.01006
1.5779999 0.458 0.83399999 150 0 0 0 0.01007
1.577 0.454 0.82999998 150 0 0 0 0.01008
1.577 0.45100001 0.82700002 150 0 0 0 0.01009
1.573 0.44600001 0.82200003 150 0 0 0 0.0101
1.574 0.44299999 0.81999999 150 0 0 0 0.01011
1.574 0.44 0.81699997 150 0 0 0 0.01012
1.576 0.43599999 0.81400001 150 0 0 0 0.01013
1.572 0.43200001 0.80900002 150 0 0 0 0.01014
1.575 0.42899999 0.80699998 150 0 0 0 0.01015
1.575 0.426 0.80400002 150 0 0 0 0.01016
1.58 0.42300001 0.80299997 150 0 0 0 0.01017
1.5829999 0.421 0.801 150 0 0 0 0.01018
1.581 0.417 0.79699999 150 0 0 0 0.01019
1.582 0.41299999 0.79299998 150 0 0 0 0.0102
1.579 0.40900001 0.78899997 150 0 0 0 0.01021
1.576 0.405 0.78399998 150 0 0 0 0.01022
1.5779999 0.40200001 0.78100002 150 0 0 0 0.01023
1.577 0.398 0.77700001 150 0 0 0 0.01024
1.571 0.39300001 0.76999998 150 0 0 0 0.01025
1.571 0.38999999 0.76700002 150 0 0 0 0.01026
1.572 0.38699999 0.76300001 150 0 0 0 0.01027
1.5700001 0.38299999 0.759 150 0 0 0 0.01028
1.5700001 0.37900001 0.755 150 0 0 0 0.01029
1.568 0.375 0.75 150 0 0 0 0.0103
1.568 0.37200001 0.74599999 150 0 0 0 0.01031
1.572 0.36899999 0.74400002 150 0 0 0 0.01032
1.566 0.36500001 0.73799998 150 0 0 0 0.01033
1.568 0.36199999 0.73500001 150 0 0 0 0.01034
1.563 0.35699999 0.72799999 150 0 0 0 0.01035
1.563 0.354 0.72399998 150 0 0 0 0.01036
1.5650001 0.35100001 0.72100002 150 0 0 0 0.01037
1.564 0.34799999 0.71700001 150 0 0 0 0.01038
1.561 0.34400001 0.71100003 150 0 0 0 0.01039
1.552 0.338 0.70300001 150 0 0 0 0.0104
1.554 0.33500001 0.69999999 150 0 0 0 0.01041
1.557 0.333 0.69800001 150 0 0 0 0.01042
1.5549999 0.329 0.69300002 150 0 0 0 0.01043
1.553 0.32600001 0.68800002 150 0 0 0 0.01044
1.5549999 0.32300001 0.68400002 150 0 0 0 0.01045
1.554 0.31900001 0.68000001 150 0 0 0 0.01046
1.548 0.315 0.67299998 150 0 0 0 0.01047
1.5470001 0.31200001 0.66900003 150 0 0 0 0.01048
1.549 0.30899999 0.66500002 150 0 0 0 0.01049
1.543 0.30500001 0.65799999 150 0 0 0 0.0105
1.545 0.30199999 0.65499997 150 0 0 0 0.01051
1.544 0.29899999 0.64999998 150 0 0 0 0.01052
1.546 0.296 0.64700001 150 0 0 0 0.01053
1.544 0.29300001 0.64200002 150 0 0 0 0.01054
1.545 0.28999999 0.63800001 150 0 0 0 0.01055
1.5369999 0.285 0.63 150 0 0 0 0.01056
1.536 0.28200001 0.62599999 150 0 0 0 0.01057
1.538 0.28 0.62199998 150 0 0 0 0.01058
1.5369999 0.27599999 0.61699998 150 0 0 0 0.01059
1.534 0.273 0.61199999 150 0 0 0 0.0106
1.535 0.27000001 0.60799998 150 0 0 0 0.01061
1.53 0.266 0.602 150 0 0 0 0.01062
1.5319999 0.264 0.59799999 150 0 0 0 0.01063
1.534 0.26100001 0.59399998 150 0 0 0 0.01064
1.533 0.25799999 0.58999997 150 0 0 0 0.01065
1.5319999 0.255 0.58499998 150 0 0 0 0.01066
1.536 0.25299999 0.58200002 150 0 0 0 0.01067
1.53 0.249 0.57499999 150 0 0 0 0.01068
1.529 0.24600001 0.57099998 150 0 0 0 0.01069
1.531 0.244 0.56699997 150 0 0 0 0.0107
1.527 0.23999999 0.56099999 150 0 0 0 0.01071
1.529 0.23800001 0.55699998 150 0 0 0 0.01072
1.528 0.235 0.55199999 150 0 0 0 0.01073
1.521 0.23100001 0.546 150 0 0 0 0.01074
1.521 0.228 0.54100001 150 0 0 0 0.01075
1.52 0.226 0.53600001 150 0 0 0 0.01076
1.516 0.222 0.52999997 150 0 0 0 0.01077
1.518 0.22 0.52600002 150 0 0 0 0.01078
1.5190001 0.21799999 0.523 150 0 0 0 0.01079
1.521 0.215 0.51899999 150 0 0 0 0.0108
1.52 0.213 0.514 150 0 0 0 0.01081
1.516 0.20900001 0.50800002 150 0 0 0 0.01082
1.517 0.207 0.50400001 150 0 0 0 0.01083
1.516 0.204 0.49900001 150 0 0 0 0.01084
1.516 0.20200001 0.495 150 0 0 0 0.01085
1.512 0.199 0.48899999 150 0 0 0 0.01086
1.511 0.19599999 0.484 150 0 0 0 0.01087
1.5089999 0.193 0.479 150 0 0 0 0.01088
1.505 0.19 0.47299999 150 0 0 0 0.01089
1.512 0.189 0.47099999 150 0 0 0 0.0109
1.508 0.186 0.465 150 0 0 0 0.01091
1.51 0.184 0.461 150 0 0 0 0.01092
1.5089999 0.18099999 0.456 150 0 0 0 0.01093
1.5039999 0.178 0.44999999 150 0 0 0 0.01094
1.506 0.176 0.44600001 150 0 0 0 0.01095
1.507 0.17399999 0.442 150 0 0 0 0.01096
1.506 0.171 0.43700001 150 0 0 0 0.01097
1.5 0.168 0.43099999 150 0 0 0 0.01098
1.5 0.16599999 0.42699999 150 0 0 0 0.01099
1.501 0.164 0.42199999 150 0 0 0 0.011
1.498 0.161 0.417 150 0 0 0 0.01101
1.499 0.15899999 0.41299999 150 0 0 0 0.01102
1.501 0.15700001 0.40900001 150 0 0 0 0.01103
1.4960001 0.154 0.403 150 0 0 0 0.01104
1.489 0.15099999 0.396 150 0 0 0 0.01105
1.49 0.149 0.39199999 150 0 0 0 0.01106
1.498 0.148 0.38999999 150 0 0 0 0.01107
1.4960001 0.145 0.38499999 150 0 0 0 0.01108
1.497 0.14300001 0.38 150 0 0 0 0.01109
1.492 0.14 0.37400001 150 0 0 0 0.0111
1.493 0.138 0.37 150 0 0 0 0.01111
1.494 0.13600001 0.366 150 0 0 0 0.01112
1.4910001 0.134 0.361 150 0 0 0 0.01113
1.493 0.132 0.35699999 150 0 0 0 0.01114
1.494 0.13 0.352 150 0 0 0 0.01115
1.495 0.12800001 0.34799999 150 0 0 0 0.01116
1.493 0.126 0.34299999 150 0 0 0 0.01117
1.494 0.124 0.33899999 150 0 0 0 0.01118
1.489 0.121 0.333 150 0 0 0 0.01119
1.49 0.119 0.329 150 0 0 0 0.0112
1.492 0.117 0.32499999 150 0 0 0 0.01121
1.49 0.115 0.31999999 150 0 0 0 0.01122
1.49 0.113 0.315 150 0 0 0 0.01123
1.49 0.111 0.31099999 150 0 0 0 0.01124
1.4910001 0.109 0.30599999 150 0 0 0 0.01125
1.489 0.107 0.30199999 150 0 0 0 0.01126
1.487 0.105 0.29699999 150 0 0 0 0.01127
1.485 0.103 0.29100001 150 0 0 0 0.01128
1.487 0.101 0.28799999 150 0 0 0 0.01129
1.4859999 0.098999999 0.28299999 150 0 0 0 0.0113
1.4859999 0.097000003 0.278 150 0 0 0 0.01131
1.483 0.094999999 0.273 150 0 0 0 0.01132
1.482 0.093000002 0.26800001 150 0 0 0 0.01133
1.48 0.090999998 0.264 150 0 0 0 0.01134
1.484 0.090000004 0.25999999 150 0 0 0 0.01135
1.48 0.088 0.25400001 150 0 0 0 0.01136
1.476 0.086000003 0.249 150 0 0 0 0.01137
1.475 0.083999999 0.245 150 0 0 0 0.01138
1.476 0.082000002 0.23999999 150 0 0 0 0.01139
1.476 0.079999998 0.236 150 0 0 0 0.0114
1.476 0.078000002 0.23100001 150 0 0 0 0.01141
1.477 0.077 0.227 150 0 0 0 0.01142
1.476 0.075000003 0.222 150 0 0 0 0.01143
1.472 0.072999999 0.21699999 150 0 0 0 0.01144
1.472 0.071000002 0.213 150 0 0 0 0.01145
1.473 0.068999998 0.208 150 0 0 0 0.01146
1.477 0.068000004 0.204 150 0 0 0 0.01147
1.475 0.066 0.199 150 0 0 0 0.01148
1.473 0.064000003 0.19499999 150 0 0 0 0.01149
1.472 0.063000001 0.19 150 0 0 0 0.0115
1.471 0.061000001 0.185 150 0 0 0 0.01151
1.474 0.059 0.18099999 150 0 0 0 0.01152
1.471 0.057 0.176 150 0 0 0 0.01153
1.471 0.056000002 0.17200001 150 0 0 0 0.01154
1.472 0.054000001 0.167 150 0 0 0 0.01155
1.473 0.052999999 0.163 150 0 0 0 0.01156
1.466 0.050999999 0.15800001 150 0 0 0 0.01157
1.4680001 0.048999999 0.153 150 0 0 0 0.01158
1.47 0.048 0.149 150 0 0 0 0.01159
1.466 0.046 0.14399999 150 0 0 0 0.0116
1.4680001 0.044 0.14 150 0 0 0 0.01161
1.469 0.043000001 0.13500001 150 0 0 0 0.01162
1.462 0.041000001 0.13 150 0 0 0 0.01163
1.467 0.039999999 0.126 150 0 0 0 0.01164
1.465 0.037999999 0.121 150 0 0 0 0.01165
1.465 0.037 0.117 150 0 0 0 0.01166
1.464 0.035 0.112 150 0 0 0 0.01167
1.4630001 0.033 0.108 150 0 0 0 0.01168
1.461 0.032000002 0.103 150 0 0 0 0.01169
1.462 0.029999999 0.098999999 150 0 0 0 0.0117
1.462 0.028999999 0.093999997 150 0 0 0 0.01171
1.462 0.027000001 0.090000004 150 0 0 0 0.01172
1.459 0.026000001 0.085000001 150 0 0 0 0.01173
1.443 0.024 0.079999998 150 0 0 0 0.01174
1.4579999 0.023 0.075999998 150 0 0 0 0.01175
1.442 0.021 0.071000002 150 0 0 0 0.01176
1.442 0.02 0.066 150 0 0 0 0.01177
1.4579999 0.017999999 0.061999999 150 0 0 0 0.01178
1.442 0.017000001 0.057 150 0 0 0 0.01179
1.442 0.015 0.052999999 150 0 0 0 0.0118
1.431 0.014 0.048 150 0 0 0 0.01181
1.431 0.013 0.044 150 0 0 0 0.01182
1.434 0.011 0.039000001 150 0 0 0 0.01183
1.428 0.0099999998 0.035 150 0 0 0 0.01184
1.434 0.0089999996 0.029999999 150 0 0 0 0.01185
1.428 0.0070000002 0.026000001 150 0 0 0 0.01186
1.431 0.0060000001 0.021 150 0 0 0 0.01187
1.431 0.0040000002 0.017000001 150 0 0 0 0.01188
1.428 0.003 0.013 150 0 0 0 0.01189
1.443 0.0020000001 0.0080000004 150 0 0 0 0.0119
1.443 0.001 0.0040000002 150 0 0 0 0.01191
1.431 0 0 150 0 0 0 0.01192
1.434 -0.001 -0.0040000002 150 0 0 0 0.01193
1.431 -0.0020000001 -0.0089999996 150 0 0 0 0.01194
1.431 -0.0040000002 -0.013 150 0 0 0 0.01195
1.456 -0.0049999999 -0.017999999 150 0 0 0 0.01196
1.456 -0.0060000001 -0.022 150 0 0 0 0.01197
1.454 -0.0080000004 -0.027000001 150 0 0 0 0.01198
1.454 -0.0089999996 -0.032000002 150 0 0 0 0.01199
1.4529999 -0.0099999998 -0.035999998 150 0 0 0 0.012
1.456 -0.011 -0.041000001 150 0 0 0 0.01201
1.456 -0.013 -0.045000002 150 0 0 0 0.01202
1.456 -0.014 -0.050000001 150 0 0 0 0.01203
1.456 -0.015 -0.054000001 150 0 0 0 0.01204
1.457 -0.016000001 -0.059 150 0 0 0 0.01205
1.454 -0.017999999 -0.063000001 150 0 0 0 0.01206
1.457 -0.018999999 -0.068000004 150 0 0 0 0.01207
1.457 -0.02 -0.072999999 150 0 0 0 0.01208
1.4579999 -0.021 -0.077 150 0 0 0 0.01209
1.4579999 -0.022 -0.082000002 0 0 0 0 0.0121
1.459 -0.024 -0.086000003 150 0 0 0 0.01211
1.4579999 -0.025 -0.090999998 150 0 0 0 0.01212
1.4579999 -0.026000001 -0.096000001 150 0 0 0 0.01213
1.4579999 -0.027000001 -0.1 150 0 0 0 0.01214
1.457 -0.028000001 -0.105 150 0 0 0 0.01215
1.456 -0.028999999 -0.109 150 0 0 0 0.01216
1.457 -0.029999999 -0.114 150 0 0 0 0.01217
1.455 -0.032000002 -0.118 150 0 0 0 0.01218
1.456 -0.033 -0.123 150 0 0 0 0.01219
1.454 -0.034000002 -0.127 150 0 0 0 0.0122
1.456 -0.035 -0.132 150 0 0 0 0.01221
1.456 -0.035999998 -0.13699999 150 0 0 0 0.01222
1.455 -0.037 -0.141 150 0 0 0 0.01223
1.454 -0.037999999 -0.146 135 0 0 0 0.01224
1.4579999 -0.039000001 -0.15099999 150 0 0 0 0.01225
1.4579999 -0.039999999 -0.155 145 0 0 0 0.01226
1.456 -0.041000001 -0.16 150 0 0 0 0.01227
1.459 -0.041999999 -0.16500001 144 0 0 0 0.01228
1.4579999 -0.044 -0.17 150 0 0 0 0.01229
1.455 -0.044 -0.17399999 150 0 0 0 0.0123
1.455 -0.045000002 -0.178 150 0 0 0 0.01231
1.456 -0.046999998 -0.183 150 0 0 0 0.01232
1.456 -0.048 -0.18799999 150 0 0 0 0.01233
1.455 -0.048 -0.192 4 0 0 0 0.01234
1.454 -0.048999999 -0.197 120 0 0 0 0.01235
1.454 -0.050000001 -0.20200001 118 0 0 0 0.01236
1.455 -0.050999999 -0.206 133 0 0 0 0.01237
1.454 -0.052000001 -0.211 132 0 0 0 0.01238
1.456 -0.052999999 -0.21600001 128 0 0 0 0.01239
1.455 -0.054000001 -0.22 135 0 0 0 0.0124
1.454 -0.055 -0.22499999 142 0 0 0 0.01241
1.4529999 -0.056000002 -0.23 141 0 0 0 0.01242
1.449 -0.057 -0.233 149 0 0 0 0.01243
1.452 -0.057999998 -0.23899999 144 0 0 0 0.01244
1.457 -0.059 -0.244 141 0 0 0 0.01245
1.454 -0.059999999 -0.248 145 0 0 0 0.01246
1.457 -0.061000001 -0.25400001 145 0 0 0 0.01247
1.45 -0.061000001 -0.257 150 0 0 0 0.01248
1.454 -0.061999999 -0.26199999 144 0 0 0 0.01249
1.457 -0.063000001 -0.26800001 150 0 0 0 0.0125
1.454 -0.064000003 -0.27200001 150 0 0 0 0.01251
1.455 -0.064999998 -0.27700001 150 0 0 0 0.01252
1.454 -0.066 -0.28099999 150 0 0 0 0.01253
1.4529999 -0.066 -0.28600001 150 0 0 0 0.01254
1.452 -0.067000002 -0.29100001 150 0 0 0 0.01255
1.454 -0.068000004 -0.296 150 0 0 0 0.01256
1.452 -0.068999998 -0.30000001 150 0 0 0 0.01257
1.452 -0.07 -0.30500001 150 0 0 0 0.01258
1.451 -0.07 -0.31 150 0 0 0 0.01259
1.45 -0.071000002 -0.31400001 150 0 0 0 0.0126
1.451 -0.071999997 -0.31900001 150 0 0 0 0.01261
1.45 -0.071999997 -0.324 150 0 0 0 0.01262
1.457 -0.074000001 -0.33000001 150 0 0 0 0.01263
1.454 -0.074000001 -0.33399999 150 0 0 0 0.01264
1.4529999 -0.075000003 -0.33899999 150 0 0 0 0.01265
1.454 -0.075999998 -0.34400001 150 0 0 0 0.01266
1.452 -0.075999998 -0.34799999 150 0 0 0 0.01267
1.447 -0.077 -0.352 150 0 0 0 0.01268
1.449 -0.077 -0.35699999 150 0 0 0 0.01269
1.449 -0.078000002 -0.36199999 150 0 0 0 0.0127
1.45 -0.079000004 -0.36700001 150 0 0 0 0.01271
1.451 -0.079000004 -0.37200001 150 0 0 0 0.01272
1.451 -0.079999998 -0.377 150 0 0 0 0.01273
1.45 -0.079999998 -0.38100001 150 0 0 0 0.01274
1.449 -0.081 -0.38600001 150 0 0 0 0.01275
1.447 -0.082000002 -0.38999999 150 0 0 0 0.01276
1.45 -0.082000002 -0.396 150 0 0 0 0.01277
1.449 -0.082999997 -0.40000001 150 0 0 0 0.01278
1.448 -0.082999997 -0.405 150 0 0 0 0.01279
1.448 -0.083999999 -0.41 150 0 0 0 0.0128
1.4450001 -0.083999999 -0.414 150 0 0 0 0.01281
1.448 -0.085000001 -0.41999999 150 0 0 0 0.01282
1.448 -0.085000001 -0.42399999 150 0 0 0 0.01283
1.448 -0.086000003 -0.42899999 150 0 0 0 0.01284
1.446 -0.086000003 -0.43399999 150 0 0 0 0.01285
1.448 -0.086999997 -0.43900001 150 0 0 0 0.01286
1.444 -0.086999997 -0.442 150 0 0 0 0.01287
1.446 -0.086999997 -0.44800001 150 0 0 0 0.01288
1.446 -0.088 -0.45300001 150 0 0 0 0.01289
1.4450001 -0.088 -0.458 150 0 0 0 0.0129
1.444 -0.089000002 -0.46200001 150 0 0 0 0.01291
1.4450001 -0.089000002 -0.46700001 150 0 0 0 0.01292
1.447 -0.090000004 -0.47299999 150 0 0 0 0.01293
1.446 -0.090000004 -0.477 150 0 0 0 0.01294
1.443 -0.090000004 -0.48100001 150 0 0 0 0.01295
1.4450001 -0.090000004 -0.48699999 150 0 0 0 0.01296
1.446 -0.090999998 -0.49200001 150 0 0 0 0.01297
1.4450001 -0.090999998 -0.49700001 150 0 0 0 0.01298
1.443 -0.090999998 -0.50099999 150 0 0 0 0.01299
1.446 -0.092 -0.50700003 150 0 0 0 0.013
1.4400001 -0.090999998 -0.50999999 150 0 0 0 0.01301
1.4450001 -0.092 -0.51700002 150 0 0 0 0.01302
1.4450001 -0.092 -0.52200001 150 0 0 0 0.01303
1.4450001 -0.092 -0.52600002 150 0 0 0 0.01304
1.443 -0.092 -0.53100002 150 0 0 0 0.01305
1.448 -0.093000002 -0.537 150 0 0 0 0.01306
1.446 -0.093000002 -0.542 150 0 0 0 0.01307
1.447 -0.093000002 -0.54699999 9 0 0 0 0.01308
1.443 -0.093000002 -0.55000001 150 0 0 0 0.01309
1.448 -0.093999997 -0.55699998 150 0 0 0 0.0131
1.446 -0.093999997 -0.56099999 150 0 0 0 0.01311
1.4450001 -0.093999997 -0.56599998 150 0 0 0 0.01312
1.446 -0.093999997 -0.57099998 150 0 0 0 0.01313
1.446 -0.093999997 -0.57599998 150 0 0 0 0.01314
1.446 -0.093999997 -0.58099997 150 0 0 0 0.01315
1.446 -0.093999997 -0.58600003 150 0 0 0 0.01316
1.451 -0.093999997 -0.59299999 150 0 0 0 0.01317
1.443 -0.093000002 -0.59500003 150 0 0 0 0.01318
1.448 -0.093999997 -0.602 150 0 0 0 0.01319
1.447 -0.093999997 -0.60600001 150 0 0 0 0.0132
1.451 -0.093999997 -0.61299998 150 0 0 0 0.01321
1.45 -0.093999997 -0.61699998 150 0 0 0 0.01322
1.45 -0.093999997 -0.62199998 150 0 0 0 0.01323
1.449 -0.093000002 -0.62699997 150 0 0 0 0.01324
1.45 -0.093000002 -0.63200003 150 0 0 0 0.01325
1.447 -0.093000002 -0.63599998 150 0 0 0 0.01326
1.4450001 -0.093000002 -0.63999999 150 0 0 0 0.01327
1.447 -0.093000002 -0.64600003 150 0 0 0 0.01328
1.446 -0.092 -0.64999998 150 0 0 0 0.01329
1.446 -0.092 -0.65499997 150 0 0 0 0.0133
1.446 -0.092 -0.66000003 150 0 0 0 0.01331
1.451 -0.092 -0.667 150 0 0 0 0.01332
1.449 -0.090999998 -0.671 150 0 0 0 0.01333
1.449 -0.090999998 -0.676 150 0 0 0 0.01334
1.447 -0.090999998 -0.68000001 150 0 0 0 0.01335
1.4450001 -0.090000004 -0.68400002 150 0 0 0 0.01336
1.446 -0.090000004 -0.68900001 150 0 0 0 0.01337
1.446 -0.089000002 -0.69400001 150 0 0 0 0.01338
1.4450001 -0.089000002 -0.69800001 150 0 0 0 0.01339
1.443 -0.088 -0.70200002 150 0 0 0 0.0134
1.443 -0.088 -0.70700002 150 0 0 0 0.01341
1.452 -0.088 -0.71600002 150 0 0 0 0.01342
1.452 -0.086999997 -0.72100002 150 0 0 0 0.01343
1.45 -0.086999997 -0.72500002 150 0 0 0 0.01344
1.448 -0.086000003 -0.72899997 150 0 0 0 0.01345
1.449 -0.086000003 -0.73400003 150 0 0 0 0.01346
1.45 -0.085000001 -0.73900002 150 0 0 0 0.01347
1.449 -0.083999999 -0.74400002 150 0 0 0 0.01348
1.448 -0.083999999 -0.74699998 150 0 0 0 0.01349
1.452 -0.082999997 -0.75400001 150 0 0 0 0.0135
1.447 -0.082000002 -0.75700003 150 0 0 0 0.01351
1.4529999 -0.082000002 -0.764 150 0 0 0 0.01352
1.451 -0.081 -0.76800001 150 0 0 0 0.01353
1.449 -0.079999998 -0.77200001 150 0 0 0 0.01354
1.454 -0.079999998 -0.77899998 150 0 0 0 0.01355
1.4529999 -0.079000004 -0.78299999 150 0 0 0 0.01356
1.456 -0.078000002 -0.78899997 150 0 0 0 0.01357
1.457 -0.078000002 -0.79400003 150 0 0 0 0.01358
1.457 -0.077 -0.79900002 150 0 0 0 0.01359
1.459 -0.075999998 -0.80500001 150 0 0 0 0.0136
1.4680001 -0.075000003 -0.81400001 28 0 0 0 0.01361
1.4809999 -0.075000003 -0.82599998 7 0 0 0 0.01362
1.475 -0.074000001 -0.82700002 1 0 0 0 0.01363
1.48 -0.072999999 -0.83399999 4 0 0 0 0.01364
1.466 -0.071999997 -0.83099997 11 0 0 0 0.01365
1.461 -0.07 -0.833 13 0 0 0 0.01366
1.451 -0.068999998 -0.83200002 13 0 0 0 0.01367
1.443 -0.067000002 -0.83099997 13 0 0 0 0.01368
1.436 -0.066 -0.83099997 13 0 0 0 0.01369
1.4299999 -0.064000003 -0.83200002 13 0 0 0 0.0137
1.421 -0.063000001 -0.83099997 13 0 0 0 0.01371
1.416 -0.061999999 -0.83200002 13 0 0 0 0.01372
1.409 -0.059999999 -0.83200002 13 0 0 0 0.01373
1.398 -0.059 -0.82999998 13 0 0 0 0.01374
1.393 -0.057 -0.83099997 13 0 0 0 0.01375
1.386 -0.056000002 -0.83099997 13 0 0 0 0.01376
1.3789999 -0.054000001 -0.82999998 13 0 0 0 0.01377
1.374 -0.052999999 -0.83200002 0 0 0 0 0.01378
1.367 -0.050999999 -0.83099997 13 0 0 0 0.01379
1.362 -0.050000001 -0.83099997 13 0 0 0 0.0138
1.355 -0.048 -0.83099997 13 0 0 0 0.01381
1.352 -0.046999998 -0.833 13 0 0 0 0.01382
1.3430001 -0.045000002 -0.83099997 13 0 0 0 0.01383
1.3380001 -0.044 -0.83099997 14 0 0 0 0.01384
1.332 -0.041999999 -0.83099997 14 0 0 0 0.01385
1.3279999 -0.041000001 -0.83200002 14 0 0 0 0.01386
1.319 -0.039000001 -0.829 14 0 0 0 0.01387
1.318 -0.037999999 -0.83200002 13 0 0 0 0.01388
1.3099999 -0.035999998 -0.82999998 14 0 0 0 0.01389
1.3049999 -0.035 -0.82999998 15 0 0 0 0.0139
1.3 -0.033 -0.82999998 14 0 0 0 0.01391
1.296 -0.032000002 -0.82999998 15 0 0 0 0.01392
1.2920001 -0.029999999 -0.83099997 14 0 0 0 0.01393
1.2920001 -0.028999999 -0.83399999 15 0 0 0 0.01394
1.281 -0.027000001 -0.82999998 14 0 0 0 0.01395
1.277 -0.025 -0.82999998 14 0 0 0 0.01396
1.275 -0.024 -0.83200002 14 0 0 0 0.01397
1.27 -0.022 -0.83099997 14 0 0 0 0.01398
1.267 -0.021 -0.83200002 14 0 0 0 0.01399
1.265 -0.018999999 -0.833 14 0 0 0 0.014
1.262 -0.017999999 -0.83399999 14 0 0 0 0.01401
1.257 -0.016000001 -0.833 14 0 0 0 0.01402
1.256 -0.015 -0.83499998 14 0 0 0 0.01403
1.248 -0.013 -0.83200002 15 0 0 0 0.01404
1.2460001 -0.011 -0.833 15 0 0 0 0.01405
1.242 -0.0099999998 -0.833 15 0 0 0 0.01406
1.2359999 -0.0080000004 -0.83099997 14 0 0 0 0.01407
1.235 -0.0060000001 -0.83200002 15 0 0 0 0.01408
1.232 -0.0049999999 -0.833 15 0 0 0 0.01409
1.229 -0.003 -0.83200002 14 0 0 0 0.0141
1.228 -0.0020000001 -0.83399999 1 0 0 0 0.01411
1.227 0 -0.83499998 15 0 0 0 0.01412
1.224 0.001 -0.83499998 14 0 0 0 0.01413
1.22 0.0020000001 -0.833 15 0 0 0 0.01414
1.216 0.0040000002 -0.83200002 15 0 0 0 0.01415
1.215 0.0060000001 -0.83399999 15 0 0 0 0.01416
1.212 0.0070000002 -0.833 15 0 0 0 0.01417
1.2079999 0.0089999996 -0.83200002 16 0 0 0 0.01418
1.207 0.011 -0.833 16 0 0 0 0.01419
1.205 0.012 -0.833 15 0 0 0 0.0142
1.2029999 0.014 -0.833 15 0 0 0 0.01421
1.202 0.016000001 -0.83399999 15 0 0 0 0.01422
1.202 0.017000001 -0.83499998 15 0 0 0 0.01423
1.2 0.018999999 -0.83399999 15 0 0 0 0.01424
1.199 0.021 -0.83499998 15 0 0 0 0.01425
1.198 0.022 -0.83499998 15 0 0 0 0.01426
1.1950001 0.024 -0.83399999 16 0 0 0 0.01427
1.194 0.026000001 -0.83399999 16 0 0 0 0.01428
1.194 0.027000001 -0.83499998 16 0 0 0 0.01429
1.193 0.028999999 -0.83499998 16 0 0 0 0.0143
1.192 0.030999999 -0.83499998 15 0 0 0 0.01431
1.192 0.032000002 -0.83600003 16 0 0 0 0.01432
1.189 0.034000002 -0.83399999 15 0 0 0 0.01433
1.188 0.035999998 -0.83399999 15 0 0 0 0.01434
1.191 0.037 -0.83700001 17 0 0 0 0.01435
1.191 0.039000001 -0.83700001 17 0 0 0 0.01436
1.191 0.041000001 -0.83700001 17 0 0 0 0.01437
1.187 0.041999999 -0.83499998 16 0 0 0 0.01438
1.191 0.044 -0.83700001 17 0 0 0 0.01439
1.187 0.046 -0.83499998 16 0 0 0 0.0144
1.187 0.046999998 -0.83499998 16 0 0 0 0.01441
1.1900001 0.048999999 -0.83700001 17 0 0 0 0.01442
1.1900001 0.050999999 -0.83700001 17 0 0 0 0.01443
1.1900001 0.052999999 -0.83700001 17 0 0 0 0.01444
1.1900001 0.054000001 -0.83700001 17 0 0 0 0.01445
1.191 0.056000002 -0.83700001 17 0 0 0 0.01446
1.1950001 0.057999998 -0.83899999 16 0 0 0 0.01447
1.1950001 0.059999999 -0.83899999 17 0 0 0 0.01448
1.1950001 0.061000001 -0.83899999 16 0 0 0 0.01449
1.193 0.063000001 -0.83700001 15 0 0 0 0.0145
1.196 0.064999998 -0.838 15 0 0 0 0.01451
1.201 0.067000002 -0.84100002 14 0 0 0 0.01452
1.206 0.068999998 -0.84399998 13 0 0 0 0.01453
1.2079999 0.07 -0.84399998 12 0 0 0 0.01454
1.211 0.071999997 -0.84600002 12 0 0 0 0.01455
1.207 0.072999999 -0.84200001 11 0 0 0 0.01456
1.2079999 0.075000003 -0.84200001 11 0 0 0 0.01457
1.2130001 0.077 -0.84399998 10 0 0 0 0.01458
1.216 0.079000004 -0.84500003 10 0 0 0 0.01459
1.219 0.081 -0.84500003 10 0 0 0 0.0146
1.219 0.082000002 -0.84500003 10 0 0 0 0.01461
1.221 0.083999999 -0.84500003 9 0 0 0 0.01462
1.23 0.086000003 -0.84899998 9 0 0 0 0.01463
1.229 0.088 -0.847 9 0 0 0 0.01464
1.228 0.089000002 -0.84500003 9 0 0 0 0.01465
1.234 0.090999998 -0.847 9 0 0 0 0.01466
1.235 0.093000002 -0.847 9 0 0 0 0.01467
1.2359999 0.093999997 -0.84500003 9 0 0 0 0.01468
1.2410001 0.096000001 -0.847 9 0 0 0 0.01469
1.242 0.097999997 -0.84600002 10 0 0 0 0.0147
1.245 0.098999999 -0.84600002 10 0 0 0 0.01471
1.25 0.101 -0.847 10 0 0 0 0.01472
1.252 0.103 -0.847 10 0 0 0 0.01473
1.249 0.104 -0.84299999 10 0 0 0 0.01474
1.2539999 0.106 -0.84399998 11 0 0 0 0.01475
1.253 0.107 -0.84100002 12 0 0 0 0.01476
1.2589999 0.109 -0.84299999 12 0 0 0 0.01477
1.263 0.111 -0.84299999 13 0 0 0 0.01478
1.268 0.112 -0.84399998 14 0 0 0 0.01479
1.268 0.114 -0.84200001 14 0 0 0 0.0148
1.273 0.116 -0.84200001 14 0 0 0 0.01481
1.276 0.117 -0.84200001 15 0 0 0 0.01482
1.279 0.119 -0.84100002 15 0 0 0 0.01483
1.286 0.121 -0.84299999 15 0 0 0 0.01484
1.2869999 0.122 -0.84100002 15 0 0 0 0.01485
1.293 0.124 -0.84100002 15 0 0 0 0.01486
1.2970001 0.125 -0.84200001 15 0 0 0 0.01487
1.302 0.127 -0.84200001 15 0 0 0 0.01488
1.308 0.12899999 -0.84299999 15 0 0 0 0.01489
1.317 0.131 -0.84500003 15 0 0 0 0.0149
1.319 0.132 -0.84399998 15 0 0 0 0.01491
1.322 0.134 -0.84200001 15 0 0 0 0.01492
1.334 0.13600001 -0.847 16 0 0 0 0.01493
1.336 0.13699999 -0.84399998 15 0 0 0 0.01494
1.341 0.139 -0.84399998 15 0 0 0 0.01495
1.35 0.141 -0.847 15 0 0 0 0.01496
1.351 0.142 -0.84399998 15 0 0 0 0.01497
1.36 0.14399999 -0.84600002 15 0 0 0 0.01498
1.3660001 0.145 -0.84600002 15 0 0 0 0.01499
1.37 0.147 -0.84500003 15 0 0 0 0.015
1.374 0.148 -0.84399998 15 0 0 0 0.01501
1.3839999 0.15000001 -0.84600002 15 0 0 0 0.01502
1.39 0.152 -0.84600002 15 0 0 0 0.01503
1.398 0.153 -0.847 15 0 0 0 0.01504
1.4069999 0.155 -0.84799999 15 0 0 0 0.01505
1.41 0.156 -0.847 15 0 0 0 0.01506
1.4170001 0.15800001 -0.847 15 0 0 0 0.01507
1.426 0.16 -0.84799999 15 0 0 0 0.01508
1.433 0.161 -0.84799999 13 0 0 0 0.01509
1.4450001 0.163 -0.85100001 12 0 0 0 0.0151
1.456 0.16500001 -0.85299999 13 0 0 0 0.01511
1.46 0.167 -0.85100001 15 0 0 0 0.01512
1.4630001 0.168 -0.84799999 15 0 0 0 0.01513
1.473 0.169 -0.85000002 15 0 0 0 0.01514
1.479 0.171 -0.84899998 15 0 0 0 0.01515
1.4859999 0.17200001 -0.84899998 15 0 0 0 0.01516
1.497 0.17399999 -0.85000002 15 0 0 0 0.01517
1.501 0.175 -0.84799999 15 0 0 0 0.01518
1.5089999 0.176 -0.84799999 14 0 0 0 0.01519
1.522 0.178 -0.85000002 13 0 0 0 0.0152
1.534 0.18000001 -0.852 10 0 0 0 0.01521
1.541 0.182 -0.852 2 0 0 0 0.01522
1.5470001 0.183 -0.85000002 1 0 0 0 0.01523
1.5369999 0.182 -0.83999997 13 0 0 0 0.01524
1.527 0.18099999 -0.829 76 0 0 0 0.01525
1.52 0.18099999 -0.81999999 150 0 0 0 0.01526
1.517 0.18099999 -0.81400001 150 0 0 0 0.01527
1.52 0.18099999 -0.81099999 150 0 0 0 0.01528
1.521 0.182 -0.80699998 150 0 0 0 0.01529
1.5140001 0.18099999 -0.79799998 150 0 0 0 0.0153
1.516 0.182 -0.79400003 150 0 0 0 0.01531
1.518 0.182 -0.79000002 150 0 0 0 0.01532
1.5140001 0.182 -0.78299999 150 0 0 0 0.01533
1.5140001 0.182 -0.778 150 0 0 0 0.01534
1.515 0.182 -0.77399999 150 0 0 0 0.01535
1.515 0.182 -0.76899999 150 0 0 0 0.01536
1.5190001 0.183 -0.76599997 150 0 0 0 0.01537
1.5190001 0.183 -0.76099998 150 0 0 0 0.01538
1.5190001 0.183 -0.75599998 150 0 0 0 0.01539
1.518 0.183 -0.75 150 0 0 0 0.0154
1.5190001 0.183 -0.74599999 150 0 0 0 0.01541
1.515 0.182 -0.73900002 150 0 0 0 0.01542
1.517 0.182 -0.73500001 150 0 0 0 0.01543
1.522 0.183 -0.73199999 150 0 0 0 0.01544
1.521 0.183 -0.72600001 150 0 0 0 0.01545
1.517 0.182 -0.71899998 150 0 0 0 0.01546
1.5190001 0.182 -0.71499997 150 0 0 0 0.01547
1.515 0.18099999 -0.708 150 0 0 0 0.01548
1.516 0.18099999 -0.704 150 0 0 0 0.01549
1.5140001 0.18099999 -0.69800001 150 0 0 0 0.0155
1.517 0.18099999 -0.69400001 150 0 0 0 0.01551
1.518 0.18099999 -0.68900001 150 0 0 0 0.01552
1.52 0.18099999 -0.685 150 0 0 0 0.01553
1.517 0.18000001 -0.67799997 150 0 0 0 0.01554
1.517 0.18000001 -0.67299998 150 0 0 0 0.01555
1.521 0.18000001 -0.67000002 150 0 0 0 0.01556
1.5190001 0.17900001 -0.66399997 150 0 0 0 0.01557
1.518 0.17900001 -0.65799999 150 0 0 0 0.01558
1.518 0.178 -0.653 150 0 0 0 0.01559
1.518 0.178 -0.648 150 0 0 0 0.0156
1.517 0.177 -0.64300001 150 0 0 0 0.01561
1.513 0.176 -0.63599998 150 0 0 0 0.01562
1.512 0.176 -0.63 150 0 0 0 0.015629999
1.512 0.175 -0.625 150 0 0 0 0.01564
1.5140001 0.175 -0.62099999 150 0 0 0 0.01565
1.513 0.17399999 -0.61500001 150 0 0 0 0.015659999
1.513 0.17399999 -0.61000001 150 0 0 0 0.01567
1.5140001 0.17299999 -0.60500002 150 0 0 0 0.01568
1.5140001 0.17299999 -0.60000002 150 0 0 0 0.015690001
1.517 0.17200001 -0.59600002 150 0 0 0 0.015699999
1.517 0.17200001 -0.59100002 150 0 0 0 0.01571
1.5089999 0.17 -0.583 150 0 0 0 0.01572
1.511 0.17 -0.57800001 150 0 0 0 0.015729999
1.512 0.169 -0.574 150 0 0 0 0.01574
1.512 0.168 -0.56900001 150 0 0 0 0.01575
1.515 0.168 -0.565 150 0 0 0 0.015760001
1.5140001 0.167 -0.55900002 150 0 0 0 0.015769999
1.511 0.16599999 -0.55299997 150 0 0 0 0.01578
1.5140001 0.16599999 -0.54900002 150 0 0 0 0.015790001
1.512 0.164 -0.54299998 150 0 0 0 0.015799999
1.507 0.163 -0.53600001 150 0 0 0 0.01581
1.508 0.162 -0.53100002 150 0 0 0 0.01582
1.51 0.162 -0.52700001 150 0 0 0 0.015830001
1.5089999 0.161 -0.52200001 150 0 0 0 0.01584
1.51 0.16 -0.51700002 150 0 0 0 0.01585
1.511 0.15899999 -0.51200002 150 0 0 0 0.015860001
1.511 0.15800001 -0.50700003 150 0 0 0 0.015869999
1.512 0.15800001 -0.50199997 150 0 0 0 0.01588
1.506 0.156 -0.495 150 0 0 0 0.01589
1.512 0.156 -0.49200001 150 0 0 0 0.015900001
1.507 0.154 -0.48500001 150 0 0 0 0.01591
1.507 0.153 -0.48100001 150 0 0 0 0.01592
1.5089999 0.152 -0.47600001 150 0 0 0 0.015930001
1.5089999 0.15099999 -0.47099999 150 0 0 0 0.015939999
1.508 0.15000001 -0.46599999 150 0 0 0 0.01595
1.5089999 0.149 -0.461 150 0 0 0 0.01596
1.507 0.148 -0.456 150 0 0 0 0.015969999
1.51 0.147 -0.45199999 150 0 0 0 0.01598
1.507 0.146 -0.44600001 150 0 0 0 0.01599
1.5089999 0.145 -0.44100001 150 0 0 0 0.016000001
1.508 0.14399999 -0.43599999 150 0 0 0 0.016009999
1.5089999 0.14300001 -0.43099999 150 0 0 0 0.01602
1.508 0.142 -0.426 150 0 0 0 0.016030001
1.5089999 0.141 -0.421 150 0 0 0 0.016039999
1.506 0.139 -0.41499999 150 0 0 0 0.01605
1.505 0.138 -0.41 150 0 0 0 0.01606
1.5089999 0.13699999 -0.40599999 150 0 0 0 0.016070001
1.508 0.13600001 -0.40099999 150 0 0 0 0.01608
1.5089999 0.13500001 -0.396 150 0 0 0 0.01609
1.508 0.133 -0.391 150 0 0 0 0.016100001
1.502 0.132 -0.38499999 150 0 0 0 0.016109999
1.5039999 0.131 -0.38 150 0 0 0 0.01612
1.505 0.12899999 -0.37599999 150 0 0 0 0.01613
1.5039999 0.12800001 -0.37099999 150 0 0 0 0.016140001
1.502 0.127 -0.36500001 150 0 0 0 0.01615
1.5039999 0.126 -0.361 150 0 0 0 0.01616
1.5 0.124 -0.35499999 150 0 0 0 0.016170001
1.502 0.123 -0.35100001 150 0 0 0 0.016179999
1.503 0.122 -0.34599999 150 0 0 0 0.01619
1.5 0.12 -0.34 150 0 0 0 0.0162
1.501 0.119 -0.336 150 0 0 0 0.016209999
1.5 0.117 -0.331 150 0 0 0 0.01622
1.5 0.116 -0.32600001 150 0 0 0 0.01623
1.503 0.115 -0.322 150 0 0 0 0.016240001
1.502 0.114 -0.317 150 0 0 0 0.016249999
1.498 0.112 -0.31099999 150 0 0 0 0.01626
1.497 0.11 -0.30599999 150 0 0 0 0.01627
1.498 0.109 -0.30199999 150 0 0 0 0.016279999
1.499 0.108 -0.29699999 150 0 0 0 0.01629
1.5 0.106 -0.29300001 150 0 0 0 0.0163
1.499 0.105 -0.28799999 150 0 0 0 0.016310001
1.5 0.104 -0.28299999 150 0 0 0 0.016319999
1.5 0.102 -0.278 150 0 0 0 0.01633
1.497 0.101 -0.273 150 0 0 0 0.016340001
1.494 0.098999999 -0.26800001 150 0 0 0 0.016349999
1.495 0.097000003 -0.26300001 150 0 0 0 0.01636
1.4960001 0.096000001 -0.259 150 0 0 0 0.01637
1.497 0.094999999 -0.25400001 150 0 0 0 0.016380001
1.493 0.093000002 -0.249 150 0 0 0 0.01639
1.494 0.090999998 -0.244 150 0 0 0 0.0164
1.495 0.090000004 -0.23999999 150 0 0 0 0.016410001
1.495 0.089000002 -0.235 150 0 0 0 0.016419999
1.495 0.086999997 -0.23 150 0 0 0 0.01643
1.4960001 0.086000003 -0.226 150 0 0 0 0.01644
1.495 0.083999999 -0.221 150 0 0 0 0.016450001
1.495 0.082000002 -0.21600001 150 0 0 0 0.01646
1.4910001 0.081 -0.211 150 0 0 0 0.01647
1.492 0.079000004 -0.206 150 0 0 0 0.016480001
1.495 0.078000002 -0.20200001 150 0 0 0 0.016489999
1.494 0.075999998 -0.197 150 0 0 0 0.0165
1.494 0.074000001 -0.193 150 0 0 0 0.01651
1.493 0.072999999 -0.18799999 150 0 0 0 0.016519999
1.494 0.071000002 -0.183 150 0 0 0 0.01653
1.488 0.068999998 -0.178 150 0 0 0 0.01654
1.4859999 0.068000004 -0.17299999 150 0 0 0 0.016550001
1.4859999 0.066 -0.169 150 0 0 0 0.016559999
1.49 0.064999998 -0.16500001 150 0 0 0 0.01657
1.487 0.063000001 -0.16 150 0 0 0 0.016580001
1.488 0.061000001 -0.155 150 0 0 0 0.016589999
1.489 0.059999999 -0.15099999 150 0 0 0 0.0166
1.488 0.057999998 -0.146 150 0 0 0 0.01661
1.488 0.056000002 -0.142 150 0 0 0 0.016620001
1.483 0.054000001 -0.13699999 150 0 0 0 0.01663
1.4809999 0.052999999 -0.132 150 0 0 0 0.01664
1.4809999 0.050999999 -0.127 150 0 0 0 0.016650001
1.483 0.048999999 -0.123 150 0 0 0 0.016659999
1.482 0.048 -0.118 150 0 0 0 0.01667
1.482 0.046 -0.114 150 0 0 0 0.01668
1.483 0.044 -0.109 150 0 0 0 0.016690001
1.483 0.043000001 -0.105 150 0 0 0 0.0167
1.479 0.041000001 -0.1 150 0 0 0 0.01671
1.479 0.039000001 -0.096000001 150 0 0 0 0.016720001
1.482 0.037 -0.090999998 150 0 0 0 0.016729999
1.479 0.035999998 -0.086999997 150 0 0 0 0.01674
1.478 0.034000002 -0.082000002 150 0 0 0 0.01675
1.478 0.032000002 -0.078000002 150 0 0 0 0.016759999
1.476 0.029999999 -0.072999999 150 0 0 0 0.01677
1.476 0.028000001 -0.068999998 150 0 0 0 0.01678
1.476 0.027000001 -0.064000003 150 0 0 0 0.016790001
1.474 0.025 -0.059999999 150 0 0 0 0.016799999
1.472 0.023 -0.055 150 0 0 0 0.01681
1.474 0.021 -0.050999999 150 0 0 0 0.01682
1.475 0.018999999 -0.046999998 150 0 0 0 0.016829999
1.474 0.017999999 -0.041999999 150 0 0 0 0.01684
1.474 0.016000001 -0.037999999 150 0 0 0 0.01685
1.466 0.014 -0.033 150 0 0 0 0.016860001
1.471 0.012 -0.028999999 150 0 0 0 0.016869999
1.466 0.0099999998 -0.024 150 0 0 0 0.01688
1.47 0.0080000004 -0.02 150 0 0 0 0.016890001
1.466 0.0070000002 -0.016000001 150 0 0 0 0.016899999
1.474 0.0049999999 -0.011 150 0 0 0 0.01691
1.466 0.003 -0.0070000002 150 0 0 0 0.01692
1.472 0.001 -0.0020000001 150 0 0 0 0.016930001
1.466 0 0.001 150 0 0 0 0.01694
1.465 -0.0020000001 0.0049999999 150 0 0 0 0.01695
1.462 -0.0040000002 0.0099999998 150 0 0 0 0.016960001
1.464 -0.0060000001 0.014 150 0 0 0 0.016969999
1.465 -0.0070000002 0.017999999 150 0 0 0 0.01698
1.464 -0.0089999996 0.023 150 0 0 0 0.01699
1.464 -0.011 0.027000001 150 0 0 0 0.017000001
1.466 -0.013 0.030999999 150 0 0 0 0.01701
1.4630001 -0.015 0.035999998 150 0 0 0 0.01702
1.46 -0.017000001 0.039999999 150 0 0 0 0.017030001
1.459 -0.018999999 0.044 150 0 0 0 0.017039999
1.46 -0.021 0.048 150 0 0 0 0.01705
1.462 -0.023 0.052999999 150 0 0 0 0.01706
1.4579999 -0.025 0.057 150 0 0 0 0.017069999
1.46 -0.027000001 0.061000001 150 0 0 0 0.01708
1.46 -0.028999999 0.066 150 0 0 0 0.01709
1.459 -0.030999999 0.07 150 0 0 0 0.017100001
1.4579999 -0.033 0.074000001 150 0 0 0 0.017109999
1.4579999 -0.035 0.079000004 150 0 0 0 0.01712
1.4579999 -0.037 0.082999997 150 0 0 0 0.017130001
1.456 -0.039000001 0.086999997 150 0 0 0 0.017139999
1.4579999 -0.041000001 0.090999998 150 0 0 0 0.01715
1.4579999 -0.043000001 0.096000001 150 0 0 0 0.01716
1.457 -0.045000002 0.1 150 0 0 0 0.017170001
1.457 -0.046999998 0.104 150 0 0 0 0.01718
1.457 -0.048999999 0.108 150 0 0 0 0.01719
1.45 -0.050999999 0.112 150 0 0 0 0.017200001
1.4529999 -0.052999999 0.117 150 0 0 0 0.017209999
1.446 -0.055 0.12 150 0 0 0 0.01722
1.4529999 -0.057 0.125 150 0 0 0 0.01723
1.4529999 -0.059 0.12899999 150 0 0 0 0.017240001
1.451 -0.061000001 0.133 150 0 0 0 0.01725
1.451 -0.063000001 0.138 150 0 0 0 0.01726
1.448 -0.064999998 0.142 150 0 0 0 0.017270001
1.446 -0.067000002 0.146 150 0 0 0 0.017279999
1.451 -0.07 0.15000001 150 0 0 0 0.01729
1.444 -0.071999997 0.154 150 0 0 0 0.0173
1.444 -0.074000001 0.15800001 150 0 0 0 0.017309999
1.4450001 -0.075999998 0.162 150 0 0 0 0.01732
1.443 -0.078000002 0.16599999 150 0 0 0 0.01733
1.444 -0.079999998 0.171 150 0 0 0 0.017340001
