# .PCD v0.7 - Point Cloud Data file format
VERSION 0.7
FIELDS x y z intensity normal_x normal_y normal_z curvature
SIZE 4 4 4 4 4 4 4 4
TYPE F F F F F F F F
COUNT 1 1 1 1 1 1 1 1
WIDTH 1088
HEIGHT 1
VIEWPOINT 0 0 0 1 0 0 0
POINTS 1088
DATA ascii
0.87699997 -0.57999998 0.199 0 0 0 0 0.017410001
0.87699997 -0.58099997 0.198 0 0 0 0 0.017419999
0.88099998 -0.58499998 0.198 0 0 0 0 0.01743
0.88099998 -0.58600003 0.197 0 0 0 0 0.017440001
0.88 -0.58600003 0.19599999 0 0 0 0 0.017449999
0.88300002 -0.58899999 0.19599999 0 0 0 0 0.01746
0.884 -0.58999997 0.19499999 0 0 0 0 0.01747
0.884 -0.59100002 0.19400001 0 0 0 0 0.017480001
0.88700002 -0.59299999 0.193 0 0 0 0 0.01749
0.88700002 -0.59399998 0.192 0 0 0 0 0.0175
0.88800001 -0.59500003 0.191 0 0 0 0 0.017510001
0.88700002 -0.59500003 0.19 0 0 0 0 0.017519999
0.88800001 -0.59600002 0.189 0 0 0 0 0.01753
0.89399999 -0.60100001 0.189 0 0 0 0 0.01754
0.88999999 -0.59799999 0.18700001 0 0 0 0 0.017550001
0.88999999 -0.59899998 0.186 0 0 0 0 0.01756
0.89499998 -0.602 0.185 0 0 0 0 0.01757
0.89300001 -0.60100001 0.184 0 0 0 0 0.017580001
0.88800001 -0.59799999 0.182 0 0 0 0 0.017589999
0.88999999 -0.60000002 0.18099999 0 0 0 0 0.0176
0.88999999 -0.60000002 0.17900001 0 0 0 0 0.01761
0.89200002 -0.60100001 0.178 0 0 0 0 0.017619999
0.89300001 -0.602 0.177 0 0 0 0 0.01763
0.88999999 -0.60000002 0.175 0 0 0 0 0.01764
0.89200002 -0.60100001 0.17399999 0 0 0 0 0.017650001
0.889 -0.59899998 0.17299999 0 0 0 0 0.017659999
0.88999999 -0.60000002 0.171 0 0 0 0 0.01767
0.88999999 -0.59899998 0.17 0 0 0 0 0.017680001
0.89099997 -0.60000002 0.169 0 0 0 0 0.017689999
0.89099997 -0.59899998 0.167 0 0 0 0 0.0177
0.88999999 -0.59799999 0.16599999 0 0 0 0 0.01771
0.88999999 -0.59799999 0.164 0 0 0 0 0.017720001
0.88700002 -0.59500003 0.162 0 0 0 0 0.017729999
0.88599998 -0.59399998 0.161 0 0 0 0 0.01774
0.88800001 -0.59500003 0.16 0 0 0 0 0.017750001
0.88800001 -0.59399998 0.15800001 0 0 0 0 0.017759999
0.88499999 -0.59200001 0.156 0 0 0 0 0.01777
0.88200003 -0.58899999 0.154 0 0 0 0 0.01778
0.88599998 -0.59100002 0.154 0 0 0 0 0.017790001
0.88300002 -0.588 0.152 0 0 0 0 0.0178
0.87800002 -0.58399999 0.149 0 0 0 0 0.01781
0.87699997 -0.58200002 0.148 0 0 0 0 0.017820001
0.87400001 -0.57999998 0.146 0 0 0 0 0.017829999
0.87699997 -0.57999998 0.145 0 0 0 0 0.01784
0.87199998 -0.57599998 0.14300001 0 0 0 0 0.01785
2.8610001 -1.887 0.46399999 3 0 0 0 0.017859999
0.86799997 -0.57099998 0.139 0 0 0 0 0.01787
0.86900002 -0.57099998 0.138 0 0 0 0 0.01788
2.8529999 -1.8710001 0.44800001 2 0 0 0 0.017890001
0.86900002 -0.56900001 0.13500001 0 0 0 0 0.017899999
0.861 -0.56199998 0.132 0 0 0 0 0.01791
0.861 -0.56099999 0.131 0 0 0 0 0.01792
0.85799998 -0.55800003 0.12899999 0 0 0 0 0.017929999
0.86400002 -0.56099999 0.12800001 5 0 0 0 0.01794
0.86900002 -0.56199998 0.12800001 6 0 0 0 0.01795
0.86299998 -0.55699998 0.125 7 0 0 0 0.017960001
0.866 -0.55699998 0.124 8 0 0 0 0.017969999
0.86699998 -0.55599999 0.123 8 0 0 0 0.01798
0.87 -0.55699998 0.122 8 0 0 0 0.017990001
0.87300003 -0.55699998 0.121 8 0 0 0 0.017999999
0.87300003 -0.55599999 0.12 8 0 0 0 0.01801
0.87400001 -0.55400002 0.118 7 0 0 0 0.01802
0.87300003 -0.55199999 0.117 0 0 0 0 0.018030001
0.86900002 -0.54799998 0.115 0 0 0 0 0.01804
3.4619999 -2.178 0.45199999 4 0 0 0 0.01805
3.4860001 -2.1860001 0.44999999 8 0 0 0 0.018060001
3.4890001 -2.1800001 0.44400001 10 0 0 0 0.018069999
3.497 -2.178 0.44 11 0 0 0 0.01808
3.5 -2.1719999 0.43399999 8 0 0 0 0.01809
3.4920001 -2.1600001 0.428 5 0 0 0 0.018100001
3.55 -2.188 0.42899999 1 0 0 0 0.01811
0 0 0 0 0 0 0 0.01812
0 0 0 0 0 0 0 0.018130001
0 0 0 0 0 0 0 0.018139999
0 0 0 0 0 0 0 0.01815
0 0 0 0 0 0 0 0.01816
0 0 0 0 0 0 0 0.018169999
3.5680001 -2.141 0.39199999 1 0 0 0 0.01818
3.573 -2.135 0.38699999 4 0 0 0 0.01819
3.53 -2.1010001 0.377 5 0 0 0 0.018200001
3.5610001 -2.1099999 0.375 6 0 0 0 0.018209999
3.576 -2.1099999 0.37099999 7 0 0 0 0.01822
3.566 -2.0940001 0.36500001 6 0 0 0 0.018230001
3.585 -2.0969999 0.361 5 0 0 0 0.018239999
3.642 -2.1210001 0.36199999 2 0 0 0 0.01825
3.665 -2.1240001 0.359 1 0 0 0 0.01826
3.6700001 -2.1170001 0.354 2 0 0 0 0.018270001
3.671 -2.108 0.34799999 2 0 0 0 0.018279999
3.6600001 -2.092 0.34200001 2 0 0 0 0.01829
3.6860001 -2.0969999 0.33899999 2 0 0 0 0.018300001
3.7130001 -2.1010001 0.33700001 2 0 0 0 0.018309999
3.7379999 -2.1059999 0.333 1 0 0 0 0.01832
3.6530001 -2.0480001 0.32100001 1 0 0 0 0.01833
0 0 0 0 0 0 0 0.018340001
0 0 0 0 0 0 0 0.01835
0 0 0 0 0 0 0 0.01836
0 0 0 0 0 0 0 0.018370001
0 0 0 0 0 0 0 0.018379999
0 0 0 0 0 0 0 0.01839
3.155 -1.705 0.24699999 2 0 0 0 0.0184
3.257 -1.75 0.25099999 2 0 0 0 0.018409999
3.3 -1.7640001 0.25 2 0 0 0 0.01842
3.289 -1.748 0.245 1 0 0 0 0.01843
0 0 0 0 0 0 0 0.018440001
3.7780001 -1.985 0.271 2 0 0 0 0.018449999
3.7820001 -1.976 0.26699999 2 0 0 0 0.01846
0 0 0 0 0 0 0 0.01847
0 0 0 0 0 0 0 0.018479999
3.803 -1.952 0.25400001 3 0 0 0 0.01849
3.793 -1.9349999 0.249 5 0 0 0 0.0185
3.8510001 -1.9529999 0.248 3 0 0 0 0.018510001
1.257 -0.634 0.079000004 9 0 0 0 0.018519999
1.24 -0.62099999 0.077 6 0 0 0 0.01853
3.3469999 -1.666 0.204 3 0 0 0 0.018540001
3.332 -1.648 0.199 2 0 0 0 0.018549999
3.2950001 -1.619 0.193 3 0 0 0 0.01856
3.3039999 -1.614 0.19 2 0 0 0 0.01857
3.2620001 -1.5829999 0.184 2 0 0 0 0.018580001
3.2690001 -1.576 0.18099999 2 0 0 0 0.01859
3.3529999 -1.6059999 0.182 0 0 0 0 0.0186
3.3380001 -1.5880001 0.178 0 0 0 0 0.018610001
3.299 -1.558 0.17200001 3 0 0 0 0.018619999
3.3299999 -1.563 0.17 3 0 0 0 0.01863
3.3429999 -1.558 0.168 5 0 0 0 0.01864
3.368 -1.559 0.16500001 10 0 0 0 0.018650001
3.388 -1.557 0.163 0 0 0 0 0.01866
3.3710001 -1.538 0.15899999 0 0 0 0 0.01867
3.342 -1.5140001 0.154 0 0 0 0 0.018680001
3.3740001 -1.518 0.152 0 0 0 0 0.018689999
3.369 -1.5039999 0.149 2 0 0 0 0.0187
3.3729999 -1.495 0.146 2 0 0 0 0.01871
3.4260001 -1.508 0.145 3 0 0 0 0.018719999
3.4430001 -1.5039999 0.14300001 3 0 0 0 0.01873
3.4319999 -1.488 0.139 2 0 0 0 0.01874
3.4430001 -1.4809999 0.13600001 2 0 0 0 0.018750001
0 0 0 0 0 0 0 0.018759999
0 0 0 0 0 0 0 0.01877
1.487 -0.625 0.055 0 0 0 0 0.018780001
0 0 0 0 0 0 0 0.018789999
3.4890001 -1.443 0.123 1 0 0 0 0.0188
3.5039999 -1.438 0.121 2 0 0 0 0.01881
0 0 0 0 0 0 0 0.018820001
0 0 0 0 0 0 0 0.018829999
0 0 0 0 0 0 0 0.01884
1.145 -0.454 0.035 5 0 0 0 0.018850001
1.274 -0.50099999 0.037999999 9 0 0 0 0.018859999
1.352 -0.52700001 0.039999999 8 0 0 0 0.01887
1.442 -0.55800003 0.041000001 1 0 0 0 0.01888
1.449 -0.55599999 0.041000001 1 0 0 0 0.018890001
1.4529999 -0.55299997 0.039999999 1 0 0 0 0.0189
1.447 -0.54500002 0.037999999 1 0 0 0 0.01891
0 0 0 0 0 0 0 0.018920001
3.2520001 -1.204 0.082000002 1 0 0 0 0.018929999
3.22 -1.182 0.079000004 1 0 0 0 0.01894
0 0 0 0 0 0 0 0.01895
0 0 0 0 0 0 0 0.018959999
3.2780001 -1.17 0.074000001 4 0 0 0 0.01897
0 0 0 0 0 0 0 0.01898
3.3050001 -1.158 0.071000002 2 0 0 0 0.018990001
0 0 0 0 0 0 0 0.018999999
0 0 0 0 0 0 0 0.01901
0 0 0 0 0 0 0 0.01902
0 0 0 0 0 0 0 0.019029999
0 0 0 0 0 0 0 0.01904
0 0 0 0 0 0 0 0.01905
0 0 0 0 0 0 0 0.019060001
0 0 0 0 0 0 0 0.019069999
0 0 0 0 0 0 0 0.01908
0 0 0 0 0 0 0 0.019090001
1.373 -0.43000001 0.02 0 0 0 0 0.019099999
1.367 -0.42399999 0.02 0 0 0 0 0.01911
1.365 -0.41800001 0.018999999 2 0 0 0 0.01912
1.3609999 -0.41299999 0.017999999 0 0 0 0 0.019130001
1.358 -0.40700001 0.017000001 0 0 0 0 0.01914
1.349 -0.40000001 0.017000001 0 0 0 0 0.01915
1.349 -0.396 0.016000001 0 0 0 0 0.019160001
1.3430001 -0.389 0.015 0 0 0 0 0.019169999
1.342 -0.38499999 0.015 0 0 0 0 0.01918
1.34 -0.37900001 0.014 0 0 0 0 0.01919
1.33 -0.37200001 0.013 0 0 0 0 0.019200001
1.326 -0.36700001 0.013 0 0 0 0 0.01921
1.324 -0.36199999 0.012 0 0 0 0 0.01922
1.325 -0.35800001 0.012 0 0 0 0 0.019230001
1.318 -0.35100001 0.011 0 0 0 0 0.019239999
1.317 -0.347 0.011 0 0 0 0 0.01925
1.3099999 -0.34 0.0099999998 0 0 0 0 0.01926
1.309 -0.336 0.0099999998 0 0 0 0 0.019269999
1.302 -0.33000001 0.0089999996 0 0 0 0 0.01928
1.296 -0.324 0.0089999996 0 0 0 0 0.01929
1.2970001 -0.31999999 0.0080000004 0 0 0 0 0.019300001
1.296 -0.315 0.0080000004 0 0 0 0 0.019309999
1.29 -0.30899999 0.0070000002 0 0 0 0 0.01932
1.286 -0.30399999 0.0070000002 5 0 0 0 0.019330001
1.276 -0.29800001 0.0060000001 6 0 0 0 0.019339999
1.266 -0.29100001 0.0060000001 8 0 0 0 0.01935
1.258 -0.285 0.0049999999 16 0 0 0 0.01936
1.261 -0.28200001 0.0049999999 15 0 0 0 0.019370001
1.345 -0.296 0.0049999999 44 0 0 0 0.019379999
1.5089999 -0.32699999 0.0049999999 106 0 0 0 0.01939
1.628 -0.347 0.0049999999 98 0 0 0 0.019400001
1.738 -0.36500001 0.0049999999 17 0 0 0 0.019409999
1.744 -0.361 0.0049999999 16 0 0 0 0.01942
1.752 -0.35600001 0.0040000002 15 0 0 0 0.01943
1.76 -0.352 0.0040000002 16 0 0 0 0.019440001
1.765 -0.347 0.0040000002 21 0 0 0 0.01945
1.76 -0.34099999 0.003 60 0 0 0 0.01946
1.755 -0.33399999 0.003 78 0 0 0 0.019470001
1.77 -0.331 0.0020000001 28 0 0 0 0.019479999
1.772 -0.32499999 0.0020000001 17 0 0 0 0.01949
1.808 -0.32600001 0.0020000001 14 0 0 0 0.0195
1.817 -0.322 0.001 71 0 0 0 0.019509999
1.83 -0.31799999 0.001 13 0 0 0 0.01952
1.831 -0.31200001 0.001 70 0 0 0 0.01953
1.8380001 -0.30700001 0 71 0 0 0 0.019540001
1.847 -0.303 0 68 0 0 0 0.019549999
1.853 -0.29800001 0 69 0 0 0 0.01956
1.857 -0.292 0 67 0 0 0 0.01957
1.87 -0.28799999 0 68 0 0 0 0.019579999
1.874 -0.28299999 0 68 0 0 0 0.01959
1.882 -0.278 0 67 0 0 0 0.0196
1.8890001 -0.27200001 0 67 0 0 0 0.019610001
1.896 -0.26699999 -0.001 67 0 0 0 0.019619999
1.906 -0.26300001 -0.001 64 0 0 0 0.01963
1.916 -0.25799999 -0.001 63 0 0 0 0.019640001
1.923 -0.252 -0.001 66 0 0 0 0.019649999
1.934 -0.24699999 -0.0020000001 13 0 0 0 0.01966
1.938 -0.242 -0.0020000001 63 0 0 0 0.01967
1.941 -0.236 -0.0020000001 65 0 0 0 0.019680001
1.949 -0.23 -0.0020000001 66 0 0 0 0.01969
1.9630001 -0.22499999 -0.0020000001 67 0 0 0 0.0197
1.971 -0.22 -0.0020000001 66 0 0 0 0.019710001
1.98 -0.214 -0.0020000001 68 0 0 0 0.019719999
1.984 -0.208 -0.003 64 0 0 0 0.01973
1.99 -0.20299999 -0.003 64 0 0 0 0.01974
2 -0.197 -0.003 67 0 0 0 0.019750001
2.006 -0.191 -0.003 61 0 0 0 0.01976
2.02 -0.186 -0.003 64 0 0 0 0.01977
2.023 -0.18000001 -0.003 64 0 0 0 0.019780001
2.0380001 -0.17399999 -0.003 61 0 0 0 0.019789999
2.0420001 -0.168 -0.003 59 0 0 0 0.0198
2.05 -0.162 -0.003 59 0 0 0 0.01981
2.056 -0.156 -0.003 62 0 0 0 0.019819999
2.0610001 -0.149 -0.003 56 0 0 0 0.01983
2.075 -0.14399999 -0.003 60 0 0 0 0.01984
2.0780001 -0.13699999 -0.003 60 0 0 0 0.019850001
2.089 -0.131 -0.003 61 0 0 0 0.019859999
2.102 -0.125 -0.003 54 0 0 0 0.01987
2.109 -0.119 -0.003 54 0 0 0 0.019880001
2.115 -0.112 -0.003 55 0 0 0 0.019889999
2.131 -0.106 -0.003 53 0 0 0 0.0199
2.1370001 -0.098999999 -0.003 53 0 0 0 0.01991
2.1500001 -0.093000002 -0.003 52 0 0 0 0.019920001
2.155 -0.086000003 -0.0020000001 48 0 0 0 0.019929999
2.1670001 -0.079999998 -0.0020000001 48 0 0 0 0.01994
2.1760001 -0.072999999 -0.0020000001 47 0 0 0 0.019950001
2.1849999 -0.066 -0.0020000001 45 0 0 0 0.019959999
2.194 -0.059 -0.0020000001 44 0 0 0 0.01997
2.204 -0.052999999 -0.0020000001 50 0 0 0 0.01998
2.2090001 -0.046 -0.001 49 0 0 0 0.019990001
2.223 -0.039000001 -0.001 42 0 0 0 0.02
2.2320001 -0.032000002 -0.001 43 0 0 0 0.02001
2.244 -0.024 -0.001 41 0 0 0 0.020020001
2.2539999 -0.017000001 -0.001 41 0 0 0 0.020029999
2.26 -0.0099999998 0 40 0 0 0 0.02004
2.276 -0.003 0 42 0 0 0 0.02005
2.2909999 0.0040000002 0 39 0 0 0 0.020059999
2.2920001 0.011 0 41 0 0 0 0.02007
2.309 0.018999999 0 38 0 0 0 0.02008
2.3239999 0.026000001 0 39 0 0 0 0.020090001
2.3280001 0.034000002 0.001 35 0 0 0 0.020099999
2.2850001 0.041000001 0.001 35 0 0 0 0.02011
2.3369999 0.048999999 0.0020000001 9 0 0 0 0.02012
0 0 0 0 0 0 0 0.020129999
2.2679999 0.061999999 0.0020000001 0 0 0 0 0.02014
2.2149999 0.068000004 0.003 0 0 0 0 0.02015
1.609 0.054000001 0.0020000001 0 0 0 0 0.020160001
1.585 0.059 0.0020000001 0 0 0 0 0.020169999
1.592 0.064000003 0.003 0 0 0 0 0.02018
1.568 0.068000004 0.003 0 0 0 0 0.020190001
1.568 0.072999999 0.003 0 0 0 0 0.020199999
1.584 0.079000004 0.0040000002 0 0 0 0 0.02021
1.562 0.082999997 0.0040000002 0 0 0 0 0.02022
1.567 0.088 0.0040000002 0 0 0 0 0.020230001
1.569 0.093999997 0.0049999999 0 0 0 0 0.02024
1.579 0.098999999 0.0049999999 0 0 0 0 0.02025
1.5549999 0.103 0.0049999999 0 0 0 0 0.020260001
1.561 0.108 0.0060000001 0 0 0 0 0.020269999
1.53 0.111 0.0060000001 0 0 0 0 0.02028
1.534 0.116 0.0070000002 0 0 0 0 0.02029
1.556 0.123 0.0070000002 0 0 0 0 0.020300001
1.551 0.12800001 0.0070000002 0 0 0 0 0.02031
1.5420001 0.132 0.0080000004 0 0 0 0 0.02032
1.551 0.138 0.0080000004 0 0 0 0 0.020330001
1.5700001 0.145 0.0089999996 0 0 0 0 0.020339999
1.534 0.146 0.0089999996 0 0 0 0 0.02035
1.54 0.152 0.0099999998 0 0 0 0 0.02036
1.584 0.161 0.0099999998 0 0 0 0 0.020369999
1.564 0.164 0.011 0 0 0 0 0.02038
1.592 0.17299999 0.012 0 0 0 0 0.02039
1.5880001 0.177 0.012 0 0 0 0 0.020400001
1.58 0.18099999 0.012 0 0 0 0 0.020409999
1.603 0.189 0.013 0 0 0 0 0.02042
1.604 0.19499999 0.014 0 0 0 0 0.02043
1.612 0.20100001 0.014 0 0 0 0 0.020439999
1.615 0.206 0.015 0 0 0 0 0.02045
1.641 0.215 0.016000001 0 0 0 0 0.02046
1.6289999 0.219 0.016000001 0 0 0 0 0.020470001
1.6440001 0.226 0.017000001 0 0 0 0 0.020479999
1.643 0.23100001 0.017999999 0 0 0 0 0.02049
1.652 0.23800001 0.018999999 0 0 0 0 0.020500001
1.6799999 0.248 0.018999999 0 0 0 0 0.020509999
1.7029999 0.257 0.02 0 0 0 0 0.02052
1.706 0.26300001 0.021 0 0 0 0 0.02053
1.7180001 0.27000001 0.022 0 0 0 0 0.020540001
1.729 0.27700001 0.023 0 0 0 0 0.02055
1.7460001 0.28600001 0.024 0 0 0 0 0.02056
1.748 0.292 0.025 0 0 0 0 0.020570001
1.7410001 0.296 0.025 0 0 0 0 0.020579999
1.7460001 0.303 0.026000001 0 0 0 0 0.02059
1.765 0.31200001 0.027000001 0 0 0 0 0.0206
1.776 0.31999999 0.028000001 0 0 0 0 0.020609999
1.758 0.322 0.028999999 0 0 0 0 0.02062
1.767 0.33000001 0.029999999 0 0 0 0 0.02063
1.756 0.333 0.030999999 0 0 0 0 0.020640001
1.767 0.34099999 0.032000002 0 0 0 0 0.020649999
1.768 0.347 0.033 0 0 0 0 0.02066
1.762 0.352 0.033 0 0 0 0 0.02067
1.7690001 0.359 0.034000002 0 0 0 0 0.020679999
1.775 0.366 0.035 0 0 0 0 0.02069
1.799 0.377 0.037 0 0 0 0 0.0207
1.888 0.40200001 0.039999999 0 0 0 0 0.020710001
2.016 0.43599999 0.044 0 0 0 0 0.020719999
2.0439999 0.44800001 0.045000002 0 0 0 0 0.02073
2.069 0.461 0.046999998 0 0 0 0 0.020740001
2.145 0.484 0.050000001 0 0 0 0 0.020749999
2.954 0.67699999 0.071000002 44 0 0 0 0.02076
3.0120001 0.69999999 0.074000001 150 0 0 0 0.02077
3.043 0.71700001 0.077 150 0 0 0 0.020780001
3.04 0.727 0.078000002 150 0 0 0 0.02079
3.0350001 0.736 0.079999998 150 0 0 0 0.0208
3.0220001 0.74199998 0.082000002 150 0 0 0 0.020810001
3.023 0.75199997 0.082999997 150 0 0 0 0.020819999
3.016 0.76099998 0.085000001 150 0 0 0 0.02083
3.0120001 0.76999998 0.086999997 150 0 0 0 0.02084
3.0050001 0.778 0.089000002 150 0 0 0 0.020850001
3.003 0.787 0.090999998 150 0 0 0 0.02086
2.997 0.79500002 0.092 150 0 0 0 0.02087
2.9849999 0.80199999 0.093999997 150 0 0 0 0.020880001
2.9849999 0.81199998 0.096000001 150 0 0 0 0.020889999
2.974 0.81900001 0.097999997 150 0 0 0 0.0209
2.9690001 0.82700002 0.1 150 0 0 0 0.02091
2.9649999 0.83600003 0.102 150 0 0 0 0.020919999
2.9579999 0.84299999 0.104 150 0 0 0 0.02093
2.9549999 0.852 0.106 150 0 0 0 0.02094
2.9460001 0.85900003 0.107 150 0 0 0 0.020950001
2.938 0.86699998 0.109 150 0 0 0 0.020959999
2.9349999 0.875 0.111 150 0 0 0 0.02097
2.9300001 0.884 0.114 150 0 0 0 0.02098
2.927 0.89200002 0.116 150 0 0 0 0.020989999
2.921 0.89999998 0.118 150 0 0 0 0.021
2.9119999 0.90700001 0.12 150 0 0 0 0.02101
2.911 0.91600001 0.122 150 0 0 0 0.021020001
2.904 0.92299998 0.124 150 0 0 0 0.021029999
2.8970001 0.93099999 0.126 150 0 0 0 0.02104
2.8900001 0.93800002 0.12800001 150 0 0 0 0.021050001
2.8870001 0.94700003 0.13 150 0 0 0 0.021059999
2.8789999 0.95300001 0.133 150 0 0 0 0.02107
2.8729999 0.96100003 0.13500001 150 0 0 0 0.02108
2.868 0.96899998 0.13699999 150 0 0 0 0.021090001
2.8670001 0.97799999 0.14 150 0 0 0 0.0211
2.862 0.98500001 0.142 150 0 0 0 0.02111
2.8559999 0.99299997 0.14399999 150 0 0 0 0.021120001
2.8499999 1 0.146 150 0 0 0 0.021129999
2.8380001 1.005 0.148 150 0 0 0 0.02114
2.8429999 1.016 0.15099999 150 0 0 0 0.02115
2.832 1.022 0.153 150 0 0 0 0.021159999
2.8280001 1.029 0.156 150 0 0 0 0.02117
2.823 1.0369999 0.15800001 150 0 0 0 0.02118
2.8150001 1.043 0.161 150 0 0 0 0.021190001
2.8099999 1.05 0.163 150 0 0 0 0.021199999
2.8069999 1.058 0.16599999 150 0 0 0 0.02121
2.8 1.0650001 0.168 150 0 0 0 0.02122
2.7980001 1.073 0.171 150 0 0 0 0.021229999
2.7939999 1.081 0.17299999 150 0 0 0 0.02124
2.786 1.087 0.176 150 0 0 0 0.02125
2.7869999 1.096 0.17900001 150 0 0 0 0.021260001
2.8010001 1.1109999 0.183 138 0 0 0 0.021269999
2.8099999 1.124 0.186 150 0 0 0 0.02128
2.8280001 1.14 0.19 150 0 0 0 0.021290001
2.842 1.155 0.19499999 150 0 0 0 0.021299999
2.8499999 1.1670001 0.198 5 0 0 0 0.02131
0 0 0 0 0 0 0 0.02132
0 0 0 0 0 0 0 0.021330001
4.1360002 1.734 0.30199999 0 0 0 0 0.02134
4.1110001 1.737 0.30500001 1 0 0 0 0.02135
4.119 1.753 0.31 0 0 0 0 0.021360001
4.0949998 1.756 0.31299999 58 0 0 0 0.021369999
4.0830002 1.7640001 0.317 150 0 0 0 0.02138
4.086 1.779 0.322 35 0 0 0 0.02139
4.1030002 1.799 0.32800001 0 0 0 0 0.021400001
0 0 0 0 0 0 0 0.02141
4.0970001 1.823 0.338 0 0 0 0 0.02142
4.099 1.836 0.34299999 1 0 0 0 0.021430001
4.1149998 1.8559999 0.34999999 0 0 0 0 0.021439999
4.1199999 1.872 0.35499999 0 0 0 0 0.02145
4.0929999 1.872 0.35800001 0 0 0 0 0.02146
4.092 1.8839999 0.36300001 4 0 0 0 0.021469999
4.0960002 1.899 0.36899999 0 0 0 0 0.02148
4.0640001 1.897 0.37200001 59 0 0 0 0.02149
4.0489998 1.902 0.37599999 143 0 0 0 0.021500001
4.0599999 1.92 0.382 60 0 0 0 0.021509999
4.0910001 1.948 0.391 0 0 0 0 0.02152
4.079 1.954 0.39500001 0 0 0 0 0.02153
4.053 1.954 0.398 1 0 0 0 0.021539999
4.0570002 1.9680001 0.40400001 10 0 0 0 0.02155
4.0359998 1.971 0.40700001 25 0 0 0 0.02156
4.0279999 1.979 0.412 59 0 0 0 0.021570001
4.02 1.987 0.417 83 0 0 0 0.021579999
4.013 1.9960001 0.42199999 110 0 0 0 0.02159
4.007 2.0050001 0.42699999 129 0 0 0 0.021600001
4 2.013 0.43200001 142 0 0 0 0.021609999
3.993 2.0220001 0.43700001 150 0 0 0 0.02162
3.987 2.03 0.442 150 0 0 0 0.02163
3.983 2.04 0.44800001 150 0 0 0 0.021640001
3.9790001 2.049 0.45300001 150 0 0 0 0.02165
3.977 2.0599999 0.45899999 122 0 0 0 0.02166
3.9760001 2.0710001 0.465 98 0 0 0 0.021670001
3.9749999 2.082 0.47099999 79 0 0 0 0.021679999
3.9790001 2.095 0.477 59 0 0 0 0.02169
3.984 2.109 0.484 22 0 0 0 0.0217
3.973 2.115 0.48899999 8 0 0 0 0.021709999
3.9779999 2.128 0.495 1 0 0 0 0.02172
3.997 2.1500001 0.50400001 0 0 0 0 0.02173
3.99 2.1570001 0.509 0 0 0 0 0.021740001
3.9820001 2.164 0.51499999 0 0 0 0 0.021749999
3.967 2.1670001 0.51899999 0 0 0 0 0.02176
3.964 2.1760001 0.52499998 0 0 0 0 0.02177
3.9630001 2.1849999 0.53100002 0 0 0 0 0.021779999
3.957 2.1930001 0.537 0 0 0 0 0.02179
3.9400001 2.194 0.542 0 0 0 0 0.0218
3.9389999 2.2030001 0.54799998 0 0 0 0 0.021810001
3.9349999 2.2119999 0.55400002 0 0 0 0 0.021819999
3.9400001 2.224 0.56099999 0 0 0 0 0.02183
3.9059999 2.2149999 0.56300002 0 0 0 0 0.021840001
3.931 2.2390001 0.57300001 0 0 0 0 0.021849999
3.921 2.243 0.57800001 0 0 0 0 0.02186
3.908 2.2449999 0.583 0 0 0 0 0.02187
3.8959999 2.2479999 0.588 0 0 0 0 0.021880001
3.8789999 2.2479999 0.59200001 0 0 0 0 0.02189
3.878 2.257 0.59799999 0 0 0 0 0.0219
3.8840001 2.2690001 0.60600001 0 0 0 0 0.021910001
3.8900001 2.2820001 0.61400002 0 0 0 0 0.021919999
3.865 2.277 0.61699998 0 0 0 0 0.02193
3.885 2.2969999 0.62599999 0 0 0 0 0.02194
3.8800001 2.303 0.63300002 0 0 0 0 0.021950001
3.8770001 2.309 0.639 0 0 0 0 0.02196
3.8610001 2.3080001 0.64300001 0 0 0 0 0.02197
3.852 2.3110001 0.648 0 0 0 0 0.021980001
3.846 2.316 0.65399998 0 0 0 0 0.021989999
3.868 2.3369999 0.66500002 0 0 0 0 0.022
3.845 2.3310001 0.66799998 0 0 0 0 0.02201
3.825 2.3269999 0.671 0 0 0 0 0.022019999
3.8380001 2.342 0.68000001 0 0 0 0 0.02203
3.835 2.348 0.68699998 0 0 0 0 0.02204
3.8380001 2.3570001 0.69400001 0 0 0 0 0.022050001
3.819 2.3529999 0.69700003 0 0 0 0 0.022059999
3.8269999 2.365 0.70499998 0 0 0 0 0.02207
3.7920001 2.3499999 0.70599997 0 0 0 0 0.02208
3.813 2.3699999 0.71700001 0 0 0 0 0.022089999
3.7980001 2.3670001 0.72100002 0 0 0 0 0.0221
3.8239999 2.3900001 0.73199999 0 0 0 0 0.02211
0.052000001 0.033 0.0099999998 0 0 0 0 0.022120001
0.056000002 0.035 0.011 0 0 0 0 0.022129999
3.757 2.3659999 0.74000001 0 0 0 0 0.02214
3.79 2.392 0.75300002 0 0 0 0 0.022150001
3.77 2.385 0.75599998 0 0 0 0 0.022159999
0.052999999 0.033 0.0099999998 0 0 0 0 0.02217
0.050000001 0.032000002 0.0099999998 0 0 0 0 0.02218
0.050000001 0.032000002 0.0099999998 0 0 0 0 0.022190001
0.057 0.035999998 0.011 0 0 0 0 0.0222
3.7590001 2.404 0.787 0 0 0 0 0.02221
3.763 2.411 0.79500002 0 0 0 0 0.022220001
3.7550001 2.4100001 0.80000001 0 0 0 0 0.022229999
3.7590001 2.4170001 0.80800003 0 0 0 0 0.02224
3.7520001 2.4170001 0.81300002 0 0 0 0 0.02225
3.744 2.4159999 0.81800002 0 0 0 0 0.022260001
3.7479999 2.4219999 0.82499999 0 0 0 0 0.02227
3.7379999 2.418 0.829 0 0 0 0 0.02228
3.7609999 2.437 0.84100002 0 0 0 0 0.022290001
3.7509999 2.4330001 0.84500003 0 0 0 0 0.022299999
3.7579999 2.441 0.85299999 0 0 0 0 0.02231
3.727 2.424 0.852 0 0 0 0 0.02232
0.048 0.030999999 0.011 0 0 0 0 0.022329999
0.046 0.029999999 0.0099999998 0 0 0 0 0.02234
0.052999999 0.034000002 0.012 0 0 0 0 0.02235
0.048999999 0.032000002 0.011 0 0 0 0 0.022360001
3.717 2.428 0.88099998 0 0 0 0 0.022369999
3.7290001 2.438 0.88999999 0 0 0 0 0.02238
3.7449999 2.45 0.89999998 0 0 0 0 0.022390001
3.7309999 2.4419999 0.903 0 0 0 0 0.022399999
3.733 2.444 0.90899998 0 0 0 0 0.02241
3.7290001 2.4419999 0.91399997 0 0 0 0 0.02242
3.7119999 2.4319999 0.91600001 0 0 0 0 0.022430001
0.056000002 0.037 0.014 0 0 0 0 0.02244
0.046999998 0.030999999 0.011 0 0 0 0 0.02245
0.048999999 0.032000002 0.012 0 0 0 0 0.022460001
0.048 0.030999999 0.012 0 0 0 0 0.022469999
0.055 0.035999998 0.014 0 0 0 0 0.02248
3.711 2.4319999 0.949 0 0 0 0 0.02249
3.7149999 2.434 0.95599997 0 0 0 0 0.022500001
3.7190001 2.4349999 0.96200001 1 0 0 0 0.02251
3.7260001 2.4389999 0.96899998 1 0 0 0 0.02252
3.724 2.4360001 0.97399998 1 0 0 0 0.022530001
3.721 2.4330001 0.97799999 0 0 0 0 0.022539999
3.7219999 2.4319999 0.98400003 0 0 0 0 0.02255
3.717 2.4260001 0.98699999 0 0 0 0 0.02256
3.724 2.4289999 0.99400002 0 0 0 0 0.022569999
3.7079999 2.4159999 0.995 0 0 0 0 0.02258
3.6989999 2.408 0.99699998 0 0 0 0 0.02259
3.7 2.4059999 1.002 0 0 0 0 0.022600001
3.7260001 2.4200001 1.013 0 0 0 0 0.022609999
3.724 2.4159999 1.017 0 0 0 0 0.02262
3.7190001 2.4100001 1.02 0 0 0 0 0.02263
3.7279999 2.4119999 1.027 0 0 0 0 0.022639999
0.039999999 0.026000001 0.011 0 0 0 0 0.02265
0.052999999 0.034000002 0.014 0 0 0 0 0.02266
0.048999999 0.032000002 0.013 0 0 0 0 0.022670001
0.039999999 0.026000001 0.011 0 0 0 0 0.022679999
0.055 0.035 0.015 0 0 0 0 0.02269
3.7279999 2.388 1.051 0 0 0 0 0.022700001
3.7390001 2.391 1.058 0 0 0 0 0.022709999
3.737 2.3840001 1.061 0 0 0 0 0.02272
3.721 2.369 1.0599999 0 0 0 0 0.02273
3.77 2.395 1.077 0 0 0 0 0.022740001
3.7160001 2.3559999 1.0650001 0 0 0 0 0.02275
3.7679999 2.3829999 1.0829999 0 0 0 0 0.02276
3.7349999 2.3570001 1.077 0 0 0 0 0.022770001
3.7409999 2.355 1.082 0 0 0 0 0.022779999
3.74 2.348 1.084 0 0 0 0 0.02279
3.7609999 2.355 1.0930001 0 0 0 0 0.0228
3.747 2.3399999 1.091 0 0 0 0 0.022810001
3.7620001 2.342 1.098 0 0 0 0 0.02282
3.7449999 2.325 1.096 0 0 0 0 0.02283
3.7620001 2.329 1.103 0 0 0 0 0.022840001
3.76 2.3210001 1.105 0 0 0 0 0.022849999
3.737 2.299 1.1 0 0 0 0 0.02286
3.7539999 2.303 1.108 0 0 0 0 0.02287
3.763 2.3010001 1.112 0 0 0 0 0.022879999
3.763 2.293 1.114 0 0 0 0 0.02289
0.056000002 0.034000002 0.016000001 0 0 0 0 0.0229
0.048999999 0.029999999 0.014 0 0 0 0 0.022910001
0.050000001 0.029999999 0.015 0 0 0 0 0.022919999
0.041000001 0.024 0.012 0 0 0 0 0.02293
0.050000001 0.029999999 0.015 0 0 0 0 0.022940001
3.7750001 2.2520001 1.127 0 0 0 0 0.022949999
3.783 2.2479999 1.13 0 0 0 0 0.02296
3.7950001 2.2460001 1.135 0 0 0 0 0.02297
3.7909999 2.2349999 1.135 0 0 0 0 0.022980001
3.7869999 2.224 1.1339999 0 0 0 0 0.02299
3.744 2.1900001 1.122 0 0 0 0 0.023
0.046 0.027000001 0.014 0 0 0 0 0.023010001
0.054000001 0.030999999 0.016000001 0 0 0 0 0.023019999
3.7969999 2.1930001 1.1390001 0 0 0 0 0.02303
3.823 2.1989999 1.147 0 0 0 0 0.02304
3.7850001 2.1670001 1.136 0 0 0 0 0.023050001
3.619 2.063 1.086 0 0 0 0 0.02306
3.6689999 2.082 1.101 0 0 0 0 0.02307
3.8150001 2.155 1.145 0 0 0 0 0.023080001
3.8199999 2.148 1.146 0 0 0 0 0.023089999
0.046999998 0.026000001 0.014 0 0 0 0 0.0231
3.825 2.1300001 1.147 0 0 0 0 0.02311
3.839 2.1270001 1.15 0 0 0 0 0.023119999
3.852 2.1240001 1.154 0 0 0 0 0.02313
3.8529999 2.1140001 1.153 0 0 0 0 0.02314
3.8510001 2.102 1.152 0 0 0 0 0.023150001
3.855 2.0940001 1.152 0 0 0 0 0.023159999
0 0 0 0 0 0 0 0.02317
0.046999998 0.025 0.014 0 0 0 0 0.02318
0.044 0.023 0.013 0 0 0 0 0.023189999
3.845 2.0450001 1.1440001 0 0 0 0 0.0232
3.8789999 2.052 1.153 0 0 0 0 0.02321
3.8789999 2.04 1.151 0 0 0 0 0.023220001
3.8840001 2.0320001 1.151 0 0 0 0 0.023229999
0.054000001 0.028000001 0.016000001 0 0 0 0 0.02324
0.044 0.023 0.013 0 0 0 0 0.023250001
3.8829999 1.997 1.145 0 0 0 0 0.023259999
3.892 1.9910001 1.146 0 0 0 0 0.02327
3.8929999 1.979 1.1440001 0 0 0 0 0.02328
3.904 1.973 1.145 0 0 0 0 0.023290001
3.914 1.966 1.145 0 0 0 0 0.0233
3.9070001 1.951 1.141 0 0 0 0 0.02331
3.901 1.936 1.137 0 0 0 0 0.023320001
3.911 1.9299999 1.137 0 0 0 0 0.023329999
3.934 1.929 1.141 0 0 0 0 0.02334
0 0 0 0 0 0 0 0.02335
0 0 0 0 0 0 0 0.023360001
0 0 0 0 0 0 0 0.02337
3.9489999 1.888 1.1339999 0 0 0 0 0.02338
3.95 1.876 1.131 0 0 0 0 0.023390001
3.95 1.864 1.128 0 0 0 0 0.023399999
3.964 1.858 1.1289999 0 0 0 0 0.02341
3.9430001 1.836 1.119 0 0 0 0 0.02342
3.9679999 1.836 1.123 0 0 0 0 0.023429999
3.9660001 1.822 1.119 0 0 0 0 0.02344
3.9560001 1.8049999 1.112 0 0 0 0 0.02345
0.046999998 0.021 0.013 0 0 0 0 0.023460001
4.0539999 1.825 1.133 0 0 0 0 0.023469999
3.9820001 1.78 1.108 0 0 0 0 0.02348
3.994 1.773 1.108 0 0 0 0 0.023490001
3.9979999 1.762 1.105 0 0 0 0 0.023499999
3.99 1.7460001 1.099 0 0 0 0 0.02351
3.97 1.725 1.089 0 0 0 0 0.02352
4.0019999 1.726 1.094 0 0 0 0 0.023530001
4.0110002 1.717 1.092 0 0 0 0 0.023539999
0.057 0.024 0.015 0 0 0 0 0.02355
0 0 0 0 0 0 0 0.023560001
4.0310001 1.688 1.084 0 0 0 0 0.023569999
4.0339999 1.677 1.08 0 0 0 0 0.02358
3.0280001 1.249 0.80699998 0 0 0 0 0.02359
2.8380001 1.161 0.75300002 63 0 0 0 0.023600001
2.8280001 1.149 0.74699998 150 0 0 0 0.02361
2.8069999 1.131 0.73799998 150 0 0 0 0.02362
2.802 1.12 0.73299998 150 0 0 0 0.023630001
2.7780001 1.102 0.72399998 150 0 0 0 0.023639999
2.7780001 1.0930001 0.72000003 150 0 0 0 0.02365
2.783 1.087 0.71799999 150 0 0 0 0.02366
2.7920001 1.081 0.71700001 150 0 0 0 0.023669999
2.7939999 1.073 0.71399999 150 0 0 0 0.02368
2.802 1.068 0.71200001 150 0 0 0 0.02369
2.802 1.059 0.708 150 0 0 0 0.023700001
2.809 1.053 0.70700002 150 0 0 0 0.023709999
2.8139999 1.046 0.704 150 0 0 0 0.02372
2.8180001 1.039 0.70099998 150 0 0 0 0.02373
2.822 1.031 0.69800001 150 0 0 0 0.023739999
2.825 1.024 0.69499999 150 0 0 0 0.02375
2.8329999 1.018 0.69300002 150 0 0 0 0.02376
2.8340001 1.0089999 0.68900001 150 0 0 0 0.023770001
2.8399999 1.003 0.68699998 150 0 0 0 0.023779999
2.8440001 0.995 0.68400002 150 0 0 0 0.02379
2.8540001 0.99000001 0.68199998 150 0 0 0 0.023800001
2.8640001 0.98400003 0.68000001 150 0 0 0 0.023809999
2.862 0.97500002 0.676 150 0 0 0 0.02382
2.8710001 0.96899998 0.67400002 150 0 0 0 0.02383
2.875 0.96100003 0.67000002 150 0 0 0 0.023840001
2.878 0.954 0.667 150 0 0 0 0.02385
2.885 0.94700003 0.66399997 150 0 0 0 0.02386
2.8870001 0.93900001 0.66000003 150 0 0 0 0.023870001
2.8940001 0.93199998 0.65700001 150 0 0 0 0.023879999
2.901 0.926 0.65399998 150 0 0 0 0.02389
2.901 0.917 0.64999998 150 0 0 0 0.0239
2.9100001 0.91100001 0.64700001 150 0 0 0 0.023910001
2.9130001 0.903 0.64300001 150 0 0 0 0.02392
2.9170001 0.89600003 0.63999999 150 0 0 0 0.02393
2.9260001 0.88999999 0.63700002 150 0 0 0 0.023940001
2.9319999 0.88300002 0.634 150 0 0 0 0.023949999
2.9360001 0.875 0.63 150 0 0 0 0.02396
2.9400001 0.86699998 0.62599999 150 0 0 0 0.02397
2.9430001 0.85900003 0.62199998 150 0 0 0 0.023979999
2.9460001 0.85100001 0.61799997 150 0 0 0 0.02399
2.9579999 0.84600002 0.61500001 150 0 0 0 0.024
2.961 0.838 0.611 150 0 0 0 0.024010001
2.964 0.82999998 0.60699999 150 0 0 0 0.024019999
2.971 0.82300001 0.60299999 150 0 0 0 0.02403
2.974 0.815 0.59899998 150 0 0 0 0.024040001
2.98 0.80800003 0.59500003 150 0 0 0 0.024049999
2.984 0.80000001 0.59100002 150 0 0 0 0.02406
2.9879999 0.79299998 0.58600003 150 0 0 0 0.02407
2.997 0.78600001 0.583 150 0 0 0 0.024080001
3 0.778 0.579 150 0 0 0 0.024089999
3.0050001 0.77100003 0.574 150 0 0 0 0.0241
3.0150001 0.764 0.57099998 150 0 0 0 0.024110001
3.0209999 0.75700003 0.56699997 150 0 0 0 0.024119999
3.0239999 0.74900001 0.56199998 150 0 0 0 0.02413
3.027 0.741 0.55800003 150 0 0 0 0.02414
3.0350001 0.73400003 0.55400002 150 0 0 0 0.024150001
3.0369999 0.72600001 0.54900002 150 0 0 0 0.02416
3.046 0.71899998 0.54500002 150 0 0 0 0.02417
3.049 0.71100003 0.54000002 150 0 0 0 0.024180001
3.052 0.70300001 0.53500003 150 0 0 0 0.024189999
3.0580001 0.69599998 0.53100002 150 0 0 0 0.0242
3.0639999 0.68800002 0.52700001 150 0 0 0 0.02421
3.0680001 0.68099999 0.52200001 150 0 0 0 0.024219999
3.076 0.67400002 0.51800001 150 0 0 0 0.02423
3.0009999 0.64899999 0.49900001 150 0 0 0 0.02424
2.987 0.63700002 0.49200001 150 0 0 0 0.024250001
3.0899999 0.64999998 0.50300002 150 0 0 0 0.024259999
3.098 0.64399999 0.49900001 150 0 0 0 0.02427
3.102 0.63599998 0.49399999 150 0 0 0 0.02428
3.109 0.62800002 0.48899999 150 0 0 0 0.024289999
3.115 0.62099999 0.484 150 0 0 0 0.0243
3.1199999 0.61299998 0.479 150 0 0 0 0.02431
3.122 0.60500002 0.47400001 150 0 0 0 0.024320001
3.1259999 0.597 0.46900001 150 0 0 0 0.024329999
3.079 0.579 0.456 150 0 0 0 0.02434
2.984 0.55299997 0.43599999 40 0 0 0 0.024350001
2.98 0.54400003 0.43000001 45 0 0 0 0.024359999
2.9660001 0.53399998 0.42199999 49 0 0 0 0.02437
2.9549999 0.523 0.41499999 49 0 0 0 0.02438
2.9419999 0.51300001 0.40799999 53 0 0 0 0.024390001
2.934 0.50400001 0.40099999 54 0 0 0 0.0244
2.9170001 0.493 0.39300001 61 0 0 0 0.02441
2.9100001 0.484 0.38699999 76 0 0 0 0.024420001
2.895 0.47299999 0.37900001 48 0 0 0 0.024429999
2.7479999 0.442 0.35499999 24 0 0 0 0.02444
2.562 0.405 0.32600001 14 0 0 0 0.02445
2.823 0.43900001 0.354 2 0 0 0 0.024460001
2.052 0.31299999 0.25299999 9 0 0 0 0.02447
2.03 0.30399999 0.24600001 26 0 0 0 0.02448
2.013 0.296 0.23999999 54 0 0 0 0.024490001
1.997 0.289 0.235 86 0 0 0 0.024499999
1.985 0.28200001 0.229 89 0 0 0 0.02451
1.976 0.27500001 0.22400001 83 0 0 0 0.02452
1.967 0.26899999 0.22 70 0 0 0 0.024529999
1.951 0.26100001 0.214 38 0 0 0 0.02454
1.9400001 0.255 0.20900001 18 0 0 0 0.02455
1.932 0.248 0.204 51 0 0 0 0.024560001
1.926 0.243 0.2 22 0 0 0 0.024569999
1.9349999 0.23899999 0.197 5 0 0 0 0.02458
2.2709999 0.27399999 0.227 1 0 0 0 0.024590001
2.9030001 0.34299999 0.28400001 3 0 0 0 0.024599999
2.2920001 0.26499999 0.22 0 0 0 0 0.02461
1.914 0.21600001 0.18000001 0 0 0 0 0.02462
1.885 0.208 0.17299999 0 0 0 0 0.024630001
2.3659999 0.255 0.213 0 0 0 0 0.024639999
1.896 0.199 0.167 0 0 0 0 0.02465
1.821 0.18700001 0.156 0 0 0 0 0.024660001
1.8099999 0.18099999 0.152 0 0 0 0 0.024669999
1.804 0.176 0.148 0 0 0 0 0.02468
2.0450001 0.19400001 0.163 3 0 0 0 0.02469
2.3699999 0.219 0.185 107 0 0 0 0.024700001
2.4779999 0.222 0.18799999 150 0 0 0 0.02471
2.5769999 0.22400001 0.19 150 0 0 0 0.02472
2.5650001 0.21699999 0.184 150 0 0 0 0.024730001
2.5480001 0.20900001 0.178 150 0 0 0 0.024739999
2.5409999 0.20200001 0.17200001 150 0 0 0 0.02475
2.527 0.19400001 0.16599999 150 0 0 0 0.02476
2.5179999 0.18700001 0.16 150 0 0 0 0.024769999
2.4979999 0.18000001 0.154 150 0 0 0 0.02478
2.4890001 0.17299999 0.148 150 0 0 0 0.02479
2.4790001 0.16599999 0.14300001 150 0 0 0 0.024800001
2.47 0.15899999 0.13699999 150 0 0 0 0.024809999
2.4590001 0.152 0.131 150 0 0 0 0.02482
2.4349999 0.14399999 0.125 150 0 0 0 0.02483
2.3900001 0.13600001 0.118 150 0 0 0 0.024839999
2.3499999 0.127 0.111 81 0 0 0 0.02485
2.339 0.121 0.105 61 0 0 0 0.02486
2.3299999 0.115 0.1 61 0 0 0 0.024870001
2.325 0.109 0.094999999 64 0 0 0 0.024879999
2.3110001 0.102 0.090000004 65 0 0 0 0.02489
2.3039999 0.096000001 0.083999999 63 0 0 0 0.024900001
2.2909999 0.090000004 0.079000004 62 0 0 0 0.024909999
2.2909999 0.083999999 0.074000001 62 0 0 0 0.02492
2.28 0.078000002 0.068999998 67 0 0 0 0.02493
2.2720001 0.072999999 0.064000003 66 0 0 0 0.024940001
2.2639999 0.067000002 0.059 67 0 0 0 0.02495
2.3050001 0.061999999 0.055 78 0 0 0 0.02496
2.349 0.057999998 0.050999999 54 0 0 0 0.024970001
2.3599999 0.052000001 0.046999998 47 0 0 0 0.024979999
2.349 0.046 0.041000001 45 0 0 0 0.02499
2.339 0.039999999 0.035999998 49 0 0 0 0.025
2.335 0.035 0.030999999 53 0 0 0 0.025010001
2.3280001 0.028999999 0.026000001 53 0 0 0 0.02502
2.3169999 0.023 0.021 48 0 0 0 0.02503
2.3080001 0.017999999 0.016000001 46 0 0 0 0.025040001
2.3 0.012 0.011 46 0 0 0 0.025049999
2.2909999 0.0060000001 0.0060000001 52 0 0 0 0.02506
2.2850001 0.001 0.001 49 0 0 0 0.02507
2.2820001 -0.0040000002 -0.003 53 0 0 0 0.025079999
2.2690001 -0.0089999996 -0.0080000004 56 0 0 0 0.02509
2.26 -0.015 -0.013 57 0 0 0 0.0251
2.25 -0.02 -0.017000001 52 0 0 0 0.025110001
2.243 -0.025 -0.022 55 0 0 0 0.025119999
2.2379999 -0.029999999 -0.027000001 54 0 0 0 0.02513
2.233 -0.035999998 -0.032000002 60 0 0 0 0.025140001
2.224 -0.041000001 -0.037 62 0 0 0 0.025149999
2.2090001 -0.046 -0.041000001 64 0 0 0 0.02516
2.1429999 -0.050000001 -0.045000002 63 0 0 0 0.02517
2.053 -0.052000001 -0.048 26 0 0 0 0.025180001
1.962 -0.055 -0.050000001 14 0 0 0 0.025189999
1.927 -0.057999998 -0.052999999 10 0 0 0 0.0252
1.92 -0.061999999 -0.057 10 0 0 0 0.025210001
1.914 -0.067000002 -0.061000001 9 0 0 0 0.025219999
1.908 -0.071000002 -0.064999998 11 0 0 0 0.02523
1.9 -0.075000003 -0.068999998 13 0 0 0 0.02524
1.895 -0.079999998 -0.072999999 12 0 0 0 0.025250001
1.899 -0.083999999 -0.078000002 13 0 0 0 0.02526
1.9069999 -0.089000002 -0.082000002 11 0 0 0 0.02527
1.882 -0.092 -0.086000003 11 0 0 0 0.025280001
1.785 -0.092 -0.085000001 20 0 0 0 0.025289999
1.735 -0.093000002 -0.086999997 30 0 0 0 0.0253
1.735 -0.097000003 -0.090999998 41 0 0 0 0.02531
1.729 -0.101 -0.093999997 41 0 0 0 0.025319999
1.721 -0.104 -0.097999997 39 0 0 0 0.02533
1.719 -0.108 -0.102 32 0 0 0 0.02534
1.743 -0.114 -0.107 17 0 0 0 0.025350001
1.767 -0.119 -0.113 13 0 0 0 0.025359999
1.747 -0.122 -0.115 12 0 0 0 0.02537
1.698 -0.122 -0.116 8 0 0 0 0.02538
1.677 -0.125 -0.118 9 0 0 0 0.025389999
1.675 -0.12899999 -0.122 11 0 0 0 0.0254
1.696 -0.134 -0.12800001 6 0 0 0 0.02541
1.701 -0.138 -0.132 6 0 0 0 0.025420001
1.706 -0.14300001 -0.13600001 6 0 0 0 0.025429999
1.709 -0.147 -0.14 7 0 0 0 0.02544
1.712 -0.15099999 -0.145 7 0 0 0 0.025450001
1.716 -0.155 -0.149 7 0 0 0 0.025459999
1.716 -0.15899999 -0.153 7 0 0 0 0.02547
1.72 -0.163 -0.15700001 7 0 0 0 0.02548
1.72 -0.167 -0.162 7 0 0 0 0.025490001
1.722 -0.171 -0.16599999 7 0 0 0 0.0255
1.726 -0.176 -0.17 9 0 0 0 0.02551
1.727 -0.18000001 -0.175 8 0 0 0 0.025520001
1.722 -0.183 -0.178 2 0 0 0 0.025529999
1.666 -0.18099999 -0.176 1 0 0 0 0.02554
1.586 -0.176 -0.17200001 1 0 0 0 0.02555
1.579 -0.178 -0.175 1 0 0 0 0.025560001
1.574 -0.18099999 -0.178 1 0 0 0 0.02557
1.556 -0.183 -0.18000001 5 0 0 0 0.02558
1.553 -0.186 -0.183 5 0 0 0 0.025590001
1.5420001 -0.18799999 -0.185 5 0 0 0 0.025599999
1.548 -0.192 -0.19 0 0 0 0 0.02561
1.515 -0.191 -0.19 0 0 0 0 0.02562
1.52 -0.19499999 -0.19400001 0 0 0 0 0.025629999
1.526 -0.2 -0.198 0 0 0 0 0.02564
1.512 -0.20100001 -0.2 0 0 0 0 0.02565
1.54 -0.208 -0.208 0 0 0 0 0.025660001
1.5369999 -0.211 -0.211 0 0 0 0 0.025669999
1.5140001 -0.211 -0.212 0 0 0 0 0.02568
1.492 -0.212 -0.212 0 0 0 0 0.025690001
1.471 -0.212 -0.213 0 0 0 0 0.025699999
1.4680001 -0.215 -0.21600001 2 0 0 0 0.02571
1.462 -0.21699999 -0.219 4 0 0 0 0.02572
1.456 -0.219 -0.222 1 0 0 0 0.025730001
1.4579999 -0.223 -0.226 1 0 0 0 0.025739999
1.461 -0.226 -0.23 1 0 0 0 0.02575
1.455 -0.229 -0.233 1 0 0 0 0.025760001
1.4450001 -0.23 -0.235 4 0 0 0 0.025769999
1.4450001 -0.233 -0.23899999 5 0 0 0 0.02578
1.444 -0.236 -0.242 6 0 0 0 0.02579
1.4400001 -0.23899999 -0.245 6 0 0 0 0.025800001
1.4400001 -0.242 -0.249 7 0 0 0 0.02581
1.4400001 -0.245 -0.252 6 0 0 0 0.02582
1.439 -0.248 -0.25600001 6 0 0 0 0.025830001
1.442 -0.25099999 -0.25999999 6 0 0 0 0.025839999
1.449 -0.25600001 -0.26499999 6 0 0 0 0.02585
1.448 -0.25799999 -0.26899999 7 0 0 0 0.02586
1.45 -0.26199999 -0.273 7 0 0 0 0.025869999
1.452 -0.26499999 -0.27700001 8 0 0 0 0.02588
1.451 -0.26800001 -0.28099999 8 0 0 0 0.02589
1.4579999 -0.27200001 -0.28600001 8 0 0 0 0.025900001
1.454 -0.27500001 -0.289 8 0 0 0 0.025909999
1.457 -0.278 -0.29300001 7 0 0 0 0.02592
1.4630001 -0.28299999 -0.29800001 8 0 0 0 0.02593
1.464 -0.28600001 -0.30199999 8 0 0 0 0.025939999
1.466 -0.289 -0.30700001 9 0 0 0 0.02595
1.465 -0.292 -0.31 9 0 0 0 0.02596
1.4680001 -0.296 -0.315 9 0 0 0 0.025970001
1.473 -0.30000001 -0.31999999 9 0 0 0 0.025979999
1.474 -0.303 -0.324 10 0 0 0 0.02599
1.475 -0.30599999 -0.32800001 11 0 0 0 0.026000001
1.48 -0.31 -0.333 10 0 0 0 0.026009999
1.478 -0.31299999 -0.33700001 5 0 0 0 0.02602
1.454 -0.31099999 -0.33500001 2 0 0 0 0.02603
1.442 -0.31099999 -0.33700001 2 0 0 0 0.026040001
1.424 -0.31 -0.336 1 0 0 0 0.02605
1.408 -0.31 -0.336 2 0 0 0 0.02606
1.3609999 -0.30199999 -0.329 5 0 0 0 0.026070001
1.324 -0.296 -0.324 5 0 0 0 0.026079999
1.298 -0.29300001 -0.32100001 7 0 0 0 0.02609
1.277 -0.29100001 -0.31900001 8 0 0 0 0.0261
1.267 -0.29100001 -0.31999999 8 0 0 0 0.026110001
1.2640001 -0.29300001 -0.32300001 9 0 0 0 0.02612
1.263 -0.29499999 -0.32600001 7 0 0 0 0.02613
1.268 -0.29899999 -0.331 5 0 0 0 0.026140001
1.272 -0.30199999 -0.336 3 0 0 0 0.026149999
1.265 -0.303 -0.33700001 0 0 0 0 0.02616
1.249 -0.30199999 -0.336 0 0 0 0 0.02617
1.266 -0.308 -0.345 1 0 0 0 0.026179999
1.262 -0.31 -0.347 4 0 0 0 0.02619
1.255 -0.31 -0.34900001 7 0 0 0 0.0262
1.255 -0.31299999 -0.352 6 0 0 0 0.026210001
1.252 -0.31400001 -0.35499999 5 0 0 0 0.026219999
1.245 -0.315 -0.35600001 6 0 0 0 0.02623
1.244 -0.317 -0.36000001 6 0 0 0 0.026240001
1.238 -0.31799999 -0.36199999 6 0 0 0 0.026249999
1.243 -0.32100001 -0.36700001 6 0 0 0 0.02626
1.2539999 -0.32600001 -0.373 7 0 0 0 0.02627
1.267 -0.33199999 -0.38100001 7 0 0 0 0.026280001
1.2690001 -0.33500001 -0.38499999 8 0 0 0 0.026289999
1.273 -0.338 -0.38999999 8 0 0 0 0.0263
1.274 -0.34099999 -0.39399999 8 0 0 0 0.026310001
1.28 -0.345 -0.40000001 8 0 0 0 0.026319999
1.28 -0.347 -0.403 8 0 0 0 0.02633
1.2819999 -0.34999999 -0.40799999 8 0 0 0 0.02634
1.285 -0.35299999 -0.41299999 9 0 0 0 0.026350001
1.289 -0.35600001 -0.41800001 9 0 0 0 0.02636
1.286 -0.35800001 -0.41999999 9 0 0 0 0.02637
1.286 -0.36000001 -0.42399999 9 0 0 0 0.026380001
1.294 -0.36399999 -0.43099999 9 0 0 0 0.026389999
1.2920001 -0.366 -0.43399999 11 0 0 0 0.0264
1.294 -0.36899999 -0.43799999 10 0 0 0 0.02641
1.301 -0.373 -0.44499999 11 0 0 0 0.026419999
1.301 -0.375 -0.44800001 11 0 0 0 0.02643
1.303 -0.37799999 -0.45300001 11 0 0 0 0.02644
1.304 -0.38 -0.45699999 12 0 0 0 0.026450001
1.301 -0.382 -0.46000001 14 0 0 0 0.026459999
1.306 -0.38499999 -0.46599999 12 0 0 0 0.02647
1.3049999 -0.38699999 -0.46900001 7 0 0 0 0.02648
1.288 -0.384 -0.46700001 6 0 0 0 0.026489999
1.279 -0.38299999 -0.46799999 6 0 0 0 0.0265
1.271 -0.38299999 -0.46799999 6 0 0 0 0.02651
1.2589999 -0.38100001 -0.46799999 6 0 0 0 0.026520001
1.251 -0.38100001 -0.46900001 6 0 0 0 0.026529999
1.245 -0.38100001 -0.47 6 0 0 0 0.02654
1.225 -0.377 -0.46599999 6 0 0 0 0.026550001
1.202 -0.37099999 -0.461 6 0 0 0 0.026559999
1.191 -0.37 -0.46000001 7 0 0 0 0.02657
1.181 -0.368 -0.46000001 8 0 0 0 0.02658
1.17 -0.366 -0.45899999 9 0 0 0 0.026590001
1.168 -0.368 -0.46200001 10 0 0 0 0.0266
1.1619999 -0.36700001 -0.463 10 0 0 0 0.02661
1.163 -0.36899999 -0.46700001 11 0 0 0 0.026620001
1.158 -0.36899999 -0.46799999 11 0 0 0 0.026629999
1.16 -0.37099999 -0.47299999 10 0 0 0 0.02664
1.156 -0.37099999 -0.47400001 10 0 0 0 0.02665
1.154 -0.37200001 -0.477 10 0 0 0 0.026660001
1.156 -0.375 -0.48199999 10 0 0 0 0.02667
1.156 -0.37599999 -0.48500001 11 0 0 0 0.02668
1.161 -0.37900001 -0.491 11 0 0 0 0.026690001
1.16 -0.38 -0.49399999 10 0 0 0 0.026699999
1.164 -0.38299999 -0.49900001 10 0 0 0 0.02671
1.163 -0.384 -0.50199997 10 0 0 0 0.02672
1.161 -0.38499999 -0.505 10 0 0 0 0.026729999
1.168 -0.389 -0.51099998 10 0 0 0 0.02674
1.169 -0.38999999 -0.51499999 10 0 0 0 0.02675
1.1670001 -0.391 -0.51800001 10 0 0 0 0.026760001
1.168 -0.39199999 -0.52200001 11 0 0 0 0.026769999
1.171 -0.39500001 -0.52700001 11 0 0 0 0.02678
1.171 -0.396 -0.52999997 11 0 0 0 0.02679
1.171 -0.39700001 -0.53399998 11 0 0 0 0.026799999
1.174 -0.39899999 -0.53799999 11 0 0 0 0.02681
1.176 -0.40099999 -0.54299998 10 0 0 0 0.02682
1.177 -0.40200001 -0.546 11 0 0 0 0.026830001
1.179 -0.405 -0.551 11 0 0 0 0.026839999
1.178 -0.405 -0.55400002 11 0 0 0 0.02685
1.175 -0.405 -0.55599999 8 0 0 0 0.026860001
1.159 -0.40099999 -0.55199999 3 0 0 0 0.026869999
1.115 -0.38600001 -0.53399998 1 0 0 0 0.02688
1.09 -0.37900001 -0.52499998 0 0 0 0 0.02689
1.095 -0.38100001 -0.53100002 0 0 0 0 0.026900001
1.104 -0.38499999 -0.53799999 0 0 0 0 0.02691
1.1 -0.38499999 -0.53899997 0 0 0 0 0.02692
1.0829999 -0.38 -0.53399998 0 0 0 0 0.026930001
1.089 -0.382 -0.54000002 1 0 0 0 0.026939999
1.08 -0.38 -0.53899997 1 0 0 0 0.02695
1.108 -0.38999999 -0.55599999 1 0 0 0 0.02696
1.127 -0.398 -0.56800002 1 0 0 0 0.026969999
1.153 -0.40799999 -0.58499998 2 0 0 0 0.02698
1.147 -0.40599999 -0.58499998 7 0 0 0 0.02699
1.142 -0.405 -0.58499998 8 0 0 0 0.027000001
1.132 -0.40200001 -0.583 9 0 0 0 0.027009999
1.1289999 -0.40099999 -0.58499998 10 0 0 0 0.02702
1.1210001 -0.39899999 -0.58399999 11 0 0 0 0.02703
1.12 -0.39899999 -0.58600003 13 0 0 0 0.027039999
1.1160001 -0.398 -0.58700001 13 0 0 0 0.02705
1.1160001 -0.39899999 -0.58999997 13 0 0 0 0.02706
1.113 -0.398 -0.59100002 16 0 0 0 0.027070001
1.113 -0.398 -0.59399998 21 0 0 0 0.027079999
1.112 -0.398 -0.597 29 0 0 0 0.02709
1.113 -0.39899999 -0.60000002 33 0 0 0 0.027100001
1.113 -0.39899999 -0.60299999 38 0 0 0 0.027109999
1.118 -0.40099999 -0.60799998 41 0 0 0 0.02712
1.136 -0.40799999 -0.62099999 60 0 0 0 0.02713
1.147 -0.412 -0.63 71 0 0 0 0.027140001
1.161 -0.417 -0.63999999 90 0 0 0 0.02715
1.166 -0.419 -0.64600003 110 0 0 0 0.02716
1.173 -0.421 -0.65200001 126 0 0 0 0.027170001
1.174 -0.42199999 -0.65600002 117 0 0 0 0.027179999
1.178 -0.42300001 -0.66000003 102 0 0 0 0.02719
1.205 -0.433 -0.67900002 93 0 0 0 0.0272
1.243 -0.44600001 -0.70300001 95 0 0 0 0.027210001
1.277 -0.458 -0.72500002 76 0 0 0 0.02722
1.321 -0.47400001 -0.75199997 44 0 0 0 0.02723
1.346 -0.48300001 -0.76999998 22 0 0 0 0.027240001
1.349 -0.48300001 -0.77399999 19 0 0 0 0.027249999
1.346 -0.48199999 -0.77499998 18 0 0 0 0.02726
1.339 -0.479 -0.77399999 18 0 0 0 0.02727
1.335 -0.477 -0.77399999 21 0 0 0 0.027279999
1.3279999 -0.47400001 -0.773 27 0 0 0 0.02729
1.324 -0.472 -0.773 31 0 0 0 0.0273
1.319 -0.47 -0.773 28 0 0 0 0.027310001
1.3200001 -0.47 -0.77499998 23 0 0 0 0.027319999
1.314 -0.46700001 -0.77499998 22 0 0 0 0.02733
1.313 -0.46599999 -0.77600002 22 0 0 0 0.02734
1.308 -0.463 -0.77600002 20 0 0 0 0.027349999
1.308 -0.46200001 -0.778 20 0 0 0 0.02736
1.303 -0.46000001 -0.77700001 18 0 0 0 0.02737
1.3 -0.458 -0.77700001 18 0 0 0 0.027380001
1.3 -0.45699999 -0.77899998 17 0 0 0 0.027389999
1.299 -0.456 -0.78100002 17 0 0 0 0.0274
1.294 -0.45300001 -0.77999997 16 0 0 0 0.027410001
1.291 -0.45100001 -0.77999997 15 0 0 0 0.027419999
1.2869999 -0.449 -0.77899998 16 0 0 0 0.02743
1.2869999 -0.44800001 -0.78100002 16 0 0 0 0.02744
1.281 -0.44499999 -0.77899998 17 0 0 0 0.027450001
1.274 -0.44100001 -0.77600002 18 0 0 0 0.02746
1.273 -0.43900001 -0.77700001 21 0 0 0 0.02747
1.27 -0.43700001 -0.77700001 22 0 0 0 0.027480001
1.267 -0.435 -0.77600002 22 0 0 0 0.027489999
1.267 -0.433 -0.778 23 0 0 0 0.0275
1.266 -0.43200001 -0.778 19 0 0 0 0.02751
1.265 -0.43000001 -0.77899998 17 0 0 0 0.027519999
1.266 -0.42899999 -0.78100002 16 0 0 0 0.02753
1.263 -0.426 -0.77999997 15 0 0 0 0.02754
1.262 -0.42500001 -0.78100002 14 0 0 0 0.027550001
1.262 -0.42300001 -0.78200001 14 0 0 0 0.027559999
1.257 -0.41999999 -0.77999997 16 0 0 0 0.02757
1.256 -0.41800001 -0.77999997 16 0 0 0 0.02758
1.2539999 -0.41600001 -0.77999997 16 0 0 0 0.027589999
1.2539999 -0.414 -0.77999997 16 0 0 0 0.0276
1.253 -0.412 -0.77999997 16 0 0 0 0.02761
1.2539999 -0.41100001 -0.78100002 17 0 0 0 0.027620001
1.251 -0.40799999 -0.78100002 17 0 0 0 0.027629999
1.25 -0.40599999 -0.77999997 17 0 0 0 0.02764
1.252 -0.405 -0.78200001 17 0 0 0 0.027650001
1.248 -0.40200001 -0.77999997 16 0 0 0 0.027659999
1.2460001 -0.40000001 -0.77899998 16 0 0 0 0.02767
1.247 -0.398 -0.77999997 16 0 0 0 0.02768
1.25 -0.39700001 -0.78200001 15 0 0 0 0.027690001
1.249 -0.39500001 -0.78100002 14 0 0 0 0.0277
1.249 -0.39300001 -0.78100002 14 0 0 0 0.02771
1.251 -0.39199999 -0.78299999 15 0 0 0 0.027720001
1.245 -0.38800001 -0.77899998 15 0 0 0 0.027729999
1.249 -0.38699999 -0.78100002 15 0 0 0 0.02774
1.249 -0.38499999 -0.78100002 16 0 0 0 0.02775
1.251 -0.38299999 -0.78200001 17 0 0 0 0.027760001
1.251 -0.38100001 -0.78200001 18 0 0 0 0.02777
1.249 -0.37900001 -0.77999997 18 0 0 0 0.02778
1.252 -0.377 -0.78100002 18 0 0 0 0.027790001
1.252 -0.37599999 -0.78100002 18 0 0 0 0.027799999
1.253 -0.37400001 -0.78100002 17 0 0 0 0.02781
1.252 -0.37099999 -0.77999997 17 0 0 0 0.02782
1.255 -0.37 -0.78100002 17 0 0 0 0.027829999
1.256 -0.368 -0.78100002 19 0 0 0 0.02784
1.245 -0.36199999 -0.77399999 20 0 0 0 0.02785
1.2359999 -0.35699999 -0.76700002 26 0 0 0 0.027860001
1.226 -0.352 -0.75999999 43 0 0 0 0.027869999
1.215 -0.347 -0.75199997 69 0 0 0 0.02788
1.211 -0.34299999 -0.74800003 100 0 0 0 0.02789
1.2079999 -0.34 -0.74599999 115 0 0 0 0.027899999
1.209 -0.338 -0.745 129 0 0 0 0.02791
1.21 -0.336 -0.745 114 0 0 0 0.02792
1.211 -0.33399999 -0.74400002 108 0 0 0 0.027930001
1.212 -0.33199999 -0.74299997 131 0 0 0 0.027939999
1.212 -0.33000001 -0.74199998 130 0 0 0 0.02795
1.212 -0.32800001 -0.74000001 128 0 0 0 0.027960001
1.2130001 -0.32600001 -0.74000001 128 0 0 0 0.027969999
1.214 -0.324 -0.73900002 150 0 0 0 0.02798
1.215 -0.32100001 -0.73799998 146 0 0 0 0.02799
1.216 -0.31900001 -0.73699999 122 0 0 0 0.028000001
1.221 -0.31799999 -0.73900002 76 0 0 0 0.02801
1.2309999 -0.31799999 -0.74299997 42 0 0 0 0.02802
1.258 -0.32300001 -0.75700003 20 0 0 0 0.028030001
1.285 -0.32699999 -0.77200001 16 0 0 0 0.028039999
1.303 -0.329 -0.78100002 15 0 0 0 0.02805
1.3099999 -0.329 -0.78299999 15 0 0 0 0.02806
1.3150001 -0.32699999 -0.78399998 14 0 0 0 0.028069999
1.3200001 -0.32600001 -0.78500003 13 0 0 0 0.02808
1.326 -0.32499999 -0.78600001 13 0 0 0 0.02809
1.329 -0.32300001 -0.78500003 14 0 0 0 0.028100001
1.331 -0.32100001 -0.78399998 14 0 0 0 0.028109999
1.336 -0.31900001 -0.78500003 13 0 0 0 0.02812
1.34 -0.31799999 -0.78500003 13 0 0 0 0.02813
1.347 -0.317 -0.78600001 13 0 0 0 0.028139999
1.35 -0.315 -0.78600001 14 0 0 0 0.02815
1.354 -0.31299999 -0.78500003 18 0 0 0 0.02816
1.355 -0.31 -0.78299999 19 0 0 0 0.028170001
1.365 -0.31 -0.78600001 16 0 0 0 0.028179999
1.3710001 -0.30899999 -0.787 14 0 0 0 0.02819
1.376 -0.30700001 -0.787 12 0 0 0 0.028200001
1.386 -0.30599999 -0.79000002 12 0 0 0 0.028209999
1.387 -0.30399999 -0.787 12 0 0 0 0.02822
1.39 -0.30199999 -0.78600001 12 0 0 0 0.02823
1.396 -0.30000001 -0.787 12 0 0 0 0.028240001
1.404 -0.29899999 -0.78799999 12 0 0 0 0.02825
1.41 -0.29800001 -0.78799999 11 0 0 0 0.02826
1.413 -0.296 -0.787 12 0 0 0 0.028270001
1.42 -0.294 -0.78799999 12 0 0 0 0.028279999
