8.52474785 -1.49012423 -1.88762105 255 209 0
7.81175280 -1.42326331 -1.81842160 255 0 255
7.66174603 -1.43728352 -1.84938955 255 209 0
5.98173475 -1.31859326 -1.77693701 255 145 0
5.64773846 -1.27266169 -1.72883940 0 255 136
5.39474010 -1.24171185 -1.69976711 255 255 0
4.80974531 -1.15983105 -1.61759663 0 255 127
4.24561071 -1.09137869 -1.57148397 255 245 0
3.94558883 -1.07641125 -1.60840380 255 209 0
3.66157770 -1.04044473 -1.60732186 255 191 0
3.77430940 -0.31125456 -1.60676849 27 255 0
5.42721558 -0.26089555 -1.72863257 191 255 0
6.25823355 -0.21670735 -1.64508915 182 0 255
8.71012592 -0.21017607 -1.83336973 245 0 255
9.19412899 -0.20106819 -1.81463110 91 255 0
11.02810001 -0.18866530 -1.85360503 163 255 0
11.21110058 -0.18562457 -1.84770370 136 255 0
11.72109509 -0.18251237 -1.85497499 173 255 0
12.04108810 -0.18244232 -1.86714411 227 255 0
12.32708359 -0.18037941 -1.87129641 255 255 0
12.54508686 -0.17833084 -1.86341405 255 255 0
12.84508419 -0.17626475 -1.86657393 255 255 0
13.07108784 -0.17421432 -1.85669625 154 255 0
13.78607845 -0.17105705 -1.87007654 63 255 0
14.17407322 -0.16997172 -1.87628281 255 255 0
14.95004559 -0.17280333 -1.93068910 255 91 0
15.53003311 -0.17367658 -1.95399523 255 127 0
15.73904419 -0.16962907 -1.93011093 255 245 0
16.28505898 -0.16250639 -1.89140868 255 127 0
16.84407997 -0.15438056 -1.84671450 255 9 0
17.23608208 -0.15129328 -1.83492589 255 81 0
17.65409088 -0.14920029 -1.82115138 255 127 0
14.28190708 -2.99582458 5.54463291 255 0 0
14.37725258 -2.94938302 5.45615864 255 36 0
14.61496925 -2.81387138 5.02946138 255 54 0
14.69589329 -2.77626181 4.91725588 255 54 0
14.76781368 -2.73367238 4.80103588 255 54 0
14.85373592 -2.69307375 4.68681240 255 36 0
14.93265438 -2.64848661 4.57057714 255 45 0
15.00557232 -2.60191035 4.45233679 255 36 0
15.07152081 -2.57217193 4.37816906 255 36 0
15.14243317 -2.52161193 4.25691223 255 36 0
15.21238232 -2.49087048 4.18373680 255 18 0
15.25432205 -2.45417643 4.10055590 255 54 0
15.33427048 -2.42343068 4.02837229 255 45 0
15.80487061 -2.16941142 3.48397565 255 45 0
15.87281132 -2.12970805 3.40375900 255 45 0
15.96075439 -2.09198022 3.32853651 255 18 0
16.69715881 -1.67786348 2.55822420 255 45 0
16.80309486 -1.63315821 2.47895241 255 27 0
16.88702965 -1.58447516 2.39567900 255 27 0
16.97896194 -1.53678691 2.31340289 255 18 0
17.07189560 -1.48810387 2.23012161 255 36 0
17.16082764 -1.43743098 2.14483380 255 27 0
17.26375961 -1.38674772 2.06153512 255 18 0
15.58335400 1.39630580 -1.78316247 54 255 0
14.63727665 1.46875548 -1.85682678 255 200 0
13.55230522 1.44867480 -1.82094002 118 255 0
12.52034378 1.42065525 -1.77405429 209 255 0
12.08331299 1.45042908 -1.80088484 227 255 0
11.89530945 1.45437658 -1.80276847 245 255 0
11.28336906 1.40553963 -1.73708534 191 255 0
11.14436245 1.41347897 -1.74302423 154 255 0
10.66635418 1.42434847 -1.74673402 227 255 0
10.42734051 1.43923998 -1.75763631 255 163 0
10.31033325 1.44718373 -1.76359153 255 182 0
10.08731937 1.46208298 -1.77350581 255 245 0
9.78734589 1.44014812 -1.74418223 255 191 0
9.62732506 1.46102393 -1.76217198 255 209 0
9.39032078 1.46895623 -1.76404238 255 182 0
8.90329647 1.49776316 -1.77884030 255 218 0
8.46829700 1.50468171 -1.77256751 200 255 0
7.62429523 1.52153778 -1.75605977 0 255 36
5.89963675 1.22079778 -1.40032685 255 0 255
5.76261139 1.25066161 -1.42038381 0 100 255
6.03350067 1.35520947 -1.52810609 255 0 255
6.07141590 1.44083822 -1.60557222 173 0 255
5.63443232 1.43984783 -1.57726943 255 0 255
5.55137300 1.50757980 -1.62556469 255 45 0
5.45338821 1.49563479 -1.60843694 255 81 0
5.29242325 1.46576595 -1.57217360 255 209 0
5.20137358 1.52454221 -1.61042047 255 109 0
4.59900284 2.66816187 -1.53993273 255 0 0
4.69798517 2.71115327 -1.54427314 255 9 0
4.81197262 2.75417590 -1.54263783 255 118 0
4.91797638 2.78228259 -1.52392888 255 163 0
5.04895353 2.83426070 -1.53234804 255 163 0
5.53299856 2.90180969 -1.43834639 255 100 0
6.10983276 3.16336536 -1.54828560 255 36 0
6.25982285 3.19940710 -1.54564726 255 45 0
6.39980316 3.24139690 -1.55302072 255 54 0
6.50979519 3.26642203 -1.55227733 255 54 0
6.65477705 3.30741835 -1.55865121 255 54 0
6.75477552 3.32446814 -1.55285740 255 45 0
6.86977005 3.34650016 -1.55110407 255 36 0
7.03574991 3.39149642 -1.55852032 255 54 0
7.16674089 3.41852188 -1.55880940 255 63 0
7.31772757 3.45354128 -1.56115997 255 54 0
7.46771431 3.48456097 -1.56348884 255 54 0
7.57370043 3.51455116 -1.56975937 255 63 0
7.76168013 3.56055331 -1.57720447 255 54 0
8.03065491 3.61857724 -1.58380270 255 45 0
8.13264465 3.64257765 -1.58803868 255 18 0
8.32462597 3.68359160 -1.59346294 255 36 0
8.51961136 3.72261167 -1.59788024 255 54 0
8.71659660 3.75964308 -1.60028911 255 54 0
8.90658569 3.79267836 -1.60167074 255 36 0
9.35854721 3.87872386 -1.61261058 145 255 0
9.50353146 3.91171837 -1.61993778 136 255 0
9.62752151 3.93473005 -1.62319195 136 255 0
9.75953102 3.93382764 -1.61033928 255 236 0
16.77877426 -1.62451756 0.36024576 255 63 0
14.81223392 -2.67797494 0.53704703 255 109 0
14.67126369 -2.74795318 0.54658258 255 127 0
14.54129219 -2.81893373 0.55511421 255 63 0
14.39831734 -2.88492346 0.56263107 255 127 0
14.28634644 -2.95689940 0.57115328 255 91 0
14.14337063 -3.01989532 0.57765496 255 127 0
14.01739502 -3.08588624 0.58415836 255 136 0
12.71163464 -3.77394915 0.62346822 255 218 0
12.60664940 -3.82897544 0.62289917 255 236 0
11.68677616 -4.30328131 0.60467470 255 255 0
11.56679153 -4.37734365 0.59824711 255 191 0
11.47580147 -4.42139673 0.59260929 255 218 0
11.35681534 -4.49246550 0.58516574 255 173 0
11.22782612 -4.55554914 0.57568675 255 227 0
11.11283779 -4.62262917 0.56621879 255 200 0
11.01084900 -4.69371128 0.55576289 255 191 0
10.50186634 -4.93818235 0.49482769 255 218 0
10.40086937 -4.99529600 0.47929525 255 209 0
9.98026085 -5.22298622 0.37046739 255 163 0
9.89125633 -5.27300882 0.34854531 255 145 0
9.33219242 -5.56716108 0.17502740 255 191 0
9.04812908 -5.70825291 0.04726805 255 154 0
8.80804348 -5.83034515 -0.10353135 255 191 0
8.73500252 -5.87638092 -0.17146984 255 218 0
8.59489346 -5.94646215 -0.33736280 255 191 0
8.61851597 -5.92762423 -0.83147103 255 173 0
8.65044689 -5.86564302 -0.90553504 127 255 0
8.80134201 -5.79365206 -1.02170634 255 72 0
8.76830101 -5.69766712 -1.04972672 255 18 0
8.67027855 -5.59568739 -1.05369341 255 9 0
8.48225403 -5.43572044 -1.04461110 255 0 0
8.76122379 -5.52968645 -1.10580516 255 154 0
9.04315662 -5.52165842 -1.18905234 255 182 0
9.15914822 -5.56664324 -1.21012986 255 127 0
9.26913261 -5.58262968 -1.23421645 255 182 0
9.23807144 -5.37764168 -1.25929022 255 200 0
8.88803005 -5.04169655 -1.22615457 255 36 0
9.59202290 -5.41159391 -1.32657719 255 163 0
9.70399284 -5.35457850 -1.35070097 255 136 0
9.79296970 -5.31156588 -1.36779821 255 163 0
9.89794064 -5.24254942 -1.38692200 255 209 0
9.93786812 -4.90753508 -1.39012003 255 200 0
9.85985756 -4.80354452 -1.37710416 255 209 0
9.85284138 -4.70154142 -1.37114811 0 255 45
10.37475967 -4.39243269 -1.39274907 255 200 0
10.46974659 -4.32641077 -1.39186358 255 182 0
10.85973358 -4.45134926 -1.43913734 255 154 0
11.23771858 -4.53028536 -1.47742343 255 200 0
11.67067719 -4.31118488 -1.46990609 255 209 0
12.74964237 -4.62400866 -1.59068012 0 255 45
12.83663559 -4.56998682 -1.58478236 0 255 91
12.94562912 -4.52196026 -1.58090079 0 255 127
13.03962326 -4.46693659 -1.57400966 0 255 109
13.14561653 -4.41590977 -1.56812704 0 255 182
13.25261116 -4.36288309 -1.56224632 0 255 154
13.35060596 -4.30785751 -1.55335915 0 255 163
13.45460129 -4.25083017 -1.54547799 0 255 173
13.56359577 -4.19680166 -1.53659987 0 255 182
13.67159271 -4.13977337 -1.52672243 0 255 236
13.53359699 -3.83176184 -1.44376063 255 81 0
13.47059917 -3.72576022 -1.41276050 255 245 0
13.43660164 -3.62875462 -1.38678086 255 163 0
13.38960457 -3.52975035 -1.35779130 255 127 0
13.34660816 -3.43174505 -1.32880461 255 191 0
13.44360733 -3.36971593 -1.31292093 255 136 0
13.55260849 -3.30868483 -1.29804707 255 54 0
13.36561584 -3.17770433 -1.25495291 236 255 0
13.32061958 -3.08169913 -1.22496378 227 255 0
13.28862572 -2.98969126 -1.19498396 255 191 0
13.55662537 -2.91962433 -1.17825341 255 63 0
14.33261776 -2.86045170 -1.17195916 255 18 0
14.22563267 -2.66044092 -1.10297155 255 63 0
14.30763626 -2.58541131 -1.07908249 255 72 0
14.43063736 -2.56238103 -1.07220173 255 54 0
15.04463387 -2.53124499 -1.06875277 255 118 0
15.18763828 -2.46120214 -1.04491448 255 81 0
15.33564377 -2.39015770 -1.02108121 255 91 0
15.47165012 -2.31611538 -0.99523920 255 45 0
15.61465645 -2.24107075 -0.96840388 255 72 0
15.77566433 -2.16702247 -0.94158381 255 45 0
15.90867138 -2.08797908 -0.91274214 255 72 0
16.04967880 -2.00793338 -0.88290799 255 54 0
16.20168877 -1.92788541 -0.85308355 255 54 0
16.36069870 -1.84683549 -0.82226592 255 63 0
16.50970650 -1.76378655 -0.78944075 255 45 0
16.61871910 -1.67574549 -0.75458354 255 0 0
16.74272156 -1.63671088 -0.73971277 255 27 0
16.92273331 -1.55265474 -0.70591539 255 63 0
17.08974457 -1.46460104 -0.67110890 255 54 0
17.24875641 -1.37554777 -0.63429624 255 72 0
17.66133308 -0.75023806 -1.76337707 255 63 0
14.68813324 -0.81312293 -1.95923901 255 72 0
13.08126068 -0.75447857 -1.82456481 255 72 0
12.67819786 -0.77361673 -1.88613737 163 255 0
11.42320061 -0.76094401 -1.87682259 255 191 0
11.17720509 -0.75600588 -1.87056565 255 209 0
10.82919407 -0.75610304 -1.88020039 255 255 0
10.67518616 -0.75714743 -1.88703847 255 236 0
9.96921062 -0.73831862 -1.85630202 227 255 0
5.64229679 -0.61140215 -1.72379756 81 255 0
5.24234438 -0.58348125 -1.67038524 0 255 245
3.28129601 -0.44300473 -1.65138876 182 255 0
3.82397938 0.20015037 -1.66064310 45 255 0
3.95497155 0.20918813 -1.66280913 154 255 0
4.45600939 0.23936646 -1.61544800 145 0 255
7.03384066 0.32408443 -1.71865654 255 0 255
7.83584547 0.33633569 -1.70765126 255 0 255
8.90469551 0.36659065 -1.82297122 109 255 0
9.27471161 0.36971334 -1.80742979 173 255 0
9.74367428 0.37883958 -1.83500886 182 255 0
9.93966866 0.38189688 -1.83925128 182 255 0
10.33865833 0.38601494 -1.84574366 154 255 0
10.50766277 0.38706961 -1.84095252 227 255 0
10.71465874 0.38913161 -1.84320831 209 255 0
10.92965603 0.39219660 -1.84447432 191 255 0
11.05867290 0.39024478 -1.83063340 182 255 0
11.27271938 0.38633454 -1.79189837 173 255 0
11.49176884 0.38042584 -1.75316846 145 255 0
12.57365990 0.40270540 -1.83650327 163 255 0
12.96063995 0.40781495 -1.85098064 182 255 0
13.29663086 0.41091463 -1.85639513 182 255 0
13.85264397 0.41209230 -1.84508085 91 255 0
14.16764832 0.41219124 -1.84146869 81 255 0
14.49665260 0.41329506 -1.83687449 0 255 109
14.63768959 0.40835649 -1.80804813 0 255 0
15.89855385 0.43467781 -1.91260302 255 136 0
16.35554886 0.43681651 -1.91516602 255 91 0
17.30872154 -1.41792083 4.18513012 255 45 0
17.23884964 -1.45788205 4.27423191 255 36 0
17.18398285 -1.49983692 4.36631584 255 27 0
16.98228645 -1.59875751 4.57560301 255 45 0
16.92141342 -1.64071715 4.66269493 255 81 0
16.84753418 -1.68168342 4.74580240 255 91 0
16.75964928 -1.72165716 4.82392740 255 100 0
16.69777298 -1.76461899 4.90802145 255 63 0
16.61988831 -1.80558944 4.98613501 255 36 0
16.54800415 -1.84755743 5.06524134 255 91 0
16.43817711 -1.91051173 5.18140411 255 45 0
16.19550133 -2.03443789 5.39675713 255 91 0
16.10860443 -2.07441735 5.46488237 255 81 0
16.01370239 -2.11440253 5.52801752 255 9 0
11.20192623 -4.62957001 5.51413059 255 0 0
11.29268646 -4.60764933 5.32596874 255 118 0
11.33855534 -4.58869314 5.22588158 255 109 0
11.45820713 -4.51780748 4.96764088 255 109 0
11.51105881 -4.48285341 4.86053324 255 91 0
11.56791019 -4.44389915 4.75341654 255 72 0
11.63781357 -4.42191696 4.68329763 255 118 0
11.70366383 -4.37795973 4.57616615 255 109 0
11.76255608 -4.34498596 4.50005388 255 100 0
11.94721794 -4.23606539 4.26469898 255 72 0
12.01310349 -4.19509125 4.18557119 255 136 0
12.35961914 -4.01517248 3.85693192 255 136 0
12.43450069 -3.96619654 3.77678537 255 154 0
12.52438354 -3.91921258 3.70061994 255 109 0
12.62805939 -3.76830745 3.49134898 255 182 0
12.63199997 -3.69799995 3.40799999 255 236 0
12.72800159 -3.67199659 3.36599636 255 227 0
12.83000374 -3.64599323 3.32599282 255 236 0
12.96100807 -3.56898689 3.22298503 255 255 0
13.32501411 -3.43197370 3.03896856 255 118 0
13.43401432 -3.42897201 3.02996612 255 91 0
13.53001690 -3.39196897 2.98296142 255 45 0
13.64301777 -3.32696414 2.90495443 255 54 0
13.72801971 -3.28496146 2.85494971 255 81 0
14.47602844 -2.88593602 2.41490364 255 72 0
14.54702950 -2.83093357 2.35889769 255 54 0
15.90003300 -2.12490010 1.68280709 255 36 0
16.01903343 -2.06089735 1.62579858 255 27 0
16.13603401 -1.99589491 1.56878984 255 36 0
16.25603294 -1.92989242 1.50978100 255 36 0
16.38403320 -1.86289012 1.45177174 255 36 0
16.51803207 -1.79588747 1.39476228 255 27 0
16.64803314 -1.72588503 1.33475268 255 36 0
16.77203178 -1.65488279 1.27474284 255 45 0
16.91303062 -1.58388031 1.21573257 255 45 0
17.03602982 -1.50887799 1.15372252 255 36 0
17.17302895 -1.43387580 1.09271181 255 45 0
17.32502747 -1.35887337 1.03070068 255 0 0
15.42389584 2.78911066 -1.77273238 91 255 0
15.20789528 2.79410839 -1.77172816 136 255 0
14.83989620 2.77010536 -1.75271630 145 255 0
14.67589474 2.78210402 -1.75671411 118 255 0
14.48089409 2.78810191 -1.75571036 209 255 0
14.07989502 2.75209856 -1.72969615 9 255 0
13.96689415 2.77109718 -1.73769617 72 255 0
13.80289459 2.77909565 -1.73869359 182 255 0
13.64989185 2.78809404 -1.74069130 191 255 0
13.39889240 2.77709174 -1.72968388 173 255 0
13.27189255 2.79009032 -1.73368287 182 255 0
12.70589542 2.70908618 -1.67965889 209 255 0
11.85890102 2.56307983 -1.58561981 81 255 0
11.90389633 2.64407921 -1.62763190 154 255 0
11.68789387 2.66607666 -1.63363004 227 255 0
11.71988678 2.81507492 -1.70765150 227 255 0
11.48788548 2.82907248 -1.70764828 255 255 0
10.94488430 2.82906723 -1.69063652 200 255 0
10.71188354 2.83406472 -1.68563211 218 255 0
10.44688416 2.79606271 -1.65862107 191 255 0
10.33588314 2.83006096 -1.66962361 209 255 0
10.15488052 2.84305882 -1.66962171 218 255 0
9.97787762 2.88705635 -1.68162429 255 200 0
9.68387794 2.89205337 -1.67061901 255 255 0
9.57887650 2.92105174 -1.67862105 255 163 0
9.38587379 2.92104983 -1.66861725 236 255 0
9.09287548 2.88704753 -1.63960648 255 163 0
8.94087315 2.92404532 -1.64660895 255 109 0
8.53787613 2.84604239 -1.59358966 255 136 0
8.56187153 2.93704128 -1.62960351 255 54 0
8.42886925 2.94503975 -1.62360239 255 45 0
8.26386929 2.94003844 -1.61159849 255 72 0
8.08686924 2.92903638 -1.59559369 255 81 0
7.87786436 3.00703335 -1.60560191 255 45 0
7.74386263 3.03103161 -1.60360348 255 36 0
7.63386154 3.03703022 -1.59560263 255 27 0
7.25585794 3.07602644 -1.57160294 255 36 0
6.81884956 3.20002103 -1.55161762 255 27 0
6.45783901 3.37901711 -1.52464592 255 36 0
6.12184334 3.27701592 -1.45162594 255 63 0
6.33683014 3.52501631 -1.51067305 255 36 0
5.93183231 3.48301601 -1.41166687 255 81 0
5.63883924 3.32501531 -1.34063709 255 100 0
6.30381966 3.73401713 -1.49771571 255 118 0
6.33581066 3.92501998 -1.48075807 255 182 0
6.39180613 4.01602125 -1.47977853 255 109 0
6.45480204 4.10902357 -1.47880018 255 145 0
7.40976286 5.02005243 -1.44103563 255 72 0
7.52475977 5.10405540 -1.44305801 255 54 0
7.63875628 5.18505907 -1.44308007 255 100 0
7.72975349 5.24806166 -1.43809891 255 118 0
7.83275127 5.31906509 -1.43411946 255 145 0
7.93374825 5.38606882 -1.42913973 255 154 0
8.03974533 5.45607233 -1.42416084 255 154 0
8.13974285 5.51807594 -1.41718090 255 200 0
8.22574139 5.57007933 -1.40619898 255 209 0
8.32074070 5.61008787 -1.35722613 255 191 0
8.40878677 5.61610270 -1.27595806 255 36 0
8.57178116 5.70610857 -1.27297914 255 54 0
8.71477890 5.78011465 -1.26599789 255 45 0
9.56475830 6.29213476 -1.32709944 245 255 0
10.80172825 7.09015512 -1.48024273 81 255 0
10.95672512 7.17515993 -1.48426163 91 255 0
11.09472179 7.24816465 -1.48527825 91 255 0
11.34171581 7.37317371 -1.48130858 200 255 0
11.49671268 7.45417881 -1.48332703 145 255 0
17.24006462 -1.38315630 -0.11958897 255 63 0
16.96506882 -1.52616978 -0.13654889 255 54 0
16.45308113 -1.79919517 -0.17047212 255 72 0
16.05609322 -2.01521587 -0.20041089 255 54 0
15.88009739 -2.09722471 -0.21238613 255 0 0
14.59112930 -2.78029680 -0.33018366 255 136 0
14.45413399 -2.84830499 -0.34316245 255 81 0
14.33913612 -2.91731238 -0.35814211 255 109 0
14.20513916 -2.98332024 -0.37212124 255 81 0
14.07714176 -3.04832840 -0.38610080 255 45 0
13.95514488 -3.11333632 -0.40108055 255 118 0
13.83014965 -3.17534399 -0.41506067 255 127 0
13.71115303 -3.23735166 -0.43004104 255 91 0
13.59115505 -3.29835987 -0.44502142 255 136 0
13.48415852 -3.36136699 -0.46100196 255 163 0
13.63418674 -3.97837830 -0.60187364 255 127 0
13.68419170 -4.08237934 -0.62685293 209 255 0
13.70519638 -4.17838144 -0.65083236 200 255 0
13.79820251 -4.29738140 -0.67981046 255 0 0
13.72220516 -4.36338806 -0.70079088 255 0 0
13.26921082 -4.47942066 -0.75073737 255 9 0
13.17121220 -4.53242874 -0.77071911 255 9 0
13.04721642 -4.61744070 -0.80269152 255 27 0
12.63021564 -4.59246540 -0.81567216 255 27 0
11.70620155 -4.29450703 -0.76868707 255 245 0
11.60020351 -4.33151531 -0.78567165 255 200 0
11.49220657 -4.40352631 -0.81664765 255 182 0
11.36720943 -4.46553850 -0.84562469 255 154 0
11.24821186 -4.52655077 -0.87660205 255 209 0
11.15321445 -4.59556198 -0.90857881 255 191 0
11.05721569 -4.62557077 -0.92756510 255 173 0
10.48622036 -4.74962187 -1.02749550 255 9 0
10.32821846 -4.71063042 -1.02649462 255 0 0
10.05921555 -4.64964628 -1.02649188 255 18 0
10.11622047 -4.73864937 -1.06047273 255 136 0
10.08323193 -5.02668190 -1.20439422 255 9 0
10.11323452 -5.13069105 -1.25436842 255 191 0
10.01223660 -5.16570425 -1.28935134 255 227 0
8.91422558 -5.02979755 -1.41530192 255 27 0
9.48224163 -5.39679193 -1.53824401 255 245 0
9.30323887 -5.33980370 -1.54224515 255 200 0
8.96022987 -5.16381502 -1.50126684 255 154 0
9.20023537 -5.32381344 -1.55724084 255 218 0
8.99623203 -5.24682570 -1.55524552 255 81 0
9.35624218 -5.47882271 -1.63520885 255 245 0
8.76223087 -5.29586840 -1.67420876 255 227 0
8.68823051 -5.43091774 -1.85215747 255 173 0
8.59022903 -5.40692997 -1.87815428 255 100 0
8.44122505 -5.33493948 -1.87616122 255 45 0
8.33322144 -5.28794813 -1.88216448 255 27 0
8.20821857 -5.22695637 -1.88317025 255 9 0
7.64220142 -4.92699051 -1.87520325 255 27 0
6.19013023 -3.77010298 -1.91437626 227 255 0
6.09009981 -3.27211022 -1.90249264 255 218 0
6.21808767 -3.09010148 -1.89954805 255 227 0
6.27608299 -3.00509501 -1.88957465 236 255 0
6.61407185 -2.84107113 -1.88964236 255 236 0
6.70106792 -2.77406073 -1.87566745 173 255 0
7.25305986 -2.66502285 -1.88773823 236 255 0
7.38305807 -2.64401364 -1.88975382 255 255 0
7.84805393 -2.59498143 -1.90180302 255 209 0
8.18005085 -2.53095174 -1.89084780 72 255 0
9.13004589 -2.50088692 -1.92593074 218 255 0
9.31504440 -2.49587417 -1.93294680 209 255 0
9.47204399 -2.48386121 -1.93196309 255 255 0
9.66204262 -2.47784734 -1.93698013 255 145 0
9.95403957 -2.38080740 -1.88803446 255 245 0
10.17503929 -2.37679100 -1.89305365 255 154 0
10.64803982 -2.45677447 -1.96106589 255 63 0
10.04903603 -2.28978086 -1.83207166 255 173 0
10.85403919 -2.44275689 -1.95908725 255 45 0
10.96903801 -2.43774724 -1.95909822 255 45 0
11.12303925 -2.44073701 -1.96610975 255 27 0
11.23203850 -2.43272734 -1.96412122 255 27 0
11.35403728 -2.42771697 -1.96413291 255 9 0
11.49003696 -2.42470646 -1.96614492 255 18 0
11.62203693 -2.41969585 -1.96715748 255 27 0
12.04803562 -2.37565374 -1.94820702 255 154 0
12.18503475 -2.33563375 -1.92323160 255 127 0
12.29303265 -2.28861451 -1.89325631 255 145 0
13.85202789 -2.16946292 -1.83542693 255 0 0
14.18402767 -2.18343973 -1.85045016 255 0 0
14.31602764 -2.16542459 -1.83946741 255 36 0
14.48002625 -2.15240788 -1.83148563 255 36 0
14.71502686 -2.14838815 -1.83250701 255 36 0
15.01702595 -2.15336490 -1.83953083 255 72 0
15.20702553 -2.14034629 -1.83255136 255 163 0
15.24402428 -2.02631187 -1.74459398 182 255 0
15.19102192 -1.94029284 -1.67761946 173 255 0
15.27002144 -1.87126684 -1.62365019 255 245 0
15.40001965 -1.80823851 -1.57568336 236 255 0
15.48301792 -1.73821139 -1.51971507 109 255 0
15.61601734 -1.67318201 -1.46974933 182 255 0
16.54501534 -1.60508370 -1.41985345 255 63 0
16.78501511 -1.58505785 -1.40588117 255 0 0
16.90001488 -1.55303848 -1.37990248 255 72 0
17.02401352 -1.48000586 -1.31993949 255 54 0
16.80901337 -1.41900563 -1.26794279 63 255 0
16.71701241 -1.36899841 -1.22595286 255 54 0
16.66001129 -1.28097606 -1.15197968 255 63 0
16.59601021 -1.19395423 -1.07700551 0 255 109
16.54100990 -1.10793209 -1.00403202 27 255 0
16.86900711 -1.00587106 -0.91609782 255 0 0
17.46278763 -0.17269062 -1.82816255 255 72 0
16.42978859 -0.16982134 -1.82603335 255 36 0
15.93777370 -0.17393559 -1.92797124 255 173 0
11.35678291 -0.14346774 -1.81840467 255 255 0
10.92978096 -0.14052488 -1.82235217 255 182 0
10.60677910 -0.13857482 -1.83831263 245 255 0
10.40277863 -0.13660069 -1.83728778 255 255 0
10.20577908 -0.13462569 -1.83626390 0 255 18
9.97877789 -0.13265097 -1.82823598 0 255 127
6.78978777 -0.08899895 -1.69585168 45 0 255
6.41979027 -0.08203314 -1.66780794 0 218 255
6.07978058 -0.07210730 -1.72177112 255 191 0
4.30378437 -0.01628963 -1.61157334 0 255 136
3.34077930 0.04159867 -1.56548214 0 182 255
2.58974862 0.17545941 -1.60346568 255 36 0
16.81748581 -1.65799284 2.35405922 255 54 0
16.71450424 -1.71595728 2.42610717 255 54 0
16.60951996 -1.77292275 2.49715447 255 54 0
16.50853539 -1.82988894 2.56620169 255 63 0
16.40455246 -1.88685560 2.63524914 255 63 0
16.29856873 -1.94282460 2.70129633 255 45 0
16.17158318 -1.99580002 2.76434278 255 63 0
16.08660126 -2.05376434 2.83139014 255 72 0
15.98361683 -2.10873413 2.89543653 255 63 0
15.88063240 -2.16370511 2.95748305 255 72 0
15.79464912 -2.21967125 3.02152920 255 72 0
15.69066334 -2.27364421 3.08157539 255 72 0
15.57767868 -2.32562137 3.13762069 255 54 0
15.46969414 -2.37659788 3.19366527 255 63 0
15.39771080 -2.43456173 3.25671220 255 36 0
15.29172516 -2.48553896 3.31075644 255 45 0
15.18974018 -2.53851533 3.36480236 255 54 0
15.03576183 -2.61448216 3.44286847 255 91 0
14.95277691 -2.66845393 3.49791384 255 91 0
14.83879185 -2.71643758 3.54495692 255 91 0
14.74880600 -2.76941371 3.59600234 255 91 0
14.63881874 -2.81739783 3.64104557 255 109 0
14.56283474 -2.87137032 3.69309044 255 81 0
14.05791187 -3.14326620 3.93632841 255 100 0
13.95892525 -3.19025326 3.97437072 255 72 0
13.88493919 -3.24223065 4.01841545 255 63 0
13.79295158 -3.28821707 4.05545616 255 100 0
13.70196533 -3.33620310 4.09249878 255 72 0
13.62497902 -3.38618398 4.13254213 255 36 0
13.53599167 -3.43217087 4.16758347 255 45 0
13.43900394 -3.47616291 4.19862366 255 109 0
13.34801674 -3.52115226 4.23066473 255 109 0
13.26303005 -3.56714058 4.26270580 255 109 0
13.14204884 -3.63712168 4.31076813 255 36 0
13.04806042 -3.68011665 4.33680773 255 72 0
12.92907906 -3.74910021 4.38086939 255 127 0
12.77010345 -3.83908200 4.43495035 255 72 0
12.64312077 -3.90207362 4.47000837 255 145 0
12.51313782 -3.96307015 4.50006580 255 173 0
12.40415478 -4.02905798 4.53512478 255 91 0
12.08819771 -4.19105101 4.60327530 255 182 0
11.96821308 -4.24805355 4.62232971 255 136 0
11.86522961 -4.30904913 4.64538574 255 136 0
11.75724411 -4.36805010 4.66344023 255 63 0
11.50327778 -4.49606371 4.68956232 255 236 0
11.41029263 -4.55406523 4.70261621 255 191 0
11.30530548 -4.60507584 4.70766544 255 173 0
11.21131897 -4.65808296 4.71271610 255 145 0
11.12533283 -4.71308804 4.71876764 255 100 0
11.02934456 -4.76010180 4.71681356 255 100 0
10.77637291 -4.87814903 4.69593143 255 227 0
10.67438889 -4.94016743 4.68699121 255 209 0
10.43941689 -5.06022692 4.64211226 255 163 0
10.34842873 -5.11225462 4.61816406 255 154 0
10.25343800 -5.15628958 4.58521032 255 182 0
10.14545059 -5.20733309 4.54126501 255 200 0
9.81748486 -5.38152790 4.31045532 255 100 0
9.64948559 -5.45688868 3.78958058 255 209 0
9.72647381 -5.43201494 3.57057619 255 72 0
9.77645588 -5.38210487 3.42054582 255 236 0
9.91842461 -5.28223467 3.18247581 255 209 0
10.15339088 -5.16933584 2.95538759 255 154 0
10.23237801 -5.12536716 2.88435245 255 182 0
10.32436562 -5.08339262 2.81631756 255 209 0
10.41735172 -5.03641891 2.74727845 255 173 0
10.49233532 -4.97645426 2.67323017 255 191 0
10.78429222 -4.82551718 2.48610091 255 191 0
10.87528038 -4.78253031 2.43706298 255 182 0
11.29121590 -4.54460049 2.20085502 255 182 0
11.41020393 -4.49860430 2.15581203 255 145 0
11.52018929 -4.44561195 2.10876369 255 163 0
12.03611374 -4.16665125 1.88351023 255 145 0
12.12509346 -4.09166813 1.83144462 255 227 0
12.26506805 -3.99668264 1.76535928 255 209 0
12.35905743 -3.95468211 1.73531926 255 227 0
12.46604729 -3.91567659 1.70728052 255 236 0
12.57603741 -3.87767029 1.67924237 255 173 0
12.67102432 -3.83166957 1.64919865 255 118 0
12.76501179 -3.78466964 1.61815417 255 109 0
12.89399147 -3.70867300 1.57108355 255 154 0
12.98597813 -3.65767360 1.54003561 255 109 0
13.08496475 -3.60867262 1.50898874 255 145 0
13.16695118 -3.55267620 1.47693729 255 136 0
13.27693748 -3.50267196 1.44688857 255 145 0
13.37692356 -3.44967055 1.41583800 255 136 0
13.47390842 -3.39367008 1.38478506 255 118 0
13.57989407 -3.33966660 1.35473311 255 136 0
13.68487930 -3.28366423 1.32367933 255 72 0
13.79886436 -3.22765899 1.29362488 255 81 0
15.30665016 -2.42658424 0.90284270 255 45 0
15.44263172 -2.35457516 0.87077147 255 72 0
15.59161186 -2.28356242 0.83969992 255 36 0
15.72459221 -2.20755482 0.80662531 255 63 0
15.86557198 -2.13154459 0.77454990 255 45 0
16.01455116 -2.05453253 0.74247289 255 63 0
16.15152931 -1.97452402 0.70939416 255 54 0
16.30650711 -1.89351141 0.67631298 255 45 0
16.46448708 -1.81149781 0.64323062 255 54 0
16.61446381 -1.72748721 0.60914701 255 54 0
16.70545197 -1.68547714 0.59310389 255 54 0
16.85942650 -1.59846544 0.55901718 255 54 0
17.02240372 -1.51045156 0.52492875 255 54 0
17.19938087 -1.42143440 0.49083823 255 63 0
15.26434135 -2.40472221 -1.09524536 255 72 0
15.00135899 -2.53786516 -1.16803801 255 36 0
13.88435745 -2.55114675 -1.18879926 255 182 0
13.77036476 -2.61021185 -1.22270739 255 209 0
13.65137196 -2.66827679 -1.25561559 255 236 0
13.43938637 -2.78240347 -1.32343900 255 154 0
13.33339310 -2.83846593 -1.35635173 255 218 0
13.42143726 -3.20669198 -1.56993520 255 9 0
13.39047241 -3.50691199 -1.75357270 255 191 0
13.42348194 -3.59296632 -1.80647707 255 200 0
13.24648380 -3.62103534 -1.83040726 255 154 0
12.78647518 -3.56812429 -1.81437564 173 255 0
11.95446968 -3.57236385 -1.85219836 255 100 0
11.79046535 -3.55640030 -1.85018349 255 9 0
11.66346455 -3.55143261 -1.85216296 255 9 0
11.53446293 -3.54446507 -1.85414445 255 9 0
11.43246174 -3.54449487 -1.85912311 255 0 0
11.17545700 -3.52755785 -1.86108983 255 0 0
10.96845531 -3.52361727 -1.87005115 255 9 0
10.84345245 -3.51264691 -1.87003815 255 9 0
10.72344971 -3.50367641 -1.87102377 255 18 0
10.61844826 -3.49870491 -1.87400770 255 27 0
10.50344658 -3.48973322 -1.87499428 255 27 0
10.38544464 -3.47876000 -1.87398267 255 36 0
10.27044296 -3.46878719 -1.87397051 255 36 0
10.08543873 -3.46184158 -1.88293970 255 91 0
9.96244049 -3.50091577 -1.92086613 255 136 0
9.87344360 -3.54899073 -1.96578872 255 136 0
9.74544144 -3.55604029 -1.98175263 255 91 0
9.63143921 -3.54006386 -1.97874761 255 54 0
9.06842422 -3.47619987 -1.97970438 255 109 0
8.72541046 -3.36721492 -1.92376351 255 118 0
8.88441944 -3.45224237 -1.97869372 255 109 0
8.23939133 -3.24426913 -1.87180877 255 218 0
8.41040134 -3.33329654 -1.92873669 118 255 0
8.12439156 -3.28135324 -1.91873801 227 255 0
7.99838734 -3.25036812 -1.90574849 255 245 0
7.89538431 -3.24840713 -1.91772819 255 255 0
7.79338074 -3.22542334 -1.91073406 255 255 0
7.69437647 -3.20343900 -1.90373945 255 245 0
7.30736303 -3.14854026 -1.90972126 173 255 0
7.14835596 -3.09754848 -1.88474905 227 255 0
7.01735163 -3.08959866 -1.89972949 255 218 0
6.86534500 -3.05462480 -1.89073884 255 209 0
6.74733973 -3.03265381 -1.89073944 255 227 0
6.64433575 -3.01568246 -1.89373720 245 255 0
6.53133059 -2.97868943 -1.87675762 255 218 0
6.38032341 -2.95073032 -1.87975800 245 255 0
6.14731169 -2.89377522 -1.86977577 245 255 0
5.82429504 -2.82185698 -1.87079096 255 245 0
5.72028828 -2.80289268 -1.87879014 255 218 0
5.59028196 -2.75890517 -1.86281514 255 255 0
5.46827364 -2.72593427 -1.86182761 255 255 0
4.87723637 -2.52402163 -1.81194139 255 218 0
3.37305880 -1.63019252 -1.62668395 0 255 200
3.76800323 -1.47119844 -1.69895530 255 227 0
3.88098645 -1.37312901 -1.66310012 236 255 0
4.45095253 -1.17189062 -1.58247471 27 255 0
5.55592966 -1.14369905 -1.65075278 218 0 255
7.79890108 -1.21238387 -1.85416281 245 255 0
9.44588852 -1.17897260 -1.86857700 255 236 0
9.60388756 -1.17993903 -1.87461126 236 255 0
11.22087955 -1.16152966 -1.88700140 173 255 0
12.12687683 -1.14127493 -1.87523377 200 255 0
12.65787411 -1.16719687 -1.92231989 255 118 0
13.21587086 -1.17006660 -1.93544292 255 100 0
13.57287025 -1.17699194 -1.95051479 255 54 0
13.86986828 -1.17692006 -1.95558238 255 36 0
14.76187229 -1.09152699 -1.83789957 255 45 0
15.08087254 -1.08844101 -1.83697653 255 36 0
15.44787121 -1.08734620 -1.83906162 255 27 0
15.81787014 -1.08424795 -1.83915007 255 36 0
16.15886879 -1.07915056 -1.83423471 255 63 0
16.43387032 -1.06905890 -1.82031095 255 63 0
16.73588943 -0.85552901 -1.48466778 255 81 0
16.61596489 0.40902382 -1.82330120 255 45 0
15.91196632 0.40402016 -1.79529130 255 0 0
15.20996571 0.41201401 -1.81228399 255 81 0
14.04296589 0.41500536 -1.80626988 154 255 0
13.43696404 0.42100012 -1.81426322 209 255 0
12.70096397 0.41999534 -1.79325354 145 255 0
12.37096405 0.41999304 -1.78624940 191 255 0
11.64396477 0.40499115 -1.71823692 0 255 91
11.13996315 0.42798248 -1.78423524 209 255 0
9.48096085 0.44496623 -1.78821731 173 255 0
6.97895765 0.45994306 -1.71318769 255 0 255
6.41796064 0.42994586 -1.59517395 255 0 255
6.10695791 0.45193791 -1.63317430 0 200 255
5.97695541 0.47793010 -1.69317794 0 72 255
5.75495481 0.48192734 -1.68417585 0 255 27
5.33395243 0.50191867 -1.69517434 109 255 0
4.20595503 0.46591827 -1.49315178 255 0 255
4.36295319 0.48891366 -1.56215858 255 0 255
2.78893161 0.70885468 -1.57918596 255 18 0
3.88685656 1.33478701 -1.56753731 255 36 0
4.01585484 1.35578620 -1.57155609 255 54 0
4.28285122 1.39178574 -1.57559407 255 54 0
4.40184975 1.40978527 -1.58061099 255 81 0
4.50184870 1.41878629 -1.57662463 255 100 0
5.05384207 1.48378587 -1.59569943 255 100 0
5.65083647 1.54078805 -1.60877788 255 72 0
5.78683519 1.55378830 -1.61479533 255 154 0
5.55784512 1.45980430 -1.50476229 255 0 255
5.95983791 1.52879822 -1.56481552 255 0 255
6.48783350 1.56980109 -1.57988203 255 0 255
5.56187105 1.21585786 -1.19274700 255 36 0
5.94186354 1.28585100 -1.25879693 255 0 0
8.25381184 1.76879668 -1.72810566 136 255 0
5.48087788 1.15087020 -1.11873233 255 36 0
8.98280811 1.80680406 -1.74219358 245 255 0
9.61080837 1.80481756 -1.71826553 163 255 0
10.19780350 1.84682107 -1.74733651 163 255 0
10.30480480 1.84382391 -1.74034846 136 255 0
10.95180130 1.85983396 -1.74142337 163 255 0
11.03880501 1.82584286 -1.70242977 109 255 0
11.26380444 1.83684516 -1.70945621 163 255 0
12.28379822 1.89085495 -1.74557638 200 255 0
12.98079681 1.90886545 -1.75165617 100 255 0
13.24279594 1.91686904 -1.75568628 163 255 0
13.63879681 1.91087854 -1.74272966 0 255 118
14.99479008 1.96089566 -1.77488565 0 255 200
15.10179329 1.93990231 -1.75289512 0 255 0
14.97679901 1.88891029 -1.70387530 72 255 0
14.55081081 1.76692700 -1.58781374 255 0 0
15.81923866 -2.17723751 1.62770855 255 72 0
15.68924618 -2.24622679 1.67173755 255 91 0
15.57725334 -2.31521535 1.71676481 255 54 0
15.43825912 -2.38020563 1.75779402 255 100 0
15.31626701 -2.44619536 1.79882193 255 109 0
15.20427513 -2.51318431 1.84084904 255 54 0
15.07728004 -2.57517481 1.87887681 255 100 0
14.95828819 -2.64016485 1.91790473 255 100 0
14.85129547 -2.70415473 1.95593095 255 100 0
14.72230148 -2.76414609 1.99095893 255 72 0
14.59930801 -2.82413721 2.02598643 255 100 0
14.49331474 -2.88612771 2.06101274 255 118 0
14.39032078 -2.94811821 2.09603858 255 136 0
13.67336082 -3.31806517 2.29120874 255 145 0
13.57036495 -3.37305760 2.31823397 255 173 0
13.45937061 -3.42705059 2.34326029 255 154 0
13.17437077 -3.43205690 2.33529496 163 255 0
13.68743992 -4.10392570 2.70140290 0 255 255
13.74545002 -4.20690680 2.75342274 0 245 255
13.66245937 -4.30689192 2.79745889 255 81 0
13.55146885 -4.39788008 2.83249617 255 36 0
13.33647823 -4.49387026 2.86254811 255 45 0
13.22748184 -4.53986645 2.87557411 255 18 0
13.12148571 -4.58586216 2.88759971 255 18 0
11.72444153 -4.17097187 2.61166215 218 255 0
11.76345539 -4.33394575 2.68070173 255 191 0
11.42947006 -4.50193167 2.71579123 255 227 0
11.33147621 -4.57192564 2.73082376 255 227 0
11.21748066 -4.63292170 2.74085593 255 191 0
10.80749607 -4.84291124 2.75797129 255 154 0
10.69449902 -4.89390945 2.75700164 255 191 0
10.59150219 -4.94690847 2.75603151 255 200 0
10.24251175 -5.13490629 2.74213696 255 191 0
10.15151310 -5.18390656 2.73316503 255 182 0
9.97951698 -5.27590942 2.71321845 255 173 0
9.86851883 -5.33291197 2.69625282 255 200 0
9.60552025 -5.45992327 2.63833284 255 145 0
9.32852077 -5.60994291 2.54542565 255 145 0
9.16151619 -5.70896196 2.45848680 255 191 0
8.87544346 -5.83614445 1.73261034 255 118 0
9.05141258 -5.74920368 1.50256360 255 136 0
9.26038551 -5.62825108 1.31649542 255 209 0
9.54035759 -5.47629499 1.13940215 255 227 0
9.62834930 -5.42430687 1.08937049 255 200 0
9.73034096 -5.37531757 1.04233742 255 218 0
9.83133316 -5.32032871 0.99530184 255 209 0
9.92032719 -5.28333616 0.96227431 255 200 0
10.19430733 -5.12436152 0.85017204 255 227 0
10.27529907 -5.07036972 0.81713873 255 227 0
10.75027275 -4.83039713 0.67796850 255 182 0
10.85226727 -4.77040339 0.64892811 255 173 0
11.51723385 -4.42242765 0.50067598 255 200 0
11.65222836 -4.35843086 0.47662655 255 109 0
12.89124393 -4.69438076 0.49553624 255 36 0
13.07823849 -4.63238192 0.47147760 255 9 0
13.15823364 -4.57238436 0.45443901 255 0 0
13.29422665 -4.48838758 0.42938033 255 0 0
13.43722057 -4.40239048 0.40531924 255 9 0
13.40116978 -3.58843946 0.25798950 255 209 0
13.34116364 -3.48444653 0.24295697 255 173 0
13.47915840 -3.38644719 0.22588944 255 145 0
13.60415459 -3.32744622 0.21484074 255 81 0
14.09613895 -3.07544160 0.17263903 255 0 0
14.80511761 -2.69343185 0.12133630 255 100 0
14.93711376 -2.61942959 0.11327817 255 100 0
15.03311157 -2.58642697 0.10924505 255 72 0
15.15810776 -2.50942516 0.10118668 255 100 0
15.30010414 -2.43242240 0.09312491 255 63 0
15.43709946 -2.35341978 0.08506303 255 91 0
15.58609581 -2.27441645 0.07799868 255 54 0
15.73809147 -2.19441247 0.07093310 255 81 0
15.80708694 -2.10041189 0.06387722 255 0 0
15.97208595 -2.06940675 0.06083111 255 72 0
16.13908195 -1.98640215 0.05476086 255 54 0
16.29707909 -1.89939797 0.04869041 255 63 0
16.46907234 -1.81239331 0.04261705 255 63 0
16.63106918 -1.72238851 0.03754408 255 72 0
16.73506927 -1.67838538 0.03450352 255 63 0
16.89806366 -1.58438063 0.02942830 255 63 0
17.06705856 -1.48937547 0.02435124 255 63 0
17.15805817 -1.44137239 0.02231115 255 54 0
17.25605392 -1.39236915 0.02026923 255 54 0
16.70489120 -1.07217348 -0.93817776 255 36 0
15.02576256 -1.99296105 -1.83316994 255 36 0
14.70176315 -1.98402226 -1.82706356 255 0 0
12.77374458 -2.01544142 -1.89238930 255 118 0
11.79873466 -2.02165222 -1.92105210 255 36 0
11.46173668 -1.98970616 -1.89495218 255 27 0
10.36773014 -1.96192694 -1.89559042 255 191 0
6.40970564 -1.71368396 -1.80134869 45 0 255
5.90470600 -1.64676547 -1.75920761 255 0 255
4.06669140 -1.37707889 -1.62570560 255 255 0
15.66434479 -2.27732301 5.55713654 255 0 0
15.73530579 -2.26035619 5.47808409 255 63 0
15.79426193 -2.24139667 5.39403534 255 45 0
15.83921528 -2.22044516 5.30499172 255 45 0
15.87916756 -2.19649553 5.21494913 255 27 0
15.92111874 -2.17354655 5.12390566 255 45 0
15.95906925 -2.14859962 5.03186226 255 27 0
16.00402069 -2.12364912 4.94181585 255 54 0
16.04697037 -2.09770083 4.84976912 255 27 0
16.09792328 -2.07274747 4.76171970 255 63 0
16.14387321 -2.04579782 4.67067099 255 36 0
16.18782234 -2.01784968 4.57862234 255 54 0
16.23877144 -1.98989785 4.48856974 255 36 0
16.29072189 -1.96194589 4.39851713 255 72 0
16.33967209 -1.93299651 4.30646515 255 36 0
16.38161850 -1.90205002 4.21341419 255 36 0
16.44156647 -1.87209547 4.12435627 255 54 0
16.49551773 -1.84114408 4.03329945 255 54 0
16.55846786 -1.81018889 3.94423866 255 54 0
16.61841393 -1.77923524 3.85417914 255 45 0
16.67236328 -1.74628580 3.76112056 255 18 0
16.73530960 -1.71333158 3.67105794 255 36 0
17.32682228 -1.38875508 2.84145355 255 0 0
16.33176231 1.05645394 -1.77733934 0 81 255
16.15174294 1.07338083 -1.80226350 163 255 0
15.82073879 1.08027792 -1.80810118 255 227 0
15.18275928 1.06311202 -1.77775943 63 255 0
14.89475250 1.07002091 -1.78461897 0 255 36
14.73373604 1.08495653 -1.80555105 245 255 0
14.42573452 1.08786345 -1.80739665 255 245 0
14.04371166 1.10972679 -1.83622253 255 227 0
13.82670403 1.11865520 -1.84512031 255 145 0
13.10874557 1.08448839 -1.78572142 118 255 0
12.98073196 1.09743679 -1.80266845 163 255 0
12.46175861 1.07631254 -1.76438367 163 255 0
12.23075676 1.07924294 -1.76526868 200 255 0
12.01275444 1.08217716 -1.76616013 255 255 0
11.70076180 1.07609534 -1.75199533 245 255 0
11.57475185 1.08604741 -1.76494050 245 255 0
11.42974377 1.09399700 -1.77387404 255 236 0
11.18574905 1.09192979 -1.76674771 255 236 0
10.95675182 1.08986712 -1.75962901 236 255 0
10.61576939 1.07578599 -1.73344171 245 255 0
10.36275673 1.08969855 -1.74832594 255 200 0
9.99573803 1.10857344 -1.76715696 255 227 0
9.68775749 1.09350395 -1.73898542 255 154 0
9.26673508 1.11835754 -1.76379466 255 227 0
8.22174168 1.12406266 -1.74026752 255 0 255
7.87976074 1.10998416 -1.71007967 255 0 255
7.71577072 1.10194695 -1.69498849 0 255 154
7.51475573 1.11987400 -1.70990324 255 255 0
7.40075874 1.11884475 -1.70384419 145 255 0
7.09475088 1.13174903 -1.70770073 255 0 255
6.94576168 1.12271786 -1.69061613 245 0 255
6.66475582 1.13463187 -1.69148457 0 255 100
6.47270966 1.18653071 -1.74343669 255 191 0
6.30173063 1.16950357 -1.71333337 0 0 255
5.82478905 1.11942780 -1.62904251 0 255 127
5.06083870 1.08926511 -1.54362476 0 255 63
3.72873759 1.28982759 -1.56914544 255 18 0
3.31167698 1.44670224 -1.55709457 255 9 0
3.29156661 1.73670435 -1.54139900 255 27 0
4.09284782 2.13742709 -1.53076744 255 18 0
4.20082426 2.17249084 -1.53185964 255 27 0
4.39878559 2.23060966 -1.53102493 255 27 0
4.49876451 2.25966692 -1.53410780 255 36 0
4.82270384 2.34585714 -1.53937137 255 45 0
4.93668604 2.37292528 -1.53946221 255 54 0
5.05366850 2.39899516 -1.53955448 255 27 0
5.17765045 2.42506957 -1.53965127 255 63 0
5.31063128 2.45314837 -1.54075503 255 45 0
5.56458950 2.50929523 -1.54895389 255 91 0
5.70157528 2.53237963 -1.54605746 255 18 0
5.81555748 2.55544543 -1.55014539 255 36 0
6.24849224 2.64069629 -1.56447768 255 27 0
6.36947823 2.66076851 -1.56556857 255 36 0
6.51345682 2.68885183 -1.57067883 255 54 0
7.24137115 2.80328107 -1.58622086 255 45 0
7.40535259 2.82837820 -1.58934236 255 63 0
6.39983702 2.32398629 -1.27742016 255 0 0
8.70622540 2.99715090 -1.61228955 255 100 0
9.05521488 3.01736903 -1.60353005 255 100 0
9.24820805 3.03048778 -1.60166407 255 218 0
9.54614353 3.10164595 -1.63389730 209 255 0
9.75810623 3.14376259 -1.65105879 118 255 0
9.56824303 3.00170994 -1.56285977 0 255 27
10.37806606 3.19813704 -1.65549493 54 255 0
9.74527264 2.97483706 -1.53596210 127 255 0
9.61633682 2.90878654 -1.49684286 0 255 0
10.65507698 3.19331789 -1.63867450 182 255 0
10.93502903 3.24647188 -1.66188633 200 255 0
11.17299747 3.28460670 -1.67606258 200 255 0
11.35201168 3.27272677 -1.66117370 109 255 0
11.48700809 3.27881074 -1.65926552 100 255 0
11.71997929 3.31194377 -1.67143571 54 255 0
12.03296661 3.33213472 -1.67165172 54 255 0
12.30693150 3.37229061 -1.68785250 136 255 0
12.59292698 3.37946939 -1.68204391 0 255 18
12.84490204 3.40961623 -1.69222486 109 255 0
13.04388905 3.42573547 -1.69536376 118 255 0
13.16089821 3.41781354 -1.68643606 9 255 0
13.40687656 3.44395757 -1.69561100 145 255 0
13.93183231 3.49826574 -1.71298361 173 255 0
14.09587097 3.45838737 -1.68406951 0 255 136
14.07095432 3.37040973 -1.63300610 0 200 255
17.34317780 -1.36088157 0.49653760 255 0 0
15.16514778 -2.51491070 0.85164070 255 100 0
15.02220726 -2.58698153 0.86977732 255 100 0
14.89826584 -2.66004038 0.88890219 255 63 0
14.76432514 -2.73010588 0.90703195 255 118 0
14.64038277 -2.80116534 0.92515588 255 81 0
14.49543571 -2.86624002 0.94028991 255 118 0
14.36048889 -2.93230844 0.95541817 255 136 0
14.23854351 -2.99936891 0.97053862 255 91 0
14.10359287 -3.06143880 0.98466456 255 136 0
14.00664902 -3.13148332 0.99977070 255 145 0
13.87469673 -3.19155240 1.01189375 255 118 0
12.91508579 -3.69005179 1.09782934 255 173 0
12.83513451 -3.75309014 1.10792100 255 200 0
11.93947315 -4.21158361 1.14779711 255 218 0
11.85150814 -4.26063299 1.14988601 255 218 0
11.76254272 -4.30868387 1.15097511 255 218 0
11.62859154 -4.37776136 1.15210724 255 173 0
11.49963856 -4.44583559 1.15223563 255 200 0
11.35968018 -4.50791931 1.14936769 255 182 0
11.24272633 -4.57598829 1.14748836 255 191 0
11.12477016 -4.64105844 1.14460814 255 200 0
10.74189949 -4.84629393 1.12399375 255 227 0
10.63593674 -4.90636015 1.11610281 255 191 0
10.53297234 -4.96542645 1.10620940 255 200 0
10.17906952 -5.13766050 1.06355679 255 209 0
10.08209515 -5.18772745 1.04865408 255 209 0
9.99012184 -5.23779011 1.03374803 255 191 0
9.65919399 -5.40102673 0.96607596 255 209 0
9.44925499 -5.54118729 0.90330887 255 227 0
9.33626366 -5.58227634 0.86941177 255 182 0
9.11629486 -5.69745874 0.78363556 255 218 0
8.87430477 -5.81867933 0.65687823 255 145 0
8.73029137 -5.89082956 0.55002230 255 200 0
8.65127277 -5.93092299 0.47210118 255 218 0
8.61789894 -5.91227818 -0.13491930 255 200 0
8.86071777 -5.81521893 -0.32517233 255 145 0
9.13052654 -5.66811514 -0.47548199 255 154 0
9.43735409 -5.51596451 -0.59082270 255 191 0
9.52429104 -5.45292091 -0.62293440 255 200 0
9.62823391 -5.39486361 -0.65305507 255 227 0
9.74317837 -5.33779716 -0.68118322 255 227 0
9.83213615 -5.29374599 -0.70228243 255 191 0
10.01904964 -5.20063257 -0.74049157 255 191 0
10.10500240 -5.14657974 -0.75759643 255 218 0
10.19795513 -5.09252167 -0.77370656 255 236 0
10.30391312 -5.04345417 -0.78982270 255 191 0
10.74773502 -4.82616138 -0.84331924 255 209 0
10.84268475 -4.75809574 -0.85244226 255 227 0
10.95863724 -4.69701576 -0.86157578 255 209 0
11.58340073 -4.37257004 -0.89229393 255 191 0
12.89256001 -4.69071150 -0.98202890 255 0 0
13.05650902 -4.61759186 -0.98520881 255 36 0
13.28652477 -4.65343904 -0.99935359 255 0 0
13.42852306 -4.65734148 -1.00545728 255 0 0
13.45644379 -4.53030729 -0.99657738 255 0 0
13.34139442 -4.44637585 -0.98355645 255 36 0
13.68440056 -4.46814203 -0.99979734 255 0 0
13.73927116 -4.25507402 -0.97800565 255 0 0
13.69820690 -4.14908695 -0.96405792 245 255 0
13.34080982 -3.46222544 -0.85833025 255 218 0
13.50375462 -3.37009430 -0.84752631 255 127 0
13.63072014 -3.31199431 -0.84066844 255 81 0
14.04858971 -3.08965611 -0.80916166 255 18 0
14.74137688 -2.71408534 -0.74498695 255 127 0
14.87433910 -2.64297438 -0.73114491 255 118 0
15.02029896 -2.57085419 -0.71731353 255 91 0
15.17225742 -2.49972963 -0.70348608 255 91 0
15.30221653 -2.42361903 -0.68764609 255 72 0
15.43617535 -2.34550452 -0.67081082 255 72 0
15.52915573 -2.30942941 -0.66291046 255 72 0
15.66311359 -2.23031402 -0.64507622 255 81 0
15.75806618 -2.14222527 -0.62521964 81 255 0
15.88904762 -2.10912323 -0.61834586 255 63 0
16.05900574 -2.02998114 -0.59953916 255 54 0
16.20996284 -1.94685197 -0.57972139 255 63 0
16.37291908 -1.86271310 -0.55891359 255 72 0
16.53087425 -1.77657771 -0.53810376 255 63 0
16.78680420 -1.64535880 -0.50440526 255 45 0
16.95775986 -1.55521226 -0.48160884 255 54 0
17.11071205 -1.46107686 -0.45680204 255 72 0
17.21068764 -1.41699195 -0.44391423 255 63 0
17.30966568 -1.36990833 -0.43202797 255 63 0
16.93702698 -0.77723140 -1.29011965 255 245 0
16.84402847 -0.82622284 -1.37812066 255 72 0
16.04704094 -1.06519294 -1.81812334 255 36 0
15.67103958 -1.06420612 -1.82012129 255 9 0
15.27204037 -1.06122065 -1.81811881 255 0 0
14.91703987 -1.05923307 -1.81911671 255 18 0
14.17704391 -1.11424482 -1.93511415 255 100 0
13.32004452 -1.10727584 -1.93510902 255 72 0
12.46504211 -1.05431759 -1.84710264 255 218 0
12.03904247 -1.05433202 -1.85510015 145 255 0
11.78304291 -1.04934192 -1.85109854 209 255 0
11.61804390 -1.05134702 -1.85809767 191 255 0
11.11404419 -1.03836715 -1.84409440 236 255 0
10.04804516 -1.04040229 -1.87708831 255 200 0
7.48204374 -0.92851478 -1.73907030 127 255 0
7.31804419 -0.92752022 -1.74606943 255 191 0
6.36004543 -0.89555866 -1.73506308 255 0 255
5.98104382 -0.86457872 -1.68805993 27 0 255
4.99804020 -0.76963425 -1.53805161 255 0 255
4.46104097 -0.74565548 -1.54604816 0 109 255
4.00004244 -0.73166883 -1.60904574 255 182 0
2.75303411 -0.56072307 -1.60503852 236 255 0
2.32100844 -0.31671199 -1.59704518 255 218 0
2.67698407 -0.16761485 -1.64506543 255 209 0
5.60293102 0.06907553 -1.68018746 0 255 0
5.92292786 0.07714924 -1.69620001 145 0 255
6.54792213 0.09028756 -1.76522350 255 236 0
6.96892023 0.10039587 -1.71524143 245 255 0
8.31091309 0.12170848 -1.76829350 36 255 0
9.98890495 0.14210114 -1.82835865 154 255 0
10.80690289 0.15029629 -1.83539093 209 255 0
11.14590168 0.15238026 -1.81940460 145 255 0
11.39490223 0.15443952 -1.82241428 136 255 0
11.65190315 0.15450704 -1.78742504 100 255 0
12.42489910 0.16168670 -1.82445478 163 255 0
12.62889862 0.16273759 -1.81346309 109 255 0
13.01789761 0.16582894 -1.82647812 145 255 0
13.62089729 0.16897467 -1.82150197 0 255 45
13.99489498 0.17106391 -1.82551658 81 255 0
14.25089645 0.17112765 -1.81252682 0 255 72
14.73289490 0.17424139 -1.82554555 100 255 0
15.63189125 0.18244766 -1.88557982 255 100 0
16.36688805 0.18761858 -1.92160797 255 63 0
17.04289055 0.18479574 -1.83463609 255 72 0
17.23989296 0.18284895 -1.80064440 255 91 0
12.41123581 -4.01526928 5.53187323 255 0 0
12.50823689 -4.00419474 5.46187162 255 63 0
12.55522823 -3.97614670 5.36787081 255 81 0
12.68520260 -3.90502334 5.15286827 255 36 0
12.74819183 -3.87296629 5.06286764 255 72 0
12.79917526 -3.83391547 4.96586657 255 54 0
13.04312897 -3.71170378 4.66686201 255 45 0
13.11110973 -3.66864252 4.57386112 255 72 0
13.18809128 -3.62557578 4.48185968 255 54 0
13.26907158 -3.58150697 4.39085865 255 72 0
13.61898327 -3.39021301 4.02685308 255 27 0
13.71095943 -3.33913612 3.93585181 255 36 0
13.80093288 -3.28406024 3.84185028 255 36 0
13.90290642 -3.22997689 3.75184870 255 54 0
13.97988892 -3.19491625 3.69384742 255 36 0
14.08386135 -3.13883114 3.60284591 255 72 0
14.17483044 -3.07675338 3.50684428 255 72 0
14.25981236 -3.03968716 3.44884300 255 36 0
14.33279228 -2.99962759 3.38784194 255 45 0
14.39576817 -2.95557380 3.32284093 255 72 0
15.07258415 -2.60603571 2.82983088 255 18 0
15.14755726 -2.55597329 2.76482987 255 36 0
15.24853134 -2.50889492 2.70282817 255 36 0
15.40649223 -2.43877339 2.61082602 255 27 0
16.35820007 -1.92402041 1.98681164 255 45 0
16.44516373 -1.86194801 1.91681039 255 45 0
16.57912636 -1.80384660 1.84980845 255 45 0
16.70709419 -1.74474847 1.78280652 255 27 0
16.79805565 -1.68067288 1.71080506 255 45 0
16.91001701 -1.61658406 1.64080346 255 45 0
17.03997993 -1.55348396 1.57080162 255 54 0
17.15594101 -1.48839223 1.49979985 255 18 0
17.28390121 -1.42229271 1.42879796 255 45 0
15.89460564 2.04867125 -1.74820137 255 218 0
15.42858982 2.06937647 -1.75919569 0 255 9
14.94560432 2.04406023 -1.73418975 0 255 173
14.84158802 2.06799912 -1.75218868 18 255 0
14.64457893 2.07887506 -1.75818634 154 255 0
14.43257141 2.08774066 -1.76118386 145 255 0
14.12857533 2.08054376 -1.75218010 136 255 0
13.72559071 2.05727959 -1.72917509 0 255 0
13.60657597 2.07620716 -1.74117374 18 255 0
13.30658245 2.06501198 -1.72916996 154 255 0
12.49764347 1.97347152 -1.64915991 9 255 0
12.70459747 2.03961921 -1.70116258 0 255 0
12.44157791 2.06445551 -1.71515954 118 255 0
12.27857208 2.07035208 -1.71615756 100 255 0
12.14056492 2.08026528 -1.72115588 163 255 0
11.79955864 2.08504701 -1.71815193 245 255 0
11.65555286 2.09095550 -1.72015011 209 255 0
